245991.37268066 3357470.56994629 15.68368340 89 107 129
245989.97052002 3357470.55856323 15.97289753 85 104 110
245991.39929199 3357470.48065186 15.67715168 97 114 134
245990.50292969 3357470.91751099 15.95502186 147 155 166
245991.39257813 3357470.24484253 15.49565887 24 33 40
245988.23797607 3357470.02343750 15.94366646 37 37 39
245988.64227295 3357470.31170654 16.37599373 134 143 150
245990.69793701 3357470.50997925 15.81442833 144 158 169
245988.23486328 3357469.62805176 15.11881542 119 120 114
245991.12133789 3357470.88909912 15.74272346 108 129 150
245989.06896973 3357469.77328491 15.24213791 111 112 106
245988.06311035 3357470.76669312 16.37791634 170 173 180
245989.70434570 3357469.84814453 15.76320267 52 56 55
245990.53833008 3357471.38327026 15.63053608 38 47 54
245987.06896973 3357470.21554565 15.90313053 64 55 58
245991.23620605 3357471.20919800 15.60804081 164 177 193
245990.58898926 3357469.46325684 15.11073780 139 139 137
245986.93817139 3357470.38452148 15.74099922 93 92 97
245988.87579346 3357469.69088745 15.18514919 124 127 120
245987.66839600 3357471.73898315 15.70172310 34 39 45
245987.91693115 3357471.52340698 16.14937210 75 75 83
245988.41375732 3357471.38796997 16.34560204 88 98 108
245990.57043457 3357469.74246216 15.48491859 95 96 91
245989.81854248 3357470.10470581 15.99087715 42 56 57
245989.32080078 3357469.89355469 15.86903858 48 48 50
245990.31762695 3357469.81472778 15.77770615 53 55 54
245990.89843750 3357469.48150635 15.08053493 122 124 121
245988.85205078 3357471.48092651 16.03488541 34 43 52
245986.97460938 3357470.27822876 15.78882217 75 69 73
245989.09210205 3357470.05120850 16.18117714 31 35 36
245989.32604980 3357471.55401611 15.82433987 110 111 116
245988.91821289 3357469.91720581 15.82085514 63 65 64
245987.34655762 3357471.76565552 15.67672729 52 51 56
245988.64953613 3357470.27578735 16.36804771 59 66 72
245989.92358398 3357470.41070557 15.97138309 81 100 106
245987.72589111 3357471.53906250 16.14509010 121 121 131
245989.66583252 3357471.55618286 15.77038383 52 57 61
245989.51190186 3357471.49990845 15.88862514 65 69 78
245986.99755859 3357471.30764771 15.65515041 117 113 114
245987.58892822 3357471.78060913 15.68286800 34 39 43
245991.32293701 3357470.87448120 15.67719078 100 116 129
245988.88702393 3357470.90863037 16.44297791 104 117 136
245988.61291504 3357471.34744263 16.36975670 91 103 117
245986.90246582 3357470.56161499 15.61499214 134 125 126
245990.96032715 3357469.72012329 15.38146877 28 28 30
245991.43237305 3357469.43218994 15.05975628 146 148 147
245989.41131592 3357470.98974609 16.46651459 108 126 146
245991.28265381 3357471.04351807 15.70433903 84 97 106
245991.38470459 3357470.28271484 15.56314182 73 81 92
245989.89672852 3357471.37847900 15.84829903 88 95 105
245987.08905029 3357471.30169678 15.91768837 109 106 113
245987.46466064 3357471.78347778 15.75702953 46 54 57
245987.21307373 3357471.64251709 15.68609238 115 100 105
245989.60498047 3357470.24078369 16.16542435 78 89 91
245989.86779785 3357471.33972168 15.89349365 20 28 41
245988.49151611 3357469.56137085 15.14372253 125 126 120
245987.02410889 3357471.04327393 15.71044540 178 181 200
245988.19201660 3357471.06991577 16.37875175 138 153 174
245988.85540771 3357471.35293579 16.31200600 59 63 72
245990.79327393 3357469.63049316 15.19366741 95 97 94
245988.71264648 3357470.07446289 16.15409279 46 48 47
245987.32409668 3357470.16854858 15.87507534 34 35 37
245989.38287354 3357471.38201904 16.06541824 9 10 15
245987.64831543 3357471.77929688 15.62803936 50 55 59
245988.66833496 3357470.04763794 16.09639168 87 89 86
245987.98608398 3357471.62588501 15.84832668 58 61 66
245987.80401611 3357471.32513428 16.26730728 92 110 130
245988.34387207 3357471.19479370 16.39243698 119 137 161
245987.89562988 3357471.40325928 16.31708717 53 67 80
245987.89709473 3357471.57498169 15.98249245 95 96 100
245990.73712158 3357469.98880005 15.85938072 96 109 118
245987.63311768 3357470.10687256 15.85497665 37 37 39
245991.44012451 3357470.60888672 15.54761505 66 82 97
245990.74926758 3357470.06109619 15.84249210 129 143 154
245987.05554199 3357470.52316284 16.02438164 147 142 149
245991.42382813 3357470.63131714 15.61094952 76 93 111
245991.38665771 3357470.76437378 15.63485813 89 105 120
245986.93933105 3357470.45034790 15.80016422 98 92 96
245989.71398926 3357470.97201538 16.21916580 97 124 135
245988.30303955 3357471.27246094 16.40220261 124 142 166
245990.54791260 3357471.33999634 15.70760155 47 62 69
245988.37677002 3357470.61187744 16.28020477 130 147 165
245990.85931396 3357471.01647949 15.79778290 127 146 163
245990.57434082 3357469.97097778 15.90009880 111 120 127
245987.07647705 3357470.61413574 16.08424377 124 128 140
245988.04254150 3357471.07989502 16.40994453 189 201 213
245988.17095947 3357470.11965942 16.16569901 67 67 69
245991.15643311 3357469.53823853 15.10755157 130 132 131
245987.05572510 3357470.30062866 15.97705173 53 44 47
245989.77416992 3357470.47384644 16.16388130 89 99 100
245988.10284424 3357470.37261963 16.34284592 78 82 91
245989.08233643 3357470.19052124 16.41870499 59 66 74
245989.48895264 3357471.52587891 15.85396862 92 97 103
245986.98724365 3357471.27130127 15.64055061 119 117 122
245989.54089355 3357470.00198364 16.09976006 38 42 43
245991.35479736 3357470.58963013 15.68937302 83 99 122
245988.93017578 3357470.41372681 16.46581841 44 53 60
245990.35321045 3357470.65493774 15.99305534 50 67 77
245987.83154297 3357470.53677368 16.17874146 61 71 73
245988.90380859 3357470.40164185 16.45957184 68 77 86
245990.93725586 3357469.68963623 15.30902195 43 43 43
245989.26080322 3357471.49093628 15.92226219 55 60 66
245988.23352051 3357470.02032471 15.64943504 48 52 51
245989.90667725 3357470.00326538 16.02793121 47 56 55
245986.98199463 3357470.54537964 15.92879868 57 56 62
245989.82543945 3357471.53118896 15.66801929 57 64 70
245989.47119141 3357469.83026123 15.34000683 78 80 77
245988.81439209 3357471.41528320 16.19107628 24 29 32
245989.42974854 3357469.87561035 15.84991550 59 60 62
245989.21246338 3357471.28671265 16.33207893 66 74 87
245991.51245117 3357469.66949463 15.07105637 122 126 129
245989.93481445 3357471.46881104 15.67418003 50 58 61
245989.66729736 3357471.08697510 16.24254036 103 123 132
245988.98419189 3357469.90490723 15.76065063 53 53 51
245989.27746582 3357470.69543457 16.47974586 42 55 72
245988.40472412 3357471.43557739 16.29962349 41 50 57
245989.67187500 3357471.16848755 16.09833336 100 117 127
245991.23944092 3357469.56555176 15.09786892 125 127 126
245991.11108398 3357469.71304321 15.23223114 77 78 80
245988.35980225 3357470.07519531 16.08806038 92 92 92
245991.06536865 3357471.26855469 15.63739395 176 185 194
245987.99005127 3357470.99859619 16.39650917 215 225 235
245988.76849365 3357470.21313477 16.39575768 22 30 33
245991.24700928 3357469.65701294 15.12585545 112 113 115
245987.62359619 3357470.77062988 16.09030914 139 162 180
245991.03173828 3357471.27166748 15.67566490 167 175 186
245987.95385742 3357471.73211670 15.63907146 132 136 139
245989.90661621 3357469.63546753 15.28888607 122 124 119
245990.88439941 3357471.31188965 15.61210537 67 76 85
245990.77868652 3357469.81542969 15.81053734 51 54 61
245987.66027832 3357470.08557129 15.38563824 89 90 85
245989.55432129 3357469.82528687 15.37026501 70 72 69
245987.78472900 3357470.19488525 16.10497475 66 69 74
245991.42700195 3357470.45175171 15.58744717 68 84 100
245988.19635010 3357471.15399170 16.39841843 130 148 170
245988.04315186 3357471.61883545 15.88906479 66 67 72
245990.05755615 3357470.41268921 15.92384243 98 121 127
245988.97894287 3357470.75286865 16.48519897 37 48 66
245988.08514404 3357471.60397339 15.94297218 103 104 109
245989.98785400 3357470.51940918 15.94916630 89 108 114
245988.27850342 3357470.24639893 16.29127884 5 6 10
245989.49066162 3357469.86560059 15.62029171 54 56 53
245989.71856689 3357469.85244751 15.59710407 59 61 60
245989.98352051 3357471.21960449 15.90868473 89 105 118
245990.41937256 3357471.26303101 15.94727516 118 127 144
245990.74395752 3357471.18734741 15.82193661 124 137 154
245990.64862061 3357469.81948853 15.80254555 42 45 50
245987.03332520 3357471.18243408 15.78324127 131 135 138
245988.14282227 3357470.03942871 15.43875217 55 55 55
245989.60998535 3357471.58175659 15.75700855 63 66 73
245988.48553467 3357470.85235596 16.25592232 111 131 156
245991.43688965 3357470.94799805 15.29185677 56 60 71
245989.18981934 3357469.87731934 15.63972855 66 66 66
245986.94500732 3357470.33956909 15.67447662 139 144 148
245990.25427246 3357470.35531616 15.96005821 49 68 75
245989.79071045 3357469.83770752 15.44894791 56 58 55
245987.18634033 3357470.18246460 15.78939915 35 29 31
245991.46405029 3357470.81375122 15.30475330 47 54 64
245991.56390381 3357470.39218140 15.21191597 66 73 83
245987.80853271 3357471.56591797 16.02953911 55 56 61
245988.50341797 3357471.63180542 15.90396023 52 52 50
245990.03381348 3357469.77743530 15.38965034 71 71 69
245989.06109619 3357469.95947266 16.01343346 63 65 64
245988.70056152 3357470.90023804 16.27948952 104 126 149
245988.10937500 3357470.03900146 15.52831745 47 49 48
245989.19165039 3357471.39382935 16.09303284 30 37 47
245986.97583008 3357470.75958252 15.81337547 243 241 244
245990.54156494 3357471.07318115 15.92900467 127 136 151
245989.65118408 3357470.09414673 16.07217216 49 59 61
245990.76422119 3357470.93313599 15.80292511 132 150 164
245989.13446045 3357471.06808472 16.46608353 46 54 73
245988.71380615 3357469.90002441 15.30790329 80 81 76
245987.00769043 3357470.77871704 15.90790558 134 130 131
245987.02691650 3357469.84872437 15.16859436 104 106 105
245988.34497070 3357469.86227417 15.24149895 101 102 96
245988.43304443 3357470.39453125 16.33346558 128 138 147
245988.99090576 3357469.91824341 15.49885178 64 64 62
245988.01495361 3357469.91296387 15.25004768 96 97 92
245989.59405518 3357470.29592896 16.28819084 64 78 79
245989.64831543 3357470.51513672 16.34621429 35 46 52
245987.52349854 3357471.80398560 15.69252014 30 40 42
245989.06286621 3357470.61575317 16.48807716 27 36 45
245990.60491943 3357470.12130737 15.86787128 136 153 161
245988.45605469 3357470.14825439 16.20884514 11 12 16
245987.72448730 3357470.06307983 15.35979939 87 87 85
245990.38873291 3357470.10522461 15.95641232 150 157 163
245990.37341309 3357470.63690186 15.99649048 50 67 77
245990.16857910 3357471.40182495 15.69016266 91 95 104
245986.90557861 3357470.80615234 15.49365711 66 75 84
245987.73321533 3357471.69281006 15.74222851 40 43 48
245989.78717041 3357469.89657593 16.05926132 92 96 95
245988.79840088 3357470.89767456 16.33859444 100 122 143
245987.03881836 3357471.57968140 15.41294479 49 57 59
245989.29724121 3357470.46286011 16.47812080 21 31 43
245990.19921875 3357471.44076538 15.63221550 48 52 61
245988.87542725 3357470.80581665 16.44860077 99 110 132
245990.32293701 3357470.76156616 15.98707676 77 95 105
245991.35400391 3357469.98425293 15.26185036 34 39 43
245987.88916016 3357469.55691528 15.09183598 126 127 122
245988.82525635 3357471.62207031 15.85025978 111 119 122
245990.99951172 3357469.75613403 15.46943092 40 39 44
245986.82409668 3357470.28793335 15.25562859 46 55 50
245987.97387695 3357471.65957642 15.75473785 31 34 39
245991.33294678 3357469.78283691 15.13571167 74 77 82
245988.07611084 3357471.52444458 16.14028549 14 21 27
245987.34356689 3357470.40869141 16.11614990 73 83 95
245986.91217041 3357470.39733887 15.57102489 58 53 57
245989.05218506 3357469.90921021 15.82941151 76 76 74
245987.16369629 3357470.16085815 15.56488609 31 31 31
245989.68963623 3357471.15115356 16.06725121 117 135 147
245990.36950684 3357469.48965454 15.22136974 135 134 132
245987.33624268 3357471.19927979 16.10350800 96 118 141
245988.79333496 3357470.07531738 16.17161751 30 34 33
245987.46411133 3357469.80340576 15.12130547 116 117 111
245991.58306885 3357469.66058350 15.05921650 126 130 131
245987.26098633 3357471.72515869 15.58244801 48 49 51
245989.26763916 3357470.05245972 16.18441010 35 39 42
245990.32537842 3357470.43624878 15.97544956 48 60 72
245987.75311279 3357471.06408691 16.18857574 124 149 169
245991.47033691 3357469.56237793 15.05512524 132 134 133
245991.32171631 3357469.97659302 15.28921509 33 38 42
245987.12426758 3357471.49829102 15.67310143 70 57 66
245987.53106689 3357470.11318970 15.61015892 40 38 39
245990.78784180 3357471.29403687 15.76478767 107 119 135
245990.29144287 3357470.23092651 15.97989845 44 56 68
245988.50683594 3357471.72558594 15.79431438 167 169 168
245988.27270508 3357469.99859619 15.50001526 58 59 54
245990.45483398 3357469.33718872 15.08878613 135 135 133
245988.67773438 3357469.88696289 15.28582668 82 83 78
245989.68811035 3357470.50253296 16.30617905 34 45 51
245989.10711670 3357471.14782715 16.45345879 55 67 83
245988.79064941 3357470.17364502 16.34801292 21 27 27
245986.93957520 3357470.68878174 15.73268890 101 106 110
245989.00195313 3357470.85247803 16.48220062 43 54 72
245989.06536865 3357470.00549316 16.09815979 67 69 68
245988.75183105 3357471.65206909 15.84664249 204 209 205
245990.88940430 3357470.32757568 15.76567459 127 146 161
245988.56427002 3357470.15145874 16.25155258 10 14 17
245987.38635254 3357470.04803467 15.29984188 82 84 79
245990.14538574 3357470.70794678 15.95492649 106 131 138
245988.94921875 3357469.51626587 15.15600681 128 129 124
245991.11267090 3357469.72839355 15.24783802 56 57 59
245988.20446777 3357470.36618042 16.34420204 79 83 92
245987.16699219 3357471.76199341 15.36401081 78 84 84
245988.85247803 3357470.60665894 16.43153954 108 121 140
245987.48828125 3357471.58087158 16.04616547 79 83 94
245989.16857910 3357471.14700317 16.45452881 119 131 147
245991.24902344 3357469.90505981 15.31962585 46 49 54
245990.42852783 3357471.25122070 15.97743511 124 136 152
245990.38165283 3357470.11413574 15.95967484 141 148 154
245989.53521729 3357470.01422119 16.10985947 40 44 45
245990.50512695 3357469.87301636 15.90247345 84 89 92
245989.54608154 3357470.12704468 16.14340401 56 64 66
245989.32092285 3357471.28469849 16.29066467 66 74 85
245989.61846924 3357470.55062866 16.37755013 23 36 44
245991.24731445 3357470.93240356 15.72339058 128 140 154
245989.42810059 3357469.87005615 15.81453419 55 57 56
245989.33673096 3357469.77410889 15.27159500 105 106 100
245990.23718262 3357470.75384521 15.96422291 112 137 144
245988.07208252 3357470.73825073 16.37397194 172 175 182
245989.81451416 3357469.69165039 15.29356575 108 110 105
245987.96783447 3357470.36169434 16.29888344 4 18 21
245988.30462646 3357470.06512451 16.03981400 58 59 63
245987.58538818 3357471.09347534 16.14251709 126 152 175
245988.83984375 3357470.57711792 16.41635132 107 122 141
245989.02203369 3357470.50216675 16.48557281 36 45 50
245988.96734619 3357469.91888428 15.56044292 48 48 46
245990.92584229 3357470.92257690 15.77457428 127 144 162
245989.29772949 3357469.69610596 15.24027634 118 119 113
245988.43701172 3357471.33706665 16.36399460 97 110 127
245990.35852051 3357471.36502075 15.72790909 42 53 55
245988.96325684 3357470.70620728 16.48624229 38 50 64
245987.20166016 3357471.72314453 15.44794464 63 69 69
245987.50396729 3357469.74429321 15.11473560 115 117 112
245990.53411865 3357469.61145020 15.23563957 118 118 116
245988.55346680 3357469.96841431 15.48153496 53 55 54
245989.47711182 3357469.86538696 15.37328625 65 67 64
245990.47113037 3357469.93655396 15.91179752 116 123 129
245990.61444092 3357469.33511353 15.07497978 138 138 136
245987.16674805 3357471.61782837 15.63148022 87 75 79
245988.02124023 3357470.10266113 16.08228111 53 54 56
245990.55792236 3357469.74069214 15.46945667 95 96 91
245991.06512451 3357469.43698120 15.09467793 135 137 136
245990.91931152 3357469.81900024 15.77894974 114 117 122
245988.48925781 3357469.94564819 15.33949471 60 62 57
245988.23638916 3357471.60296631 15.91413498 73 78 82
245988.97943115 3357469.91281128 15.65800571 50 50 48
245987.02801514 3357471.12106323 15.83442497 249 239 247
245987.71807861 3357471.79592896 15.55307388 98 102 105
245988.34887695 3357471.65960693 15.83015919 51 52 54
245990.97271729 3357471.29248047 15.62957001 144 151 161
245987.77758789 3357470.31039429 16.11724663 22 32 34
245987.82312012 3357470.38449097 16.10827637 29 39 40
245989.24542236 3357471.19302368 16.41772842 135 149 162
245991.45111084 3357469.71990967 15.09077454 110 116 116
245986.93756104 3357470.07028198 15.20364857 73 74 76
245989.15875244 3357469.50036621 15.19372368 128 129 124
245987.83972168 3357470.55603027 16.19526291 68 78 77
245989.24658203 3357470.90011597 16.48086166 43 56 73
245987.21496582 3357471.56228638 15.76456833 85 55 65
245989.19775391 3357469.91610718 15.90994644 79 79 77
245987.77154541 3357470.66671753 16.12832260 134 148 157
245988.75238037 3357470.92855835 16.31097794 101 123 144
245987.43218994 3357470.58337402 16.04264069 43 60 67
245990.75592041 3357470.61184692 15.78559208 140 158 170
245989.50128174 3357470.00485229 16.10171700 32 36 37
245988.69158936 3357469.95153809 15.74401569 54 56 55
245991.57220459 3357470.64245605 15.19669056 61 69 82
245989.18365479 3357471.22070313 16.40423584 103 116 132
245991.48492432 3357470.44204712 15.36187363 38 48 60
245987.15515137 3357470.25756836 16.02562714 31 31 33
245987.44396973 3357470.12170410 15.67759991 42 42 42
245988.84979248 3357469.69888306 15.18581390 117 120 113
245988.05383301 3357471.54922485 16.07463455 38 43 49
245988.36999512 3357470.00466919 15.64463615 56 56 56
245989.85314941 3357471.18740845 15.91003227 70 83 100
245990.69421387 3357469.67819214 15.23685360 96 96 96
245988.28173828 3357470.06213379 16.02317429 54 54 56
245988.61914063 3357470.77459717 16.25813675 112 128 151
245991.28240967 3357469.88354492 15.23189354 34 37 44
245988.83325195 3357470.23287964 16.42087173 58 66 69
245991.42352295 3357470.12542725 15.26443672 39 46 52
245988.38336182 3357470.59002686 16.27907181 126 143 163
245988.21691895 3357470.91052246 16.34251022 142 158 174
245988.01934814 3357469.61871338 15.11194420 121 122 116
245988.03778076 3357469.76660156 15.16730976 127 128 122
245987.76153564 3357469.92987061 15.21900654 87 88 82
245989.38470459 3357471.23864746 16.34696007 101 115 126
245990.11712646 3357471.40093994 15.71751118 107 112 116
245991.34283447 3357470.81961060 15.66359615 90 104 117
245987.84149170 3357469.80566406 15.17600441 118 119 113
245989.82397461 3357470.54776001 16.13400459 41 55 56
245987.82891846 3357470.10574341 16.01234627 35 36 40
245990.18536377 3357470.82214355 15.94714737 116 140 150
245987.73950195 3357470.39208984 16.08273506 39 48 53
245987.69476318 3357469.93701172 15.21251202 89 90 85
245990.23480225 3357471.38729858 15.71007347 55 59 68
245989.73303223 3357470.90899658 16.07629585 106 130 142
245990.36981201 3357469.84136963 15.82133198 53 57 60
245987.32031250 3357470.07745361 15.34468555 73 73 71
245987.79785156 3357470.07992554 15.79449368 40 42 41
245987.08990479 3357470.36331177 16.02705193 62 57 61
245987.62811279 3357470.40026855 16.05354118 34 44 46
245990.36755371 3357470.79473877 15.99562359 60 77 87
245989.57861328 3357471.22531128 16.23662567 79 89 98
245987.00927734 3357470.21957397 15.59263039 23 24 19
245991.40734863 3357470.86102295 15.54524326 47 60 77
245989.48956299 3357469.80737305 15.31996536 88 90 85
245990.80078125 3357469.83120728 15.81387138 51 54 61
245989.35046387 3357471.63095093 15.70193768 64 65 69
245989.83496094 3357470.65960693 16.10774612 77 95 99
245991.15686035 3357469.61297607 15.12791061 113 115 114
245989.44696045 3357471.18298340 16.39143944 120 136 149
245990.25378418 3357469.96292114 15.95814800 134 138 139
245989.72741699 3357471.02154541 16.10253906 106 126 137
245987.17236328 3357470.24774170 16.01866341 33 34 36
245988.70513916 3357470.85983276 16.27846718 107 127 151
245987.61657715 3357470.30737305 16.09954834 15 20 24
245987.66326904 3357470.19177246 16.08839417 55 56 61
245987.01623535 3357471.16561890 15.71115208 116 121 127
245987.62048340 3357471.55822754 16.11775589 128 127 141
245989.37420654 3357469.85534668 15.35622692 65 67 66
245991.41412354 3357470.06170654 15.23593998 42 51 56
245989.07592773 3357470.08270264 16.23299217 28 37 36
245987.60437012 3357470.47567749 16.02746582 45 55 57
245991.14465332 3357469.66744995 15.16953087 90 91 93
245987.28894043 3357470.58575439 16.07477760 83 98 117
245988.47265625 3357471.70809937 15.80584526 95 97 94
245988.80554199 3357471.60974121 15.87026405 158 163 167
245988.24530029 3357470.50390625 16.31782532 135 147 163
245988.57104492 3357470.16567993 16.27616882 10 14 17
245990.62561035 3357470.94964600 15.87624645 137 151 164
245990.94201660 3357469.42135620 15.06989193 123 125 124
245987.00653076 3357471.31164551 15.68747997 106 102 103
245989.30664063 3357470.84176636 16.48062325 45 58 75
245987.04010010 3357469.72802734 15.17991924 99 104 100
245989.24237061 3357470.09085083 16.25225830 31 36 40
245988.53033447 3357470.06979370 16.10948372 77 77 79
245988.07775879 3357471.65234375 15.81413460 49 52 59
245991.05920410 3357469.32208252 15.07330322 138 140 139
245988.04943848 3357470.03982544 15.51507092 30 34 35
245987.55773926 3357471.61245728 16.02951622 59 66 74
245990.32812500 3357471.26660156 16.01064682 45 57 69
245987.03118896 3357470.20941162 15.75638103 11 6 3
245989.23590088 3357469.98889160 16.08468628 54 58 59
245989.97351074 3357469.82324219 15.70000648 55 55 55
245988.58837891 3357470.70910645 16.25348282 118 135 155
245990.24499512 3357470.33941650 15.95980358 63 82 89
245987.24615479 3357470.52285767 16.08525085 108 119 139
245990.85003662 3357470.53778076 15.73724842 132 149 165
245987.93518066 3357470.60528564 16.38736725 50 55 58
245989.99328613 3357469.85250854 15.86007500 49 53 54
245991.50805664 3357470.70916748 15.26481342 52 60 71
245987.64880371 3357470.15698242 16.05715179 36 39 44
245989.15728760 3357470.00506592 16.11121750 57 59 58
245989.09368896 3357471.42694092 16.06431389 24 36 50
245988.93511963 3357471.62442017 15.71938324 22 26 35
245989.00598145 3357469.68716431 15.19765663 126 127 121
245991.50476074 3357470.04666138 15.17162895 66 74 77
245987.06549072 3357469.66284180 15.19705391 96 101 97
245991.45037842 3357470.25915527 15.32732105 44 53 60
245987.64355469 3357469.63134766 15.09732056 115 116 111
245987.91674805 3357470.04806519 15.81354332 43 45 44
245987.48925781 3357469.88806152 15.15840340 107 108 102
245990.95379639 3357471.20416260 15.81923389 123 138 157
245990.45208740 3357471.28262329 15.90315151 114 128 141
245989.77288818 3357469.88543701 16.04679680 154 158 157
245988.28308105 3357469.71884155 15.15377903 130 131 125
245989.21343994 3357470.04425049 16.18008232 34 38 39
245989.65930176 3357471.58996582 15.70892715 54 59 65
245990.65191650 3357471.40084839 15.55891800 58 67 74
245986.88653564 3357470.38024902 15.36898136 48 49 51
245990.08691406 3357470.80621338 15.92156601 112 136 148
245989.83520508 3357471.51449585 15.68891621 54 62 65
245988.37908936 3357470.30728149 16.33383942 53 58 62
245989.33239746 3357469.74356079 15.25776196 112 113 107
245988.14062500 3357470.38726807 16.34898186 83 90 100
245988.54937744 3357469.86587524 15.26475525 96 97 91
245988.20343018 3357470.74362183 16.33055115 139 154 173
245986.94561768 3357469.76547241 15.17369366 95 97 94
245989.91308594 3357470.47723389 16.01437569 72 89 96
245990.80090332 3357470.37710571 15.76910496 136 154 166
245989.12445068 3357469.89456177 15.55525494 63 63 63
245989.19641113 3357469.87271118 15.69010258 63 63 63
245991.58166504 3357470.53048706 15.18297100 67 74 84
245991.55639648 3357469.76501465 15.08605099 111 116 120
245990.59820557 3357471.14941406 15.89810371 127 138 156
245987.21655273 3357470.07458496 15.32546329 77 79 78
245990.23254395 3357470.30215454 15.96080971 54 71 81
245991.22741699 3357470.66918945 15.72464752 105 123 147
245987.87384033 3357470.41949463 16.21757317 42 51 50
245988.64886475 3357470.01879883 16.03202438 76 78 75
245991.18798828 3357470.74493408 15.72602749 107 127 151
245989.02307129 3357471.58566284 15.75251961 82 90 103
245989.19348145 3357471.38702393 16.10628128 9 13 24
245990.38043213 3357469.72964478 15.38783741 75 76 71
245990.74291992 3357470.69790649 15.80290413 142 160 172
245987.24530029 3357470.84844971 16.12166214 106 124 146
245987.84149170 3357471.69726563 15.65460777 65 69 72
245988.98986816 3357470.17794800 16.38437843 28 33 37
245989.91070557 3357470.23458862 15.94574547 95 119 121
245988.29339600 3357470.00787354 15.66672325 51 52 54
245988.45806885 3357470.17703247 16.25120163 8 11 16
245987.61022949 3357471.56478882 16.10744858 84 86 98
245987.12005615 3357470.17556763 15.62829590 27 26 22
245990.12512207 3357470.94970703 15.93952656 105 132 141
245990.21643066 3357470.31600952 15.95679855 79 99 106
245987.67663574 3357470.56369019 16.04796982 45 58 66
245990.19757080 3357470.20007324 15.96712303 54 71 81
245990.78576660 3357469.74468994 15.44522285 40 39 44
245989.60388184 3357469.86477661 15.74141026 56 58 57
245987.70513916 3357470.11746216 16.00477409 40 41 45
245989.67913818 3357469.85168457 15.77264309 52 56 55
245989.28363037 3357471.13922119 16.45748520 54 67 86
245990.09698486 3357470.14584351 15.96828747 112 133 138
245991.15356445 3357469.63952637 15.13608932 109 109 109
245987.34509277 3357470.67529297 16.06295013 159 172 188
245989.42871094 3357469.64593506 15.25588799 124 125 120
245990.64862061 3357471.02005005 15.86479855 133 146 162
245988.20928955 3357470.15921021 16.22743797 23 27 28
245987.94555664 3357469.95755005 15.28722000 59 61 58
245989.63580322 3357470.18511963 16.11252594 91 103 103
245989.46722412 3357469.73577881 15.27814770 106 108 103
245989.55279541 3357469.73171997 15.27857685 105 107 102
245988.78735352 3357471.71136475 15.74464130 109 111 108
245991.39874268 3357470.87179565 15.57365704 68 81 98
245991.54400635 3357469.93457031 15.11897755 85 93 96
245988.26763916 3357470.26278687 16.29826927 28 29 33
245990.17523193 3357470.57293701 15.94082737 101 128 135
245991.39953613 3357470.21136475 15.43599892 22 29 37
245990.30957031 3357471.24597168 16.01027107 34 48 59
245987.93811035 3357470.03506470 15.42625904 130 132 127
245989.22668457 3357469.88497925 15.77049828 58 58 58
245990.30651855 3357470.31973267 15.97225285 43 57 68
245988.77093506 3357470.91131592 16.31479645 104 126 147
245988.89270020 3357469.92349243 15.83017921 48 52 51
245990.94287109 3357471.02462769 15.78992367 120 141 162
245989.07434082 3357470.03494263 16.15055084 31 35 36
245989.76409912 3357470.72634888 16.24424171 73 90 98
245991.40136719 3357470.23553467 15.46109772 24 33 40
245990.19744873 3357469.71801758 15.34209538 96 95 91
245987.13006592 3357470.13992310 15.39857769 52 56 55
245990.92333984 3357469.29373169 15.06902790 133 135 134
245989.63818359 3357469.81726074 15.40680981 61 63 60
245989.10552979 3357470.87213135 16.48048210 44 55 73
245988.02764893 3357471.17282104 16.40290833 196 212 228
245989.80133057 3357469.83377075 15.70304298 58 60 57
245989.51867676 3357471.30252075 16.14320564 39 44 50
245988.60198975 3357471.44515991 16.20194054 49 56 64
245988.53778076 3357469.97885132 15.77646351 46 50 49
245988.27941895 3357471.12258911 16.37187958 122 139 165
245990.02313232 3357470.61776733 15.93861961 95 115 122
245988.37304688 3357469.88806152 15.26418018 95 96 90
245990.07525635 3357471.23348999 15.92703247 86 104 116
245987.63739014 3357471.01513672 16.14154243 126 157 178
245987.96411133 3357470.84835815 16.39069939 189 192 199
245988.43096924 3357470.90908813 16.26500130 112 132 159
245988.04284668 3357471.49169922 16.24501991 71 76 80
245990.28869629 3357470.22167969 15.98079395 44 56 68
245989.20648193 3357471.48910522 15.92936325 20 27 33
245989.79418945 3357469.97311401 16.04837990 40 49 46
245989.56982422 3357471.21273804 16.27204323 57 67 77
245987.16046143 3357470.53012085 16.09709930 107 118 140
245987.36486816 3357470.12802124 15.49898243 44 44 46
245990.47680664 3357471.17581177 15.96521378 130 139 154
245991.40747070 3357469.65817261 15.08321762 119 121 120
245988.43945313 3357471.47320557 16.19314957 45 48 53
245988.25006104 3357470.12274170 16.18104172 42 43 45
245987.99133301 3357470.04006958 15.62412739 42 42 44
245987.01751709 3357470.91094971 15.87706470 218 211 218
245989.07098389 3357471.36010742 16.21076012 52 58 70
245989.48303223 3357470.74093628 16.45774269 106 125 142
245990.77673340 3357469.60507202 15.17582130 94 96 93
245987.84887695 3357471.59820557 15.91033363 91 92 96
245987.96246338 3357469.61560059 15.11028385 125 126 121
245988.93524170 3357469.62939453 15.16473484 130 131 125
245990.97381592 3357471.12167358 15.80255318 112 131 148
245989.58685303 3357470.87927246 16.42026138 103 121 141
245991.18725586 3357470.65692139 15.73097324 106 123 149
245987.40789795 3357471.80807495 15.65077591 57 65 67
245988.44232178 3357469.99163818 15.58475971 55 57 56
245988.12664795 3357470.55862427 16.34692955 144 150 162
245987.76092529 3357471.54913330 16.10038757 57 60 67
245988.45629883 3357470.04473877 16.03805542 65 67 66
245990.95971680 3357469.76019287 15.56587315 39 38 43
245987.16357422 3357470.03656006 15.27819157 91 93 92
245987.70855713 3357469.57080078 15.08873272 120 121 116
245990.30645752 3357471.40148926 15.63486958 44 53 60
245989.82086182 3357469.84738159 15.89382553 46 50 51
245988.21942139 3357471.45175171 16.32142258 82 89 99
245989.06274414 3357470.01217651 16.10973358 48 50 49
245989.15631104 3357471.12246704 16.45809746 52 64 80
245988.98541260 3357470.78836060 16.48440361 38 51 68
245988.71960449 3357471.57192993 15.94101810 119 121 120
245989.68853760 3357469.72979736 15.29122448 106 109 102
245988.06646729 3357470.03732300 15.66824436 36 37 39
245987.14727783 3357471.61947632 15.55383778 130 130 128
245991.09368896 3357469.78860474 15.62445068 63 64 69
245987.14312744 3357470.40173340 16.08691406 88 92 101
245991.29614258 3357469.77413940 15.15499020 86 90 93
245989.29498291 3357469.70574951 15.24063873 118 119 113
245991.26934814 3357470.98010254 15.71239471 63 77 90
245989.29217529 3357471.26379395 16.33975029 123 135 149
245991.02001953 3357469.76898193 15.60656834 42 41 47
245989.86822510 3357469.89190674 16.03739929 58 64 64
245986.88769531 3357470.44036865 15.49538708 45 41 42
245988.88751221 3357471.29907227 16.38738823 110 123 132
245987.09051514 3357470.79907227 16.11675644 128 125 134
245991.00939941 3357469.75833130 15.48023987 40 39 44
245986.82092285 3357470.31118774 15.26338196 46 55 50
245989.64538574 3357469.87942505 16.01130867 120 122 117
245989.71807861 3357471.00125122 16.15225410 95 117 128
245988.98486328 3357470.00256348 16.07685661 82 84 83
245990.90930176 3357471.30438232 15.63603020 98 107 116
245990.19891357 3357471.37136841 15.78292656 60 69 76
245990.55017090 3357470.52801514 15.92241859 152 162 171
245987.03002930 3357470.12152100 15.27466106 74 80 80
245988.44183350 3357471.27160645 16.38859367 116 134 158
245988.18200684 3357470.25756836 16.30244446 28 32 35
245987.36596680 3357470.50973511 16.07539177 30 42 56
245987.00744629 3357470.22195435 15.61834717 33 35 30
245990.34020996 3357469.92660522 15.93915749 128 136 138
245990.32598877 3357471.30718994 15.95590687 89 99 109
245989.61779785 3357470.80273438 16.40340424 47 66 81
245990.89172363 3357469.75521851 15.52803993 43 42 48
245989.70770264 3357470.36822510 16.14455605 67 82 87
245987.10198975 3357469.93206787 15.19573975 96 100 99
245989.15850830 3357470.18511963 16.42122078 94 103 112
245987.01062012 3357470.65002441 15.98396778 128 126 129
245988.03997803 3357471.23779297 16.40202332 106 124 144
245991.29083252 3357469.89379883 15.23176575 37 40 45
245990.02301025 3357471.33041382 15.83445358 28 33 39
245987.28338623 3357470.85494995 16.12313843 104 122 142
245989.81054688 3357471.52108765 15.69980240 54 62 65
245989.98272705 3357471.16540527 15.89668369 107 125 137
245990.61199951 3357470.55819702 15.88139343 146 156 166
245989.44860840 3357471.47616577 15.92733383 64 71 77
245991.36315918 3357470.88690186 15.64897060 81 94 110
245987.10455322 3357471.66708374 15.38373661 47 57 56
245987.88818359 3357471.61563110 15.85130405 70 69 74
245988.77746582 3357471.41583252 16.20119667 22 30 32
245987.54852295 3357470.02124023 15.25038052 75 77 72
245987.94531250 3357470.97125244 16.38180542 78 91 107
245988.97772217 3357471.63034058 15.60159874 25 28 35
245989.67553711 3357470.94097900 16.33743668 100 122 133
245988.95190430 3357469.86215210 15.30290222 78 79 74
245991.27142334 3357471.05975342 15.71094704 139 149 158
245988.96551514 3357471.62457275 15.61812305 25 28 35
245989.81549072 3357469.70242310 15.29739189 108 110 105
245988.19714355 3357470.89840698 16.34766960 143 156 173
245988.85913086 3357469.80444336 15.23296165 101 102 96
245990.03027344 3357469.61044312 15.30072975 115 115 113
245987.71398926 3357471.16998291 16.19526672 117 141 165
245990.25219727 3357471.04220581 15.97904110 133 158 165
245989.20764160 3357471.39129639 16.09181786 31 38 48
245988.36047363 3357471.72216797 15.75951958 50 54 57
245986.84124756 3357469.73446655 15.15897751 96 100 103
245988.09326172 3357470.00643921 15.93131351 64 65 67
245987.06469727 3357470.22827148 15.93611145 43 34 37
245989.81597900 3357470.57949829 16.15346909 50 64 65
245988.07153320 3357471.22924805 16.41242409 186 201 220
245990.65606689 3357471.19906616 15.85227871 127 140 157
245986.95129395 3357470.76065063 15.70070744 161 167 179
245986.98114014 3357470.35952759 15.89396095 62 55 62
245991.23797607 3357470.76034546 15.71815109 104 122 142
245989.55194092 3357469.79013062 15.33165455 90 92 87
245987.64135742 3357471.16931152 16.16290855 119 143 167
245989.00085449 3357469.90689087 15.68942833 52 52 50
245991.44427490 3357471.07342529 15.13281441 72 76 87
245988.69299316 3357471.47171021 16.10409164 46 51 54
245988.01953125 3357471.64385986 15.81390762 48 51 56
245986.83575439 3357470.34753418 15.28101063 41 50 45
245988.40136719 3357471.21020508 16.38988495 121 138 164
245991.61877441 3357469.34378052 15.06018734 149 151 150
245988.05908203 3357471.46670532 16.31967735 131 138 146
245989.58404541 3357471.48626709 15.90177250 53 56 63
245987.13403320 3357470.11898804 15.37482834 63 67 66
245989.60589600 3357469.72070313 15.27963257 106 108 103
245990.04882813 3357470.00302124 16.02738762 46 56 57
245987.51428223 3357470.07772827 15.35176754 41 41 39
