246102.30029297 3357612.91571045 13.55244923 56 60 59
246100.48986816 3357612.41961670 14.40252399 50 56 56
246099.49743652 3357607.61694336 13.52699852 251 251 251
246099.76208496 3357612.95794678 13.99038410 42 52 54
246099.86059570 3357607.61059570 13.84681034 191 186 183
246098.43322754 3357612.34313965 13.72514057 156 155 153
246098.74194336 3357612.49121094 13.41275883 196 209 217
246099.12597656 3357612.51019287 13.41664410 174 187 193
246101.43237305 3357607.76269531 13.33574390 193 184 167
246099.05993652 3357612.58111572 13.44561672 169 184 191
246098.91906738 3357609.72241211 14.36370564 169 168 173
246099.34191895 3357611.85528564 14.33285332 157 155 156
246099.93713379 3357610.10742188 13.88198280 145 144 140
246101.85266113 3357608.54406738 13.81376362 227 231 234
246099.73596191 3357607.49493408 13.44431400 243 245 244
246102.09313965 3357611.91027832 13.78584099 175 173 176
246098.89697266 3357611.91943359 14.42389107 128 133 136
246099.83459473 3357607.81469727 13.50385952 244 248 247
246101.89855957 3357607.53094482 13.32181835 163 155 136
246098.28491211 3357608.75585938 14.25556850 253 255 254
246098.82153320 3357612.38330078 13.39623451 183 200 208
246100.30883789 3357608.00274658 13.98965454 172 164 153
246100.55969238 3357612.61083984 14.35006714 26 37 33
246100.00830078 3357610.08447266 13.51570225 127 128 122
246098.27600098 3357612.11566162 14.00911331 250 250 252
246100.79223633 3357608.41735840 14.15939903 236 237 239
246098.29064941 3357607.77337646 13.98119640 218 214 211
246099.77795410 3357609.65728760 14.16251945 189 199 201
246101.82006836 3357609.06066895 13.87123489 237 240 245
246100.28698730 3357613.32568359 13.12093163 125 122 107
246101.70788574 3357613.19805908 13.92895508 221 222 216
246099.44702148 3357612.75286865 14.21144199 212 210 211
246100.43457031 3357608.27984619 14.15437317 214 214 216
246101.55639648 3357612.58801270 13.96561146 249 248 254
246102.02270508 3357608.94042969 13.81911755 138 125 119
246100.12792969 3357613.02697754 14.05157661 77 82 78
246100.92639160 3357608.27593994 14.05142593 239 240 242
246099.09338379 3357612.48150635 13.56923389 162 177 182
246099.51635742 3357612.67443848 13.36336231 145 155 157
246100.30468750 3357609.90722656 14.18468094 27 28 32
246097.99426270 3357609.65460205 14.27719116 68 81 90
246101.75659180 3357608.69396973 13.91075325 240 243 248
246099.47253418 3357608.66931152 14.45700836 71 77 77
246101.93994141 3357609.01300049 13.85783672 219 211 209
246100.04284668 3357609.80261230 14.37611771 105 123 125
246099.37988281 3357609.60833740 14.16704464 149 153 156
246100.90478516 3357612.10791016 14.20274067 19 37 41
246100.30651855 3357613.05145264 13.65851307 120 126 122
246100.79467773 3357607.12835693 14.02489090 82 82 82
246098.08093262 3357611.85211182 13.48139381 241 244 249
246101.01708984 3357611.59112549 13.48790073 248 244 245
246100.95520020 3357613.35229492 13.93711567 151 145 129
246101.14367676 3357607.54437256 13.36147022 251 251 251
246097.81921387 3357610.05529785 14.07360554 244 246 243
246100.71398926 3357607.29443359 13.77773380 248 248 248
246098.97729492 3357610.15667725 14.16108513 157 164 174
246099.63977051 3357611.78924561 13.54718018 250 250 250
246101.51208496 3357611.63159180 13.67471981 123 122 127
246099.34521484 3357613.05151367 13.31527424 126 131 134
246099.95263672 3357612.53491211 13.25930023 206 211 215
246102.15783691 3357611.85382080 13.67011261 182 180 183
246097.57812500 3357609.71386719 13.79098415 252 252 252
246101.15661621 3357609.04974365 14.04388046 254 255 255
246101.30627441 3357609.48004150 14.02433205 234 235 239
246099.94689941 3357608.24157715 13.92103386 160 161 156
246100.32824707 3357608.35510254 14.17692757 219 220 224
246100.24304199 3357611.65637207 13.29442596 250 248 251
246100.91052246 3357613.37701416 13.67117500 151 144 125
246101.98876953 3357609.11572266 13.84346771 168 159 154
246099.60986328 3357613.25524902 13.16540909 39 40 42
246097.76135254 3357608.65557861 13.54503536 124 123 118
246099.19909668 3357612.36389160 13.37085056 165 179 180
246099.26708984 3357607.80743408 14.30123138 196 196 196
246097.74316406 3357608.74255371 13.85253716 251 250 248
246102.09313965 3357609.47656250 13.68554211 83 73 72
246101.82446289 3357611.64630127 13.38388443 200 195 191
246098.60656738 3357609.55126953 14.44453335 73 78 84
246101.97705078 3357612.30816650 13.85887051 242 243 248
246097.58056641 3357609.70104980 13.79957104 252 252 252
246099.29577637 3357609.87738037 14.38143349 104 115 117
246099.57775879 3357607.52111816 13.71088696 247 249 244
246098.23693848 3357609.02008057 14.29225063 145 155 154
246099.10314941 3357612.15795898 13.36829472 186 200 201
246101.55480957 3357608.76898193 13.95664883 244 245 250
246100.12731934 3357612.63348389 13.44966030 132 142 143
246098.66589355 3357612.27801514 13.40155506 143 148 152
246100.70605469 3357611.56036377 13.40854073 242 238 237
246098.78381348 3357611.44140625 13.52323532 185 183 186
246099.54382324 3357607.46362305 13.51647186 233 233 235
246099.44934082 3357612.44665527 14.22768021 224 226 225
246102.19519043 3357611.72900391 13.22008991 127 120 110
246100.02880859 3357610.08007813 14.05311871 175 176 178
246100.53906250 3357609.31829834 14.19414139 83 87 86
246100.08996582 3357607.71557617 13.58896065 248 250 247
246099.95019531 3357612.51885986 14.41311073 36 45 52
246100.08691406 3357608.13964844 13.90286541 159 155 146
246097.94177246 3357608.23315430 13.60477638 163 160 155
246099.63098145 3357612.83850098 14.15419292 39 47 49
246098.51318359 3357612.75469971 13.74479485 189 207 217
246101.07312012 3357607.10131836 13.26188564 177 170 160
246099.05712891 3357607.99890137 14.30751801 94 101 107
246102.03002930 3357608.43127441 13.54368305 68 70 67
246098.20202637 3357612.00750732 13.51334953 226 230 233
246099.73645020 3357610.12969971 13.92093563 163 165 162
246099.54785156 3357612.55389404 14.23520279 227 225 226
246099.21972656 3357607.72839355 14.32290268 176 179 186
246100.04577637 3357607.65740967 13.62515259 243 248 244
246099.11499023 3357609.03216553 14.31412506 117 123 123
246099.49169922 3357607.41021729 13.53113365 233 231 234
246102.26757813 3357613.08660889 13.63348103 87 89 86
246101.57043457 3357607.38836670 13.25426865 174 167 149
246099.67041016 3357608.48254395 14.24031925 224 225 227
246101.13671875 3357609.96966553 13.89480400 131 141 143
246098.49731445 3357613.15216064 13.38938332 46 50 53
246101.59521484 3357612.96936035 13.94891071 249 253 255
246098.82629395 3357608.14575195 14.28185844 227 234 240
246101.72595215 3357609.14654541 13.89132500 239 242 249
246099.93774414 3357607.33203125 13.29600430 244 246 243
246099.87243652 3357612.72448730 13.24076939 138 146 149
246098.64184570 3357611.60980225 14.14520741 250 244 248
246100.99633789 3357610.07244873 13.81203747 38 44 42
246098.62255859 3357612.90484619 14.23284912 196 202 202
246098.39807129 3357612.46691895 13.44452190 196 196 196
246102.15100098 3357609.35095215 13.67714500 57 52 49
246098.05456543 3357610.15332031 14.16477299 204 214 223
246099.53674316 3357607.47833252 13.51849461 234 232 235
246102.00854492 3357613.50329590 13.64867210 143 135 112
246098.67883301 3357613.15625000 13.40812969 79 80 84
246102.89367676 3357612.21429443 13.16822624 119 115 106
246099.33129883 3357612.11676025 14.29202652 185 184 182
246101.76867676 3357611.64239502 13.51952934 142 138 139
246100.68786621 3357613.29870605 13.82732201 135 133 121
246098.95568848 3357609.64569092 14.32303333 157 155 160
246099.87756348 3357607.34820557 13.32098198 230 234 233
246101.64086914 3357607.74456787 13.27766800 183 174 157
246100.46179199 3357609.66766357 14.29470921 76 80 81
246100.87194824 3357613.35607910 13.66784382 143 138 119
246100.58386230 3357609.02862549 14.20493984 75 81 79
246101.80895996 3357609.30072021 13.88337231 238 241 248
246101.42114258 3357608.83673096 13.95840168 244 245 249
246099.07263184 3357612.64825439 13.70880795 157 170 176
246101.82800293 3357607.89746094 13.36526775 177 169 148
246100.73095703 3357607.38909912 13.68186569 253 255 254
246099.36755371 3357607.33026123 14.28287697 194 195 197
246101.22167969 3357609.57727051 14.03899097 230 234 237
246099.00341797 3357613.02880859 14.01389790 210 214 215
246100.53002930 3357612.80023193 13.38879776 125 129 128
246100.27014160 3357613.11682129 13.77845764 167 168 170
246100.42138672 3357607.99871826 14.05234432 166 159 151
246098.58007813 3357613.05328369 13.52677155 156 169 175
246100.54858398 3357612.72534180 13.31937981 107 111 114
246099.39733887 3357609.79815674 14.25264549 142 150 153
246100.04821777 3357612.91839600 13.18269920 165 168 161
246102.01281738 3357611.66918945 13.32663727 88 81 73
246101.09106445 3357612.73486328 14.05115795 55 63 65
246100.35412598 3357611.56756592 13.24356747 117 113 104
246100.04675293 3357612.96356201 13.70668125 137 148 144
246100.23291016 3357607.29327393 13.86113167 240 240 238
246099.03601074 3357611.85784912 14.42485428 212 208 209
246099.31262207 3357612.84356689 14.21238613 67 71 70
246099.07983398 3357608.27838135 14.26495457 190 195 199
246098.03967285 3357608.79711914 14.18924522 254 254 254
246100.69104004 3357608.65252686 14.21637344 40 44 43
246098.68054199 3357609.62615967 14.45946598 108 109 114
246098.07824707 3357609.87170410 14.29174900 84 102 116
246102.06542969 3357609.10565186 13.77876663 97 84 78
246100.94775391 3357609.80883789 14.09282780 157 161 164
246100.82214355 3357612.57183838 14.20276070 24 34 33
246098.84765625 3357613.01550293 14.19181347 10 14 15
246098.98632813 3357612.96820068 13.54159832 117 126 131
246098.73730469 3357607.78759766 14.32896042 101 108 116
246100.36010742 3357608.64538574 14.39778614 96 100 101
246099.79248047 3357607.62615967 13.50968266 252 253 255
246101.68811035 3357610.12506104 13.56179810 45 49 50
246098.49169922 3357608.78417969 14.34541035 235 235 235
246098.68969727 3357612.60723877 13.75873184 172 186 189
246099.91027832 3357609.88861084 14.42311954 30 40 42
246102.97229004 3357612.99414063 13.13622570 66 61 55
246099.22033691 3357612.88964844 14.21869850 60 69 66
246101.28332520 3357607.93731689 13.62965393 232 223 214
246099.09326172 3357613.01208496 14.11278915 12 20 22
246100.84912109 3357612.42626953 14.19848824 32 43 39
246098.29528809 3357611.73852539 13.49203491 227 216 222
246101.05126953 3357609.52972412 14.06545734 111 115 116
246098.34790039 3357611.17614746 13.27914715 130 129 127
246100.10339355 3357609.96466064 14.21516228 26 30 31
246102.82885742 3357612.21905518 13.17326260 117 113 104
246099.02307129 3357611.34655762 13.20832062 124 121 116
246098.10571289 3357609.77807617 14.31716919 107 119 131
246101.77062988 3357611.81243896 13.85336590 253 248 254
246099.78808594 3357613.03259277 13.20207310 108 112 113
246098.11071777 3357612.79901123 14.01064587 176 170 170
246099.13928223 3357609.13201904 14.28264427 78 84 84
246100.52160645 3357612.31225586 14.39179707 25 34 33
246099.56921387 3357610.14410400 14.06599617 161 166 170
246098.95080566 3357612.23596191 13.36603260 189 200 206
246100.25720215 3357612.96972656 14.33164692 197 196 191
246100.28857422 3357608.71887207 14.41418266 78 80 79
246101.63769531 3357611.64654541 13.55535984 75 75 77
246098.36901855 3357608.27502441 14.03537083 136 138 137
246099.03112793 3357613.03027344 14.08418846 109 113 114
246098.96899414 3357612.24493408 13.45086861 174 189 194
246098.59497070 3357607.83142090 14.28305149 108 112 121
246099.34204102 3357612.99829102 13.33860588 130 135 138
246099.10998535 3357612.46124268 13.54920959 162 177 180
246099.40905762 3357607.48272705 14.26644230 178 176 177
246098.91015625 3357609.96801758 14.45371532 171 180 185
246103.07226563 3357613.07885742 13.11853218 97 93 82
246099.82556152 3357612.44091797 13.37753201 137 144 150
246100.63916016 3357613.17761230 13.57048607 130 126 117
246102.63488770 3357612.81451416 13.29199219 44 45 40
246099.28613281 3357609.27197266 14.21969986 102 106 107
246101.08520508 3357607.52166748 13.79551315 237 232 228
246099.50903320 3357610.28509521 13.68989372 45 50 53
246100.28112793 3357608.85791016 14.41671371 65 65 65
246100.29663086 3357612.98651123 13.18389225 132 132 124
246099.44238281 3357613.12786865 13.25583363 75 79 80
246101.20495605 3357609.43237305 14.04579067 233 234 238
246100.05932617 3357607.24572754 13.25540924 209 209 201
246100.50488281 3357609.60375977 14.24338627 87 88 92
246100.88317871 3357607.34655762 13.38738441 201 200 196
246098.08996582 3357609.21380615 14.27863598 123 134 136
246099.07666016 3357612.67309570 13.72803879 157 168 174
246100.77307129 3357613.31268311 13.21495342 150 142 121
246098.81787109 3357612.50018311 13.64411736 160 178 180
246099.85681152 3357612.57116699 13.47628784 139 150 154
246098.59167480 3357612.16369629 14.25544453 184 210 209
246100.38574219 3357611.58203125 13.28091812 150 147 140
246100.23229980 3357610.18725586 13.73611832 81 82 74
246098.69274902 3357613.14556885 13.44031048 65 66 71
246102.38305664 3357613.07568359 13.44301987 44 49 43
246101.46435547 3357612.97436523 13.96441936 255 255 255
246100.22460938 3357612.63549805 13.28131866 157 165 168
246102.94909668 3357612.08514404 13.17376137 131 127 115
246099.16259766 3357610.08544922 14.24806404 29 34 38
246100.07995605 3357609.95220947 14.26202011 36 40 43
246099.60949707 3357611.43780518 13.19462776 121 117 114
246100.93798828 3357613.21270752 14.07915497 138 134 125
246099.66394043 3357608.49627686 14.27259922 161 165 166
246098.85546875 3357611.71820068 14.40701199 242 236 240
246099.99182129 3357607.57366943 13.44583416 245 247 246
246098.95507813 3357611.85168457 14.44019699 215 210 214
246100.53344727 3357608.32128906 14.15212917 234 235 237
246100.68151855 3357613.06225586 14.24385643 88 88 86
246099.02062988 3357613.00604248 14.17771721 8 17 16
246099.32934570 3357609.94635010 14.41414261 27 41 41
246098.58764648 3357611.70684814 14.28052902 250 244 248
246100.95922852 3357608.03912354 13.87969303 120 121 115
246098.41796875 3357610.29840088 13.75763512 120 133 142
246101.06115723 3357611.59423828 13.28999710 130 123 117
246099.89904785 3357607.29284668 13.28259659 222 226 225
246103.15405273 3357612.45526123 13.13837624 123 119 108
246100.10168457 3357612.70513916 13.25348759 150 156 156
246101.39147949 3357612.03601074 14.02139568 248 249 254
246099.27746582 3357612.54870605 13.40852165 168 177 182
246100.21459961 3357609.71429443 14.40050507 222 227 231
246101.50549316 3357608.31433105 13.94096947 254 255 255
246099.34973145 3357612.87335205 14.17444134 63 69 67
246100.83898926 3357607.61090088 14.05448914 127 128 123
246101.59692383 3357609.72216797 13.92590618 212 215 222
246099.83569336 3357610.06085205 13.57421970 144 148 147
246098.36279297 3357611.34118652 13.31205082 130 128 129
246098.58203125 3357613.08636475 13.51373482 126 135 140
246101.21813965 3357609.06030273 14.02293205 249 250 252
246099.11743164 3357612.82714844 13.84750175 162 170 173
246101.65722656 3357611.65454102 13.59209442 83 83 85
246102.20739746 3357611.83001709 13.30385208 67 64 59
246099.64953613 3357610.09191895 14.13886261 140 144 147
246098.48510742 3357612.22167969 14.19379139 176 205 203
246099.37377930 3357608.52587891 14.27676678 160 166 166
246102.17443848 3357612.15802002 13.78984165 237 232 239
246100.39807129 3357611.71124268 13.54451752 250 249 254
246102.09265137 3357609.01898193 13.74455261 78 67 61
246101.04406738 3357612.23382568 14.12540340 84 99 102
246098.25122070 3357608.64538574 14.17855167 254 255 255
246099.81604004 3357607.82397461 13.92788792 220 219 217
246099.46081543 3357611.52288818 13.30128193 105 105 103
246099.53491211 3357612.60168457 13.36184692 156 166 168
246101.57104492 3357607.20690918 13.28221226 175 170 151
246098.50537109 3357612.94506836 14.15148067 178 185 191
246100.67053223 3357607.47009277 13.52372265 244 245 247
246100.05676270 3357611.85070801 13.61730576 250 255 255
246100.55493164 3357613.19195557 14.09375381 102 100 88
246100.49243164 3357607.47076416 13.46304989 241 245 244
246098.21093750 3357612.91857910 13.66344166 167 178 182
246099.41711426 3357612.97796631 13.98198223 155 160 163
246101.82421875 3357608.12652588 13.48162174 174 165 148
246098.43737793 3357611.84045410 14.26379967 190 195 198
246102.85876465 3357612.51635742 13.17310047 92 89 80
246100.72180176 3357607.76440430 14.08271027 158 153 147
246098.17822266 3357611.74615479 13.87450123 105 101 100
246098.32580566 3357613.01324463 13.47229958 170 183 189
246099.47937012 3357607.66870117 13.60433960 243 245 240
246098.71276855 3357611.67187500 14.31194305 234 228 232
246100.36315918 3357610.27960205 13.67797661 47 46 42
246099.20764160 3357607.73010254 14.32535267 176 179 186
246101.40234375 3357607.47717285 13.23722935 185 179 163
246100.91943359 3357607.69177246 13.94261932 126 131 127
246100.07873535 3357608.41284180 14.13660812 243 244 248
246101.75378418 3357612.41497803 13.92502880 249 248 254
246101.71166992 3357608.92968750 13.89137554 240 243 252
246100.50000000 3357611.62066650 13.38065624 252 251 249
246101.91186523 3357611.77624512 13.80054283 229 224 230
246102.38452148 3357612.68389893 13.49648476 74 75 77
246100.78283691 3357608.29913330 14.08042049 240 241 243
246101.84533691 3357608.42968750 13.72597408 182 185 194
246098.02246094 3357608.72625732 14.14565659 255 253 254
246101.51440430 3357613.25933838 13.98343277 171 176 179
246099.84545898 3357607.72656250 13.53025913 246 251 247
246098.81030273 3357612.89440918 13.54792309 104 118 129
246100.28857422 3357610.24047852 13.66657543 48 49 43
246098.41882324 3357612.64312744 14.18823051 168 186 186
246100.48010254 3357610.19091797 13.82377243 83 84 79
246099.11694336 3357612.44299316 13.40001011 172 185 191
246099.85974121 3357608.66241455 14.44600105 194 198 199
246101.84521484 3357609.65991211 13.81652260 172 168 169
246098.39233398 3357608.26110840 14.06299400 98 100 97
246098.42431641 3357611.55029297 13.72694397 245 241 242
246100.35388184 3357611.66131592 13.36549664 253 251 252
246101.22790527 3357610.24822998 13.44078064 38 39 41
246100.92529297 3357612.87866211 14.09250164 29 38 35
246101.39990234 3357609.09881592 13.96196079 243 248 252
246098.79687500 3357612.71667480 13.49254227 149 165 178
246098.18762207 3357612.59826660 13.99946308 210 204 204
246099.86718750 3357608.70977783 14.40481949 224 228 229
246101.02148438 3357611.58959961 13.35859299 229 221 219
246100.06750488 3357607.86151123 13.85587597 162 163 157
246101.44201660 3357607.81329346 13.36898136 191 182 165
246100.01416016 3357611.74096680 13.84643936 254 255 255
246100.62292480 3357607.12506104 13.96233749 224 226 223
246099.98413086 3357607.10589600 14.11167145 144 146 141
246098.80139160 3357612.40393066 14.32229519 172 191 197
246099.88732910 3357608.83343506 14.31179237 211 219 222
246101.19226074 3357608.97906494 14.02315044 251 255 254
246099.13818359 3357609.90472412 14.40604687 123 137 138
246098.28417969 3357608.73883057 14.24480915 253 255 254
246099.79492188 3357612.22583008 14.38272381 250 248 249
246098.16406250 3357607.92413330 13.78409576 208 207 205
246100.80590820 3357612.13098145 14.26284885 21 35 38
246100.02075195 3357609.40228271 14.19695568 202 206 209
246100.09118652 3357607.28540039 13.91589355 206 197 190
246100.73071289 3357611.74432373 14.25588512 145 155 156
246098.17419434 3357608.42297363 13.85857773 202 204 203
246099.79382324 3357607.39953613 13.89292336 195 191 188
246100.40722656 3357611.47155762 13.15519047 152 144 131
246099.51391602 3357607.80993652 13.50660229 249 251 246
246099.28063965 3357611.61944580 13.72749519 255 249 253
246101.80529785 3357608.26782227 13.58969212 172 175 180
246099.81713867 3357612.23120117 14.39609146 250 248 249
246099.21569824 3357607.68750000 14.32811069 159 163 172
246100.29711914 3357612.86462402 13.22347641 142 143 137
246101.35180664 3357608.93725586 13.95874119 246 251 254
246103.04785156 3357612.47247314 13.14750004 111 109 97
246100.97448730 3357609.71569824 14.05557442 76 77 79
246102.52050781 3357612.63189697 13.39476871 35 35 33
246100.45898438 3357613.14904785 13.68898106 139 140 134
246100.18725586 3357607.40960693 13.37290764 232 234 231
246101.51403809 3357613.45697021 13.91636276 129 128 108
246098.51574707 3357610.28466797 13.89850330 145 159 170
246098.30175781 3357609.81317139 14.38085747 140 154 167
246097.75024414 3357608.90802002 14.10998154 248 247 245
246101.75939941 3357609.52252197 13.89380646 225 224 230
246100.48107910 3357612.72674561 13.40242290 107 113 111
246098.93347168 3357612.77966309 14.35089684 205 206 208
246102.99389648 3357612.71142578 13.12489796 87 80 72
246098.46875000 3357611.50970459 13.65313053 248 244 245
246100.62207031 3357611.63970947 13.68624115 250 249 254
246101.72241211 3357609.10986328 13.89028454 240 243 250
246100.20629883 3357611.98370361 14.47953224 234 232 233
246099.06787109 3357609.27673340 14.25666523 112 113 117
246100.34472656 3357611.61370850 13.29904747 236 235 233
246099.27148438 3357609.59429932 14.20859051 142 143 145
246098.68530273 3357612.65258789 13.46144676 192 207 214
246098.98645020 3357609.50744629 14.26288700 137 137 139
246097.95495605 3357608.19879150 13.61606121 165 160 157
246100.63244629 3357608.75311279 14.21765137 36 42 42
246100.60583496 3357611.64746094 13.81465912 250 250 252
246101.43518066 3357611.61608887 13.31299019 140 138 139
246100.35668945 3357610.22607422 13.75776005 45 44 40
246100.64770508 3357607.06201172 13.35968113 196 192 180
246098.46533203 3357609.70843506 14.41149807 52 69 76
246101.32434082 3357610.27178955 13.41051865 39 43 44
246101.78015137 3357611.64953613 13.57913494 215 213 214
246099.97045898 3357612.88323975 13.68971348 143 153 154
246099.04016113 3357611.50445557 13.60958481 85 85 87
246098.48999023 3357612.80139160 13.79607964 185 207 218
246099.35046387 3357611.59692383 13.50086403 250 248 253
246100.80017090 3357613.27325439 13.28794098 125 119 103
246098.75927734 3357608.44403076 14.23152542 241 245 248
246099.54907227 3357611.73406982 13.82089043 251 251 253
246102.23425293 3357611.95007324 13.64649296 180 180 180
246103.00708008 3357612.47900391 13.15105152 106 104 92
246098.04333496 3357609.59179688 14.30154324 76 89 97
246098.25256348 3357610.55035400 13.20247936 138 134 131
246100.39550781 3357608.55065918 14.36290836 125 126 130
246101.79296875 3357608.20892334 13.53470325 132 128 125
246099.10693359 3357607.23748779 14.27471447 165 164 162
246100.55151367 3357607.52581787 13.48879719 244 246 245
246100.94958496 3357611.65148926 14.02443504 196 197 201
246100.47180176 3357607.98468018 14.06397629 161 154 146
246100.79089355 3357609.91540527 14.09869862 118 119 121
246102.01855469 3357613.41448975 13.74661541 140 134 112
246099.32434082 3357607.20135498 14.23676014 148 149 151
246101.63378906 3357613.31121826 13.93851376 111 111 109
246102.04199219 3357609.04400635 13.80355740 126 113 107
246101.90209961 3357608.40618896 13.64639950 192 196 205
246101.21923828 3357609.47686768 14.04186916 232 233 237
246099.53295898 3357611.31024170 13.16726017 122 119 114
246101.99731445 3357609.65112305 13.69484520 71 67 64
246099.69226074 3357611.66888428 14.07619190 138 146 149
246098.49523926 3357610.25244141 14.00470448 140 154 165
246102.29663086 3357612.03479004 13.49212933 132 131 129
246097.64709473 3357609.77990723 13.89680386 237 237 239
246099.95483398 3357612.94598389 13.19133377 157 159 156
246099.79577637 3357607.53216553 13.90133858 198 197 195
246099.48840332 3357608.78839111 14.39909744 222 228 228
246097.66455078 3357609.80590820 13.92951965 249 249 249
246101.85107422 3357609.67675781 13.80343628 150 146 147
246101.83789063 3357609.67852783 13.81344032 150 146 147
246100.13989258 3357611.71282959 13.30491352 252 252 254
246097.90954590 3357609.06335449 14.18590546 254 254 254
246098.25939941 3357608.39819336 13.93890858 194 195 197
246100.06640625 3357607.20227051 14.02357674 211 206 203
246099.46813965 3357612.46472168 14.22886086 230 232 231
246102.02770996 3357612.21997070 13.85706902 242 241 247
246098.99682617 3357613.03125000 14.03082275 208 209 211
246101.66113281 3357612.24523926 13.94646072 253 248 254
246098.17346191 3357611.88983154 13.93192577 245 250 246
246102.03918457 3357609.73193359 13.62138557 49 51 48
246098.41516113 3357612.12805176 14.18383408 177 198 199
246101.56237793 3357609.78802490 13.92171764 204 209 215
246102.35839844 3357609.25561523 13.51877594 47 53 53
246098.92663574 3357611.44982910 13.32890415 209 205 206
246098.32360840 3357612.50793457 13.82713413 176 172 171
246099.04150391 3357607.45092773 13.59024525 245 249 250
246100.28295898 3357609.76947021 14.41433907 178 186 189
246099.21850586 3357612.62994385 13.43960094 161 170 177
246098.82458496 3357613.14550781 13.43798542 101 102 106
246101.32238770 3357607.39764404 13.23832989 188 184 172
246102.38317871 3357609.11090088 13.48178577 52 56 57
246097.96679688 3357608.60083008 13.95500946 255 255 253
246099.82824707 3357610.27667236 13.24960709 46 47 51
246102.81396484 3357613.05670166 13.18926525 54 53 51
246098.66198730 3357610.28228760 13.89657307 103 113 122
246098.61083984 3357610.34039307 13.66648579 61 66 72
246100.01208496 3357609.21228027 14.25733852 143 147 150
246098.65710449 3357612.75494385 13.49493217 169 184 191
246102.28271484 3357612.87231445 13.57553768 56 62 62
246098.37915039 3357612.65362549 13.71696949 180 185 191
246099.41040039 3357612.04315186 14.32323265 233 233 235
246100.49316406 3357612.58892822 13.30883694 114 119 123
246100.83044434 3357612.12023926 14.24866009 20 35 38
246101.39172363 3357611.61315918 13.35225677 195 191 192
246098.76989746 3357612.91253662 13.90008831 202 214 226
246099.93420410 3357607.79608154 13.83654499 180 177 172
246098.89990234 3357611.52923584 13.93357563 252 245 252
246101.09448242 3357607.48858643 13.74253941 249 244 240
246098.10949707 3357609.46154785 14.33760071 58 67 72
246100.63012695 3357613.26489258 13.75162792 129 127 115
246099.43579102 3357612.99975586 13.31057358 127 132 135
246098.32971191 3357612.30090332 14.10622120 185 194 193
246101.48022461 3357609.75488281 13.96674156 205 213 216
246101.73559570 3357612.63372803 13.91870213 248 249 254
246100.54138184 3357611.66644287 13.85625553 251 251 251
246101.46630859 3357608.20086670 13.81031036 255 255 255
246101.74572754 3357609.24072266 13.89206886 238 241 250
246101.82238770 3357607.93914795 13.39268398 181 173 154
246100.21386719 3357611.69342041 14.02917290 150 167 174
246099.14294434 3357612.40423584 13.38738537 167 181 184
246100.14978027 3357608.70196533 14.45848656 128 129 131
246099.02807617 3357607.73809814 14.34765911 110 119 128
246100.14282227 3357608.66314697 14.46864986 125 126 128
246102.05493164 3357608.90759277 13.78388309 97 84 76
246099.74694824 3357612.74169922 14.25459003 255 255 255
246100.28076172 3357613.00817871 13.64218235 116 125 120
246101.06713867 3357612.10375977 14.11584854 177 192 195
246099.44873047 3357607.52166748 13.67568588 235 240 236
246098.51208496 3357610.13354492 14.28072453 131 148 156
246100.23156738 3357613.11676025 13.79422760 168 172 173
246098.07336426 3357612.86260986 13.99591637 170 161 162
246102.25878906 3357610.22656250 13.24109364 60 65 68
246099.75854492 3357607.55920410 13.94694996 209 207 208
246099.36511230 3357607.49444580 14.29828167 170 168 169
246097.76074219 3357610.20721436 13.91181850 226 226 228
246099.94592285 3357607.25726318 13.88405132 242 242 242
246100.76904297 3357609.79840088 14.12917137 150 154 153
246098.85961914 3357611.45520020 13.43612003 183 181 184
246099.77661133 3357607.87384033 13.95645714 235 235 235
246099.72363281 3357612.51434326 13.45910645 139 146 152
246098.45947266 3357612.98571777 14.01112938 191 205 214
246100.97131348 3357607.19036865 14.00849724 255 255 250
246099.46704102 3357607.80194092 13.52883434 247 248 243
246101.33142090 3357608.29388428 13.93837547 250 254 253
246097.68994141 3357609.94989014 13.94959068 249 250 252
246100.53649902 3357611.66992188 14.06406689 192 200 203
246100.71325684 3357612.14514160 14.31472015 21 35 38
246101.13024902 3357607.33465576 13.29112244 185 185 175
246099.84313965 3357612.30181885 14.40107441 229 229 229
246099.18908691 3357608.69830322 14.36194324 33 42 41
246100.46459961 3357612.67138672 13.37682247 111 117 115
246098.41210938 3357609.20037842 14.37095451 91 101 103
246099.48095703 3357609.31463623 14.17104053 126 127 131
246100.19030762 3357611.30609131 13.13121414 157 145 133
246099.97888184 3357611.75396729 14.28346157 48 59 61
246101.36315918 3357608.12457275 13.68892479 187 186 184
246100.26049805 3357610.17596436 13.78107262 143 144 138
246100.48071289 3357612.73895264 13.32341194 117 121 124
246100.60607910 3357609.34777832 14.13922310 62 66 67
246102.30371094 3357613.15502930 13.57026768 74 73 68
246099.94531250 3357608.65655518 14.47118855 221 225 226
246100.13854980 3357611.32452393 13.12520313 194 184 174
246101.77185059 3357612.72052002 13.89690781 243 246 251
246103.15637207 3357612.08905029 13.15174770 140 134 122
246100.37634277 3357607.39477539 13.41703796 233 238 234
246100.17053223 3357607.21740723 14.00430775 195 191 182
246100.02124023 3357611.71453857 13.28352642 251 249 252
246098.17309570 3357611.39105225 13.35376072 177 177 177
246100.76000977 3357610.26501465 13.64325523 39 37 38
246098.53198242 3357610.20819092 14.10809898 154 170 183
246100.21313477 3357611.57427979 13.17121696 123 120 111
246100.41784668 3357613.07104492 13.60609627 146 147 142
246100.98144531 3357607.26416016 13.83753967 248 248 248
246101.51123047 3357611.63745117 13.73239231 223 218 222
246099.06945801 3357612.56945801 13.44102669 169 184 191
246098.69519043 3357612.40972900 14.28434277 176 195 201
246098.43041992 3357612.81335449 14.19782352 202 206 207
246100.61657715 3357608.96557617 14.18463516 52 58 58
246102.59570313 3357613.35583496 13.25155449 51 54 47
246099.58850098 3357610.18518066 13.69550133 130 134 137
246100.28869629 3357607.42053223 13.78112507 243 243 241
246099.26574707 3357608.74560547 14.36821270 180 188 190
246099.22277832 3357609.86199951 14.38775444 146 157 159
246100.95812988 3357607.28405762 13.34533882 204 201 196
246101.99768066 3357609.33087158 13.81991386 163 152 150
246098.05175781 3357612.98199463 13.88820457 175 170 174
246097.98510742 3357608.56427002 13.84585094 243 243 241
246098.28247070 3357612.48693848 13.87062931 181 175 175
246100.04028320 3357612.99249268 14.03817368 64 70 70
246102.19885254 3357612.03106689 13.75303173 195 193 196
246100.02587891 3357611.85040283 13.63243198 251 255 255
246102.61340332 3357612.55804443 13.31668091 51 52 47
246101.50366211 3357611.98175049 13.96883774 251 249 254
246102.43847656 3357609.00592041 13.40714550 57 61 60
246099.08801270 3357610.00134277 14.40598392 55 69 72
246098.35717773 3357612.17645264 13.79243946 239 240 242
246102.01708984 3357611.68255615 13.36149025 116 109 103
246098.92333984 3357609.22875977 14.29325104 156 157 161
246102.73608398 3357612.19982910 13.18566895 110 106 97
246102.64160156 3357611.91259766 13.18217659 122 118 107
246098.96679688 3357612.53649902 14.32864189 189 193 194
246100.00756836 3357612.16766357 14.48345661 113 126 134
246101.87353516 3357609.22619629 13.86820698 238 237 242
246101.31164551 3357608.60766602 14.08660603 243 245 244
246097.90332031 3357609.56268311 14.21495724 190 197 203
246099.68200684 3357608.48107910 14.23773766 211 212 214
246098.24194336 3357612.55792236 13.82357979 182 176 176
246099.03625488 3357613.20635986 13.29286480 26 27 29
246099.73742676 3357608.27050781 13.94309139 217 219 218
246100.41113281 3357612.93804932 14.35669708 199 199 197
246102.04162598 3357608.37341309 13.47560310 67 66 61
246099.81127930 3357607.28497314 13.30453777 217 219 218
246098.33374023 3357610.96643066 13.26824856 129 125 122
246101.24902344 3357613.32604980 14.05035686 117 121 98
246100.37280273 3357608.05908203 14.04567337 161 154 146
246099.02270508 3357611.79858398 14.42751789 239 230 235
246102.41796875 3357612.18609619 13.29862213 53 54 48
246100.25927734 3357612.86724854 13.20948887 151 152 146
246099.67956543 3357607.77612305 14.03934288 235 237 236
246099.81823730 3357610.07855225 13.86731815 147 146 144
246098.21630859 3357611.88720703 14.02931976 250 252 251
246102.68920898 3357608.90411377 13.11922455 78 80 79
246102.36230469 3357613.38317871 13.37241840 77 79 66
246097.65734863 3357610.19982910 13.69771385 184 180 177
246100.37622070 3357608.85992432 14.37092876 82 84 83
246098.65991211 3357607.39276123 14.26459980 160 178 182
246099.15625000 3357608.65051270 14.34852982 22 30 32
246099.02758789 3357607.42150879 14.36529350 121 127 127
246099.98168945 3357612.95031738 13.18704605 157 159 156
246098.84509277 3357608.92694092 14.40867233 217 219 218
246100.60729980 3357611.80316162 14.33986950 248 247 252
246099.18847656 3357611.57525635 13.69413280 253 247 251
246102.23486328 3357613.12072754 13.69357204 88 88 86
246100.01403809 3357611.82214355 13.69683075 251 255 255
246098.94641113 3357608.77667236 14.40142059 98 106 108
246100.92016602 3357609.87579346 14.07181644 163 167 170
246100.86364746 3357607.39990234 14.11401844 142 145 138
246099.42700195 3357608.71954346 14.44584084 151 157 157
246098.93188477 3357612.48559570 13.60756207 161 179 181
246099.02978516 3357612.06445313 14.37174988 199 197 198
246102.66943359 3357609.13433838 13.21806145 54 64 65
246100.48693848 3357611.99310303 14.46005440 19 29 30
246102.77416992 3357611.80468750 13.20248890 133 127 115
246100.73181152 3357612.32922363 14.27148056 18 30 28
246099.96093750 3357611.59710693 13.20253754 141 140 136
246100.10900879 3357612.20397949 14.48784733 102 115 124
246102.69384766 3357613.14196777 13.24944496 47 49 44
246098.36755371 3357611.53210449 13.40675545 233 233 233
246102.76367188 3357613.47888184 13.19172764 61 61 53
246098.57470703 3357612.24871826 13.61436749 181 185 188
246102.56250000 3357611.75000000 13.17791367 132 126 114
246100.02148438 3357607.18420410 14.08614826 198 194 185
246097.70056152 3357608.71667480 13.60212517 152 153 148
246098.68737793 3357613.03112793 13.56361294 135 150 157
246100.34045410 3357607.62908936 13.51427078 239 243 242
246102.96667480 3357613.26818848 13.14139938 64 60 51
246099.84985352 3357612.67364502 14.31650352 253 251 252
246098.67687988 3357609.43945313 14.45124626 147 146 151
246099.93615723 3357612.91284180 14.11583710 69 75 75
246100.72790527 3357609.92486572 14.12631130 109 111 110
246100.89147949 3357611.58569336 13.46252441 252 250 251
246098.61535645 3357612.08752441 13.48370266 193 197 200
246098.27722168 3357608.81860352 14.29281044 252 252 252
246099.98864746 3357611.75372314 13.32276440 248 247 252
246099.31652832 3357612.53100586 13.39947987 167 176 181
246102.36022949 3357608.93371582 13.48761559 55 59 60
246099.81445313 3357609.83789063 14.35153294 30 44 45
246100.51855469 3357613.22528076 13.96516609 132 134 121
246100.52917480 3357610.15270996 13.89324760 122 123 118
246102.26501465 3357612.00177002 13.58888626 168 170 169
246099.39306641 3357608.35198975 14.07740116 179 181 180
246098.72949219 3357612.15618896 13.42778015 179 187 190
246100.44348145 3357607.44610596 13.44586182 239 241 238
246100.31018066 3357613.09802246 14.12186909 119 121 110
246098.37072754 3357612.80871582 14.16711903 182 184 183
246099.05468750 3357607.40032959 14.36526585 112 120 122
246098.28454590 3357611.20953369 13.29115963 136 136 136
246099.97180176 3357608.50854492 14.37720490 37 43 39
246099.70886230 3357607.77685547 13.56785202 246 251 247
246098.38171387 3357610.30938721 13.69402027 73 82 89
246098.95080566 3357612.91802979 14.34412479 172 178 178
246099.50073242 3357609.68194580 14.16373062 168 178 180
246099.50830078 3357609.32580566 14.16293335 155 156 160
246099.95458984 3357608.55944824 14.44892979 34 38 37
246101.48132324 3357607.20117188 13.25459003 182 176 160
246098.79772949 3357611.44427490 13.33801746 176 174 175
246100.16809082 3357609.20648193 14.35803890 195 200 204
246098.17602539 3357611.53149414 13.39455986 220 220 222
246101.08642578 3357607.06701660 13.25037670 141 134 124
246101.56384277 3357608.04772949 13.47149277 195 190 170
246100.78271484 3357612.21234131 14.25983715 27 39 39
246102.19897461 3357608.26904297 13.38549137 167 156 138
246100.59313965 3357610.16088867 13.81748486 65 64 59
246101.10437012 3357607.69787598 13.76089668 206 199 193
246099.49145508 3357612.97540283 13.99622250 124 132 134
246098.24072266 3357610.23291016 14.10470963 154 166 178
246098.92773438 3357610.15905762 14.17253113 149 155 169
246098.97534180 3357609.38555908 14.26746559 130 130 132
246098.61242676 3357607.65502930 14.27949238 87 105 117
246099.20996094 3357610.09564209 14.23997021 45 48 53
246098.32324219 3357612.49139404 14.11972237 155 156 158
246100.20556641 3357611.75177002 14.24024105 55 74 78
246098.00146484 3357612.89361572 13.90228176 119 107 107
246098.87915039 3357611.89263916 14.43401623 136 141 144
246099.91784668 3357612.44299316 13.35829067 138 147 152
246098.61669922 3357610.07092285 14.37538433 155 168 177
246098.23339844 3357608.55084229 14.11780167 250 250 250
246100.10961914 3357611.76965332 13.35869312 249 250 254
246100.04003906 3357607.24438477 13.25079823 218 219 213
246099.85754395 3357609.96032715 14.30005360 37 41 42
246102.57592773 3357613.51129150 13.26530933 95 96 80
246100.61364746 3357613.02789307 14.29133224 80 84 83
246098.21691895 3357612.01965332 13.51056385 226 230 233
246100.36889648 3357611.73645020 14.19645023 64 87 93
246099.86584473 3357610.03698730 14.18339062 46 46 48
246098.63317871 3357608.59539795 14.23284340 245 249 250
246100.63891602 3357607.92614746 14.07952404 143 136 128
246100.74206543 3357610.20288086 13.71073627 32 32 30
246100.41613770 3357609.28332520 14.32635689 75 77 74
246098.20068359 3357611.86267090 13.77115917 215 217 216
246098.84350586 3357611.62408447 14.24673080 112 116 119
246099.33105469 3357612.14318848 14.28272247 191 190 188
246100.27050781 3357607.96740723 13.95421696 182 174 163
246102.28149414 3357612.03887939 13.57569885 140 140 140
246098.22070313 3357608.34765625 13.83984566 217 216 214
246101.67138672 3357612.29431152 13.94518948 251 249 254
246101.07336426 3357610.16448975 13.62407017 26 27 29
246099.42736816 3357612.74975586 13.38278103 155 165 167
246097.84326172 3357611.95916748 13.51593590 232 233 238
246101.95935059 3357612.28961182 13.86347675 245 244 250
246100.22448730 3357611.78961182 13.66061687 251 252 254
246102.92126465 3357613.41668701 13.15503883 95 93 81
246099.16748047 3357611.51867676 13.52333450 181 181 183
246100.19714355 3357610.26818848 13.30642796 41 41 39
246099.77673340 3357607.16613770 14.01260471 227 223 220
246098.32800293 3357612.73999023 13.50323486 159 154 160
246100.97631836 3357608.65606689 14.15065861 233 233 233
246100.14428711 3357612.12725830 14.49081230 111 122 128
246101.83044434 3357608.77117920 13.88885880 237 240 245
246100.71337891 3357607.43072510 13.57476997 247 248 250
246100.91235352 3357608.14630127 13.97190475 123 124 119
246099.54943848 3357612.96228027 13.29788017 142 150 153
246099.21057129 3357612.89227295 13.88148117 157 162 165
246101.72534180 3357613.35174561 13.90054417 108 104 93
246099.93725586 3357611.78698730 13.76767159 252 253 255
246100.63317871 3357612.29492188 14.32972050 87 98 100
246098.54895020 3357610.32373047 13.69887352 64 71 77
246099.08496094 3357608.41479492 14.25304794 207 211 212
246102.72851563 3357613.25048828 13.21442795 49 51 46
246101.32800293 3357608.07385254 13.67575169 200 196 193
246099.46691895 3357610.10357666 14.16183090 143 148 152
246098.35888672 3357608.05139160 14.05202770 158 157 155
246099.36987305 3357612.52136230 14.23361683 187 186 184
246101.24768066 3357612.61444092 14.03295517 47 55 57
246098.05041504 3357612.47503662 13.48705769 254 254 255
246102.21936035 3357609.90307617 13.45550346 60 62 61
246098.34863281 3357611.59002686 13.70047092 238 236 237
246098.32312012 3357611.69183350 13.58018589 182 178 177
246100.26110840 3357612.00048828 14.47869682 239 237 240
246098.17993164 3357612.10040283 13.48747063 227 230 235
246102.37695313 3357610.13452148 13.28325844 62 67 70
246098.85522461 3357608.66729736 14.32627487 66 70 69
246099.56921387 3357607.34991455 14.15687180 201 197 194
246099.75512695 3357607.72357178 13.96564770 230 228 229
246097.87939453 3357609.23065186 14.18713665 253 254 255
246099.80224609 3357612.96234131 13.83218384 102 107 110
246102.23571777 3357612.42083740 13.75357437 210 211 216
246099.63879395 3357612.37091064 13.31003284 93 103 105
246099.81140137 3357607.66906738 13.89552879 213 212 210
246099.57312012 3357607.22662354 14.15923214 198 197 195
246101.21252441 3357613.34478760 14.05690956 110 111 95
246099.26599121 3357612.89141846 14.18266392 63 72 69
246099.98034668 3357610.07861328 13.52013493 136 137 131
246101.03759766 3357608.41156006 14.14156055 243 244 248
246100.43237305 3357610.16601563 13.90628910 126 128 125
246098.21008301 3357611.52502441 13.39532089 219 219 221
246101.17016602 3357611.60650635 13.41313934 81 75 75
246099.83898926 3357610.10961914 14.07689762 159 163 162
246100.18261719 3357613.11157227 13.93128300 199 200 195
246100.28369141 3357611.25927734 13.14109325 151 137 124
246101.59448242 3357613.33953857 13.94725037 111 108 101
246102.99609375 3357613.43988037 13.14728451 132 126 114
246100.96472168 3357613.38256836 13.88285446 158 151 132
246102.28308105 3357613.28155518 13.50348759 87 87 77
246099.37524414 3357608.60931396 14.38210106 51 60 59
246100.08288574 3357609.92077637 14.33080864 37 42 45
246100.93615723 3357610.06903076 13.84667015 97 101 100
246099.86743164 3357611.69958496 14.18749619 40 59 65
246100.13586426 3357607.75054932 13.55610466 249 251 248
246101.53271484 3357609.34112549 13.94526386 239 242 249
246099.86010742 3357612.75793457 13.62558746 137 147 149
246099.53674316 3357612.93090820 13.31149960 145 153 156
246100.40051270 3357609.11560059 14.36617851 68 70 69
246101.76501465 3357608.44006348 13.81604385 213 218 224
246101.11669922 3357607.57977295 13.67344952 252 243 236
246099.22326660 3357611.58026123 13.65330124 250 250 252
246099.55175781 3357611.47894287 13.25352097 105 106 101
246099.79492188 3357609.89495850 14.44755363 21 35 36
246100.46240234 3357612.92657471 13.28026009 134 135 127
246100.68896484 3357609.85186768 14.17027664 85 87 84
246099.14990234 3357613.00317383 13.43100739 104 109 112
246102.20825195 3357609.10089111 13.61584759 51 51 49
246101.11694336 3357613.02539063 14.00477600 27 31 30
246100.18115234 3357611.66723633 13.27170753 249 248 246
246099.55554199 3357609.97338867 14.33827019 31 36 40
246097.69079590 3357609.46685791 14.03057671 254 254 255
246099.58703613 3357612.32788086 13.33746433 144 157 163
246100.09887695 3357607.69836426 13.50789738 232 236 235
246101.39306641 3357613.20922852 14.01177406 227 228 230
246100.14282227 3357611.79589844 13.41112709 250 251 255
246101.46838379 3357607.32623291 13.23080254 184 179 160
246099.73669434 3357610.06701660 13.66203117 143 147 148
246100.87475586 3357607.47888184 14.07246876 133 138 132
246100.35009766 3357607.20092773 13.35041428 213 210 203
246098.77758789 3357612.53515625 14.31832600 157 178 181
246099.85925293 3357607.30401611 13.92153645 162 155 149
246100.49951172 3357607.55017090 13.53000450 246 248 247
246099.90319824 3357608.48144531 14.28228378 54 58 57
246101.31970215 3357608.38641357 14.02625465 247 248 252
246100.34802246 3357607.17041016 13.34783554 208 205 196
246099.18347168 3357610.16833496 14.14640427 159 164 168
246099.04589844 3357609.47174072 14.24545479 136 136 138
246098.31164551 3357608.29016113 13.96350479 226 226 226
246100.67053223 3357611.63708496 13.78053761 249 251 250
246100.92517090 3357607.17718506 13.95033836 243 242 240
246101.11145020 3357607.47033691 13.32940769 186 181 175
246098.33227539 3357609.29437256 14.36672211 167 172 175
246101.96911621 3357609.02062988 13.85387135 180 169 165
246100.01989746 3357610.08746338 13.66187000 119 120 114
246101.14965820 3357607.21832275 13.25837898 197 194 185
246098.16589355 3357610.29602051 13.76708126 139 146 154
246098.96240234 3357607.94024658 14.32669258 98 102 111
246102.88977051 3357613.04705811 13.15912342 61 57 54
246100.53662109 3357609.56774902 14.20790482 78 79 81
246097.64367676 3357609.71917725 13.90464115 231 231 231
246100.01684570 3357612.70635986 13.53949642 137 148 150
246098.66235352 3357609.84442139 14.45860767 93 97 100
246098.41699219 3357609.41235352 14.40566635 48 61 67
246100.08276367 3357609.58300781 14.23934937 236 240 241
246100.41259766 3357611.61584473 13.34100437 254 253 251
246100.76770020 3357612.58764648 14.23370838 26 36 35
246099.85949707 3357610.09973145 13.43743420 109 115 113
246100.90368652 3357608.35375977 14.11198330 242 243 245
246099.33337402 3357612.96313477 13.91348934 147 152 155
246098.29821777 3357611.35748291 13.33434200 146 146 146
246101.74877930 3357608.80261230 13.90148544 241 246 252
246102.09558105 3357608.91754150 13.73758984 78 67 61
246101.65429688 3357607.67950439 13.25669575 182 173 156
246102.28540039 3357611.92456055 13.31105137 63 60 55
246101.13537598 3357610.17816162 13.56875706 30 30 30
246101.46691895 3357611.61724854 13.31196404 137 136 134
246099.10485840 3357612.76196289 14.30754375 213 211 212
246098.17993164 3357608.48114014 14.01547337 182 184 183
246100.52111816 3357613.30841064 13.15474987 150 142 123
246098.23730469 3357608.75897217 14.24592781 255 255 255
246099.54150391 3357611.54602051 13.31863976 120 120 118
246100.04052734 3357607.75457764 13.50025368 232 238 236
246098.17004395 3357612.90057373 14.04874229 195 193 194
246101.05517578 3357613.39721680 13.95066929 162 154 135
246098.70031738 3357612.53833008 14.29315853 175 196 199
246100.35925293 3357607.31695557 13.39011765 226 227 222
246099.02124023 3357611.56640625 13.97997761 252 246 250
246102.58520508 3357611.95861816 13.17990971 115 111 100
246100.07958984 3357608.13360596 13.89618111 162 158 149
246102.08044434 3357609.96038818 13.47928619 56 60 61
246100.93566895 3357608.88525391 14.11382961 44 43 41
246099.17639160 3357608.57659912 14.29669380 112 117 120
246101.41638184 3357609.73144531 13.99114227 205 210 214
246100.14233398 3357607.48712158 13.73568535 245 246 241
246099.62536621 3357610.14923096 13.73160744 124 132 134
246099.78356934 3357612.56005859 13.48313236 141 148 154
246099.86706543 3357612.03393555 14.45633507 208 208 210
246099.44079590 3357611.67425537 13.91587925 252 250 253
246098.30004883 3357611.72717285 13.66891289 221 221 219
246098.71545410 3357611.59234619 14.13876057 253 246 253
246101.27673340 3357608.97631836 13.99070358 247 253 253
246101.67529297 3357612.99780273 13.92441273 251 252 254
246098.71032715 3357607.49468994 14.30563641 167 192 197
246099.15051270 3357610.24291992 14.04425812 113 124 128
246099.09533691 3357612.97625732 13.48586082 104 112 115
246100.12158203 3357613.08709717 13.81649971 186 187 191
246099.29296875 3357611.81243896 14.33190632 144 142 145
246102.44396973 3357610.24255371 13.20812321 69 73 74
246100.11682129 3357613.05004883 13.75570869 154 159 162
246102.09863281 3357610.21118164 13.28972530 54 58 61
246099.55700684 3357612.67999268 13.62943840 142 147 153
246097.76379395 3357610.26861572 13.76295757 143 145 142
246103.13940430 3357611.84973145 13.16192150 150 144 132
246101.15478516 3357612.24462891 14.09367657 194 208 209
246098.91113281 3357609.28863525 14.29691410 221 222 226
246099.74365234 3357612.74322510 13.64017391 137 146 151
246098.53894043 3357612.18713379 14.22615623 183 209 208
246099.13183594 3357607.51031494 13.57574749 247 251 252
246098.49841309 3357608.14062500 14.18278980 123 123 121
246099.12207031 3357609.20758057 14.26546574 90 94 95
246098.73962402 3357607.89428711 14.31186676 110 113 118
246099.50915527 3357607.53063965 13.68719292 243 245 240
246099.46313477 3357609.25842285 14.18874168 97 98 103
246099.37231445 3357611.65118408 13.99720001 250 248 253
246099.97827148 3357607.23529053 13.90529919 237 237 237
246102.26672363 3357609.01885986 13.55971336 57 59 56
246099.10437012 3357612.57958984 13.64632702 158 173 178
