246115.38244629 3357645.13000488 14.51166058 55 63 66
246115.10241699 3357644.74121094 14.66695690 67 75 77
246117.40820313 3357644.99023438 13.99064732 107 91 91
246117.19750977 3357644.17456055 13.15490150 101 98 93
246113.69226074 3357641.84143066 14.21458530 44 49 53
246117.11987305 3357645.36206055 13.99867630 18 9 10
246114.26037598 3357643.25860596 14.77706528 170 171 176
246116.66467285 3357644.99273682 14.35321712 95 90 87
246116.90222168 3357643.99822998 14.59003544 75 73 74
246115.31127930 3357641.37310791 13.53095341 95 91 82
246113.93151855 3357641.66973877 14.58665848 122 135 144
246114.00354004 3357642.49182129 15.05810738 201 219 229
246114.44079590 3357641.33697510 14.37547588 60 61 63
246116.85388184 3357644.93438721 14.30418873 81 59 48
246115.45996094 3357644.21966553 14.93336964 171 187 200
246115.86779785 3357643.68267822 15.00557518 184 198 211
246115.60546875 3357644.43060303 14.93392563 178 196 208
246117.86340332 3357645.37585449 13.27164459 74 65 60
246114.57910156 3357643.93487549 14.11378288 55 55 55
246117.80688477 3357645.27453613 13.37038517 68 53 48
246114.78869629 3357641.10321045 13.37202740 177 182 186
246116.20715332 3357644.58612061 14.87704277 184 191 199
246114.89868164 3357641.14672852 14.16490173 215 220 214
246116.76440430 3357644.96777344 14.32725525 63 54 49
246115.43090820 3357641.34393311 12.91674232 110 100 99
246116.52197266 3357644.78680420 14.69428062 191 186 192
246113.97583008 3357642.95971680 14.54738235 2 3 5
246113.80236816 3357642.79992676 14.10570526 76 93 100
246115.51806641 3357645.43640137 14.50288486 57 62 66
246116.97460938 3357644.91162109 14.22473431 106 75 57
246114.04223633 3357641.59234619 14.53963757 40 44 53
246114.39025879 3357641.35760498 14.10106277 129 130 125
246113.82519531 3357641.70013428 13.59082603 196 210 213
246115.85388184 3357645.13073730 14.74186897 184 184 182
246116.71655273 3357645.43243408 14.05022526 84 83 81
246117.51135254 3357645.67706299 13.62942314 185 174 172
246117.19067383 3357644.21612549 13.25829601 93 90 85
246114.80578613 3357641.18261719 14.69790459 207 217 218
246113.96447754 3357642.98217773 14.47987747 4 8 9
246113.91369629 3357642.57330322 15.00389290 192 205 214
246113.85522461 3357642.92803955 13.88369274 90 108 118
246115.51220703 3357641.64093018 13.22556782 74 63 59
246114.32263184 3357643.31018066 14.90994263 137 144 150
246113.52526855 3357642.40856934 14.05196762 173 192 198
246115.38110352 3357641.62377930 14.55880451 44 39 36
246115.86767578 3357642.25744629 14.24549675 132 119 111
246115.88806152 3357642.26416016 13.89879990 147 133 122
246117.48535156 3357644.67840576 13.91159248 99 94 91
246113.91381836 3357642.93383789 14.22540474 15 22 28
246116.19812012 3357644.42230225 14.92915058 189 198 205
246116.35290527 3357643.60571289 14.96867561 232 243 247
246114.51525879 3357641.89135742 15.02719307 189 213 217
246116.93420410 3357646.26959229 13.48093796 13 9 6
246113.93603516 3357642.73730469 14.85579300 127 135 138
246117.32397461 3357646.19787598 13.26556206 41 36 33
246114.36535645 3357641.37414551 14.11239147 81 77 76
246114.36035156 3357641.64739990 15.00507927 190 210 211
246114.49279785 3357642.92150879 15.00619125 181 197 210
246117.01647949 3357643.88635254 13.61248302 80 79 75
246116.41076660 3357645.37927246 14.18049526 67 67 69
246116.27185059 3357646.19311523 13.70121288 131 136 139
246117.07177734 3357644.01770020 14.10949802 100 99 95
246114.35156250 3357643.14282227 14.98710251 174 185 191
246114.50195313 3357643.24627686 14.98093700 186 200 209
246116.83105469 3357643.58599854 14.15324402 95 94 92
246115.56823730 3357644.64672852 14.93709278 180 192 204
246116.93334961 3357644.87994385 14.30368900 103 68 48
246116.04589844 3357645.77484131 14.09646988 35 37 34
246114.24853516 3357641.41851807 13.80813313 176 186 187
246114.93652344 3357644.11547852 14.91373348 162 178 191
246115.56372070 3357641.79718018 13.87415504 144 138 126
246116.15356445 3357645.71514893 14.09852791 41 50 49
246113.58337402 3357642.34106445 14.62583065 41 55 58
246116.34729004 3357642.82031250 14.13667202 109 104 100
246114.75244141 3357641.07818604 13.17354202 69 77 80
246114.20104980 3357643.35882568 13.41583920 58 72 73
246114.25585938 3357641.46197510 14.22175026 56 52 51
246114.12365723 3357643.23675537 14.46000957 2 6 7
246116.93115234 3357644.20214844 14.71334457 113 107 109
246116.07946777 3357644.32409668 14.93194294 192 206 217
246113.46081543 3357642.30603027 13.65021324 91 101 103
246114.34692383 3357641.38085938 14.06104755 173 175 172
246116.84326172 3357643.55780029 13.33173466 108 107 102
246113.41540527 3357642.19317627 13.73123837 107 112 116
246113.72155762 3357642.80877686 12.90716648 14 18 21
246117.08996582 3357644.04461670 14.00880146 96 95 91
246114.07873535 3357643.24707031 13.83920288 74 89 94
246117.32360840 3357644.40612793 13.94722176 97 93 90
246115.38623047 3357643.42724609 15.00696564 181 199 213
246117.13610840 3357644.46984863 14.50671959 135 118 111
246114.18676758 3357643.40484619 13.62168503 67 81 84
246115.32873535 3357643.17846680 15.00989056 173 191 205
246117.79589844 3357645.15405273 13.09276295 72 61 57
246116.08886719 3357642.70648193 14.60342884 41 39 40
246117.23071289 3357646.34869385 13.10027409 50 42 40
246116.39257813 3357642.91058350 13.03653336 144 141 136
246115.27819824 3357643.13616943 15.00823689 173 191 205
246114.81726074 3357641.30212402 15.00713158 200 215 218
246115.26196289 3357641.10717773 12.85976028 122 117 114
246116.26867676 3357642.80035400 13.46712685 128 125 120
246113.78588867 3357641.72082520 13.50952816 207 220 228
246113.75463867 3357642.76916504 13.23283768 88 89 94
246116.44677734 3357646.70794678 12.58804321 59 53 55
246115.31689453 3357643.22198486 15.00822067 174 192 206
246117.40039063 3357645.17932129 13.98858738 206 197 202
246113.95434570 3357642.41351318 15.05503845 190 208 220
246113.34472656 3357642.18591309 13.31450653 12 17 23
246114.82678223 3357642.14385986 15.02913094 184 204 213
246113.77941895 3357642.75946045 14.12804031 53 66 72
246118.27465820 3357646.04071045 12.62271786 75 69 69
246115.59741211 3357645.31439209 14.57440090 76 80 89
246116.13403320 3357643.57806396 15.00543308 191 205 216
246113.43127441 3357642.34094238 13.30355453 14 15 20
246116.76635742 3357643.41796875 13.69982910 87 83 80
246113.79370117 3357641.53546143 12.96393013 97 100 105
246113.41137695 3357642.37292480 12.86568451 46 56 58
246115.79931641 3357645.59106445 14.35136318 86 87 91
246116.00744629 3357645.29101563 14.59734726 45 48 53
246115.76232910 3357644.71936035 14.91718578 186 199 207
246116.38256836 3357643.27526855 14.79544544 71 70 76
246114.25756836 3357643.25842285 14.72559929 176 175 181
246116.60485840 3357643.12445068 14.12051868 89 88 86
246113.76892090 3357641.87036133 14.82947636 177 200 206
246116.22290039 3357642.72210693 13.23693562 131 126 122
246114.22607422 3357641.53076172 14.80122185 210 230 231
246115.54187012 3357645.12591553 14.72434616 177 187 188
246115.64526367 3357641.88940430 13.76184082 142 134 123
246116.78784180 3357644.06292725 14.82161617 179 174 178
246115.28100586 3357641.35882568 13.30851269 49 44 40
246113.48315430 3357641.92492676 13.44368839 180 193 199
246113.65014648 3357642.63525391 13.79705715 104 118 121
246116.33947754 3357646.27618408 13.60633469 71 73 72
246116.17846680 3357643.19335938 14.94256401 225 232 238
246117.01489258 3357645.43402100 13.99146271 35 34 32
246117.10449219 3357646.61175537 12.82313442 63 53 51
246113.71716309 3357641.97308350 14.96998787 184 206 217
246115.59338379 3357642.14575195 14.80755234 180 177 172
246114.21374512 3357643.17291260 14.85841751 142 143 147
246117.84606934 3357645.52667236 12.81304264 64 55 50
246114.12304688 3357641.47930908 13.49715710 191 206 209
246115.67651367 3357642.10095215 14.56274605 43 34 35
246114.18054199 3357643.50811768 13.15152073 29 30 34
246114.28894043 3357643.52563477 13.47917557 64 78 79
246114.28759766 3357643.55688477 13.93045139 138 147 154
246113.85925293 3357641.80151367 14.84460545 191 214 220
246113.98999023 3357641.80438232 14.99388313 198 217 224
246113.78808594 3357641.73773193 13.71325493 131 145 158
246116.15954590 3357645.79461670 14.03133583 36 40 41
246113.99499512 3357642.69763184 14.98077297 200 208 219
246113.82348633 3357642.93444824 13.33553791 22 26 27
246116.36499023 3357642.93054199 13.27507019 132 129 124
246114.08044434 3357641.55377197 14.59642315 42 49 59
246115.24108887 3357641.44097900 14.48117352 50 45 42
246116.98107910 3357644.70483398 14.47005272 106 68 57
246113.85961914 3357642.95056152 13.76530361 98 111 120
246116.97985840 3357643.76391602 13.25395489 109 106 101
246116.14978027 3357642.63403320 13.29167652 127 122 118
246116.48266602 3357644.17419434 14.94842911 236 237 239
246117.33801270 3357644.88488770 14.05377865 87 69 65
246115.08776855 3357641.33190918 14.66990089 95 90 86
246116.80029297 3357643.54632568 14.21608734 92 91 89
246114.34020996 3357643.64337158 13.80084324 105 115 117
246114.72888184 3357644.17828369 14.19102669 75 76 81
246114.90222168 3357644.04553223 14.93102169 167 176 191
246115.65905762 3357645.45831299 14.55175495 26 29 34
246117.87109375 3357646.06433105 12.73478794 56 51 48
246116.24291992 3357643.96990967 14.98840141 203 212 219
246117.27368164 3357644.37786865 13.20664883 94 93 89
246116.74707031 3357643.58605957 14.47811317 104 100 99
246115.82836914 3357642.56988525 14.87868118 189 190 185
246117.27197266 3357644.36437988 14.19935989 91 87 84
246115.34301758 3357642.42297363 14.99973583 190 205 212
246117.29370117 3357644.38934326 13.59586620 83 82 80
246114.67224121 3357641.16583252 13.73529530 209 215 213
246114.19689941 3357642.70318604 15.00947189 198 213 218
246114.46948242 3357643.60998535 14.64833260 83 87 90
246116.04345703 3357646.15368652 13.82821178 90 94 95
246116.48229980 3357644.77722168 14.71900463 191 189 194
246115.17077637 3357641.34594727 14.36148453 55 44 38
246117.79907227 3357645.51507568 13.17748356 40 32 30
246113.34619141 3357642.19744873 13.09073925 27 37 39
246113.73059082 3357642.80914307 13.47445297 5 9 10
246114.32727051 3357641.40081787 14.46653461 48 51 60
246116.59753418 3357643.11706543 13.91806984 102 98 95
246115.16479492 3357641.33612061 14.33965111 65 52 46
246115.84228516 3357641.99755859 12.82385921 143 138 134
246116.81982422 3357645.88049316 13.85504436 188 192 191
246113.85949707 3357642.75292969 14.66429329 15 21 21
246116.21997070 3357642.79638672 14.39984322 71 66 63
246116.94628906 3357645.84075928 13.80646420 209 213 212
246114.69360352 3357643.83270264 14.85950279 88 103 110
246115.88085938 3357644.50567627 14.91634846 183 197 208
246116.59985352 3357644.85223389 14.62363052 149 133 136
246115.44592285 3357645.18109131 14.55795860 20 27 33
246117.78198242 3357646.09783936 12.80797672 47 44 39
246114.09069824 3357642.96038818 14.82491589 168 173 179
246114.27075195 3357641.29449463 13.17897129 95 106 112
246117.44152832 3357644.63122559 13.32223415 82 81 79
246113.61267090 3357641.92980957 14.42322922 41 54 60
246117.35729980 3357644.44183350 13.77218628 87 86 82
246117.62756348 3357645.79754639 13.34185123 28 24 23
246113.78967285 3357642.72442627 14.42704010 3 7 10
246113.57177734 3357642.55676270 13.25210381 7 11 14
246114.52929688 3357642.76184082 15.01941490 185 203 215
246115.20922852 3357643.85107422 14.99282169 172 188 203
246117.87207031 3357645.95538330 12.74236393 43 38 34
246115.94616699 3357646.08813477 13.88407135 47 51 52
246114.59362793 3357641.21002197 13.57960987 231 240 239
246116.29028320 3357642.78771973 13.06847191 138 133 129
246115.71752930 3357644.64916992 14.93043041 179 196 206
246116.13623047 3357644.46734619 14.91929340 188 198 210
246114.35791016 3357641.38336182 14.37637711 44 45 47
246116.21630859 3357642.73718262 13.49485970 130 127 122
246116.68054199 3357645.69445801 13.99290562 195 201 201
246115.74011230 3357642.08679199 14.31030464 114 99 92
246116.01464844 3357645.55157471 14.34097958 68 67 72
246114.52124023 3357641.23681641 13.72131729 213 223 224
246115.84594727 3357642.18756104 14.00975704 153 139 128
246114.12097168 3357643.01409912 14.82571507 148 153 157
246117.74121094 3357645.55480957 13.45413685 141 125 125
246116.00476074 3357642.48913574 14.37582397 53 43 41
246113.47131348 3357642.37127686 13.46617508 31 32 34
246114.83886719 3357644.15625000 14.66539383 77 88 94
246116.75341797 3357644.92272949 14.41050434 75 64 60
246113.60095215 3357641.89099121 14.02508736 191 205 208
246114.67858887 3357641.55871582 15.02907562 201 220 224
246115.90576172 3357642.47784424 14.64120197 43 41 42
246115.68334961 3357642.36682129 14.91544247 189 191 188
246114.34301758 3357643.60675049 14.09256935 75 80 84
246114.98156738 3357644.15954590 14.91727257 152 170 182
246116.14904785 3357646.29730225 13.50582695 57 63 63
246115.60131836 3357641.79248047 13.44721508 65 54 50
246117.07348633 3357644.04614258 14.15073013 104 103 99
246115.49450684 3357641.64624023 13.67132092 53 44 39
246115.44140625 3357641.54486084 13.39169407 88 79 72
246115.23974609 3357644.28356934 14.93438148 175 188 197
246116.53869629 3357646.80169678 12.48909569 50 44 44
246114.56420898 3357643.87829590 14.36449909 14 14 16
246115.43212891 3357644.99993896 14.73309612 134 144 154
246116.54650879 3357644.10174561 14.93945694 240 239 244
246113.59155273 3357641.84155273 13.42043686 182 199 206
246116.72082520 3357645.50335693 14.03246307 70 72 69
246115.49633789 3357643.90386963 14.99723148 170 186 201
246115.00048828 3357641.14630127 13.29723644 64 60 57
246117.39294434 3357644.52728271 13.97771072 73 69 66
246115.18041992 3357641.52014160 14.75901890 150 149 144
246114.70068359 3357641.88574219 15.02363968 188 206 216
246115.79138184 3357642.59973145 14.97122097 221 225 224
246116.46411133 3357642.93261719 14.01259708 111 108 103
246118.11633301 3357646.10156250 12.65339279 66 60 60
246113.87353516 3357641.77307129 14.80033684 201 221 228
246115.40490723 3357641.88653564 14.84651184 175 174 170
246117.47558594 3357644.64654541 13.82316494 84 80 77
246116.81555176 3357645.44244385 14.02715397 61 61 59
246115.68017578 3357642.07049561 14.47330666 43 33 32
246113.51635742 3357642.45239258 13.47637558 35 39 42
246115.56164551 3357641.93750000 14.59738350 42 38 37
246115.63586426 3357641.89422607 14.11262226 159 146 137
246116.61450195 3357645.11633301 14.16208458 60 53 47
246113.99426270 3357643.09533691 14.06965637 85 100 105
246116.02697754 3357643.77014160 14.99445629 184 196 210
246114.46264648 3357641.16473389 13.09641838 110 114 117
246115.44079590 3357641.54718018 13.50282955 79 68 62
246117.74719238 3357645.54583740 13.44599533 149 131 127
246115.74328613 3357643.04260254 15.05770588 189 200 206
246116.07775879 3357646.20861816 13.69929218 82 88 88
246113.84533691 3357642.85247803 14.14599895 46 60 63
246114.93920898 3357642.53344727 15.03657722 178 196 208
246116.61425781 3357646.35137939 13.48090267 74 74 72
246116.62182617 3357643.20513916 13.65371037 113 109 106
246115.44445801 3357643.30694580 15.01293087 177 195 209
246113.87353516 3357642.48126221 15.03171539 164 182 194
246116.03540039 3357645.81085205 14.07140160 32 32 30
246116.81738281 3357643.67657471 14.34295845 117 113 112
246116.98925781 3357644.14678955 14.56497765 78 74 75
246116.47802734 3357643.88415527 14.97076035 224 225 230
246117.41967773 3357646.08386230 13.27114296 44 38 38
246115.70764160 3357646.00750732 14.01864147 63 63 61
246115.98217773 3357642.41632080 13.35795498 105 96 91
246113.43176270 3357642.14605713 14.23553371 125 143 145
246114.73132324 3357643.76220703 14.93325996 170 184 195
246116.39306641 3357644.60711670 14.83029652 199 200 205
246115.48730469 3357641.40527344 12.91502285 121 113 110
246116.64697266 3357643.18884277 13.91941547 101 97 94
246115.88732910 3357642.23840332 13.01501369 113 102 98
246117.59509277 3357644.93347168 13.73391819 92 74 70
246113.47106934 3357642.40979004 13.22934341 22 25 30
246116.12353516 3357646.25402832 13.57738113 67 71 72
246116.13171387 3357642.59600830 14.23488045 143 130 124
246115.99548340 3357646.35339355 13.52168846 54 54 54
246117.81604004 3357645.64709473 12.81221962 47 39 36
246113.34326172 3357642.10717773 13.24731827 8 13 16
246115.99865723 3357646.19848633 13.75811672 66 72 72
246117.04479980 3357645.40844727 13.99545765 56 52 51
246116.14868164 3357642.65802002 13.55580902 134 129 125
246116.51611328 3357643.05047607 13.75619793 109 104 101
246115.29541016 3357645.22412109 14.48076725 49 54 58
246113.65393066 3357642.01220703 14.93645477 168 188 197
246115.42980957 3357643.53826904 15.00660896 177 195 209
246114.87792969 3357642.18041992 15.03162670 185 205 214
246113.99218750 3357643.05578613 14.20741177 22 31 36
246114.88476563 3357641.68493652 15.03596210 196 217 222
246115.52856445 3357643.11828613 15.02298832 184 202 216
246116.30554199 3357646.67755127 12.81013680 56 52 51
246117.50891113 3357646.31201172 12.95330143 54 45 46
246114.23425293 3357641.60839844 14.96795940 198 216 218
246113.50927734 3357642.41003418 13.74490070 101 111 113
246116.67871094 3357643.34332275 14.39375877 80 79 77
246117.75720215 3357646.04748535 12.84316158 43 39 36
246116.73681641 3357644.43542480 14.74353600 211 209 214
246116.05151367 3357645.28204346 14.58774662 41 46 50
246117.14941406 3357644.13659668 13.56192017 79 78 76
246116.42199707 3357642.95446777 13.04840660 145 142 137
246113.51062012 3357641.74169922 12.88754368 86 86 86
246113.95666504 3357643.07794189 13.82307720 77 96 103
246114.51330566 3357641.25103760 13.81337452 202 213 209
246117.06347656 3357646.37371826 13.28085041 40 36 35
246115.21984863 3357641.31341553 13.21144867 38 29 30
246116.30700684 3357645.52526855 14.18206787 72 71 67
246116.60620117 3357643.11041260 14.01541233 102 98 95
246116.53845215 3357646.41467285 13.29838181 21 21 21
246114.63867188 3357643.88964844 14.54728794 33 38 42
246117.53979492 3357645.51605225 13.73547840 203 192 190
246114.22888184 3357643.57684326 13.16681194 32 36 39
246113.60681152 3357641.85028076 13.52746582 196 213 221
246116.34472656 3357644.29205322 14.95098591 222 226 229
246117.06518555 3357644.97564697 14.10188198 111 89 75
246113.44848633 3357642.50604248 12.81320000 39 49 51
246114.01782227 3357643.19250488 13.16217899 11 15 14
246116.78759766 3357643.48150635 13.36079788 110 109 104
246114.69775391 3357644.14703369 14.00432301 59 60 64
246115.32592773 3357641.57153320 14.66334057 47 46 42
246117.42016602 3357646.39379883 12.91335201 61 53 51
246117.29101563 3357644.32098389 13.06211948 111 108 103
246115.87487793 3357645.32275391 14.63367844 137 141 144
246114.39538574 3357641.23663330 13.22014141 109 120 124
246116.41503906 3357643.84277344 14.97813511 219 222 229
246116.82373047 3357645.10400391 14.10867691 73 64 57
246116.21679688 3357644.01776123 14.97698879 195 206 212
246114.93127441 3357644.37872314 14.75076389 22 25 32
246113.70434570 3357641.80023193 13.74410534 119 130 150
246113.66101074 3357641.88354492 14.55619526 97 111 120
246117.42895508 3357645.85449219 13.55806541 58 47 43
246117.05078125 3357643.95874023 13.56234360 80 79 75
246114.59338379 3357643.94116211 14.20649242 13 13 13
246114.18981934 3357642.90631104 14.96879101 184 193 202
246117.55334473 3357646.28796387 12.94471359 59 51 49
246116.78186035 3357645.48968506 14.02390289 80 80 78
246115.82775879 3357642.16918945 13.24722576 89 75 72
246114.42578125 3357643.41107178 14.89911175 152 161 170
246116.12377930 3357643.76562500 15.00288582 196 206 218
246115.83728027 3357642.18975830 13.53583717 143 133 124
246116.12487793 3357644.64001465 14.87126923 186 193 201
246113.74694824 3357641.79913330 14.20984936 35 36 40
246116.41967773 3357643.09112549 14.46677208 102 101 99
246116.89135742 3357643.66223145 13.98264790 95 94 92
246114.29223633 3357643.31921387 14.69881821 147 147 155
246114.13781738 3357641.54626465 14.30003929 43 41 44
246114.21789551 3357643.46032715 13.84930801 75 86 90
246115.56384277 3357641.71038818 13.18629456 90 79 75
246116.53930664 3357643.11199951 13.60008144 114 110 107
246113.98388672 3357641.57617188 13.47147751 198 213 218
246115.51184082 3357642.10363770 14.86604214 181 180 175
246114.53698730 3357643.90008545 13.97758007 135 136 140
246117.11865234 3357646.30224609 13.33688736 41 36 33
246117.29699707 3357644.44421387 13.36613274 80 79 77
246115.04589844 3357641.39746094 14.83051872 178 177 175
246115.84277344 3357645.69519043 14.18790722 89 93 94
246116.55908203 3357645.96228027 13.89162540 195 196 198
246114.89990234 3357644.32147217 14.67839336 34 39 45
246114.29541016 3357643.57794189 13.26905060 73 84 86
246115.11071777 3357643.90069580 14.98710632 175 191 206
246114.63500977 3357641.93054199 15.02349854 188 208 215
246113.53344727 3357642.20251465 14.63532352 114 137 143
246114.12878418 3357643.20263672 14.54261684 6 7 9
246117.29663086 3357644.37207031 14.00319386 98 94 91
246116.34716797 3357642.89739990 13.55387115 123 120 115
246113.39257813 3357642.12152100 13.74109840 71 75 78
246114.26354980 3357643.47509766 13.33063793 73 82 87
246115.43933105 3357644.75811768 14.93806076 171 181 193
246116.57409668 3357646.08135986 13.78161144 166 166 168
246114.36535645 3357643.47802734 14.59815502 44 44 46
246116.13757324 3357642.60540771 13.16417313 131 123 120
246116.21899414 3357644.91265869 14.73001480 161 159 160
246113.68334961 3357641.70495605 13.12895012 51 64 70
246114.61804199 3357641.41845703 15.00916672 205 220 225
246116.11718750 3357643.13787842 14.95544529 214 223 228
246115.84936523 3357646.19079590 13.84222698 54 55 57
246115.12487793 3357642.74993896 15.02333832 184 202 216
246114.31689453 3357643.41687012 14.60193253 28 28 30
246115.83679199 3357644.06567383 14.93992710 179 197 209
246116.60046387 3357643.26452637 14.41746998 78 74 73
246115.07495117 3357644.44213867 14.86693478 101 114 122
246116.38085938 3357642.77343750 12.87978363 149 144 140
246115.06286621 3357641.66979980 15.00522327 188 202 205
246118.10241699 3357645.81860352 12.64858437 80 72 70
246116.46508789 3357645.21661377 14.20794201 104 104 104
246116.75769043 3357645.29553223 14.06119156 79 75 72
246114.02856445 3357643.16870117 13.54139042 90 101 107
246117.76428223 3357646.26770020 12.77212715 64 56 53
246116.43029785 3357646.69305420 12.61222363 58 52 54
246115.24719238 3357641.45056152 14.55391216 52 48 45
246115.29833984 3357641.38061523 13.22880077 49 44 41
246115.87939453 3357645.62408447 14.29784489 47 47 49
246116.75012207 3357643.40002441 14.09393978 101 100 98
246116.80761719 3357643.61651611 14.30443668 108 104 103
246116.48510742 3357645.58331299 14.06580067 62 62 64
246116.53845215 3357643.25769043 14.52597713 93 91 92
246115.83569336 3357642.17877197 13.92376232 150 138 126
246115.34777832 3357642.48248291 15.00291252 184 201 211
246113.90734863 3357641.79608154 14.92741013 186 206 213
246116.35546875 3357646.41735840 13.20786953 17 17 17
246114.00048828 3357641.57623291 13.74364281 205 217 215
246116.50024414 3357646.43988037 12.88925457 14 13 11
246113.49768066 3357641.83880615 13.14947414 70 80 82
246114.25805664 3357641.71484375 15.00919342 190 209 213
246114.12243652 3357642.97595215 14.87080765 168 173 179
246114.70947266 3357641.23480225 14.78415585 233 247 250
246117.47265625 3357644.62762451 13.57223606 80 79 75
246115.65551758 3357643.07238770 15.04359722 186 200 209
246115.85900879 3357642.21453857 13.93879986 149 135 124
246113.59130859 3357642.37402344 14.58565521 3 8 11
246117.16748047 3357645.10614014 14.00403595 97 78 72
246115.29968262 3357641.49169922 14.15100765 145 135 126
246114.19995117 3357643.36767578 13.34528732 67 81 82
246113.74865723 3357642.38549805 15.01482773 169 186 202
246114.21386719 3357642.37036133 15.04030991 184 203 210
246116.16796875 3357643.01580811 14.81615829 168 169 171
246115.24963379 3357642.42370605 15.01281643 186 204 214
246116.59008789 3357643.21575928 13.03891945 122 119 114
246116.33471680 3357642.86676025 13.64035606 115 112 107
246114.23254395 3357641.44879150 14.02618885 198 207 206
246116.13281250 3357642.67102051 14.38810539 48 42 42
246115.97277832 3357646.27752686 13.56718731 61 63 62
246114.96899414 3357644.51452637 14.82169437 56 61 67
246114.98046875 3357644.26177979 14.87082958 81 92 98
246117.78271484 3357645.73059082 12.84536076 36 28 25
246117.54553223 3357644.74951172 13.53515816 86 85 83
246117.31079102 3357645.59649658 13.78164864 198 192 192
246115.23571777 3357641.06671143 12.84931660 132 127 124
246115.58972168 3357641.84271240 13.93906307 155 145 133
246116.48718262 3357643.10717773 13.21412563 121 118 113
246116.10925293 3357646.34844971 13.43743038 35 36 40
246114.58483887 3357641.37646484 14.98559380 207 222 227
246115.33813477 3357641.40740967 13.54064465 112 105 99
246114.13195801 3357642.46990967 15.05078125 180 200 207
246116.41491699 3357642.98522949 14.29137325 77 73 72
246113.74401855 3357641.79687500 14.17111874 35 36 41
246117.03442383 3357644.86297607 14.23341560 104 75 57
246115.21545410 3357644.89715576 14.49069691 68 75 83
246114.24743652 3357643.49652100 13.95153332 110 119 126
246114.28393555 3357641.33978271 13.36359978 174 192 196
246115.58056641 3357641.73297119 13.08849430 100 89 85
246116.83959961 3357643.55633545 13.67411041 88 84 81
246116.31347656 3357642.81591797 13.81785202 107 102 98
246115.52050781 3357643.09112549 15.02363300 185 203 217
246113.75451660 3357641.77044678 14.00822067 200 214 215
246115.55078125 3357645.30682373 14.53820992 11 16 22
246113.97241211 3357641.65588379 14.46314335 37 38 43
246116.99316406 3357643.84741211 13.75457382 82 81 77
246115.34692383 3357642.95550537 15.01620102 179 197 211
246116.77758789 3357646.64660645 12.54453182 87 76 74
246115.13208008 3357641.23333740 13.92691422 159 151 140
246113.16760254 3357641.87365723 12.75760078 130 130 128
246116.34350586 3357646.40808105 13.26481819 15 15 15
246115.70751953 3357641.97851563 13.89777279 149 137 125
246114.17858887 3357643.41802979 13.24938965 55 60 63
246116.64990234 3357643.19464111 13.90728664 101 97 94
246116.55639648 3357646.92248535 12.49819469 71 65 65
246113.50744629 3357642.39630127 13.58196545 92 102 104
246116.18347168 3357646.15661621 13.80370140 131 140 139
246113.73193359 3357642.27752686 15.03322601 126 145 159
246115.96655273 3357645.67602539 14.21164894 46 46 44
246114.62500000 3357641.40612793 15.00795841 205 220 225
246116.68933105 3357643.27569580 13.73045826 94 90 87
246117.65930176 3357646.01782227 12.99875355 36 28 26
246115.53906250 3357642.48156738 15.01531601 194 203 208
246117.14428711 3357644.13574219 13.52261734 80 79 77
246116.01928711 3357644.43615723 14.92022705 180 192 206
246113.46752930 3357642.13079834 14.55489826 156 175 179
246116.23217773 3357642.72955322 13.88809681 113 108 104
246114.01000977 3357641.56372070 13.53888512 186 200 203
246116.09057617 3357642.66778564 14.50208282 40 36 37
246117.16296387 3357645.85156250 13.68144989 177 172 169
246117.05834961 3357643.97283936 13.45296669 84 83 78
246116.38244629 3357642.91210938 13.07380676 144 141 136
246115.31896973 3357641.94165039 14.99528027 202 208 208
246115.98681641 3357642.41821289 13.93231964 143 130 122
246116.30322266 3357646.32055664 13.51178741 82 82 82
246115.07519531 3357641.06921387 12.94204426 121 117 114
246113.84631348 3357642.95916748 13.01011467 30 35 38
246114.41857910 3357642.36511230 15.03717232 181 201 210
246117.26147461 3357645.93542480 13.59346390 169 159 158
246114.21130371 3357643.37060547 13.40401459 58 72 73
246113.91662598 3357641.57940674 13.32568359 157 179 190
246116.93322754 3357646.53460693 12.83924484 85 73 75
246114.33154297 3357643.60052490 13.38467121 63 77 78
246117.22888184 3357646.16473389 13.40042305 31 26 23
246117.33776855 3357644.52532959 13.28234291 81 80 78
246115.87438965 3357642.32452393 14.46049786 40 35 32
246116.39050293 3357643.44659424 14.91047764 215 222 230
246115.07983398 3357641.19763184 13.76808548 149 145 134
246115.09655762 3357641.24926758 14.14241600 169 157 145
246116.51794434 3357643.08068848 13.62414360 110 106 103
246115.92602539 3357642.09643555 12.79092216 143 139 136
246115.78283691 3357642.09576416 13.33986378 85 74 68
246116.81018066 3357643.50573730 14.02259731 94 93 91
246113.45410156 3357642.13433838 14.51245403 155 173 173
246115.30871582 3357644.66180420 14.91113091 158 171 179
246115.53466797 3357641.49041748 12.92359829 126 121 117
246116.43029785 3357645.48492432 14.13097382 78 78 76
246116.64318848 3357643.36169434 14.49448395 64 60 61
246115.36633301 3357641.98834229 14.96987820 201 205 204
246114.08496094 3357642.53790283 15.05486679 201 220 227
246113.66516113 3357642.63085938 13.96805668 146 165 171
246117.24584961 3357645.72521973 13.70838928 187 181 181
246116.38671875 3357642.93029785 14.25039673 82 78 75
246115.66052246 3357642.04254150 14.47338963 42 32 31
246114.07922363 3357642.56835938 15.05164146 207 224 231
246114.18994141 3357641.48822021 14.49177456 43 44 49
246116.06347656 3357642.92346191 14.88533306 206 210 211
246114.10839844 3357643.21331787 14.39819050 3 7 10
246115.64660645 3357641.86865234 13.50786591 86 77 70
246113.73522949 3357642.71380615 14.07169533 110 127 135
246116.19274902 3357642.44836426 12.81152534 143 138 134
246116.77526855 3357645.60400391 13.99676895 55 60 56
246115.46118164 3357642.84118652 15.03147030 186 200 213
246113.45715332 3357642.38861084 12.96553707 23 31 34
246113.97387695 3357643.11437988 13.54133892 94 102 105
246114.72033691 3357643.87408447 14.87702465 77 90 96
246114.53698730 3357641.35510254 14.92504311 219 234 237
246117.15441895 3357645.72467041 13.75939846 207 205 206
246115.64392090 3357641.58862305 12.83012104 130 120 118
246115.96936035 3357642.38897705 13.24398899 103 94 89
246113.41406250 3357642.16766357 13.54213619 116 117 122
246114.35314941 3357643.52294922 14.42395496 15 15 15
246117.05920410 3357645.14031982 14.02781296 120 93 82
246116.27636719 3357646.65917969 12.87214375 53 49 50
246113.86706543 3357641.73205566 14.28401184 60 59 64
246115.69799805 3357641.94512939 13.35190392 80 69 65
246117.14709473 3357645.46911621 13.96216011 213 211 216
246115.06408691 3357642.37707520 15.03350830 182 200 212
246113.94665527 3357643.06323242 13.67389488 84 97 103
246113.94250488 3357641.61657715 13.59196949 200 211 213
246117.34497070 3357646.04571533 13.42959499 22 12 11
246117.45983887 3357645.96594238 13.38126659 38 32 32
246114.73425293 3357642.67797852 15.03821945 164 183 197
246114.04748535 3357643.19537354 13.99207020 84 101 109
246114.14855957 3357643.29797363 13.32868958 83 94 96
246114.72326660 3357642.26446533 15.03485775 185 205 214
246117.85278320 3357645.35852051 13.23352337 69 59 57
246117.47180176 3357644.71264648 13.94721794 94 86 84
246115.40808105 3357641.51934814 13.76022911 82 73 66
246113.90026855 3357641.70629883 14.42468357 62 67 73
246114.44592285 3357641.34790039 14.66652679 126 139 148
246113.69970703 3357642.20880127 15.02584743 141 163 176
246113.37731934 3357642.24908447 12.99666691 37 47 49
246117.39306641 3357644.69897461 14.11696243 70 59 55
246114.18713379 3357642.41955566 15.04485798 186 205 212
246116.56811523 3357643.20593262 14.37811661 76 72 71
246116.35144043 3357643.03320313 14.53474998 96 95 93
246113.82458496 3357642.23962402 15.04793644 174 192 204
246117.28601074 3357644.42224121 13.23695374 89 88 84
246117.25952148 3357645.17272949 14.00570202 61 51 49
246113.98095703 3357641.59179688 13.87921333 190 201 203
246116.11499023 3357645.35931396 14.50402546 59 68 73
246116.95825195 3357645.42224121 14.00091457 33 31 32
246116.38879395 3357642.96704102 13.36869907 123 120 115
246114.93005371 3357642.59228516 15.03637981 176 194 208
246116.82226563 3357646.47003174 12.90491962 49 43 43
246113.52746582 3357642.44940186 13.78766823 125 136 138
246113.50305176 3357642.28656006 14.44907475 125 148 154
246115.02026367 3357644.00891113 14.95965958 181 193 205
246114.87963867 3357642.95288086 15.00573826 184 203 217
246114.82678223 3357643.02539063 14.99847126 179 198 212
246114.62927246 3357642.60894775 15.03772449 186 206 217
246115.62939453 3357644.10974121 14.94450378 162 180 192
246116.68225098 3357644.88226318 14.52143669 84 65 61
246115.46472168 3357642.17376709 14.96661282 216 224 227
246115.69018555 3357642.92303467 15.05569172 201 212 214
246113.43969727 3357642.03094482 13.95666409 146 157 159
246116.92541504 3357643.96875000 14.47273636 97 93 90
246116.60632324 3357646.21032715 13.65381718 147 149 148
246113.81958008 3357641.57202148 13.11329556 76 83 91
246116.99853516 3357644.83984375 14.29730797 113 78 59
246116.54943848 3357643.16693115 13.10588455 119 116 111
246113.82775879 3357642.69866943 14.67982960 76 83 89
246113.92614746 3357643.24829102 12.93755054 21 26 29
246117.50769043 3357644.68420410 13.52011490 82 81 77
246113.68872070 3357642.74334717 12.92831039 14 18 21
246117.14453125 3357644.16467285 14.16022873 96 92 89
246115.06579590 3357644.26129150 14.91518784 172 189 199
246116.84497070 3357644.78515625 14.49816513 95 65 54
246113.55151367 3357641.90545654 13.70278931 178 187 194
246116.78100586 3357645.13195801 14.09981632 79 70 65
246115.63403320 3357644.51287842 14.93026257 173 191 203
246116.56506348 3357643.79174805 14.91889381 244 245 250
246113.85693359 3357643.06817627 12.96068096 12 20 23
246113.66796875 3357641.82788086 13.76239491 96 104 123
246115.86682129 3357643.40563965 15.05191326 171 187 200
246116.00537109 3357642.71777344 14.75084114 166 162 161
246114.62036133 3357644.00048828 13.94321346 105 106 108
246115.52917480 3357642.29302979 14.98831654 216 226 227
246115.16625977 3357641.33197021 14.27147388 89 76 68
246113.89111328 3357641.54119873 13.17685795 69 79 88
246113.58142090 3357641.75506592 12.97386646 79 83 86
246116.70996094 3357643.39440918 14.34392548 83 82 80
246114.64428711 3357644.00628662 14.15594482 23 24 26
246116.53955078 3357645.47009277 14.08134556 69 71 68
246113.58459473 3357642.40643311 14.45633698 0 5 11
246114.78149414 3357643.99316406 14.83092785 79 92 98
246115.10913086 3357644.44439697 14.88314533 128 142 151
246115.91259766 3357642.29650879 13.97458458 150 138 126
246113.72692871 3357642.65582275 14.22022915 10 18 20
246114.39172363 3357643.56756592 14.47557354 22 22 22
246113.99060059 3357641.80090332 14.99249172 198 217 224
246117.00354004 3357644.10162354 14.44965172 98 97 95
246116.24084473 3357642.74761963 13.20125008 131 126 122
246114.73974609 3357642.61022949 15.03996086 184 203 217
246115.96606445 3357645.75823975 14.14436340 44 46 43
246115.09863281 3357641.92651367 15.08863544 190 207 214
246116.36608887 3357642.75042725 12.87502384 149 144 140
246113.98767090 3357643.11859131 13.83015156 80 97 104
246115.15783691 3357645.02874756 14.45092392 102 106 107
246115.08398438 3357641.26232910 14.47694588 86 77 70
246115.00891113 3357641.26458740 14.66442871 150 147 142
246115.75463867 3357641.94500732 12.94269180 121 111 109
246116.89660645 3357646.40234375 13.34050751 34 33 29
246116.28527832 3357646.40307617 13.25792217 15 15 15
246115.52661133 3357641.76928711 14.03085995 160 150 140
246114.18786621 3357643.12500000 14.85588837 152 153 157
246116.54748535 3357643.15899658 13.42533302 124 121 116
246113.75573730 3357642.67993164 14.37047386 4 5 7
246116.67163086 3357646.13488770 13.69862461 158 160 159
246115.33935547 3357641.41857910 13.80698967 127 118 109
246117.63171387 3357645.30786133 13.76117229 208 191 184
246115.59228516 3357641.91265869 14.39040661 58 48 46
246117.80810547 3357645.31201172 13.42009544 65 48 41
246117.36938477 3357644.60949707 14.17813301 55 47 45
246117.40478516 3357646.09204102 13.28075123 41 35 35
246115.92749023 3357642.45086670 14.55274391 40 35 32
246116.81665039 3357645.01770020 14.20808887 53 43 34
246113.78698730 3357641.74591064 13.86377525 191 206 213
246114.14904785 3357641.95507813 15.03383827 191 210 217
246116.84375000 3357646.66418457 12.59222317 82 70 70
246116.68994141 3357644.84197998 14.56052876 62 42 41
246115.40710449 3357641.81024170 14.77014256 147 146 142
246114.27453613 3357641.44354248 14.37491703 41 44 49
246113.61926270 3357641.84906006 13.61267281 166 180 193
246113.88586426 3357641.71636963 14.42215633 84 91 97
246114.17492676 3357643.38757324 13.67690754 69 80 84
246113.31884766 3357642.25701904 12.83335686 58 66 69
246117.20275879 3357646.38592529 13.06973457 53 45 43
246116.58459473 3357644.67022705 14.71806240 191 184 192
246117.15002441 3357645.58050537 13.87020588 202 202 202
246115.65283203 3357641.89831543 13.73028755 143 135 124
246115.26452637 3357643.86187744 14.99621201 170 186 201
246113.62976074 3357642.77423096 12.85437679 25 29 32
246114.22485352 3357641.45947266 14.63326359 32 41 56
246117.59887695 3357644.82794189 13.47893810 91 87 84
246117.13195801 3357644.10162354 13.95139122 94 90 89
246116.09521484 3357642.59368896 13.62147141 134 129 123
246114.14147949 3357643.26129150 14.32296085 1 6 9
246116.33703613 3357646.49774170 12.90394878 52 46 48
246114.92822266 3357641.08941650 13.11299324 62 61 59
246113.79443359 3357642.83886719 13.87298489 103 122 129
246114.21569824 3357643.39916992 14.17210007 63 68 72
246115.97863770 3357642.41790771 13.77797413 137 128 119
246116.86010742 3357643.59484863 13.67613316 88 84 81
246115.23876953 3357642.06542969 15.02981949 194 212 214
246116.36010742 3357642.88562012 13.08171082 142 137 133
246114.19958496 3357643.36761475 13.44786644 60 74 75
246116.26660156 3357642.75469971 14.17964077 112 102 100
246116.12915039 3357643.44274902 15.01211166 183 195 207
246116.86462402 3357643.60266113 13.70138931 87 83 80
246115.15527344 3357641.25006104 13.28407288 40 36 35
246115.54943848 3357645.61102295 14.27474976 42 43 45
246117.35620117 3357644.45300293 13.68745995 80 79 75
246114.70764160 3357644.17156982 13.99200153 55 59 60
246115.34362793 3357642.87500000 15.01795483 188 206 220
246115.32629395 3357641.30017090 12.96921635 100 92 90
246114.32104492 3357643.59729004 13.56090736 45 56 58
246116.90014648 3357644.69879150 14.53872681 83 56 47
246114.31640625 3357643.57989502 13.47799206 64 78 78
246113.94445801 3357643.14349365 13.06382847 6 10 9
246117.63525391 3357645.60345459 13.58598614 188 174 171
246116.04504395 3357642.91406250 14.90515709 219 223 224
246116.35815430 3357645.15283203 14.39268494 107 111 112
246113.82312012 3357641.76019287 14.27772903 31 32 36
246113.74682617 3357641.90490723 14.86751080 180 200 207
246114.43310547 3357641.34020996 14.28155136 39 35 36
246116.01745605 3357642.47552490 13.55522251 136 129 121
246116.28845215 3357644.64001465 14.83920765 192 192 202
246115.31811523 3357644.88024902 14.61095524 122 131 140
246113.77429199 3357641.78948975 14.64283848 74 88 97
246116.19958496 3357645.09014893 14.66293049 164 164 166
246117.14050293 3357646.42248535 13.06686401 47 41 41
246113.42382813 3357642.25177002 13.99454498 135 142 148
246116.64587402 3357643.18933105 13.87145042 98 94 91
246114.28076172 3357643.49847412 13.36617374 63 74 76
246114.17492676 3357643.39471436 13.26895332 76 85 90
246115.13452148 3357644.49200439 14.88304234 110 123 132
246116.46276855 3357646.42260742 13.21189785 17 17 15
246115.91687012 3357645.63244629 14.28506470 38 36 37
246117.80578613 3357645.93560791 12.78955364 39 34 31
246115.15258789 3357643.69378662 14.98822498 172 188 203
246114.00329590 3357641.57843018 13.64980412 200 211 213
246113.55676270 3357641.98413086 14.36767960 165 180 185
246116.23986816 3357645.85125732 13.99756622 13 17 16
246116.38842773 3357645.75036621 14.01408577 17 23 23
246115.16796875 3357642.42755127 15.02448273 182 200 212
246113.79650879 3357642.84014893 13.20986271 43 47 50
246116.68298340 3357643.25964355 13.77365971 93 89 86
246116.64111328 3357646.29016113 13.56654549 78 78 78
246115.56225586 3357641.95587158 14.64594555 45 39 39
246116.78588867 3357643.46362305 13.08249855 109 108 104
246116.68457031 3357644.29248047 14.84363747 231 230 235
246116.35473633 3357644.15771484 14.97589016 231 236 239
246115.86865234 3357645.98876953 13.95895767 72 76 75
246115.98498535 3357643.09228516 15.01505280 201 212 216
246114.68041992 3357641.91339111 15.02337074 188 208 215
246116.69726563 3357644.63262939 14.67906475 190 184 188
246115.80834961 3357642.14404297 13.54658222 141 131 122
246116.09191895 3357642.56024170 14.27424908 132 119 113
246116.61828613 3357643.13391113 14.05254936 94 93 91
246115.45190430 3357643.23492432 15.01505280 178 196 210
246115.76049805 3357645.86102295 14.03770638 94 95 97
246116.00708008 3357642.52496338 14.44387817 41 36 33
246116.62805176 3357643.64184570 14.77021027 132 132 134
246115.56140137 3357641.71630859 13.29318810 77 69 66
246116.43591309 3357642.89672852 14.01863194 113 110 105
246114.96777344 3357644.71917725 14.67142200 90 94 95
246114.40466309 3357643.47973633 14.70296001 109 114 120
246115.38281250 3357641.54211426 13.95889187 152 143 136
246114.66101074 3357643.81170654 14.81509113 88 101 107
246115.02551270 3357641.17639160 14.07530594 165 161 149
246116.90112305 3357643.89660645 14.43049717 105 101 98
246116.03979492 3357643.93579102 14.97354889 190 204 217
246115.69995117 3357645.94311523 14.01655102 46 48 45
246115.27636719 3357641.32788086 13.81603909 120 111 102
246116.91137695 3357643.83142090 14.29974270 100 96 93
246117.28845215 3357646.01464844 13.51418114 45 34 32
246117.60070801 3357645.59130859 13.63189125 190 176 173
246115.73327637 3357642.00726318 13.33859348 79 68 62
246117.21777344 3357644.20056152 13.13126564 103 100 95
246113.59289551 3357641.86547852 13.58638668 187 201 212
246116.21081543 3357646.28717041 13.55196667 76 80 81
246114.32019043 3357643.37188721 14.65072823 121 122 127
246117.30566406 3357645.44561768 13.90610600 217 215 218
246116.10681152 3357646.13684082 13.87487411 100 104 107
246115.35656738 3357642.48797607 15.00203896 184 201 211
246117.82678223 3357645.23681641 13.00308800 73 65 62
246116.81872559 3357643.63299561 14.28579521 112 108 107
246113.68347168 3357641.82763672 13.93161964 183 196 204
246114.59155273 3357641.22747803 14.01658058 242 246 245
246115.42944336 3357641.98742676 14.89035034 179 178 174
246114.31481934 3357641.31036377 13.32099915 166 180 183
246117.48950195 3357645.31457520 13.87015247 213 201 205
246116.09375000 3357645.23101807 14.59703064 41 46 50
246117.05529785 3357644.92492676 14.14124012 130 108 94
246117.08850098 3357645.40295410 13.99423027 90 86 85
246114.92175293 3357641.14599609 14.15367413 198 201 192
246115.37878418 3357641.36047363 12.98075771 104 94 92
246117.56835938 3357645.52490234 13.71013260 199 185 184
246115.28491211 3357641.34277344 13.09765053 58 50 48
246116.54968262 3357644.80767822 14.67031574 195 185 193
246117.51354980 3357644.71417236 13.84852123 84 80 79
246114.14282227 3357641.98858643 15.03422451 183 201 211
246114.50854492 3357641.63598633 15.02929688 192 213 218
246117.82666016 3357645.42102051 13.34074783 102 87 82
246113.45703125 3357642.26251221 14.25298691 115 134 140
246115.29858398 3357644.91442871 14.53832817 72 81 90
246117.33056641 3357644.44152832 14.09750938 100 95 92
246115.10559082 3357644.74560547 14.65999222 74 83 82
246115.81433105 3357642.13507080 14.17152405 155 141 130
246114.37182617 3357641.36352539 14.04170227 186 188 183
246114.19042969 3357641.44299316 13.68272114 136 151 148
246115.18835449 3357641.44024658 14.68649292 74 73 69
246114.31591797 3357642.66693115 15.01384354 186 200 211
246115.89526367 3357644.21820068 14.92896366 189 203 214
246116.30529785 3357642.85443115 13.55439854 123 120 115
246117.44677734 3357644.82489014 13.97836018 72 58 57
246116.39135742 3357643.02136230 14.40006161 89 85 84
246115.37353516 3357644.66442871 14.92876625 154 166 178
246117.66650391 3357646.45764160 12.75373650 56 48 46
246115.97583008 3357644.81628418 14.83966446 177 185 188
246114.18640137 3357641.43353271 13.55377483 189 204 207
246115.36926270 3357641.60003662 14.33720589 68 61 55
246114.55517578 3357642.18334961 15.02882099 185 205 214
246116.40441895 3357643.01306152 14.36009789 81 77 76
246115.94763184 3357642.36444092 13.52737236 142 133 124
246115.95544434 3357642.40161133 14.33491421 100 89 87
246113.51074219 3357641.89532471 13.41484928 174 192 196
246116.72705078 3357645.30285645 14.06561375 92 88 85
246117.25549316 3357644.31292725 13.16210842 102 99 94
246116.12878418 3357645.76092529 14.07220650 35 41 41
246116.59960938 3357644.31280518 14.86522007 232 231 236
246114.97729492 3357643.75274658 14.97813320 176 192 205
246115.01184082 3357643.29870605 14.99225235 171 190 204
246116.15429688 3357645.50323486 14.28356934 59 59 57
246115.44152832 3357645.14080811 14.57489586 54 62 65
246115.62414551 3357644.89587402 14.91346550 195 204 211
246115.89892578 3357643.58557129 15.02424812 181 197 212
246115.80126953 3357642.21026611 14.40010452 51 42 37
246116.10803223 3357646.51983643 13.25977421 56 55 51
246117.34118652 3357646.20336914 13.23911572 45 37 35
246115.97998047 3357642.41699219 13.60692787 144 137 127
246116.19982910 3357643.04608154 14.80559254 126 128 127
246116.99523926 3357646.02563477 13.67910480 161 160 158
246116.55285645 3357643.16290283 13.43769741 117 114 109
246116.53649902 3357644.88616943 14.63970375 116 101 104
246114.12426758 3357641.54437256 14.19114304 54 54 52
246114.16418457 3357643.29492188 14.31861877 1 5 6
246117.57836914 3357645.98278809 13.17973900 34 28 28
246116.96618652 3357643.92718506 14.28481293 102 98 95
246116.55786133 3357646.75854492 12.47917366 51 45 45
246117.32873535 3357646.40008545 12.95404720 55 47 45
246114.36645508 3357641.38830566 14.28849697 45 44 40
246114.17956543 3357641.95800781 15.03365040 192 211 218
246114.63427734 3357643.98315430 14.26648426 14 15 19
246116.45068359 3357643.03594971 13.46836662 125 124 119
246114.14550781 3357643.30786133 14.12085629 61 70 75
246117.12377930 3357644.11102295 13.42047977 83 82 78
246114.74511719 3357641.19232178 14.34013462 214 219 223
246116.44616699 3357644.89831543 14.67977047 183 177 181
246116.77246094 3357644.17071533 14.85239410 248 248 250
246114.87426758 3357644.14727783 14.83541679 88 101 110
246113.54895020 3357642.54486084 13.06778049 13 17 20
246113.74584961 3357642.67443848 14.29886246 1 5 6
246117.29614258 3357644.37921143 14.04943562 94 90 87
246115.72387695 3357642.46636963 14.94668770 202 202 200
246114.23620605 3357643.69317627 13.11630344 18 22 25
246117.15014648 3357644.16748047 14.15100193 95 91 88
246117.15087891 3357644.16119385 14.12621498 99 95 92
246117.33068848 3357644.58831787 14.26107693 78 70 67
246114.02392578 3357643.42462158 12.95678139 25 30 33
246114.47167969 3357641.32299805 14.42184639 78 81 86
246116.25292969 3357642.84674072 14.41445732 93 89 88
246116.10937500 3357642.62207031 13.83694553 118 113 109
246116.75915527 3357646.43487549 13.17286682 24 23 21
246117.20385742 3357644.20153809 13.86595058 91 87 86
246114.10009766 3357642.90649414 14.92898178 188 197 206
246116.55261230 3357643.19128418 13.18527126 120 117 112
246115.42736816 3357644.52471924 14.94006443 179 193 206
246116.92016602 3357643.80261230 14.22923279 106 102 99
246115.36413574 3357644.42419434 14.93772411 178 190 204
246113.85632324 3357641.68554688 13.67478275 164 178 181
246117.84545898 3357645.31365967 13.22532177 75 68 62
246113.36437988 3357642.23168945 13.13869953 25 32 38
246116.11596680 3357646.50048828 13.26030731 50 49 47
246117.25439453 3357644.33843994 14.21178532 89 86 81
246117.03161621 3357645.90686035 13.72539997 187 187 187
246117.22229004 3357644.62524414 14.35368252 161 142 136
246116.09045410 3357644.79534912 14.81264973 193 197 200
246116.67187500 3357646.53405762 12.63548756 74 65 68
246117.35021973 3357644.47528076 14.06792927 84 80 77
246116.72143555 3357643.35644531 14.11331081 93 92 90
246114.10656738 3357641.49951172 13.72866535 189 203 204
246113.74682617 3357642.78802490 13.32789803 61 62 66
246115.79418945 3357642.12103271 13.51172256 131 120 114
246114.70556641 3357643.86334229 14.82380009 78 91 97
246115.70385742 3357643.61926270 15.01925373 177 190 206
246117.03869629 3357643.90435791 13.35502911 93 90 85
246114.90087891 3357643.92266846 14.95570660 161 173 185
246114.70886230 3357642.48065186 15.03867435 171 191 202
