245813.95159912 3357675.87615967 15.65106297 43 45 44
245814.35021973 3357681.84008789 16.34786224 125 146 149
245812.13946533 3357673.02624512 15.50317478 153 156 145
245812.42919922 3357675.33343506 16.60284805 194 213 227
245813.64129639 3357680.16448975 16.30405807 188 198 207
245811.25311279 3357672.70251465 15.25294018 171 161 126
245810.02178955 3357670.28411865 15.96842480 51 54 45
245814.81121826 3357683.15502930 16.08644485 144 162 176
245813.51696777 3357680.06750488 15.71963787 41 50 49
245812.34454346 3357676.64404297 15.35249805 59 69 71
245812.44592285 3357676.89556885 15.46597862 47 52 48
245811.87664795 3357675.01806641 15.69721603 125 133 135
245813.84484863 3357681.22381592 15.87356853 214 224 226
245810.05560303 3357667.95947266 16.53710556 23 32 37
245811.04132080 3357668.84436035 16.87473297 26 33 26
245812.50189209 3357674.78289795 16.55359650 184 204 213
245813.75842285 3357677.95129395 15.15609550 101 107 93
245815.60217285 3357681.78497314 16.15937424 122 136 136
245810.01019287 3357670.17108154 16.18669510 45 35 33
245810.88470459 3357670.17895508 16.24374962 17 31 31
245810.18536377 3357667.02624512 15.56552601 46 50 51
245812.24304199 3357673.07324219 15.49462318 119 120 112
245813.81359863 3357681.14050293 15.92375946 214 224 226
245811.29266357 3357669.59698486 16.71388626 28 39 22
245813.41168213 3357679.01641846 15.50724125 73 78 71
245814.35894775 3357680.89715576 16.65511703 60 68 71
245809.94372559 3357668.80853271 16.70781517 212 203 208
245813.59759521 3357680.35968018 15.47199631 101 108 114
245809.74615479 3357669.37908936 16.42300987 178 180 175
245810.51708984 3357668.58764648 16.73896980 104 113 112
245809.66735840 3357668.94317627 15.56253624 41 43 42
245810.22906494 3357668.74884033 16.67468262 151 160 165
245814.38488770 3357680.73004150 16.62722778 43 53 55
245813.79467773 3357680.60327148 16.37729645 23 27 30
245811.80187988 3357674.83294678 15.53827000 126 130 129
245815.37371826 3357682.08483887 16.14169884 35 45 44
245812.33203125 3357676.22296143 15.61446953 152 153 157
245815.66912842 3357682.77929688 16.06784248 87 100 106
245811.98931885 3357675.29852295 15.84923363 158 168 169
245810.96771240 3357671.26422119 15.93397617 200 209 216
245811.94799805 3357674.29608154 16.31454468 71 81 83
245810.61450195 3357670.92462158 16.04547119 206 219 227
245810.27008057 3357668.07592773 16.68917274 127 132 138
245813.22259521 3357675.49182129 16.60892677 23 43 52
245809.66516113 3357668.93688965 15.53462124 43 45 44
245812.91522217 3357672.85375977 15.36871815 98 101 94
245812.52429199 3357671.13793945 15.24670792 100 103 94
245810.32080078 3357667.26965332 16.41574669 68 68 70
245811.13031006 3357669.02020264 16.87148476 31 42 28
245812.82128906 3357675.72491455 16.59503937 14 29 26
245815.60308838 3357683.15209961 15.82963467 120 128 131
245813.64501953 3357676.64581299 16.07960510 226 230 229
245814.55010986 3357677.11175537 15.33262730 48 62 26
245814.05798340 3357680.53295898 16.63556862 237 238 240
245815.93530273 3357683.09967041 15.73162937 193 199 199
245810.31274414 3357667.21307373 16.30606842 39 33 33
245810.13409424 3357667.88360596 16.51322746 22 30 33
245809.54583740 3357667.40582275 15.80895329 18 14 15
245811.85473633 3357674.30761719 16.00266647 153 172 178
245809.68572998 3357668.94451904 16.54657173 177 176 171
245813.48815918 3357678.87640381 15.29364681 99 103 88
245809.63879395 3357669.34533691 16.21970749 39 45 31
245812.67401123 3357677.58270264 15.18557930 184 184 184
245810.26629639 3357668.13781738 16.68217278 123 128 132
245811.75891113 3357670.47521973 16.24073792 39 49 40
245812.24304199 3357674.30346680 16.45745277 245 246 250
245815.20489502 3357681.76379395 16.24718857 22 31 30
245814.14550781 3357680.03588867 16.59055328 137 144 150
245814.93170166 3357680.64526367 16.62556458 19 29 30
245812.13903809 3357673.83593750 16.38340950 58 62 61
245810.98156738 3357670.84448242 15.97129536 169 183 196
245811.97039795 3357670.89990234 15.75608635 60 61 53
245814.73156738 3357683.32006836 15.83367729 127 134 142
245811.67736816 3357670.96258545 15.86707306 126 127 121
245812.61083984 3357672.86950684 15.37499619 93 96 89
245813.28662109 3357679.46936035 16.18876076 39 42 49
245811.14892578 3357669.04016113 16.78177452 50 64 39
245811.26159668 3357672.80957031 15.21692562 167 161 125
245813.27355957 3357679.21954346 15.72250748 62 64 61
245811.52703857 3357673.59393311 15.51961613 179 178 173
245814.07464600 3357680.59020996 16.64934349 238 237 242
245812.82489014 3357673.24475098 15.62420082 55 56 58
245814.43060303 3357681.86883545 16.29959488 116 144 147
245809.55511475 3357668.94177246 16.41029930 79 84 61
245811.86590576 3357671.09539795 15.68180084 50 53 46
245809.61975098 3357669.12176514 15.52675819 39 41 40
245812.83001709 3357672.76000977 15.36115742 98 100 95
245812.03375244 3357674.78137207 16.33074188 8 18 20
245809.60815430 3357669.00927734 15.99255180 57 66 47
245815.11041260 3357681.12408447 16.63366890 61 69 80
245813.70477295 3357680.74804688 15.58956432 215 225 226
245813.88116455 3357679.30950928 16.34117699 17 27 26
245810.93414307 3357670.65356445 16.12010956 145 162 172
245813.70489502 3357678.21691895 15.13867760 163 156 128
245812.22131348 3357673.49377441 16.26159477 104 112 114
245812.52606201 3357672.06298828 15.23791790 119 120 115
245809.97174072 3357667.19512939 15.94913101 10 19 16
245812.91186523 3357675.91693115 16.49612427 0 1 0
245812.35925293 3357673.38049316 16.16789055 114 120 118
245809.50921631 3357667.87780762 16.14266014 35 24 28
245809.76007080 3357667.37481689 16.17643166 19 25 23
245809.71331787 3357669.84130859 15.72647858 70 75 71
245810.21148682 3357667.07116699 15.65297318 50 50 48
245809.50964355 3357667.94055176 16.12214088 60 45 48
245811.91088867 3357674.92700195 16.13427544 192 206 215
245814.06835938 3357676.56304932 15.86595535 133 141 126
245814.48480225 3357680.60711670 16.63150024 17 25 28
245814.20587158 3357676.83483887 15.63576317 77 84 68
245812.92852783 3357677.65765381 15.17766380 86 95 92
245810.65307617 3357666.36834717 15.30686378 82 83 77
245811.08691406 3357668.98486328 17.05464172 56 67 59
245812.54412842 3357674.89825439 16.57918739 109 137 151
245814.24768066 3357677.77050781 15.15825748 94 90 79
245814.65093994 3357683.04602051 16.06939697 132 149 159
245813.50592041 3357678.18548584 15.11693478 113 113 101
245810.33911133 3357666.57769775 15.32902145 99 96 81
245809.63824463 3357667.97540283 16.63126564 148 156 158
245813.88092041 3357680.93572998 16.29399681 68 72 75
245811.98425293 3357675.29699707 15.75683308 158 163 166
245809.84613037 3357669.53271484 16.35515785 202 204 201
245811.98516846 3357675.28405762 15.84400558 162 170 173
245814.67083740 3357678.93115234 15.87938023 126 134 110
245812.12860107 3357672.19598389 15.22068787 128 128 126
245814.47320557 3357682.03613281 16.20884895 125 154 162
245812.02722168 3357670.94250488 15.63557911 86 87 81
245812.43249512 3357676.39489746 15.98617649 242 240 241
245811.33996582 3357669.56860352 16.77119446 44 58 33
245810.59466553 3357669.32617188 16.74253082 13 18 11
245811.50836182 3357671.29602051 15.70217705 72 73 75
245810.12164307 3357670.82080078 15.92146111 23 31 33
245813.74755859 3357677.47546387 15.55113125 56 60 61
245811.84124756 3357673.79992676 16.22461891 177 191 200
245814.65191650 3357681.55401611 16.50896835 53 65 65
245813.40515137 3357679.81878662 15.48023701 44 46 41
245813.89764404 3357681.42132568 15.51943016 202 209 215
245811.83703613 3357673.21166992 15.96540546 118 121 114
245812.01776123 3357671.47167969 15.27600574 116 117 111
245813.92199707 3357681.02856445 16.41876984 0 0 2
245814.27484131 3357678.63446045 15.39783287 119 122 105
245810.34582520 3357668.47589111 16.68058014 121 132 134
245812.52703857 3357676.61389160 15.94713306 242 242 250
245815.69268799 3357681.83050537 16.15199089 43 54 48
245813.43780518 3357675.41992188 16.54663849 35 52 59
245812.57940674 3357672.95788574 15.37578583 98 103 96
245814.11883545 3357677.10247803 15.40297699 127 123 112
245811.09960938 3357668.94348145 16.77069092 27 38 22
245814.70245361 3357677.94830322 15.17189598 182 173 144
245811.25695801 3357671.48815918 15.67070961 112 128 118
245810.81860352 3357670.15710449 16.22813225 24 40 39
245813.82232666 3357681.14508057 15.43865108 192 201 200
245809.51367188 3357667.39117432 15.73776054 28 24 23
245809.68554688 3357669.33367920 16.38593864 63 66 57
245812.20574951 3357675.17681885 16.50408554 3 5 4
245810.61950684 3357667.04089355 15.50143433 59 59 57
245814.03106689 3357675.59118652 15.47164059 49 51 48
245814.95001221 3357682.04913330 16.15255737 92 111 109
245813.70489502 3357678.95092773 15.92654037 83 89 87
245809.93579102 3357670.17797852 15.98741913 58 57 52
245815.08770752 3357683.07769775 15.95639229 124 141 149
245814.01727295 3357678.76513672 15.51061249 83 96 86
245812.17687988 3357676.08599854 15.30164337 55 65 64
245811.73126221 3357671.71557617 15.26786423 111 113 108
245812.17694092 3357674.40887451 16.48574448 181 188 194
245814.38519287 3357678.63934326 15.44918919 89 96 78
245812.08422852 3357673.10864258 15.64119339 175 178 167
245809.63146973 3357667.70056152 16.44326401 103 118 125
245812.25164795 3357673.25646973 16.10735321 116 120 119
245809.48480225 3357668.31835938 15.56212711 23 18 22
245809.66528320 3357669.34210205 16.29717445 56 59 48
245812.29644775 3357674.39160156 16.46261406 225 230 234
245810.11047363 3357670.56536865 15.83609772 2 10 13
245815.59295654 3357681.94726563 16.13994026 28 38 39
245814.36914063 3357679.14105225 16.25794029 63 67 68
245810.49548340 3357667.08789063 15.69431400 38 36 37
245809.64294434 3357669.16491699 15.92043400 53 65 55
245815.50622559 3357681.67047119 16.22700500 63 77 78
245811.06787109 3357670.80352783 15.99611092 153 167 180
245810.32348633 3357669.28118896 16.75913620 12 16 15
245813.55529785 3357680.30883789 15.77820587 149 159 160
245810.30657959 3357668.76818848 16.68250465 140 148 151
245812.58349609 3357671.39263916 15.19371033 109 111 98
245809.80279541 3357669.95642090 15.84143162 48 50 45
245812.89630127 3357673.08813477 15.33865356 70 73 66
245813.96588135 3357677.20709229 15.64621449 236 247 241
245811.73626709 3357673.77880859 16.05661011 171 174 179
245811.18395996 3357670.15924072 16.27056885 23 33 34
245811.67449951 3357674.07281494 15.58773136 125 130 126
245810.49475098 3357666.86688232 15.35130215 49 52 41
245811.22485352 3357671.84161377 15.45178795 98 99 93
245814.65063477 3357677.16314697 15.30453873 33 52 6
245810.66967773 3357666.19281006 15.35239220 70 72 67
245813.14685059 3357677.33465576 15.93100071 238 247 255
245813.96820068 3357680.18695068 16.56161690 185 192 200
245814.14953613 3357676.51684570 15.82636929 78 90 66
245811.50250244 3357670.20520020 16.92677498 30 45 24
245813.64776611 3357675.73095703 16.39915085 52 58 44
245812.79821777 3357676.82299805 16.00849533 217 216 221
245813.91760254 3357681.50848389 15.46449375 177 182 185
245812.58496094 3357677.24517822 15.64154720 23 14 9
245809.62176514 3357668.47766113 16.09463120 46 30 30
245813.39208984 3357674.10083008 15.47081852 18 18 18
245809.50732422 3357667.63336182 16.04023552 39 35 32
245814.12792969 3357681.75219727 16.36835289 9 17 19
245812.35125732 3357675.78009033 16.25421906 13 22 21
245811.91375732 3357671.53424072 15.27302551 122 125 116
245812.12133789 3357673.15625000 15.71662617 171 177 167
245811.80236816 3357671.16223145 15.62278748 31 32 27
245812.22601318 3357672.32012939 15.22579670 122 117 95
245813.29119873 3357678.13476563 15.09011173 151 145 129
245812.31085205 3357676.61755371 15.30632305 89 101 101
245812.27893066 3357674.23907471 16.44738197 248 248 250
245813.89007568 3357677.67187500 15.25072765 100 114 99
245811.95458984 3357672.27795410 15.27417946 143 144 139
245812.03857422 3357675.32446289 15.99777412 193 204 206
245812.08337402 3357671.62133789 15.23717213 129 130 122
245809.55535889 3357669.37408447 15.67744827 73 75 74
245814.20794678 3357678.79370117 15.54559898 49 60 46
245816.06878662 3357683.18518066 15.38609886 48 52 53
245811.11022949 3357671.55120850 15.71522236 90 106 96
245812.16009521 3357672.50793457 15.24174404 227 206 163
245815.89965820 3357683.17169189 15.68158245 173 178 181
245812.63543701 3357671.53833008 15.18798351 96 101 78
245809.41033936 3357667.31158447 15.57013035 78 78 66
245810.53790283 3357668.27441406 16.76329231 88 94 94
245815.28900146 3357681.62237549 16.31327057 24 34 33
245809.92541504 3357670.24725342 15.41693115 86 90 91
245813.19934082 3357677.57434082 15.56007767 37 43 39
245812.26281738 3357674.96838379 16.53038025 203 210 216
245815.06341553 3357681.59857178 16.40509033 22 31 28
245812.21838379 3357672.66857910 15.31012726 95 93 81
245813.87945557 3357681.42608643 15.42340851 143 148 152
245810.66528320 3357669.33660889 16.71079063 24 27 20
245809.67413330 3357666.84478760 15.34253788 106 109 88
245811.88745117 3357675.06500244 15.49679089 119 122 127
245814.58148193 3357677.20452881 15.28892612 54 65 35
245811.00201416 3357666.96234131 15.40989017 80 79 75
245809.54821777 3357667.67016602 16.31752586 44 42 47
245811.77734375 3357673.25122070 15.99672031 151 156 150
245811.38409424 3357669.91369629 16.78373146 41 55 29
245811.83544922 3357673.56298828 16.14480019 115 124 123
245809.94793701 3357670.12756348 15.65493298 54 59 55
245811.36218262 3357669.87213135 16.62624168 116 128 108
245809.51159668 3357667.82916260 16.01140594 27 21 23
245810.73291016 3357667.13421631 15.60491753 43 37 37
245810.31665039 3357667.13476563 16.15170288 35 26 27
245815.38110352 3357683.23547363 15.79375267 60 65 69
245813.08178711 3357676.41534424 16.20037270 255 255 255
245814.80895996 3357681.48577881 16.54331970 78 88 87
245813.34161377 3357674.18487549 15.69110870 8 10 9
245812.34075928 3357674.71783447 16.54373932 198 212 215
245811.98162842 3357675.23669434 15.90646553 168 179 181
245815.39154053 3357682.30389404 16.13269615 21 22 26
245815.01336670 3357681.90649414 16.18709755 40 54 54
245810.68933105 3357667.63653564 16.59238052 6 25 32
245810.16503906 3357666.36468506 15.35243320 82 82 74
245812.86315918 3357677.57995605 15.28913212 73 81 83
245814.69818115 3357677.49420166 15.21965885 60 66 38
245813.85021973 3357678.10327148 15.14601612 136 130 106
245814.38366699 3357677.93316650 15.13086987 209 195 168
245812.62677002 3357676.00775146 16.34777069 61 75 75
245814.84112549 3357682.66973877 16.04297256 135 159 171
245813.52795410 3357678.98168945 16.19388771 111 116 120
245810.99188232 3357671.89160156 15.45993137 105 104 99
245812.07995605 3357675.17578125 16.40335083 4 19 24
245809.86065674 3357669.24005127 16.59330559 21 23 20
245815.11590576 3357681.01159668 16.63895798 7 16 23
245813.24926758 3357676.73889160 16.06081963 241 244 249
245815.65435791 3357682.18048096 16.13830948 113 117 120
245812.03613281 3357675.51739502 15.60197544 176 177 182
245812.95147705 3357673.34545898 15.50177574 116 117 119
245816.08679199 3357682.71722412 15.80488396 46 52 48
245810.26141357 3357667.32513428 16.40004158 64 67 72
245813.85815430 3357676.86950684 15.93765736 7 9 4
245815.03942871 3357682.63232422 16.06043243 139 162 168
245814.49200439 3357679.94360352 16.64760208 166 167 169
245812.61682129 3357672.60205078 15.30492306 115 115 105
245813.91754150 3357676.71783447 15.92571068 41 44 33
245812.59039307 3357676.11981201 16.24704170 81 97 94
245811.95709229 3357673.92114258 16.32811546 130 140 149
245812.16735840 3357675.75750732 15.96867085 177 196 203
245814.02947998 3357681.95440674 15.68145752 170 184 184
245814.05621338 3357677.03491211 15.60885143 239 247 236
245812.36010742 3357672.95440674 15.39994526 88 94 84
245815.59722900 3357683.40319824 15.25882530 62 64 63
245810.92486572 3357669.01855469 16.69505310 16 24 9
245810.16314697 3357670.46575928 16.08746529 131 137 137
245815.80816650 3357682.79614258 16.03339386 175 185 187
245814.47583008 3357676.87646484 15.50176811 59 71 31
245813.28082275 3357679.27502441 15.86000252 38 39 41
245813.26525879 3357674.11108398 15.68122578 18 19 21
245809.52984619 3357667.36236572 15.75017643 28 27 25
245814.64691162 3357682.30609131 16.10601997 97 121 125
245809.93890381 3357667.85296631 16.38816833 66 79 88
245814.98803711 3357683.11370850 16.00077248 143 161 171
245814.51220703 3357682.67419434 16.02993965 117 133 148
245812.08673096 3357674.56054688 16.48086166 165 169 172
245814.37481689 3357679.79193115 16.59668159 161 166 169
245815.76605225 3357683.24365234 15.39288616 133 137 136
245813.42388916 3357678.39257813 15.09758472 206 195 150
245812.62805176 3357673.77166748 16.38963699 125 119 119
245814.50878906 3357680.89276123 16.64048767 21 30 35
245814.06799316 3357680.26336670 16.61304665 108 113 119
245814.04711914 3357682.06060791 15.79377842 158 172 173
245811.87377930 3357675.01373291 15.62681866 129 137 139
245811.64538574 3357674.41308594 15.39823627 34 36 35
245812.80364990 3357677.00842285 15.88553333 196 200 203
245810.12609863 3357670.22308350 16.18420029 78 68 67
245815.30139160 3357681.50903320 16.37184334 23 32 31
245813.63549805 3357677.43695068 15.96504021 160 174 177
245811.18994141 3357670.54425049 16.16830826 120 129 144
245811.98687744 3357672.74420166 15.35194778 90 89 85
245813.78289795 3357676.35363770 16.08617592 176 185 180
245814.01818848 3357681.47088623 16.40131378 13 23 22
245813.88519287 3357681.40209961 16.02848244 217 225 228
245814.81231689 3357680.29461670 16.64442444 43 51 53
245813.62927246 3357675.78680420 16.37035561 58 60 47
245812.76770020 3357673.80609131 16.38056564 167 167 167
245814.05688477 3357675.94543457 15.65483093 10 9 14
245811.22473145 3357672.56921387 15.29934216 143 141 129
245813.57342529 3357675.65325928 16.50164032 55 61 49
245813.65692139 3357678.77215576 15.33966255 86 91 84
245810.74035645 3357670.19403076 16.20585251 88 99 103
245812.66217041 3357673.93920898 16.43941879 228 237 234
245812.73272705 3357674.32525635 16.41735649 134 143 142
245813.53326416 3357678.64324951 15.20179176 107 108 102
245810.43469238 3357668.79541016 16.72823906 127 135 137
245814.68176270 3357682.24865723 16.11783218 91 117 118
245811.36798096 3357669.96215820 16.35888672 36 36 34
245810.91107178 3357670.78454590 16.01800346 166 179 195
245813.43499756 3357679.88317871 15.46390533 56 56 54
245814.15667725 3357681.44183350 16.62867928 122 132 133
245813.83666992 3357681.12976074 15.53635693 195 203 205
245812.44470215 3357671.82904053 15.21151924 126 125 120
245812.35705566 3357674.03143311 16.45326233 255 255 253
245814.18603516 3357676.53576660 15.79208565 73 87 61
245812.00738525 3357672.54077148 15.27206326 178 164 117
245813.56359863 3357680.28759766 15.56614017 95 99 100
245812.66186523 3357673.65100098 16.19472504 207 198 189
245811.86669922 3357672.97033691 15.58161354 111 113 108
245814.33813477 3357677.09735107 15.35326099 73 70 51
245814.25921631 3357680.57238770 16.62560272 48 53 56
245812.67614746 3357676.82690430 15.92337322 229 230 234
245813.41595459 3357676.85888672 16.04046440 12 22 21
245809.95623779 3357669.75439453 16.37558556 14 14 16
245813.26501465 3357678.09527588 15.09115505 158 152 138
245811.41644287 3357670.04901123 17.01736641 32 50 24
245812.33752441 3357676.69342041 15.32204628 79 91 91
245814.10949707 3357682.29876709 15.58398438 122 132 134
245813.61132813 3357680.56372070 15.92916870 185 199 202
245810.79174805 3357667.57904053 16.55389023 35 52 62
245813.46044922 3357677.57446289 15.39397049 68 78 67
245814.70385742 3357678.86352539 15.70019627 140 151 134
245811.41400146 3357670.42108154 16.20248795 134 141 133
245811.93902588 3357675.20611572 15.53854656 126 130 133
245813.93206787 3357675.69366455 15.70531750 52 53 55
245813.48114014 3357679.27166748 16.29821205 161 179 189
245811.42083740 3357670.67504883 16.06797981 112 125 108
245810.89611816 3357671.17889404 15.94157219 203 214 218
245814.61614990 3357681.25305176 16.64945030 108 115 121
245810.07012939 3357667.22021484 16.12690163 31 42 38
245813.15838623 3357676.99304199 16.02332306 112 130 132
245812.23272705 3357676.48046875 15.26750851 98 107 104
245814.70617676 3357678.63232422 15.46283150 70 74 51
245812.22473145 3357672.87652588 15.41893196 100 105 98
245810.71276855 3357670.09606934 16.21188545 87 102 105
245812.33221436 3357674.76330566 16.53990364 213 224 228
245814.34637451 3357678.98217773 16.00225639 72 83 77
245809.99127197 3357667.06506348 15.56918526 46 50 49
245809.89733887 3357670.13031006 16.00794792 59 60 54
245813.26989746 3357679.38952637 16.13179970 39 40 42
245814.66253662 3357679.43359375 16.50977135 148 159 161
245812.77032471 3357673.20501709 15.67642021 150 150 152
245814.02630615 3357680.90295410 16.67437744 43 46 51
245813.30371094 3357675.61181641 16.58856392 39 47 50
245809.69384766 3357669.39941406 16.27272606 60 63 52
245811.65844727 3357673.72436523 15.93238068 214 222 224
245809.87921143 3357668.47137451 16.73840714 159 149 150
245813.77911377 3357675.83917236 16.21889496 126 123 116
245809.79199219 3357667.30322266 16.05473709 45 54 51
245811.99688721 3357670.74157715 15.83933735 86 87 79
245810.41314697 3357670.23034668 16.21226692 40 55 62
245815.19964600 3357683.44934082 15.48913574 66 70 73
245813.94830322 3357681.73449707 15.83495331 180 190 192
245812.05364990 3357675.13494873 16.37593651 2 19 27
245815.74426270 3357682.78674316 16.05830193 155 166 170
245811.75292969 3357670.51367188 16.52285385 40 52 38
245810.00817871 3357669.44183350 16.57405663 6 10 11
245812.07733154 3357675.62170410 15.52795792 173 177 180
245810.45861816 3357666.38171387 15.30733776 118 116 104
245810.86987305 3357667.19055176 15.65848541 35 34 32
245812.94146729 3357673.79742432 16.33059502 173 179 175
245810.20648193 3357668.54644775 16.66889763 143 152 157
245811.49560547 3357673.17480469 15.36541939 100 105 101
245810.18151855 3357668.34576416 16.66772270 139 147 150
245814.59240723 3357679.36169434 16.44560432 135 143 145
245811.64685059 3357670.43481445 16.18695450 129 139 128
245813.51470947 3357674.15570068 15.43837357 41 42 37
245813.92102051 3357676.44940186 16.02188492 121 128 120
245812.23596191 3357674.44915771 16.49614906 206 213 219
245810.64660645 3357667.07226563 15.93052101 58 38 37
245809.61181641 3357668.58825684 15.55472851 46 41 38
245813.38195801 3357679.02319336 15.85272312 94 96 93
245815.33856201 3357682.31011963 16.12432861 21 25 28
245813.56469727 3357676.95886230 16.06381798 22 34 30
245814.23937988 3357682.05279541 16.25664711 161 174 180
245809.54125977 3357668.10296631 16.30295753 31 21 22
245815.31646729 3357682.44476318 16.10225487 172 175 180
245813.94091797 3357675.55792236 15.54551029 20 22 21
245809.86529541 3357666.28472900 15.34021759 73 78 74
245809.97222900 3357667.25115967 16.08776283 37 48 44
245810.98400879 3357669.97381592 16.29042435 22 32 31
245810.09674072 3357668.47363281 16.69627762 153 158 161
245812.47369385 3357676.93249512 15.51371384 85 82 75
245812.83282471 3357673.24847412 15.89895439 75 79 78
245810.04656982 3357667.94671631 16.50376701 14 25 27
245809.89697266 3357670.07189941 15.60738277 51 53 50
245812.72570801 3357675.14666748 16.59776878 12 18 16
245812.65478516 3357672.50231934 15.27554607 124 126 105
245813.46966553 3357677.17425537 16.06632233 19 31 31
245814.55932617 3357678.72528076 15.54931259 55 63 42
245813.38128662 3357673.71844482 15.38816357 25 36 22
245814.08972168 3357678.19573975 15.16520500 205 189 127
245809.98150635 3357670.22436523 15.47764778 43 49 47
245810.90991211 3357666.72253418 15.35711765 81 84 75
245812.95703125 3357673.41491699 16.10630226 131 137 127
245815.67541504 3357683.29748535 15.39346313 118 119 124
245812.13098145 3357673.08190918 15.54186535 155 157 146
245810.92456055 3357669.75701904 16.51603127 21 27 27
245812.47021484 3357675.42211914 16.61248207 197 211 222
245814.59014893 3357679.46466064 16.54015541 151 161 163
245809.55395508 3357668.65057373 16.25961685 102 98 97
245809.47387695 3357666.91802979 15.37309742 98 100 87
245812.68347168 3357672.28009033 15.26059055 145 140 120
245813.85235596 3357679.04223633 16.25334740 23 33 34
245813.94238281 3357681.68646240 15.76688004 174 184 185
245814.52874756 3357679.57879639 16.55171776 138 152 152
245814.65429688 3357681.45349121 16.58942986 229 241 241
245811.15704346 3357669.11401367 16.77828407 73 90 58
245813.48425293 3357677.52447510 15.58211899 36 39 44
245814.68994141 3357677.39630127 15.23695183 53 63 38
245814.37640381 3357677.49096680 15.15645027 100 103 92
245810.40252686 3357666.57226563 15.30192280 107 101 87
245809.95819092 3357670.14532471 15.71537876 49 56 49
245811.99804688 3357675.37377930 15.63094044 155 159 162
245810.08422852 3357667.16931152 16.00339508 11 15 14
245814.40667725 3357681.14868164 16.66854858 32 39 49
245813.96398926 3357680.83087158 16.62376595 1 5 8
245809.96844482 3357669.03967285 16.69769096 214 209 215
245815.66705322 3357682.86401367 16.03917313 81 91 100
245814.77288818 3357677.97558594 15.20390224 155 147 110
245815.42681885 3357682.83032227 16.01122475 113 128 133
245812.74371338 3357677.47174072 15.65525055 182 191 198
245809.71240234 3357667.19268799 15.71446896 37 41 40
245812.66442871 3357674.94812012 16.59470367 0 14 19
245812.56652832 3357677.25195313 15.34885120 28 29 33
245812.03906250 3357672.25714111 15.24854565 126 125 120
245814.97711182 3357681.48492432 16.51350784 33 37 36
245812.25616455 3357673.75885010 16.37002945 53 57 56
245814.71636963 3357681.32061768 16.63861275 228 242 245
245811.90106201 3357674.38049316 16.24346542 1 18 26
245809.90161133 3357670.09954834 15.87227535 61 62 56
245813.93499756 3357675.67749023 15.56475067 19 19 21
245813.62725830 3357680.55303955 15.71459293 199 206 212
245810.69073486 3357670.62915039 16.18449593 177 190 198
245812.83728027 3357677.37261963 15.85970116 131 141 143
245814.96502686 3357681.43719482 16.55465317 118 123 126
245814.20562744 3357677.06573486 15.38961124 132 128 116
245814.88073730 3357681.68707275 16.35711288 35 46 42
245810.41009521 3357668.97753906 16.74902534 15 24 21
245810.79522705 3357669.37939453 16.64474106 106 117 111
245812.75817871 3357676.13781738 16.28472900 102 111 106
245813.37164307 3357679.72717285 15.53578663 59 58 53
245813.60961914 3357680.53625488 15.78671455 200 210 212
245812.57250977 3357673.77301025 16.40690422 107 98 99
245812.52416992 3357673.40966797 16.11562920 220 220 218
245815.51568604 3357682.34802246 16.14404488 171 176 182
245813.41473389 3357679.73870850 15.79621792 50 55 61
245814.23388672 3357677.36810303 15.22415257 117 114 105
245813.42437744 3357677.47290039 15.80945778 190 199 204
245813.35864258 3357674.11511230 15.50140476 18 18 20
245814.01617432 3357681.80645752 16.13558388 193 207 210
245811.67065430 3357673.49530029 16.06034660 106 110 109
245810.25775146 3357669.20117188 16.76574326 11 15 16
245812.27227783 3357676.07904053 15.46149635 161 166 172
245811.58148193 3357670.44726563 16.15721321 154 164 153
245813.21343994 3357677.41082764 15.88938999 142 157 164
245812.01654053 3357675.15155029 16.30652618 7 29 42
245810.87011719 3357667.29974365 16.16530228 61 62 57
245812.69409180 3357672.60852051 15.31135178 119 119 111
245813.46661377 3357678.83685303 15.27663136 101 105 91
245814.88513184 3357683.36370850 15.76192284 147 156 163
245811.43237305 3357670.72625732 16.03376198 106 119 102
245810.30346680 3357667.08813477 15.80663109 37 37 35
245809.64849854 3357668.18304443 16.59344482 33 28 32
245809.53076172 3357668.76263428 16.36308479 70 73 62
245815.47283936 3357682.03955078 16.13685608 39 49 48
245812.87829590 3357674.90161133 16.58555031 8 23 20
245813.30957031 3357679.48394775 16.26873589 39 45 57
245810.38616943 3357667.18963623 16.26105309 48 36 38
245811.77264404 3357674.09381104 16.00567818 156 171 174
245812.01165771 3357675.28161621 15.94840813 172 186 187
245815.82415771 3357682.64215088 16.02889061 194 202 204
245812.79187012 3357677.58966064 15.20628929 97 102 105
245812.17260742 3357675.84680176 15.73282719 181 190 195
245816.00842285 3357683.22576904 15.26726437 38 44 42
245813.74298096 3357677.83990479 15.18473244 91 99 84
245813.03820801 3357674.14196777 16.24911880 249 255 253
245812.59307861 3357674.52929688 16.52334785 198 208 210
245815.82592773 3357683.00146484 15.90584469 163 177 178
245811.95666504 3357671.00054932 15.66379929 83 82 78
245812.60107422 3357675.57238770 16.60036850 196 214 224
245813.12365723 3357675.51550293 16.60950470 0 12 19
245813.69403076 3357680.70678711 16.07875252 207 220 226
245812.07336426 3357672.40954590 15.24134827 215 203 161
245813.82647705 3357678.40216064 15.19302177 120 106 77
245813.37188721 3357675.16766357 16.57321167 186 184 185
245815.68365479 3357683.01770020 15.93948746 134 148 151
245816.13409424 3357682.71368408 15.74991131 34 41 33
245812.64270020 3357673.45458984 16.08775139 207 202 196
245814.56390381 3357679.67425537 16.59629440 160 170 171
245812.91723633 3357673.82611084 16.34480858 188 195 188
245811.05773926 3357671.50860596 15.81465149 9 15 11
245814.13055420 3357677.31292725 15.28944492 142 138 126
245810.67889404 3357666.99224854 15.42649746 65 67 66
245813.02239990 3357673.15478516 15.29888248 72 73 67
245813.98992920 3357678.42950439 15.22823715 164 156 143
245812.65246582 3357676.81079102 15.92237091 231 232 234
245811.20385742 3357672.50097656 15.32365894 100 101 93
245809.46124268 3357667.33160400 15.64827156 53 52 50
245814.35955811 3357677.60833740 15.15222549 102 105 88
245811.82818604 3357674.20629883 15.98766422 160 181 184
245812.80194092 3357677.23016357 15.86372566 199 204 210
245810.57678223 3357670.62152100 16.19504929 187 198 204
245810.91741943 3357668.83923340 16.77721214 86 96 87
245813.48309326 3357680.07519531 16.12716866 156 169 175
245813.66564941 3357678.94592285 15.85161781 76 82 78
245813.39739990 3357677.09100342 16.04850197 32 44 44
245814.38427734 3357680.96197510 16.66103745 50 60 62
245816.04333496 3357683.06475830 15.66214180 57 63 61
245814.78533936 3357682.61907959 16.04204559 140 158 170
245811.51214600 3357673.38140869 15.49070168 87 89 88
245810.78662109 3357669.34796143 16.65832710 72 79 72
245810.09460449 3357666.37438965 15.35296631 78 81 72
245811.62042236 3357670.33544922 16.66963196 29 40 24
245812.59832764 3357675.04998779 16.59984398 3 16 24
245809.82702637 3357668.03594971 16.62249756 80 79 85
245813.46270752 3357679.86248779 15.82610035 73 84 88
245815.67974854 3357682.20361328 16.13081551 132 135 140
245811.00030518 3357667.22283936 15.58321953 38 40 37
245813.68011475 3357680.67468262 16.07863617 207 220 226
245814.81427002 3357681.91979980 16.20134163 63 79 79
245813.73510742 3357678.19531250 15.14414883 168 159 128
245813.79937744 3357680.65246582 16.32281303 60 65 68
245809.75134277 3357669.31231689 16.48593712 228 227 223
245814.63378906 3357678.12322998 15.15159607 191 181 154
245812.82745361 3357673.25952148 15.96549511 53 59 57
245814.51379395 3357678.78826904 15.59113789 46 58 38
245813.43121338 3357675.50946045 16.55180359 26 40 40
245812.93457031 3357675.36859131 16.60515594 207 211 212
245812.98162842 3357676.88244629 16.02066994 181 186 189
245814.06420898 3357679.80413818 16.53833580 125 135 144
245815.17913818 3357683.37823486 15.62501717 2 6 9
245811.52587891 3357670.13897705 16.66498375 33 44 28
245809.57781982 3357667.94000244 16.61289978 21 20 25
245809.62365723 3357668.78002930 15.90067291 44 50 40
245815.66467285 3357683.36779785 15.21778584 56 58 57
245815.40606689 3357681.55194092 16.31946564 16 26 25
245811.47644043 3357670.42584229 16.19057846 139 145 133
245813.87194824 3357679.55963135 16.47320747 20 34 37
245812.69860840 3357673.17236328 15.78074360 189 190 192
245815.06811523 3357682.74645996 16.05605507 117 144 153
245815.48419189 3357682.61889648 16.10146904 144 155 157
245812.49139404 3357672.92370605 15.37151146 88 95 87
245815.10180664 3357680.83746338 16.63061523 0 1 0
245812.23266602 3357675.99688721 16.04102325 206 209 216
245813.27935791 3357679.39666748 16.02199745 54 56 55
245810.29748535 3357667.55883789 16.52279282 11 12 16
245815.56390381 3357682.64074707 16.09873962 179 189 191
245809.89819336 3357669.17504883 16.63169861 19 19 19
245811.53851318 3357673.61334229 15.57367325 170 169 164
245813.30969238 3357679.12780762 15.83115482 69 71 70
245811.32165527 3357669.55590820 16.73878860 44 56 32
245810.29833984 3357667.34252930 16.46307373 54 58 61
245811.78656006 3357670.81750488 15.89481735 130 131 123
245813.66839600 3357678.92388916 16.22301483 88 93 97
245815.54376221 3357682.16949463 16.15121078 37 41 42
245812.49206543 3357673.45355225 16.13535881 233 235 232
245814.78607178 3357681.69183350 16.36663246 42 54 52
245810.09863281 3357667.04217529 15.55401039 51 55 54
245813.31835938 3357673.57330322 15.32202053 26 32 20
245811.89831543 3357674.60534668 16.21083260 72 94 108
245811.91760254 3357674.63726807 16.24143982 25 44 59
245815.93981934 3357683.20227051 15.40211582 95 99 98
245814.00061035 3357675.96948242 15.76362133 111 113 112
245810.19543457 3357667.96331787 16.64714432 149 160 166
245813.49481201 3357680.10858154 15.92776680 158 171 177
245812.21466064 3357672.04309082 15.21883869 133 134 129
245814.28179932 3357678.54785156 15.30937290 154 153 133
245809.48297119 3357667.65380859 15.76652050 34 33 31
245812.83483887 3357677.68017578 15.14577389 118 122 123
245813.95361328 3357677.22802734 15.62519741 247 253 249
245810.74694824 3357670.57806396 16.19184303 174 185 191
245813.25006104 3357676.14300537 16.23786163 88 90 87
245814.50897217 3357679.28045654 16.38791656 89 93 94
245810.52185059 3357670.85577393 16.14547729 198 217 223
245810.91229248 3357667.22149658 15.76518726 36 35 33
245813.98547363 3357678.70294189 15.42467213 77 87 79
245814.49731445 3357681.74017334 16.36323166 72 93 96
245812.06231689 3357672.18811035 15.24117565 127 127 125
245811.85998535 3357673.34289551 16.04326630 145 150 144
245811.83190918 3357673.36895752 16.05944061 149 154 148
245814.00988770 3357680.25256348 16.59166336 122 127 133
245812.91876221 3357677.31512451 15.89978981 235 239 242
245814.64605713 3357680.93872070 16.64045906 18 27 26
245811.99414063 3357672.49847412 15.27317047 189 175 126
245813.20697021 3357678.11102295 15.07989597 136 134 119
245814.06829834 3357679.16314697 16.30023384 37 39 38
245814.08850098 3357681.55743408 16.49312019 17 27 28
245809.47717285 3357668.13146973 15.72563648 48 44 45
245810.75445557 3357669.97869873 16.28828430 12 22 23
245813.52343750 3357677.59460449 15.32726288 85 96 80
245811.91339111 3357674.47491455 15.75261784 141 151 153
245814.05352783 3357682.07965088 15.85339737 157 171 171
245811.99328613 3357675.33355713 15.73787117 155 159 162
245815.15808105 3357682.24127197 16.10216713 32 42 41
245809.62152100 3357668.71795654 15.91244888 39 45 35
245811.67150879 3357674.08374023 15.56803894 129 134 130
245812.53723145 3357672.08630371 15.23911667 116 117 111
245811.23803711 3357669.74591064 16.66846085 76 84 71
245814.93377686 3357680.86859131 16.63273621 0 2 7
245810.85797119 3357668.17700195 16.87354660 40 47 39
245810.99371338 3357671.55133057 15.79371643 27 36 31
245816.10589600 3357682.64349365 15.79655552 64 71 64
245812.61755371 3357673.15753174 15.86881542 116 120 119
245813.92126465 3357679.05725098 16.23151398 25 34 31
245813.32421875 3357676.78942871 16.05057907 108 116 119
245814.86517334 3357682.38507080 16.07634354 30 34 35
245814.20635986 3357679.07879639 16.21315384 57 59 58
245814.70788574 3357679.37225342 16.45850945 154 164 163
245813.27062988 3357677.30975342 15.94840145 240 249 255
245810.81536865 3357671.43511963 15.93018055 207 206 211
245813.30169678 3357674.13562012 15.56120110 18 16 19
245809.56170654 3357668.31744385 15.79418564 98 86 90
245814.69433594 3357681.14044189 16.65727615 14 17 22
245811.75866699 3357674.48468018 15.50464058 62 62 62
245813.72119141 3357678.55041504 15.23094749 98 101 90
245813.48345947 3357674.11798096 15.42930317 34 35 30
245812.08801270 3357675.48736572 15.99816895 226 234 237
245812.78436279 3357677.51281738 15.37434101 69 79 80
245815.91760254 3357682.89904785 15.94253922 180 190 192
245811.68548584 3357673.86737061 15.75983715 143 147 150
245815.99029541 3357682.98504639 15.79337025 162 171 170
245814.10809326 3357678.81060791 15.58819580 43 59 48
245811.34796143 3357670.19610596 16.28445435 14 18 17
245810.10888672 3357670.68994141 15.89684963 3 13 14
245814.34429932 3357679.22491455 16.33977699 57 58 60
245812.34368896 3357673.12030029 15.53994942 126 129 120
245813.97991943 3357678.65301514 15.36570644 92 97 91
245814.22473145 3357678.97326660 15.96702003 116 128 118
245812.37347412 3357674.12451172 16.43111229 250 250 250
245811.19592285 3357669.61218262 16.65027046 43 50 43
245809.72576904 3357669.91381836 15.63482380 76 81 75
245810.35742188 3357670.44781494 16.24288940 73 69 70
245810.29467773 3357666.33483887 15.35086727 80 80 72
245812.91510010 3357676.66363525 16.10281181 228 226 231
245814.90887451 3357678.42242432 15.29677200 117 124 82
245811.82159424 3357673.88818359 16.21464729 240 243 248
245813.11553955 3357674.38012695 16.24517441 194 206 206
245815.55688477 3357683.15771484 15.83219528 145 153 156
245810.58300781 3357668.90246582 16.76755142 66 75 70
245815.41534424 3357683.48522949 15.34062004 74 78 77
245812.49523926 3357676.55706787 15.94238281 248 247 252
245812.93896484 3357675.52642822 16.61329842 97 118 123
245811.83276367 3357674.23046875 16.08023262 102 124 135
245810.60473633 3357669.78143311 16.52064323 18 27 26
245813.92449951 3357675.79187012 15.56817341 14 14 16
245814.10131836 3357676.85235596 15.66934872 127 130 123
245811.91308594 3357675.23858643 15.40197659 82 86 87
245814.25628662 3357680.81945801 16.66178131 168 171 176
245809.78485107 3357669.31585693 16.50698090 140 139 135
245813.86425781 3357680.53161621 16.55963516 0 0 0
245814.22924805 3357680.03826904 16.61232948 116 121 124
245813.91894531 3357681.63897705 15.38353920 102 106 105
245809.54412842 3357668.60748291 15.45131207 30 29 25
245809.99084473 3357666.28289795 15.34980202 83 85 80
245811.72467041 3357671.16827393 15.68631363 44 44 44
245812.79119873 3357676.33740234 16.19173431 255 255 255
245812.41870117 3357673.97650146 16.46856689 255 254 253
245813.25451660 3357673.29516602 15.27589512 64 75 58
245810.01190186 3357667.80822754 16.34593773 68 78 90
245811.83728027 3357674.83038330 15.96793175 144 154 153
245812.87963867 3357672.60748291 15.35436535 101 104 97
245811.98370361 3357674.94110107 16.28423882 22 41 55
245813.40216064 3357675.91522217 16.35222435 107 111 110
245812.94885254 3357676.45703125 16.17829514 255 255 255
245809.80187988 3357668.70281982 16.67352104 65 62 57
245812.57244873 3357672.40911865 15.25664425 164 159 129
245813.81365967 3357677.97961426 15.15626526 105 109 94
245811.68627930 3357672.50262451 15.27117062 182 173 140
245814.87603760 3357681.79180908 16.26379395 18 30 28
245812.43823242 3357672.31207275 15.24152851 152 141 119
245814.88500977 3357683.28155518 15.92223263 162 172 182
245809.75738525 3357667.17437744 15.71654320 36 41 37
245810.83996582 3357671.59991455 15.68683147 12 11 9
245811.40002441 3357671.26171875 15.80733871 17 21 20
245814.67053223 3357678.84442139 15.64232826 78 91 73
245812.65368652 3357673.40429688 16.06751823 166 165 161
245811.85552979 3357671.60717773 15.25969505 103 106 99
245814.68670654 3357680.79962158 16.62297821 17 21 22
245811.40441895 3357670.23150635 16.27478218 4 5 9
245814.56115723 3357678.97344971 16.02061653 94 105 88
245814.83367920 3357680.40203857 16.63772202 53 63 64
245813.53405762 3357678.01037598 15.14100170 122 128 118
245812.36456299 3357671.63446045 15.16766644 110 111 103
245812.26702881 3357676.11096191 16.02759743 107 108 110
245816.00006104 3357683.07666016 15.69060993 108 114 114
245810.63763428 3357671.00311279 16.01811218 212 221 228
245815.14111328 3357681.11114502 16.63646126 54 62 73
245813.92797852 3357677.60534668 15.27499104 117 122 116
245809.66217041 3357669.19403076 15.75633430 31 37 35
245809.56024170 3357668.99060059 16.40288544 79 83 56
245810.68646240 3357667.60363770 16.58417511 5 22 30
245813.18890381 3357673.96301270 15.83468914 6 11 15
245811.61682129 3357670.37786865 16.75911140 25 38 18
245809.74926758 3357668.13336182 16.63640594 80 71 76
245812.07781982 3357674.19921875 16.44407845 230 235 239
245813.31243896 3357678.05242920 15.10429859 139 137 124
245810.17547607 3357668.18072510 16.67770767 139 146 152
245809.72302246 3357669.55053711 16.08815002 84 86 72
245815.08605957 3357681.92205811 16.17615891 91 105 105
245811.72833252 3357670.81323242 15.91105461 159 162 145
245812.15338135 3357672.51403809 15.24380302 227 206 163
245811.01855469 3357668.81481934 16.87647057 20 30 21
245810.81805420 3357668.52355957 16.88600540 63 74 58
245814.07305908 3357679.72686768 16.53792191 92 102 111
245809.62725830 3357667.43786621 16.20052719 25 30 26
245814.70507813 3357678.59320068 15.43284416 86 88 66
245815.44042969 3357681.70556641 16.22600365 50 66 65
245810.74267578 3357667.21173096 16.17566681 35 35 33
245811.96600342 3357675.23645020 15.74898624 154 162 164
245812.94213867 3357677.77130127 15.10449505 158 163 157
245810.30364990 3357670.89483643 16.22014618 235 240 246
245810.41717529 3357667.08648682 15.72199535 50 48 49
245810.95996094 3357670.94061279 15.92663383 184 198 209
245811.40429688 3357670.44079590 16.19384003 134 141 133
245814.53057861 3357682.47772217 16.05595016 72 81 88
245814.95520020 3357682.61566162 16.05471611 154 177 185
245809.59033203 3357668.16619873 16.47734261 39 35 36
245813.49023438 3357677.48028564 15.82638741 187 196 201
245815.82006836 3357682.59082031 16.03579330 193 203 204
245809.98352051 3357670.19866943 15.85385704 42 44 41
245810.02587891 3357667.13177490 15.77981091 35 37 36
245813.31207275 3357679.18872070 16.12413597 65 60 66
245811.60113525 3357671.80236816 15.31015301 128 130 125
245814.57690430 3357678.76940918 15.57975960 43 55 33
245814.91333008 3357681.24261475 16.63764191 236 240 249
245812.39007568 3357675.92120361 16.26182556 139 143 146
245810.03405762 3357667.04577637 15.54324055 49 50 52
245811.96759033 3357675.25933838 15.67437649 152 156 157
245814.73156738 3357678.22241211 15.18709850 175 170 140
245813.19085693 3357673.95812988 15.59932232 25 29 30
245809.58258057 3357668.60998535 15.49263859 38 37 33
245810.40454102 3357670.01934814 16.31985664 127 150 158
245810.64453125 3357667.11566162 15.62667942 39 33 33
245813.31622314 3357679.54199219 15.98896885 48 47 52
245813.09735107 3357677.59606934 15.54239273 111 115 114
245811.06689453 3357667.42413330 15.95686531 42 45 38
245815.94775391 3357683.19683838 15.42147160 73 77 76
245814.84979248 3357681.93493652 16.19349480 61 79 79
245812.45129395 3357673.16583252 15.69496346 167 172 168
245810.15783691 3357666.85375977 15.32596588 141 144 117
245811.86883545 3357674.70458984 16.13618660 165 185 196
245813.72528076 3357675.98919678 16.17703247 132 127 121
245813.30267334 3357676.66766357 16.07270813 234 239 245
245814.34985352 3357681.81317139 16.36581230 130 151 154
245814.35418701 3357682.87451172 16.03128433 199 209 218
245815.25659180 3357682.87255859 15.98348331 101 120 127
245814.92687988 3357683.26318359 15.91973877 157 167 177
245814.27722168 3357680.25238037 16.64498711 10 18 21
245810.40264893 3357667.08758545 15.74359226 50 48 49
245810.93939209 3357669.10083008 16.67070198 6 15 0
245811.44714355 3357672.14831543 15.48740578 195 195 187
245810.86785889 3357666.26794434 15.37538338 79 84 77
245811.14709473 3357671.16223145 15.88407707 175 184 189
245812.51489258 3357677.02319336 15.61213684 49 41 30
245816.13409424 3357682.91644287 15.69464684 13 20 12
245814.21557617 3357682.67156982 15.94774246 175 186 192
245814.08471680 3357677.42388916 15.27964973 119 119 111
245810.84802246 3357667.46661377 16.50642967 154 165 167
245810.11712646 3357667.25042725 16.22009659 17 23 19
245812.45916748 3357672.72460938 15.33367348 96 102 92
245809.97381592 3357666.59771729 15.30758572 62 64 53
245812.92761230 3357672.94873047 15.35846329 99 102 95
245810.49267578 3357670.69519043 16.23331642 189 203 206
245809.73931885 3357668.95928955 16.57713127 21 21 13
245812.73590088 3357672.77478027 15.36690521 95 96 91
245810.74920654 3357670.00537109 16.27222633 44 55 57
245811.43762207 3357671.34649658 15.69827461 4 5 7
245813.68713379 3357679.32141113 16.31481361 66 88 99
245813.11584473 3357674.34985352 16.24078369 194 206 206
245814.00109863 3357680.82897949 16.65439987 77 80 85
245814.59216309 3357677.87316895 15.15524960 206 194 172
245810.31652832 3357666.65332031 15.33658314 113 107 91
245814.30694580 3357676.83123779 15.61979771 40 53 25
245813.73321533 3357680.86859131 15.97644234 211 225 228
245814.78027344 3357678.92596436 16.06716347 68 77 60
245814.06341553 3357677.02209473 15.59640312 228 236 223
245809.73236084 3357668.03771973 16.61226463 110 115 119
245813.88964844 3357681.43316650 15.62065601 181 190 195
245814.34820557 3357678.96826172 15.91783237 72 84 70
245812.22918701 3357671.22125244 15.25476837 119 120 115
245814.52014160 3357680.54388428 16.63843727 9 14 18
245812.42547607 3357674.63494873 16.54094887 187 205 207
245812.22442627 3357673.13134766 15.56986046 174 175 167
245813.80450439 3357675.96502686 16.12975121 175 171 168
245812.66204834 3357673.41900635 16.06781960 183 180 173
245812.87078857 3357673.38037109 16.05953217 147 148 140
245813.41400146 3357679.77978516 15.92922592 72 79 87
245812.26190186 3357676.05657959 15.62658596 145 150 154
245815.44348145 3357683.44866943 15.35665798 5 9 10
245813.57812500 3357675.80786133 16.37566757 49 53 39
245809.68908691 3357668.98339844 16.54074669 142 141 136
245812.52862549 3357675.29412842 16.60736084 1 15 26
245809.57159424 3357668.84625244 16.07806206 66 76 49
245814.23864746 3357679.55664063 16.49939346 129 141 141
245811.62036133 3357670.34130859 16.69291878 29 40 23
245812.54632568 3357676.67626953 15.92655945 240 240 248
245812.62664795 3357676.47131348 16.07351494 222 225 232
245811.64349365 3357673.15502930 15.90223408 103 105 102
245811.84686279 3357674.68890381 16.08699036 153 170 177
245813.19763184 3357678.40362549 15.10311222 181 170 142
245813.27764893 3357678.45996094 15.11340332 201 194 148
245810.42059326 3357667.16711426 16.20792770 49 33 34
245814.02606201 3357681.83203125 16.13946342 189 203 206
245815.27941895 3357682.24151611 16.12127113 41 42 44
245812.19171143 3357675.46099854 16.28610802 0 16 29
245812.10461426 3357670.80090332 15.70767117 89 91 80
245812.02716064 3357673.78649902 16.34460831 59 64 67
245810.15692139 3357669.06219482 16.76290131 87 88 92
245812.82617188 3357674.17926025 16.33238220 241 247 247
245811.85186768 3357674.51013184 16.08471107 157 174 181
245814.35412598 3357678.62933350 15.42672062 100 107 89
245809.57781982 3357666.98022461 15.41246319 104 105 89
245814.06817627 3357678.30474854 15.18145466 179 164 109
245809.56597900 3357669.00097656 16.30272484 55 62 28
245813.93817139 3357679.75555420 16.51939964 88 105 112
245811.61853027 3357673.75238037 15.71109772 202 201 199
245811.90661621 3357674.53503418 16.23432541 9 28 42
245810.12957764 3357667.03100586 15.54527473 50 54 53
245812.76495361 3357675.54473877 16.61803055 200 214 227
245811.53778076 3357673.20166016 15.48836040 89 95 91
245811.28796387 3357669.34741211 16.76862144 34 49 20
245810.11877441 3357670.43670654 15.80828667 3 11 13
245812.29785156 3357673.07299805 15.47332859 101 104 97
245814.61236572 3357683.35253906 15.63519382 186 190 193
245816.04302979 3357682.81939697 15.84693146 67 73 73
245810.55377197 3357667.21551514 16.27671051 42 30 32
245811.50866699 3357670.11291504 16.69906807 39 50 34
245815.85235596 3357683.15087891 15.74157143 194 199 202
245810.93121338 3357671.49353027 15.87404633 72 73 75
245811.81799316 3357674.76367188 15.64395332 117 127 119
245810.06732178 3357668.91943359 16.70836258 203 202 208
245811.84387207 3357674.56365967 16.09828758 164 183 189
245809.84490967 3357666.79516602 15.30322266 80 81 65
245810.08813477 3357670.63952637 15.73362637 14 17 22
245810.26251221 3357668.36590576 16.65954590 126 134 137
