246202.99890137 3357639.83178711 11.48516560 83 80 63
246199.05310059 3357641.77532959 11.81100273 56 57 62
246182.23278809 3357663.33508301 12.82485676 99 131 154
246182.00341797 3357664.96313477 12.18409252 32 48 61
246200.65014648 3357640.35858154 12.67844105 96 98 97
246202.66748047 3357639.48461914 11.59447765 87 83 80
246183.13439941 3357663.55340576 12.89915180 2 10 13
246186.47888184 3357658.75537109 11.31455994 134 148 161
246182.39538574 3357663.90582275 12.82864189 16 29 38
246181.80114746 3357664.22387695 12.47476959 12 23 25
246182.60925293 3357664.71734619 12.41057110 11 25 28
246182.18469238 3357665.44317627 11.95258141 34 47 56
246182.43200684 3357663.92901611 12.83801460 20 30 40
246199.83459473 3357641.06549072 12.63263321 194 201 209
246190.13659668 3357655.11279297 11.30938530 92 98 98
246199.03027344 3357642.41772461 12.07278633 49 57 60
246181.83666992 3357664.17218018 12.48110676 18 29 31
246196.43798828 3357647.95062256 11.29635334 113 114 109
246181.58178711 3357663.53509521 12.01972103 37 44 52
246182.89392090 3357662.18096924 12.38261223 141 157 173
246184.62353516 3357663.24603271 12.02802944 27 35 22
246183.65307617 3357662.70306396 12.90768814 58 71 87
246200.38464355 3357642.63305664 12.25650406 80 86 76
246199.10473633 3357641.95782471 12.35738182 198 204 204
246201.17639160 3357640.33331299 12.40606022 69 82 91
246200.97460938 3357639.10540771 12.22869873 178 174 173
246200.05126953 3357642.53070068 12.33454609 108 125 117
246183.04064941 3357661.95031738 12.01656628 27 34 44
246200.86877441 3357641.02105713 12.73831081 7 17 19
246181.70678711 3357663.38470459 12.17457104 28 38 48
246181.62609863 3357663.46838379 12.22176552 18 26 37
246199.82617188 3357640.59027100 11.76665974 183 174 165
246199.94018555 3357640.45434570 12.33141613 210 204 206
246200.95605469 3357640.23956299 12.46966648 43 53 54
246181.15466309 3357664.42926025 12.38282013 90 115 145
246201.80126953 3357640.35992432 12.27126980 175 177 174
246193.27746582 3357652.00305176 11.35334587 83 89 87
246181.62133789 3357663.48126221 12.06034756 35 42 52
246201.45300293 3357639.07434082 12.26913548 121 122 114
246202.39562988 3357639.83306885 11.90699100 140 147 155
246201.81396484 3357639.96325684 12.28848171 84 83 89
246182.06030273 3357663.37792969 12.69613647 0 9 24
246182.74023438 3357663.72198486 12.89285851 10 19 26
246184.44018555 3357663.77600098 11.94538784 29 38 35
246185.04089355 3357663.38952637 11.53680992 48 59 45
246200.64086914 3357639.34649658 12.00300694 177 179 174
246201.15637207 3357640.20574951 12.35801697 28 40 54
246201.92260742 3357639.31262207 12.18438911 112 113 108
246199.66235352 3357640.83184814 12.09646511 165 167 166
246184.06701660 3357663.29840088 12.68779278 20 30 31
246182.18212891 3357665.10986328 12.13797474 26 44 56
246183.37548828 3357662.51080322 12.89406109 56 79 95
246183.43298340 3357662.64538574 12.89260483 6 19 27
246199.26757813 3357642.23590088 12.38730717 96 107 111
246200.19152832 3357642.33074951 12.48816967 90 106 96
246200.48303223 3357641.64031982 12.48888397 137 139 136
246199.14636230 3357641.55975342 11.90876484 39 48 55
246181.99121094 3357663.97155762 12.57196426 15 25 27
246199.21984863 3357641.59875488 12.41790009 200 200 208
246183.16101074 3357664.07507324 12.88988781 72 85 94
246200.67785645 3357639.58721924 12.30863571 99 81 71
246184.07141113 3357662.80938721 12.88922310 36 50 59
246201.47497559 3357639.67065430 12.34171391 114 116 111
246200.40429688 3357639.67889404 12.12993050 168 169 164
246183.57617188 3357663.96740723 12.71490860 5 13 15
246182.70104980 3357662.41052246 12.38597679 18 36 48
246199.83886719 3357642.76123047 12.10937500 74 84 86
246201.12011719 3357641.46374512 12.66714859 45 44 42
246181.61560059 3357665.12005615 12.02066898 34 50 63
246182.20019531 3357663.05377197 12.44594765 123 138 159
246183.96105957 3357662.66229248 12.93330956 34 50 63
246184.04235840 3357664.05218506 12.07917786 27 36 31
246182.26562500 3357662.79229736 11.94454384 21 28 38
246180.74755859 3357664.80175781 11.96804714 22 30 41
246202.07653809 3357640.61810303 12.24310398 0 1 0
246200.18737793 3357641.35369873 12.49103451 153 155 150
246200.21459961 3357642.13452148 12.59404469 75 89 76
246182.94409180 3357663.23950195 12.90073872 5 15 16
246199.87792969 3357642.90618896 11.85632229 107 106 112
246182.60473633 3357664.80468750 12.37961864 9 20 22
246201.54504395 3357639.87664795 12.33589649 124 125 129
246184.29614258 3357663.92169189 11.92944908 31 41 33
246201.43310547 3357639.66217041 12.34229565 122 124 121
246184.49682617 3357662.15252686 11.71030807 98 103 107
246200.67211914 3357642.16992188 12.50408936 65 71 69
246182.03051758 3357664.97882080 12.17821693 37 51 64
246181.77172852 3357664.36175537 12.47085667 0 12 20
246200.60449219 3357641.33941650 12.55883694 150 153 146
246201.79296875 3357638.68426514 11.66419125 147 144 139
246199.15771484 3357642.36700439 12.32813168 89 99 100
246183.20458984 3357663.94366455 12.92545319 115 137 151
246202.52197266 3357639.94976807 11.74346733 184 189 193
246201.06616211 3357640.17449951 12.37487888 17 30 36
246182.55346680 3357662.74444580 12.56770420 53 62 77
246184.57629395 3357663.06909180 11.57525349 46 52 38
246199.63610840 3357640.88677979 12.05707836 162 166 165
246200.76037598 3357639.22113037 12.05593967 199 199 197
246183.39807129 3357662.76013184 12.89388084 8 16 18
246201.58947754 3357638.57104492 11.51160431 94 91 84
246182.83557129 3357663.04742432 12.95721722 11 16 22
246199.35546875 3357641.56896973 12.54880142 189 184 188
246201.01538086 3357641.56921387 12.68424225 73 69 68
246181.10021973 3357664.58032227 12.36266232 64 90 117
246199.97265625 3357640.35076904 11.81413841 185 181 170
246201.99890137 3357640.64855957 12.29006767 0 0 0
246182.93200684 3357662.11535645 11.62328720 42 54 54
246181.66223145 3357663.47869873 11.72205162 34 37 44
246200.96020508 3357639.91479492 12.38978291 57 86 120
246181.72570801 3357665.63714600 11.60538483 31 41 43
246181.37414551 3357664.91790771 12.22953701 39 60 77
246200.72302246 3357641.52166748 12.65815639 133 137 136
246180.96643066 3357664.21496582 12.19132519 3 33 59
246199.03967285 3357641.80773926 12.12276268 65 80 87
246181.14526367 3357659.03771973 17.33799744 100 133 64
246182.70019531 3357665.27935791 12.10411263 18 29 25
246181.31628418 3357664.27764893 12.45356655 39 59 86
246202.31481934 3357639.98400879 11.96811485 29 33 32
246184.86816406 3357663.53308105 11.65631866 38 51 34
246200.87817383 3357640.06549072 12.43839073 58 91 134
246181.67565918 3357664.78173828 12.29883385 42 61 76
246200.99426270 3357639.37335205 12.32170105 147 148 143
246201.33068848 3357639.00976563 12.25122929 137 134 129
246198.92138672 3357642.25299072 12.05028057 59 62 67
246184.06762695 3357662.02209473 12.60788822 32 40 42
246199.46936035 3357642.21429443 12.41383171 99 123 125
246183.77783203 3357663.51770020 12.86732101 8 13 16
246198.96655273 3357642.10168457 11.66546345 42 47 50
246200.20898438 3357642.91687012 11.95953083 21 21 29
246181.48718262 3357665.08233643 12.07090569 38 56 70
246202.40783691 3357639.55920410 11.97545338 170 175 179
246200.61682129 3357640.20269775 12.61738682 38 44 42
246182.41687012 3357662.63262939 12.02598572 26 34 47
246199.44775391 3357641.12365723 11.77672482 70 71 73
246183.05676270 3357662.31896973 12.70267582 4 12 25
246184.49279785 3357663.81646729 11.85811138 26 37 29
246200.45397949 3357639.79217529 12.43305016 176 186 175
246201.27270508 3357640.20922852 12.34158802 19 38 80
246183.69909668 3357662.72467041 12.91313839 47 60 76
246182.34606934 3357663.65795898 12.90151882 67 83 106
246202.42370605 3357639.69091797 11.90975094 173 178 182
246182.72155762 3357664.90155029 12.34345341 23 33 34
246199.77136230 3357642.87097168 11.90990829 78 79 84
246183.18847656 3357663.21325684 12.91401863 10 18 21
246202.23583984 3357639.79949951 12.07835674 20 25 31
246181.36230469 3357665.38549805 11.88895416 42 57 64
246181.92883301 3357665.06024170 12.08667183 36 50 63
246201.84497070 3357638.89117432 12.06884098 142 138 129
246201.27539063 3357641.09265137 12.66378975 33 30 25
246183.22973633 3357662.08544922 12.67891026 100 113 130
246182.96057129 3357664.78863525 12.38343620 19 29 30
246181.67773438 3357665.30535889 11.86065578 33 47 58
246200.35888672 3357643.30639648 11.38450050 135 134 129
246182.52575684 3357662.51940918 11.83643341 42 45 64
246200.01660156 3357642.02301025 12.59128475 103 124 117
246199.72045898 3357642.27746582 12.40588474 99 125 126
246181.08911133 3357664.09362793 12.24507046 7 40 73
246200.62084961 3357640.50683594 12.73655605 145 145 145
246183.21887207 3357661.78112793 11.61454773 19 27 30
246200.03771973 3357640.39855957 12.38396835 150 126 122
246183.98571777 3357663.89251709 12.25641823 26 32 30
246182.65539551 3357662.90875244 12.85970402 89 130 152
246184.34252930 3357662.94409180 11.89251900 95 97 86
246183.82702637 3357663.43957520 12.87832260 5 15 17
246199.93078613 3357642.93750000 11.78647900 49 47 52
246184.62121582 3357663.27795410 12.02506065 28 36 23
246181.16613770 3357663.96655273 11.78183556 40 43 50
246199.00500488 3357642.00469971 12.30745888 169 184 189
246183.07128906 3357664.42016602 12.55791378 26 35 40
246181.13854980 3357665.16674805 12.04943562 42 64 77
246181.55761719 3357664.72192383 12.35829067 44 61 79
246199.93737793 3357641.16607666 12.63801956 187 181 181
246183.63476563 3357661.61151123 12.29578590 19 25 41
246183.00305176 3357661.99383545 11.92534256 28 35 45
246201.44763184 3357639.58453369 12.34413052 120 121 116
246201.14880371 3357638.79608154 11.97404194 180 177 172
246184.35375977 3357662.99609375 12.58088684 22 31 28
246183.86218262 3357661.69885254 12.30004692 40 47 63
246199.61694336 3357640.90020752 11.74113846 166 163 158
246181.83178711 3357663.39971924 12.42242146 117 145 166
246183.69262695 3357662.99145508 12.90665245 2 9 15
246200.41638184 3357641.36328125 12.46600914 149 151 148
246183.98229980 3357663.53179932 12.51070404 24 30 30
246181.86621094 3357663.22094727 11.83007145 20 30 40
246180.85681152 3357664.79364014 12.13020134 90 106 129
246200.24841309 3357641.30041504 12.51774311 152 154 149
246183.47827148 3357661.61193848 12.05736732 44 48 60
246183.30676270 3357661.75323486 12.22484589 34 43 58
246181.30432129 3357665.09259033 12.08966923 40 57 77
246182.99462891 3357663.20806885 12.93436813 7 10 17
246184.40222168 3357663.54028320 12.18899155 17 28 20
246183.20971680 3357663.47210693 12.90919113 6 11 15
246184.54333496 3357662.94946289 11.43744850 103 108 102
246199.87634277 3357641.60437012 12.73582077 162 167 163
246183.11462402 3357663.65802002 12.90173244 6 11 14
246200.08203125 3357640.32440186 12.36705112 184 156 155
246181.86242676 3357665.41485596 11.79924870 33 45 57
246202.21875000 3357639.17352295 11.95664310 85 86 81
246200.78002930 3357641.26788330 12.72310448 142 144 143
246199.71276855 3357642.79162598 12.02873802 49 58 57
246181.39172363 3357664.48663330 12.49209690 55 75 100
246198.97058105 3357642.25848389 11.63503933 38 43 47
246200.46374512 3357640.84130859 12.76312065 19 19 19
246183.29260254 3357664.36254883 12.52879333 13 19 15
246198.95812988 3357642.29388428 11.89148331 52 57 61
246199.68298340 3357642.06622314 12.46918583 94 110 107
246184.57104492 3357663.10034180 11.77859211 58 62 45
246181.50280762 3357665.23010254 11.96142101 34 51 61
246199.38989258 3357641.22473145 12.12976265 153 160 166
246184.35083008 3357660.95263672 11.33649445 143 149 149
246202.38012695 3357640.26678467 11.92085838 61 62 56
246200.63659668 3357640.44146729 12.71326160 147 147 145
246199.78356934 3357640.61706543 12.27114105 198 201 206
246180.74072266 3357664.64892578 12.00302601 53 66 82
246200.53491211 3357641.76367188 12.66365242 100 102 101
246183.91418457 3357662.08953857 12.80430794 34 46 60
246184.07543945 3357663.26708984 12.71004868 21 31 32
246200.27929688 3357642.02398682 12.67129517 29 41 27
246201.61999512 3357638.68383789 11.80155182 159 156 151
246183.91223145 3357663.30633545 12.88407421 6 14 17
246184.05786133 3357662.99053955 12.87366486 122 139 149
246200.18701172 3357642.86798096 12.03721142 46 47 51
246181.09716797 3357665.25573730 11.97609234 27 46 52
246200.36120605 3357639.74688721 11.96686363 172 167 163
246199.92858887 3357641.10699463 12.65871620 213 208 214
246199.80834961 3357640.56475830 12.17434692 172 172 174
246184.31567383 3357662.60131836 12.47511768 78 79 74
246184.17785645 3357662.22576904 12.71494579 48 51 58
246201.51965332 3357640.69628906 12.52275944 80 81 76
246200.59497070 3357643.29113770 11.58307171 1 2 0
246199.46948242 3357641.20428467 12.41648960 205 200 206
246186.55310059 3357658.69183350 11.32289410 138 151 167
246183.39123535 3357663.58422852 12.94322109 12 23 29
246181.80590820 3357665.37805176 11.80334949 39 51 63
246182.28515625 3357663.75305176 12.84014034 33 42 57
246182.35070801 3357662.86126709 12.42600918 45 64 79
246183.12243652 3357664.63708496 12.38840103 3 12 11
246201.85998535 3357640.55273438 12.32796001 94 96 93
246199.13085938 3357641.59112549 11.89970875 56 65 72
246185.33898926 3357659.94433594 11.35663128 129 147 157
246182.91003418 3357664.26342773 12.74421978 38 48 58
246184.31652832 3357662.84899902 12.11800098 90 93 82
246184.05541992 3357663.61767578 12.40022755 18 23 19
246181.88256836 3357664.41265869 12.47413921 2 16 19
246182.90527344 3357663.67053223 12.87746334 3 8 11
246199.73767090 3357642.18804932 12.43615532 62 84 81
246198.07006836 3357644.50189209 11.30218506 123 123 121
246183.06799316 3357664.42553711 12.55135059 26 35 40
246183.77709961 3357664.03283691 12.41435909 19 30 24
246183.27478027 3357664.39453125 12.49503613 11 20 15
246201.17993164 3357639.70562744 12.34145546 57 67 66
246199.38952637 3357641.21984863 12.06430054 151 161 163
246200.50073242 3357642.45654297 12.38572311 53 58 52
246184.89172363 3357662.99896240 11.57549191 38 50 30
246200.23547363 3357639.93005371 12.18447304 182 182 184
246183.75329590 3357662.30084229 12.90584755 68 89 118
246182.83044434 3357662.57513428 12.70097542 4 11 21
246182.56555176 3357663.94537354 12.87765789 40 54 63
246182.33068848 3357664.17687988 12.61081409 4 15 19
246199.85705566 3357642.27178955 12.41560650 95 124 120
246199.07458496 3357642.50061035 11.90365791 47 55 58
246183.75024414 3357661.87457275 12.63992596 12 16 27
246181.82092285 3357658.47723389 17.28165627 69 99 37
246185.05932617 3357663.20336914 11.53855610 43 52 35
246181.61938477 3357663.76013184 12.56308556 88 97 114
246198.84313965 3357642.77777100 11.41642857 88 98 99
246181.66198730 3357664.22894287 12.46146107 3 11 22
246198.39282227 3357643.69165039 11.37448215 112 120 122
246187.89196777 3357657.39355469 11.33564949 135 149 160
246182.79675293 3357662.59564209 12.68420315 2 9 19
246182.35510254 3357665.26855469 12.10716820 29 42 48
246181.79064941 3357665.04339600 12.08178139 31 49 61
246182.01879883 3357662.98028564 12.12938213 12 26 35
246184.20214844 3357662.24194336 12.33142185 122 131 136
246182.64392090 3357662.41326904 11.80375004 48 56 69
246182.30871582 3357665.39807129 12.04649067 13 27 30
246184.70397949 3357663.09381104 11.62737465 33 42 21
246180.89770508 3357664.28930664 11.63110352 12 22 24
246198.02966309 3357644.48474121 11.30700874 133 133 133
246183.49584961 3357663.68280029 12.93471909 65 76 82
246181.91247559 3357664.87597656 12.24886990 35 51 67
246184.73498535 3357660.58367920 11.33289623 123 140 150
246199.68969727 3357641.24523926 12.68068504 208 208 216
246200.94226074 3357640.46276855 12.68159103 20 24 23
246184.63549805 3357663.12219238 11.81149864 66 73 57
246181.69738770 3357658.97753906 16.93804932 69 93 41
246199.69287109 3357642.38720703 12.36848831 121 142 143
246180.89050293 3357664.28125000 11.90557671 13 20 26
246183.71887207 3357661.54583740 12.03632832 38 45 53
246183.57592773 3357662.39019775 12.89869118 60 88 112
246199.28356934 3357641.34338379 11.86263561 55 65 67
246198.95117188 3357641.96307373 11.92732334 67 73 71
246199.54309082 3357641.89892578 12.54706287 129 153 153
246200.48754883 3357639.53955078 11.84361076 171 169 157
246200.84106445 3357641.80932617 12.66920567 94 94 94
246181.52221680 3357663.58264160 12.06425190 29 36 44
246199.92077637 3357641.44329834 12.65769768 172 171 166
246182.33789063 3357664.81903076 12.34024715 1 12 16
246182.73779297 3357662.35211182 12.36606884 24 36 50
246182.82238770 3357662.19512939 11.95032120 18 27 36
246182.12561035 3357664.11749268 12.57422352 10 24 27
246188.51257324 3357649.92797852 19.59490967 43 69 42
246183.79382324 3357662.75915527 12.92416096 45 61 74
246199.93627930 3357640.39453125 11.91598606 177 173 164
246201.63610840 3357638.31677246 11.44038868 166 161 155
246201.11474609 3357641.45410156 12.67242336 45 44 42
246183.90893555 3357663.31365967 12.88250828 7 15 18
246183.53173828 3357662.65881348 12.89856148 54 71 81
246181.77600098 3357664.76818848 12.32542515 37 56 71
246199.92956543 3357642.94360352 11.76205921 30 28 33
246199.95568848 3357642.82537842 12.07951450 59 65 63
246198.97497559 3357642.29956055 11.78843021 46 54 57
246184.41308594 3357662.93609619 12.48164845 51 56 49
246181.56286621 3357665.19378662 11.96491432 34 51 61
246182.91552734 3357662.13427734 11.60921669 41 51 52
246181.00036621 3357664.58380127 12.30214119 106 132 159
246200.00012207 3357641.96807861 12.62620831 124 141 133
246182.01965332 3357663.41516113 12.69358349 0 8 20
246202.63232422 3357639.43664551 11.64194965 68 67 65
246201.60791016 3357640.85150146 12.52611160 40 41 36
246182.28320313 3357664.93243408 12.27668858 28 41 49
246181.29504395 3357663.82214355 12.14612865 17 34 52
246183.97595215 3357661.15911865 11.48958111 127 140 156
246202.28588867 3357639.84106445 12.02766609 13 20 26
246181.94543457 3357663.14044189 11.70744228 51 55 67
246198.09472656 3357644.57574463 11.28841877 125 125 123
246183.08715820 3357662.40393066 12.78985786 18 44 67
246181.06506348 3357664.24505615 12.30511761 149 186 213
246199.27624512 3357642.53656006 12.22765732 39 58 56
246184.20458984 3357662.32391357 12.30777931 129 137 140
246182.67065430 3357662.57604980 12.52438927 109 125 140
246199.97961426 3357642.92010498 11.87677670 94 93 99
246199.95007324 3357642.94506836 11.77569485 56 53 60
246197.10729980 3357646.60681152 11.27916527 128 129 124
246182.76062012 3357662.43951416 12.49065208 59 78 92
246182.04650879 3357664.08312988 12.55487061 11 22 24
246183.44262695 3357663.94006348 12.84373283 11 17 15
246200.53991699 3357640.26031494 12.63879490 79 74 68
246198.76538086 3357642.91400146 11.40342426 95 103 105
246200.31640625 3357643.09979248 11.55525494 16 20 21
246184.38659668 3357662.85803223 12.63903904 42 48 44
246200.10791016 3357641.02813721 12.66282082 181 169 169
246201.01245117 3357641.62976074 12.64445877 112 108 105
246183.42602539 3357662.42584229 12.87896824 78 106 127
246198.93957520 3357642.19665527 11.50664902 72 77 80
246180.76049805 3357664.44915771 11.89669418 26 35 42
246200.14660645 3357641.26055908 12.55078793 166 166 158
246201.14392090 3357639.28533936 12.32796955 138 137 133
246184.71667480 3357662.97979736 11.45776558 60 68 55
246182.95739746 3357664.20678711 12.80592823 39 53 64
246182.89587402 3357662.96893311 12.95414448 17 24 34
246184.39038086 3357663.53948975 12.20456314 20 33 24
246200.23620605 3357641.75646973 12.71707439 109 114 110
246183.60363770 3357661.54290771 11.91870499 33 40 46
246200.93164063 3357641.30059814 12.77720356 187 187 189
246184.34008789 3357662.72497559 12.79207230 56 65 70
246200.56628418 3357641.29791260 12.55749989 149 152 145
246201.26025391 3357640.13000488 12.34262085 20 36 70
246200.17077637 3357640.74468994 12.65015030 212 203 204
246184.29858398 3357662.62835693 12.40491486 79 80 74
246201.09545898 3357639.46270752 12.33608818 133 133 131
246200.09851074 3357640.15020752 11.87354851 180 171 162
246184.35937500 3357663.34204102 12.32368660 15 22 15
246181.73742676 3357658.71862793 16.99020386 40 58 18
246183.42663574 3357661.93273926 12.71978855 27 34 52
246201.28674316 3357640.27709961 12.34022522 31 56 96
246201.79284668 3357640.50134277 12.32007408 95 96 91
246199.73999023 3357640.70275879 11.96224308 173 170 163
246199.09692383 3357642.31024170 12.33914661 103 108 112
246202.64685059 3357640.35589600 11.69101334 60 60 50
246181.92822266 3357665.42498779 11.81936836 35 49 60
246183.16076660 3357661.89294434 12.27011299 31 43 57
246199.01599121 3357642.56494141 11.58336163 66 76 78
246183.47937012 3357662.42407227 12.88897133 70 98 120
246183.45336914 3357661.86560059 12.64130211 20 31 49
246201.95922852 3357638.69793701 11.53087139 114 111 102
246182.48059082 3357663.38159180 12.92207718 14 20 36
246183.60400391 3357661.47387695 11.55864811 111 117 131
246182.15014648 3357664.96594238 12.23087788 35 49 60
246183.76501465 3357662.32397461 12.91145134 68 89 118
246183.28027344 3357663.17700195 12.90136814 4 14 13
246198.99914551 3357642.00488281 11.54455471 85 91 79
246184.38952637 3357663.33532715 12.28991508 16 23 16
246185.96826172 3357659.25946045 11.31303692 124 144 155
246181.27294922 3357664.43493652 12.45349503 44 68 96
246199.74377441 3357641.52191162 12.76205921 185 180 174
246201.41931152 3357638.91253662 12.17882252 144 141 134
246181.49438477 3357664.16845703 12.45336246 78 96 118
246185.62402344 3357659.70989990 11.32774353 127 143 156
246182.93811035 3357663.92315674 12.90549183 6 15 24
246181.72082520 3357663.38482666 11.79615784 35 38 45
246201.17089844 3357639.02783203 12.25380611 184 174 172
246183.20751953 3357661.84149170 12.23211575 33 45 57
246184.70043945 3357663.38604736 11.89984322 30 40 29
246184.46679688 3357663.11645508 12.24787712 29 38 35
246180.99084473 3357665.16607666 11.99327755 35 52 62
246182.81225586 3357664.57189941 12.47626400 10 20 22
246182.44616699 3357662.92846680 12.67427731 10 15 21
246201.10400391 3357638.78393555 11.86650085 174 165 160
246198.77832031 3357642.89746094 11.40600586 94 102 105
246184.41101074 3357663.02355957 12.38445091 27 36 33
246200.71789551 3357639.73297119 12.36869812 148 157 156
246182.18518066 3357662.85748291 11.95245457 21 28 38
246199.55126953 3357642.60083008 12.22113991 66 82 82
246184.44738770 3357662.97741699 11.50844765 106 111 107
246190.97827148 3357654.29663086 11.31022072 87 93 93
246183.45849609 3357662.90881348 12.89517593 6 14 16
246184.19824219 3357661.99420166 12.23794556 68 79 85
246183.42260742 3357661.65429688 12.03400135 39 45 57
246199.65954590 3357642.99884033 11.58189583 63 67 68
246184.67883301 3357660.57073975 11.32850742 132 146 157
246181.55554199 3357665.43554688 11.79735565 26 40 43
246201.28186035 3357640.75927734 12.65999126 21 26 20
246199.12829590 3357641.73553467 12.32035923 148 159 165
246184.42675781 3357662.90118408 12.32136059 76 78 67
246199.58251953 3357641.41986084 12.67368984 205 206 211
246201.33691406 3357639.52252197 12.34606743 139 140 135
246183.94885254 3357664.01129150 12.20476246 23 34 28
246199.01696777 3357642.10083008 12.32940197 190 195 198
246200.46325684 3357641.74322510 12.62980747 110 114 113
246201.04956055 3357640.61499023 12.71091270 62 64 63
246182.20068359 3357662.83911133 12.11022663 34 41 51
246184.30871582 3357662.08636475 12.01054001 97 107 109
246202.11010742 3357640.50854492 12.21949100 1 3 0
246199.79870605 3357641.23596191 12.68914127 216 211 215
246199.73767090 3357641.71960449 12.70733929 52 59 51
246182.03454590 3357663.37072754 12.63690281 9 16 26
246202.24340820 3357639.81530762 12.06915569 8 17 22
246183.10290527 3357662.25653076 12.70634747 4 11 27
246201.65246582 3357640.20263672 12.31046486 41 46 49
246199.12976074 3357641.65393066 12.24972057 75 92 99
246184.18383789 3357661.04779053 11.38001442 130 146 161
246198.99084473 3357642.38342285 11.65245342 45 50 54
246181.44433594 3357658.85443115 17.27824020 115 150 84
246200.03039551 3357640.67510986 12.55393028 206 207 211
246200.71643066 3357642.00872803 12.59388924 64 70 66
246184.37194824 3357663.58837891 12.18193626 19 32 23
246199.72875977 3357642.91082764 11.72371006 29 33 36
246181.85498047 3357663.23040771 11.64633846 55 62 72
246183.25634766 3357661.77105713 11.75328636 13 22 27
246182.24658203 3357664.65838623 12.37746525 4 13 18
246182.13378906 3357665.26898193 12.01780701 48 64 77
246183.13061523 3357663.68707275 12.90676308 6 11 14
246199.27148438 3357642.62872314 12.10529327 46 65 61
246181.82849121 3357664.16381836 12.48074818 17 31 32
246188.32165527 3357650.00317383 19.71314430 50 82 33
246182.77294922 3357662.75518799 12.81368446 36 73 91
246201.66442871 3357639.31097412 12.28252602 110 111 105
246198.97290039 3357641.99395752 11.71073437 68 73 66
246200.14282227 3357642.88189697 12.01092434 42 41 47
246184.30920410 3357662.25762939 11.95638466 120 129 134
246181.48303223 3357664.60614014 12.44210148 43 64 85
246181.86022949 3357663.44512939 12.52040386 52 62 74
246199.70275879 3357642.16162109 12.44339561 78 98 96
246201.60253906 3357638.39990234 11.45557499 160 155 149
246184.60461426 3357663.11517334 12.04933834 50 58 45
246200.53442383 3357640.12524414 12.60548210 92 77 80
246201.63903809 3357640.60119629 12.41271496 113 114 109
246182.52539063 3357664.87615967 12.33369541 0 12 13
246200.38806152 3357642.39306641 12.46072388 76 83 75
246199.34765625 3357642.59527588 12.17771530 43 62 58
246184.23962402 3357662.59667969 12.30665112 81 83 82
246201.08996582 3357638.91387939 12.09896660 183 175 173
246200.30358887 3357640.17199707 12.65198421 200 203 208
246199.98767090 3357642.57464600 12.28598499 100 117 111
246202.30651855 3357639.91833496 11.98998737 20 25 28
246202.31115723 3357639.35833740 11.96424961 139 141 140
246183.65856934 3357663.67242432 12.84912395 8 13 19
246188.42858887 3357650.11462402 19.46462250 54 79 47
246181.38427734 3357663.71807861 12.10733891 25 37 51
246183.87329102 3357661.44714355 11.70848942 91 101 111
246200.43188477 3357640.98132324 12.76048088 114 114 112
246199.59411621 3357640.96569824 11.98503780 159 163 162
246183.28173828 3357662.20391846 12.78163910 32 54 77
246183.22937012 3357663.98614502 12.91787052 91 108 118
246199.89123535 3357640.49743652 12.30076504 205 208 213
246202.21862793 3357639.83599854 12.08764553 21 26 30
246184.21020508 3357662.42596436 12.81607151 72 82 84
246181.15454102 3357664.98828125 12.22275352 34 56 79
246200.58178711 3357643.19201660 11.63173676 54 63 42
246182.23315430 3357662.84387207 12.20596218 26 35 44
246184.42541504 3357662.88653564 12.29488087 78 78 68
246202.24157715 3357639.51782227 12.06671333 184 189 193
246182.89782715 3357662.70343018 12.83843803 71 112 130
246181.58801270 3357664.55499268 12.44226360 46 69 87
246184.22033691 3357662.45581055 12.39432430 108 109 113
246180.85583496 3357664.61608887 12.14930248 98 118 143
246188.38684082 3357649.98315430 19.68795013 32 63 19
246182.83203125 3357662.16064453 12.10938835 23 33 43
246200.52026367 3357642.33874512 12.46340179 64 66 63
246184.21582031 3357662.06311035 12.23917389 114 125 131
246201.89941406 3357640.13452148 12.24059963 86 87 91
246184.56994629 3357663.25036621 12.09806633 26 34 23
246183.96166992 3357663.42376709 12.69694138 25 30 33
246196.17639160 3357648.43237305 11.32328892 114 114 114
246182.36022949 3357664.62445068 12.40420818 20 31 35
246201.13916016 3357640.86022949 12.69353008 120 122 121
246201.02587891 3357638.96447754 12.10038090 194 184 185
246201.12170410 3357640.37951660 12.46092892 41 51 50
246182.66162109 3357662.44445801 12.32812595 19 37 51
246200.91064453 3357639.99487305 12.39808655 55 93 138
246182.38781738 3357665.15252686 12.16855812 40 58 62
246184.84020996 3357663.20568848 11.74180126 37 48 31
246200.57397461 3357639.64764404 12.33576775 187 178 169
246200.13391113 3357642.80072021 12.12961102 69 74 70
246200.06848145 3357640.18640137 12.02637768 177 174 169
246181.19177246 3357659.31201172 17.02153397 63 90 39
246181.80957031 3357665.72393799 11.53795338 40 51 55
246181.71044922 3357665.28802490 11.87166977 37 51 62
246200.21423340 3357640.26696777 12.49068260 64 83 79
246200.46752930 3357642.25140381 12.53403759 73 78 72
246199.54309082 3357642.97772217 11.66900635 75 78 83
246182.95751953 3357662.04547119 12.18634987 31 44 52
246185.31958008 3357659.90008545 11.35676575 130 148 158
246199.76647949 3357641.88250732 12.62115860 139 150 142
246182.92907715 3357663.40509033 12.84856224 5 10 14
246183.94152832 3357661.89526367 12.56814575 44 51 59
246201.85522461 3357640.11248779 12.26047230 87 90 95
246180.96655273 3357665.09661865 12.05200005 95 112 128
246183.89001465 3357663.60723877 12.52672100 20 25 21
246202.46813965 3357639.96136475 11.80132389 170 175 181
246184.26074219 3357662.44281006 12.71128559 59 63 62
246184.21472168 3357661.98303223 12.19716358 48 59 63
246184.22729492 3357662.39202881 12.49025059 88 89 91
246182.14611816 3357663.16131592 12.50594044 82 89 105
246182.04077148 3357663.03363037 11.66457844 62 71 80
246184.36230469 3357662.97277832 11.85166264 91 92 84
246184.40002441 3357662.86383057 12.24823952 76 78 65
246200.02795410 3357642.11627197 12.54176235 89 111 108
246201.75585938 3357638.45642090 11.43804932 149 142 132
246181.53002930 3357664.50073242 12.47642994 45 67 90
246181.92651367 3357664.60467529 12.42319870 23 35 47
246182.66088867 3357663.03710938 12.93995190 133 149 172
246181.22021484 3357664.70898438 12.41010761 59 79 106
246182.34179688 3357662.77404785 12.29583740 16 30 41
246183.04162598 3357663.63366699 12.88552856 6 11 14
246181.19885254 3357664.17047119 12.38387012 164 195 224
246184.39416504 3357662.32989502 11.80612755 138 148 157
246200.38378906 3357643.05499268 11.67758942 30 36 32
246199.19042969 3357641.76483154 12.42689705 193 194 198
246200.23559570 3357639.93786621 12.21170998 195 196 198
246183.01892090 3357664.69323730 12.39999485 10 20 19
246199.06958008 3357642.63745117 11.66933823 67 78 80
246182.56604004 3357662.47070313 11.95077896 37 43 59
246202.28955078 3357639.67645264 12.05084896 68 83 90
246200.14086914 3357641.50268555 12.57374573 145 150 143
246182.35986328 3357663.12451172 12.80908585 2 23 40
246201.03259277 3357639.01647949 12.17256832 180 172 170
246200.56445313 3357640.36224365 12.67646694 142 142 140
246202.63977051 3357639.83392334 11.63732719 202 201 199
246200.81909180 3357641.14532471 12.75827980 8 12 15
246182.34619141 3357665.18768311 12.14089775 32 49 56
246181.04150391 3357665.08953857 12.11779308 89 107 129
246199.99804688 3357640.60687256 12.50359440 195 196 191
246182.49536133 3357662.92913818 12.74938393 2 12 22
246184.18225098 3357663.64965820 12.29259300 19 29 21
246199.33264160 3357641.31054688 12.16958523 143 152 157
246182.17761230 3357665.12554932 12.12494850 26 44 56
246183.55310059 3357662.90338135 12.90081024 1 11 12
246182.91760254 3357663.90069580 12.90880966 0 11 17
246183.72131348 3357663.86547852 12.57181454 11 17 15
246199.21289063 3357641.73083496 12.44348049 200 201 205
246199.97607422 3357640.32293701 12.04533482 188 184 181
246201.09814453 3357639.17382813 12.31272411 152 147 144
246182.61022949 3357664.95355225 12.30381393 22 32 31
246200.65771484 3357640.77587891 12.74400234 9 11 8
246181.42321777 3357659.33410645 16.69779396 55 76 37
246183.41625977 3357663.09631348 12.89830494 5 13 16
246201.43933105 3357638.96014404 12.20674324 135 132 125
246182.47985840 3357664.39331055 12.52123165 7 16 23
246200.61450195 3357640.04077148 12.54446316 49 60 82
246181.47814941 3357663.63391113 12.30214882 3 24 43
246199.85717773 3357641.82464600 12.68345928 122 129 122
246184.55676270 3357660.76574707 11.32130527 125 134 143
246184.67443848 3357662.32019043 11.49130726 55 64 69
246180.89904785 3357664.28173828 11.72899055 13 23 25
246182.92468262 3357663.90563965 12.90833092 0 11 17
246184.21179199 3357662.03057861 12.22978592 88 101 107
246199.03808594 3357641.78588867 12.00898552 82 89 95
246181.68261719 3357663.48223877 12.40755081 21 38 54
246201.91320801 3357639.86193848 12.25495148 70 71 76
246201.80273438 3357639.12176514 12.18498135 110 109 104
246200.59643555 3357639.57586670 12.27507401 204 201 196
246182.22119141 3357664.06994629 12.62978649 2 15 21
246181.24084473 3357664.82299805 12.34770966 49 69 94
246198.88513184 3357642.54168701 11.46440887 90 100 102
246184.36755371 3357663.88916016 11.89765358 18 29 21
246184.25512695 3357663.44329834 12.37321758 13 22 21
246181.03063965 3357664.12341309 12.08133507 19 36 52
246199.96081543 3357642.35577393 12.40805912 190 216 207
246197.47607422 3357645.65405273 11.29812050 155 152 147
246181.21936035 3357664.32122803 12.41284180 97 118 147
246196.47802734 3357647.78607178 11.31307316 132 133 128
246182.31616211 3357662.74157715 12.06646633 28 38 48
246183.58471680 3357662.38244629 12.89830875 60 88 112
246200.20739746 3357643.17553711 11.36690140 66 62 61
246201.87451172 3357640.26007080 12.23921871 131 129 130
246189.33996582 3357655.91131592 11.35174465 132 142 151
246182.87878418 3357664.72180176 12.41905689 12 22 24
246199.32922363 3357641.31768799 12.18176460 143 152 157
246200.23193359 3357641.80737305 12.73098755 116 118 115
246182.63000488 3357663.08673096 12.93456841 126 138 162
246184.21166992 3357662.40795898 12.19064140 123 133 135
246194.06506348 3357651.28021240 11.27953625 92 93 95
246200.73620605 3357640.41589355 12.69062996 96 101 97
246200.38684082 3357640.63494873 12.69768238 104 87 80
246180.74121094 3357664.51446533 11.68982029 27 40 46
246198.91284180 3357642.33874512 11.51984787 74 82 85
246184.68554688 3357663.47357178 11.87101364 37 47 36
246183.66760254 3357661.88934326 12.70130920 22 28 44
246201.41186523 3357640.60614014 12.49053192 73 85 83
246181.29919434 3357663.88098145 12.30594826 20 55 83
246200.86157227 3357639.62054443 12.31812668 43 45 40
246184.40808105 3357662.34271240 11.78115273 128 138 147
246198.97973633 3357642.39935303 11.58007526 59 69 71
246201.01464844 3357640.08551025 12.38113499 60 81 102
246181.08935547 3357665.29815674 11.93268585 10 28 32
246200.51159668 3357642.91845703 11.96217823 55 64 43
246200.25451660 3357641.81042480 12.72691536 115 117 114
246181.19372559 3357664.01202393 12.29311180 84 122 158
246184.21337891 3357662.86175537 12.85000896 42 55 63
246184.66247559 3357663.09405518 11.60826492 26 35 14
246200.33911133 3357639.81713867 12.32071304 175 174 172
246180.70263672 3357664.71691895 11.79975605 42 51 58
246184.19531250 3357662.27160645 12.57760143 90 95 98
246200.08227539 3357642.90197754 11.96447754 68 69 73
246182.44311523 3357662.60137939 11.91810226 26 32 48
246184.45910645 3357662.42773438 11.69442844 111 120 127
246201.30297852 3357638.65228271 11.69908714 161 156 152
246199.97656250 3357641.90374756 12.66754436 113 126 119
246184.11608887 3357663.43676758 12.47560501 32 38 38
246183.83410645 3357662.59783936 12.92535210 40 57 73
246183.45458984 3357662.38354492 12.87306690 76 104 126
246181.91320801 3357664.75939941 12.34828091 45 61 74
246200.23876953 3357641.99969482 12.67649078 7 15 4
246200.43200684 3357639.72491455 12.34638977 202 202 202
246182.85144043 3357664.19995117 12.79387188 31 44 52
246198.26940918 3357643.89099121 11.36101246 129 131 130
246183.44104004 3357663.61639404 12.95230865 69 82 90
246199.74731445 3357642.19781494 12.43333340 63 85 83
246183.86242676 3357663.62353516 12.55370522 20 25 21
246182.65356445 3357662.65264893 12.57963848 12 16 27
246199.83630371 3357641.73785400 12.72303295 35 45 37
246199.67590332 3357642.61511230 12.21654987 72 88 88
246181.59423828 3357663.50695801 12.33254433 14 30 43
246197.28686523 3357646.23260498 11.28522015 134 135 130
246181.30273438 3357665.16711426 12.04455280 42 59 75
246201.74316406 3357639.02154541 12.17796707 143 140 135
246182.37963867 3357662.68475342 11.61313915 82 89 107
246199.71362305 3357640.71087646 12.22545433 176 180 183
246184.79895020 3357663.64947510 11.70699978 36 50 35
246184.26867676 3357662.56201172 12.43197632 88 90 85
246199.15466309 3357641.53247070 11.85833263 18 27 34
246197.74023438 3357645.23510742 11.27254581 153 152 147
246199.17944336 3357642.25177002 12.37665176 100 107 113
246200.66955566 3357639.24108887 11.91533470 164 164 162
246181.71997070 3357663.38580322 11.83683586 29 32 39
246191.30297852 3357653.98254395 11.32452202 80 88 91
246199.82739258 3357640.90234375 12.49842167 79 94 91
246182.54772949 3357663.75360107 12.92342663 53 66 82
246187.41723633 3357657.88629150 11.29076290 134 148 157
246181.81176758 3357665.35729980 11.82185650 36 48 60
246183.93457031 3357663.86474609 12.33360767 19 25 21
246181.48779297 3357663.84204102 12.46810150 82 97 120
246181.70581055 3357664.73583984 12.34418011 37 56 73
246181.68811035 3357663.48797607 12.42699432 21 38 54
246202.45300293 3357640.63470459 11.77015591 50 48 36
246183.90563965 3357661.65289307 12.15633678 46 50 61
246183.42163086 3357662.15234375 12.80168343 63 93 117
246184.28125000 3357662.13073730 12.05462933 105 114 119
246181.15808105 3357664.04907227 12.28346920 34 72 108
246200.57263184 3357640.56860352 12.73498726 121 121 121
246198.99291992 3357642.01507568 11.53676891 70 75 68
246198.60803223 3357643.32312012 11.37913990 105 113 115
246183.82836914 3357661.69775391 12.31342983 53 64 84
246181.40234375 3357664.34478760 12.47889996 112 138 165
246199.97778320 3357642.89825439 11.94020653 39 40 44
246182.08911133 3357663.59094238 12.82281876 0 14 23
246200.82714844 3357641.24658203 12.75548267 105 106 108
246199.27502441 3357642.60211182 12.14453125 55 74 70
246181.85351563 3357663.86157227 12.60209370 25 36 38
246200.13415527 3357642.93896484 11.87356567 61 61 69
246201.13391113 3357640.24218750 12.36376095 30 40 50
246183.18969727 3357663.24060059 12.91293716 10 18 21
246182.89611816 3357662.08593750 12.12843513 22 33 37
246202.66418457 3357640.21917725 11.68229866 55 55 45
246182.84045410 3357662.18609619 12.29155731 92 108 123
246184.35400391 3357663.78167725 12.01793671 25 34 29
246200.98217773 3357639.07391357 12.19672871 185 181 180
246184.32189941 3357662.19183350 11.95782948 108 117 122
246201.74316406 3357640.72961426 12.43002319 90 92 89
246199.75439453 3357641.82598877 12.65695381 135 145 137
246184.50012207 3357662.15521240 11.70629215 98 103 107
246183.40747070 3357664.10736084 12.72426033 22 26 25
246183.78674316 3357661.46472168 11.73101902 93 102 111
246199.11499023 3357641.62664795 11.90865421 70 77 85
246182.36999512 3357665.57092285 11.92831612 23 32 29
246201.33923340 3357641.15710449 12.60789585 32 31 27
246199.33850098 3357641.28137207 11.99158001 132 141 148
246200.34777832 3357643.19232178 11.45458126 4 2 3
246181.64929199 3357659.08709717 16.80173874 37 62 22
246183.67211914 3357662.20324707 12.86670017 83 110 139
246201.40734863 3357640.12402344 12.32638741 56 72 95
246200.02539063 3357642.87799072 12.00747776 72 73 75
246202.62902832 3357640.25927734 11.70672989 53 53 43
246182.97021484 3357664.52331543 12.49251652 26 37 41
246201.77160645 3357640.52172852 12.33317661 104 105 100
246199.40148926 3357641.36138916 12.46671009 174 162 166
246200.86291504 3357640.77697754 12.72108841 141 145 144
246200.27111816 3357641.85369873 12.71404934 113 115 112
246181.10192871 3357664.20013428 12.31559563 152 187 215
246199.76196289 3357643.10162354 11.42693710 85 90 93
246203.06079102 3357639.83679199 11.48367119 99 97 74
246182.80725098 3357663.26098633 12.89042377 0 10 11
246184.20568848 3357663.89166260 12.04347897 32 39 32
246183.38769531 3357661.64642334 11.63177204 78 85 93
246188.46081543 3357656.76788330 11.30393505 130 145 152
246184.00305176 3357664.07855225 12.09824753 25 34 31
246183.68969727 3357661.67138672 12.33187675 89 105 128
246201.32568359 3357638.77215576 12.04845619 139 136 129
246184.21008301 3357663.95104980 11.98887253 24 34 26
246182.42114258 3357665.49114990 12.03579807 22 31 30
246200.43859863 3357643.32983398 11.43941879 154 153 149
246202.19677734 3357640.01623535 12.07345486 23 25 24
246199.70593262 3357642.61608887 12.21782303 72 86 89
246184.20898438 3357662.47589111 12.23135185 133 138 141
246183.99597168 3357661.64782715 12.06037235 47 58 64
246188.37036133 3357656.93823242 11.33237934 133 148 155
246183.47729492 3357663.26727295 12.90736675 2 13 15
246187.78112793 3357657.55096436 11.31893921 137 149 161
246185.77832031 3357659.47082520 11.31990623 122 140 154
246184.27990723 3357663.55377197 12.29568768 10 21 17
246201.55859375 3357640.78698730 12.53764725 47 46 42
246199.35473633 3357642.76470947 11.98592949 49 64 59
246183.40026855 3357664.08514404 12.75418377 23 27 26
246202.27526855 3357640.19476318 11.99327564 71 70 68
246181.64392090 3357663.49993896 11.69330406 37 41 50
246199.07775879 3357642.31506348 12.32901573 69 73 76
246182.86486816 3357663.55950928 12.85358906 5 13 15
246183.17919922 3357661.88848877 12.31014824 29 42 58
246200.14392090 3357641.58538818 12.67605782 138 144 134
246200.16088867 3357640.69232178 12.63442707 215 209 211
246198.74462891 3357642.94555664 11.39962769 97 105 108
246202.55859375 3357640.51239014 11.74695110 55 55 43
246184.03833008 3357663.40039063 12.60425568 24 29 32
246181.44726563 3357664.91772461 12.20774651 35 54 69
246200.97729492 3357641.55078125 12.70393372 65 56 57
246183.01599121 3357662.70190430 12.88535023 163 194 215
246202.66943359 3357639.52685547 11.61826801 46 45 43
246184.17468262 3357662.10546875 12.40825176 66 73 79
246202.11193848 3357639.38708496 12.11388302 134 136 135
246184.25585938 3357662.74029541 12.13025570 100 102 97
246183.08129883 3357661.92706299 11.77735519 41 48 58
246182.99230957 3357664.41339111 12.59087753 20 31 37
246201.07580566 3357641.00842285 12.70958138 122 123 125
246183.53613281 3357663.85034180 12.84499359 17 26 23
246199.96508789 3357642.97021484 11.70007706 25 24 30
246201.34924316 3357639.60961914 12.34435463 129 131 128
246202.42480469 3357640.63500977 11.81161022 43 41 29
246199.78710938 3357643.12066650 11.40983105 82 87 90
246200.62170410 3357639.38769531 12.01364136 174 174 172
246184.06433105 3357663.39324951 12.58274078 23 28 31
246184.50219727 3357663.45935059 12.11239338 18 30 18
246201.13720703 3357641.35455322 12.68321705 38 34 33
246182.07983398 3357665.03302002 12.15669441 35 49 62
246198.99853516 3357641.88342285 12.18653679 56 74 88
246199.52038574 3357641.04803467 12.16856003 157 161 164
246181.34399414 3357663.99340820 12.41985798 166 200 227
246181.64416504 3357663.45513916 12.27403641 17 27 39
246183.18212891 3357661.84466553 12.11956978 34 47 56
246181.21325684 3357664.28112793 12.40567970 126 147 176
246201.84814453 3357640.22985840 12.24590492 121 121 123
246201.32006836 3357641.30072021 12.58741665 43 42 38
246184.63037109 3357663.10443115 11.71561718 56 61 41
246184.48083496 3357662.96765137 12.16417313 75 79 64
246182.84289551 3357663.75384521 12.88809013 5 10 14
246182.48852539 3357662.80426025 12.55907154 42 51 66
246184.48242188 3357663.10968018 11.64348507 71 75 61
246200.35046387 3357640.05090332 12.57017136 191 195 196
246201.87463379 3357640.75103760 12.35818863 64 66 63
246202.40612793 3357640.32543945 11.91146851 35 36 30
246182.43359375 3357662.65130615 12.22409534 26 35 50
246184.36560059 3357663.50006104 12.26044273 15 26 20
246202.33569336 3357640.20086670 11.94410801 95 96 91
246200.60485840 3357642.36462402 12.40203571 62 68 66
246183.00036621 3357662.20458984 12.52297592 65 81 97
246180.97387695 3357664.47558594 12.27679253 154 177 208
246182.09020996 3357663.26611328 12.56796360 1 4 13
246199.43627930 3357642.82824707 11.93795681 50 60 61
246183.46887207 3357661.70556641 12.43849754 32 50 70
246199.24707031 3357641.41558838 12.04800606 116 127 133
246188.37854004 3357650.16387939 19.48516083 68 96 55
246198.96240234 3357642.30828857 11.91969395 50 55 59
246182.51940918 3357664.33154297 12.55849361 2 13 17
246200.33874512 3357643.28265381 11.38519192 141 138 133
246183.47424316 3357663.95166016 12.80940056 14 20 18
246184.06420898 3357663.45550537 12.50762272 24 30 30
246184.71020508 3357663.63153076 11.78222847 38 50 38
246188.58056641 3357656.70715332 11.28309155 134 140 136
246184.20312500 3357662.26818848 12.28633690 112 121 126
246202.16796875 3357639.50781250 12.11609364 143 147 148
246199.72216797 3357640.70959473 12.13357639 171 170 168
246199.48620605 3357641.09118652 11.93539619 153 158 161
246200.30468750 3357642.14953613 12.60323620 66 76 65
246200.83410645 3357639.00683594 11.93121147 156 153 148
246184.19860840 3357663.48016357 12.39640427 20 29 26
246200.10107422 3357640.83093262 12.62932587 211 206 210
246200.17004395 3357643.17242432 11.36340427 130 126 127
246181.43237305 3357663.67181396 12.21377277 10 23 40
246181.95031738 3357664.52142334 12.44534779 11 22 26
246201.67102051 3357639.78778076 12.32154942 105 109 112
246184.35937500 3357662.62371826 11.74398327 129 134 138
246183.76062012 3357662.38171387 12.91305351 63 85 109
246184.24926758 3357663.69793701 12.19060421 15 26 18
246184.75268555 3357663.28094482 11.85068130 39 47 32
246184.10363770 3357663.26025391 12.67869282 24 34 35
246200.68859863 3357642.10455322 12.54111004 63 69 67
246200.81066895 3357641.23181152 12.75109386 112 113 115
246183.51818848 3357662.83575439 12.89845085 1 11 13
246184.39489746 3357662.80187988 12.67467308 45 51 47
246200.57507324 3357643.15917969 11.67601490 74 84 57
246181.70483398 3357663.79803467 12.59082890 7 19 31
246186.84631348 3357658.42950439 11.31819248 143 157 168
246183.92980957 3357662.98834229 12.89720345 24 42 52
246181.64721680 3357663.44946289 12.07626152 35 42 52
246181.57373047 3357663.52246094 12.18651485 22 31 40
246181.67333984 3357658.80737305 17.08984184 78 105 54
246199.11047363 3357641.79174805 12.31757832 166 180 183
246183.21008301 3357661.81463623 11.91840744 15 29 30
246200.62475586 3357641.84002686 12.71031189 124 127 120
246200.57519531 3357639.98718262 12.53330421 51 52 70
246183.59277344 3357663.85577393 12.76403141 16 22 22
246183.93933105 3357661.96966553 12.66427803 19 28 27
246201.03198242 3357639.25817871 12.32583904 151 147 144
246184.11853027 3357663.17822266 12.74919796 17 31 31
246201.43725586 3357640.92462158 12.61057758 31 32 27
246183.82275391 3357662.98388672 12.90587711 19 32 38
246184.60766602 3357663.02862549 11.51835060 45 52 36
246200.98168945 3357640.17547607 12.42405605 30 44 55
246182.90783691 3357662.89550781 12.94334507 45 57 71
246200.78698730 3357639.98565674 12.45269394 50 88 137
246200.58642578 3357642.82086182 12.06033134 58 63 56
246181.91760254 3357663.54699707 12.69117260 47 60 76
246181.16638184 3357664.94757080 12.26404381 41 63 87
246200.88122559 3357641.83831787 12.61227322 99 99 99
246181.22729492 3357663.91381836 12.21452618 7 31 57
246183.40417480 3357664.14709473 12.68288803 19 25 23
246201.87231445 3357640.61102295 12.35023403 102 104 103
246181.55651855 3357664.49615479 12.47244835 42 67 87
246181.66198730 3357663.44299316 12.04853630 35 42 52
246184.20959473 3357662.50347900 12.27659702 128 133 136
246197.87280273 3357644.90081787 11.27031898 142 143 138
246181.98449707 3357663.06646729 11.94893837 12 25 33
246181.94555664 3357658.51239014 17.11840057 81 107 62
246200.37597656 3357643.49884033 11.42224693 150 150 142
246200.73962402 3357639.94067383 12.45754147 48 82 128
246182.19604492 3357663.08538818 12.47783947 133 144 164
246200.12219238 3357641.55969238 12.66066647 144 147 140
246186.48645020 3357658.78863525 11.31272793 137 151 164
246184.61938477 3357662.96856689 11.43453693 82 87 80
246184.25744629 3357662.72296143 12.16048813 93 95 90
246183.69921875 3357663.64373779 12.81382847 16 20 23
246200.54199219 3357641.18829346 12.64264488 151 151 149
246202.44824219 3357640.60943604 11.78589821 44 44 32
246198.95324707 3357642.25964355 11.78555489 44 52 55
246184.19592285 3357662.01019287 12.25355339 101 111 120
246183.07421875 3357662.26306152 12.67547989 18 25 41
246182.28186035 3357665.62164307 11.84568119 21 30 35
246182.37109375 3357663.24938965 12.87520313 128 160 185
246182.14086914 3357665.38616943 11.97919750 37 51 64
246184.31958008 3357662.35845947 11.90929413 127 135 138
246183.82910156 3357662.99841309 12.90450287 19 32 38
246182.49865723 3357665.35369873 12.10980701 20 31 25
246202.84826660 3357640.02813721 11.55565453 68 66 53
246182.73278809 3357663.33184814 12.87019348 3 11 13
