246089.62939453 3357694.72149658 13.14601803 26 32 30
246090.82006836 3357694.63317871 13.35077477 245 247 246
246090.17114258 3357695.15679932 13.31604576 191 199 210
246091.19262695 3357693.88519287 13.10505581 241 242 247
246093.55810547 3357695.23992920 12.80920029 212 217 223
246089.56958008 3357695.18988037 13.09382915 168 181 151
246089.88183594 3357695.68872070 12.64992046 114 123 92
246093.65930176 3357694.27319336 12.79637527 209 223 236
246092.25378418 3357693.97723389 13.11420441 224 233 240
246089.91650391 3357695.06994629 13.19358444 66 72 58
246091.95019531 3357693.68267822 12.38051033 78 87 92
246093.72106934 3357695.21221924 12.46391296 163 175 189
246090.89929199 3357694.07366943 13.32373238 28 33 36
246089.44909668 3357694.31097412 13.06818867 248 247 243
246092.02014160 3357693.89099121 13.11326694 191 205 216
246088.94567871 3357695.68737793 12.25445938 101 103 98
246093.67968750 3357695.76104736 12.02555561 87 93 93
246093.75354004 3357694.80688477 12.55273342 52 73 92
246093.66479492 3357695.74359131 12.02350044 87 93 93
246093.53686523 3357693.92559814 12.49603367 184 212 226
246093.35424805 3357693.93609619 12.79316330 198 227 241
246093.56665039 3357695.54095459 12.20693588 14 25 27
246089.39782715 3357694.40820313 13.06984234 241 241 243
246089.80065918 3357693.77398682 12.43415260 214 215 209
246093.33837891 3357694.76556396 13.49492741 233 233 231
246093.61767578 3357694.92736816 12.88593292 221 232 238
246092.54321289 3357693.86437988 12.86597919 198 223 230
246090.39135742 3357695.46051025 13.28366852 101 103 98
246089.33117676 3357695.08697510 13.07490253 253 255 240
246093.04797363 3357693.73101807 12.53849792 33 43 53
246089.07885742 3357695.76623535 12.17656231 118 119 111
246089.95129395 3357694.20129395 13.21407413 136 135 133
246093.27807617 3357694.45605469 13.27495480 249 251 250
246092.40600586 3357693.76232910 12.41680145 77 94 102
246091.54687500 3357693.87615967 13.03536987 214 227 236
246091.83557129 3357694.35992432 13.35761452 16 47 68
246091.34277344 3357693.83813477 12.97316647 219 224 230
246090.62475586 3357694.99328613 13.36325264 251 253 250
246090.19494629 3357693.74975586 12.39092731 107 104 99
246090.67980957 3357695.54473877 13.24496746 57 62 55
246089.39514160 3357694.00708008 12.84017944 236 235 231
246090.16455078 3357695.78222656 12.68940449 63 66 57
246093.91552734 3357694.85791016 12.18834400 30 39 46
246091.91711426 3357694.53540039 13.30546951 33 52 67
246090.85949707 3357694.42871094 13.41617775 249 251 250
246090.26977539 3357694.27770996 13.36947536 236 238 237
246089.31616211 3357696.18310547 12.13237286 155 159 132
246093.85437012 3357695.22180176 12.20418930 22 31 40
246093.20751953 3357693.72369385 12.43173504 29 42 51
246091.12792969 3357693.77978516 12.76229572 212 215 220
246089.76733398 3357693.92144775 12.92941189 222 222 220
246089.37463379 3357693.86950684 12.46106720 210 206 203
246090.59948730 3357693.79162598 12.80976868 236 237 239
246092.55114746 3357694.42211914 13.06573200 114 108 112
246092.39941406 3357693.83251953 12.72417831 195 215 224
246093.23278809 3357694.72180176 13.69335461 194 199 195
246093.32019043 3357693.95172119 12.82604885 203 227 237
246090.73156738 3357695.54858398 13.23890877 39 44 37
246090.98767090 3357694.38494873 13.43793964 244 248 249
246092.75427246 3357694.70904541 13.24957371 254 255 255
246093.93566895 3357694.15069580 12.14838314 55 69 78
246091.16857910 3357693.74645996 12.47244644 147 152 155
246092.22985840 3357694.40289307 13.12622261 48 77 95
246090.61193848 3357694.44024658 13.34599876 249 253 254
246093.08056641 3357693.82952881 12.78046227 216 233 241
246091.91149902 3357694.56298828 13.30677223 33 52 67
246090.81457520 3357694.25555420 13.41618919 233 238 241
246092.56652832 3357694.83398438 13.22740841 69 73 74
246089.34472656 3357695.53106689 12.78506279 84 86 73
246091.27294922 3357695.42102051 13.49724293 31 37 33
246090.87573242 3357693.81170654 12.40024662 183 187 188
246091.64355469 3357693.63128662 12.35888100 79 88 87
246093.68725586 3357694.54479980 12.79510689 204 223 240
246091.00012207 3357694.74267578 13.40116596 249 251 250
246092.31127930 3357694.22509766 13.12941647 40 77 95
246093.74340820 3357695.34460449 12.08009911 27 36 43
246089.54516602 3357693.81250000 12.46380997 222 217 214
246090.35266113 3357695.85687256 12.91884518 103 113 76
246093.17907715 3357694.14221191 13.06948662 240 245 248
246090.72119141 3357693.95819092 13.10444164 119 121 120
246089.58142090 3357696.00512695 12.17661953 53 54 40
246092.68615723 3357694.70397949 13.17284489 255 253 255
246091.11645508 3357693.77880859 12.66383076 200 199 205
246090.82934570 3357693.70257568 12.15206718 115 117 114
246090.92187500 3357693.85223389 12.99977207 184 188 191
246091.25476074 3357694.77600098 13.44427299 29 43 44
246091.87011719 3357693.75604248 12.81527138 165 181 194
246093.79504395 3357694.56469727 12.36631393 115 127 149
246092.83532715 3357694.92193604 13.81592083 21 36 3
246093.32202148 3357694.35510254 13.19023800 249 250 252
246092.84204102 3357694.75921631 13.49692249 231 232 236
246090.80224609 3357693.86090088 12.98847866 204 205 207
246093.77099609 3357695.06250000 12.36771679 131 144 160
246090.09265137 3357696.07684326 12.40305138 52 56 41
246091.48706055 3357695.06481934 13.55029011 37 41 40
246089.65600586 3357694.88781738 13.14485264 33 38 32
246089.49731445 3357693.95715332 12.85651875 237 236 234
246089.47619629 3357694.19860840 13.03590202 253 250 245
246092.18286133 3357693.80010986 12.57711411 177 197 204
246093.37731934 3357694.86053467 13.53783035 213 215 210
246090.16979980 3357695.23144531 13.28826237 204 211 217
246094.08972168 3357694.41174316 12.18040943 43 53 63
246092.40270996 3357694.16375732 13.10570908 30 49 66
246093.54992676 3357694.68066406 13.03551197 237 242 245
246093.92443848 3357695.05255127 12.19057560 35 45 55
246093.65649414 3357695.97741699 12.04260635 90 96 94
246092.64135742 3357693.80120850 12.59155083 36 65 79
246091.86535645 3357693.92163086 13.10501385 76 87 93
246090.45471191 3357694.72064209 13.28838634 250 252 249
246091.80322266 3357694.21105957 13.36367702 40 67 84
246091.47448730 3357694.47094727 13.45650673 29 33 32
246093.12719727 3357693.78826904 12.72630692 70 90 99
246093.10119629 3357694.00457764 12.93158436 237 248 250
246093.15661621 3357693.82843018 12.76175213 213 237 247
246091.32470703 3357695.00860596 13.48712349 21 31 33
246091.54089355 3357693.72467041 12.44817829 71 78 84
246091.35351563 3357693.78521729 12.55946541 214 223 230
246093.63476563 3357695.28582764 12.62989998 60 70 80
246091.29235840 3357693.82189941 12.94146538 201 204 211
246092.08801270 3357693.67370605 12.26362228 98 105 111
246089.64587402 3357694.08874512 13.02983856 254 253 249
246093.53125000 3357695.69390869 12.21520519 27 39 39
246092.51025391 3357694.21478271 13.08058739 36 44 55
246091.33300781 3357693.89788818 13.11787128 234 235 240
246090.19750977 3357695.12481689 13.33940411 204 214 224
246093.67980957 3357694.47821045 12.80538177 210 228 240
246089.77282715 3357693.78637695 12.47486877 209 210 205
246090.14404297 3357693.68695068 12.29929161 210 197 181
246091.48046875 3357693.80194092 12.83053875 184 201 211
246092.96264648 3357694.78399658 13.72386456 60 72 50
246090.10693359 3357695.24053955 13.25618076 55 58 63
246093.24926758 3357695.36206055 13.09771252 237 225 225
246091.35815430 3357693.63446045 12.34137154 94 104 106
246093.62561035 3357695.51739502 12.11034775 35 46 48
246090.08642578 3357693.92559814 12.97179222 216 221 224
246091.52465820 3357693.97045898 13.26172256 21 32 36
246092.12304688 3357694.19201660 13.21624660 26 60 87
246093.46179199 3357695.12792969 13.07369804 239 238 236
246089.49829102 3357694.69586182 13.13288879 230 236 248
246093.75085449 3357695.11322021 12.42276859 94 108 121
246090.66259766 3357695.06658936 13.38822174 208 212 213
246091.51159668 3357694.05310059 13.36734295 28 38 47
246090.63452148 3357693.87622070 12.97544289 224 223 228
246093.32714844 3357693.83422852 12.62540245 211 230 245
246090.57019043 3357694.28948975 13.38122654 217 225 227
246089.55078125 3357693.81066895 12.45931244 220 214 214
246089.91503906 3357693.88464355 12.89642048 206 210 213
246093.39099121 3357695.28656006 12.96817398 242 238 235
246088.84509277 3357694.65527344 12.35637379 200 199 181
246089.92468262 3357694.47845459 13.23552132 109 109 107
246092.75671387 3357694.23364258 13.10468292 222 241 247
246092.18542480 3357693.85736084 13.02673817 206 222 235
246093.33825684 3357694.61590576 13.38239861 249 251 248
246090.37780762 3357694.90045166 13.35477066 255 255 255
246093.58020020 3357693.97528076 12.53812981 179 206 223
246093.74633789 3357694.31823730 12.45151043 156 167 187
246090.50378418 3357695.26275635 13.35237885 182 197 202
246092.23168945 3357694.90197754 13.42611217 71 80 87
246089.45922852 3357695.70257568 12.47825432 26 28 25
246090.08764648 3357693.88500977 12.90067387 223 229 229
246092.59240723 3357693.88702393 12.91229820 203 230 237
246093.04943848 3357694.38299561 13.22591591 248 253 249
246090.06213379 3357695.22094727 13.24057770 21 22 24
246093.45373535 3357695.23553467 12.93628311 237 237 235
246089.77087402 3357694.01361084 13.02137852 210 211 206
246091.27636719 3357694.73498535 13.44945717 19 31 31
246091.26611328 3357695.07287598 13.47588348 14 25 27
246092.60266113 3357694.66998291 13.13506031 83 81 84
246089.76184082 3357694.21130371 13.14565563 72 65 55
246089.32202148 3357693.82708740 12.34644032 229 224 220
246093.32409668 3357695.16680908 13.35508728 239 240 234
246089.41821289 3357694.47229004 13.08411312 214 214 222
246091.72900391 3357695.19940186 13.61796093 179 184 190
246091.66772461 3357693.93743896 13.16547489 19 29 31
246091.55981445 3357694.14813232 13.39961910 223 233 243
246091.92919922 3357693.67443848 12.37199306 78 87 92
246091.25341797 3357693.79858398 12.84489250 204 209 212
246089.77221680 3357695.53942871 12.95252132 155 162 120
246089.71984863 3357695.56243896 12.87133980 145 154 107
246089.50354004 3357694.35192871 13.09184361 248 247 245
246094.07824707 3357694.65856934 12.16474056 43 53 62
246093.73681641 3357694.33020020 12.63024902 65 87 111
246089.64587402 3357693.88867188 12.82989025 235 235 233
246093.19250488 3357694.61627197 13.45848942 249 248 253
246090.92504883 3357695.18023682 13.40361309 177 190 198
246090.40576172 3357695.72387695 13.04366302 100 109 80
246090.57067871 3357695.34417725 13.34299946 94 103 102
246093.12695313 3357694.48522949 13.29412556 250 251 253
246089.22155762 3357694.39978027 13.03287220 214 219 215
246090.26184082 3357695.55212402 13.07569981 81 83 72
246093.74426270 3357694.48034668 12.62686253 38 63 93
246091.12829590 3357694.74053955 13.42003727 77 87 88
246093.56420898 3357695.79071045 12.12390995 34 43 42
246093.79003906 3357693.84552002 12.06748104 77 86 93
246089.52453613 3357695.70233154 12.51007175 28 28 28
246089.40454102 3357693.96582031 12.70822906 229 229 229
246093.45300293 3357693.69714355 12.15106487 69 78 77
246090.65991211 3357694.57415771 13.29481220 253 255 254
246089.30224609 3357696.20703125 12.13942719 158 163 133
246088.77636719 3357694.73907471 12.34386730 197 192 170
246093.15759277 3357694.12774658 13.05789471 244 249 252
246090.79907227 3357695.19830322 13.37640285 186 197 203
246093.24060059 3357693.92474365 12.82695770 204 227 233
246091.75585938 3357693.79437256 12.90039063 182 199 209
246091.35424805 3357694.70489502 13.46552181 19 31 31
246092.70959473 3357693.95983887 12.97527122 211 240 248
246090.89733887 3357694.60375977 13.39185143 241 241 241
246093.26550293 3357693.69647217 12.34648705 56 69 78
246091.29846191 3357693.80108643 12.85127735 202 207 213
246091.19555664 3357694.11126709 13.39328480 100 103 108
246093.43493652 3357694.92626953 13.26054001 235 237 234
246093.60620117 3357695.96472168 12.05562878 84 90 88
246093.70520020 3357694.90234375 12.70830631 134 151 167
246090.92810059 3357695.32360840 13.37073898 73 80 90
246090.14343262 3357696.15618896 12.40430260 23 27 10
246089.47338867 3357693.79699707 12.33165073 237 236 231
246092.36999512 3357693.82861328 12.74525166 198 216 226
246089.29809570 3357695.84838867 12.20422459 61 59 46
246093.51306152 3357693.90069580 12.35326672 139 158 172
246093.76269531 3357694.99682617 12.36166191 94 106 122
246090.78906250 3357693.80456543 12.32885075 183 185 184
246090.69738770 3357694.21301270 13.36660957 218 226 228
246090.53747559 3357694.87652588 13.32858467 251 253 252
246088.86401367 3357694.83825684 12.51886940 94 88 72
246093.81335449 3357694.87457275 12.26132965 37 51 62
246093.28198242 3357694.72320557 13.97672749 69 94 54
246091.68334961 3357694.93548584 13.47367287 240 243 250
246093.55334473 3357694.42388916 12.98124886 239 244 248
246090.18579102 3357695.33459473 13.25802422 255 255 255
246092.45056152 3357694.85162354 13.21391487 85 96 98
246089.84667969 3357695.18237305 13.15366745 17 23 13
246089.34179688 3357693.96734619 12.59992027 233 233 235
246090.02136230 3357695.82958984 12.52447128 39 47 34
246092.74450684 3357694.80249023 13.42776203 222 217 221
246090.98071289 3357695.04949951 13.40365410 243 244 249
246093.36364746 3357694.71539307 13.40116978 244 246 243
246093.43347168 3357694.78051758 13.27966309 240 242 237
246090.56286621 3357694.34936523 13.38158512 238 244 244
246093.76464844 3357694.72778320 12.49040222 48 69 96
246091.32250977 3357693.78430176 12.59707069 215 222 228
246089.44226074 3357696.34582520 12.20633125 150 150 126
246089.89392090 3357695.48291016 13.04505253 167 169 145
246093.52136230 3357695.70874023 12.22684956 33 44 46
246092.12011719 3357694.59570313 13.15596771 26 46 57
246092.80334473 3357694.59490967 13.18752289 217 230 236
246092.13427734 3357693.77966309 12.63202572 172 192 199
246092.62963867 3357694.50402832 13.08946800 246 239 246
246093.71484375 3357694.22393799 12.51616764 171 187 203
246090.05810547 3357695.76934814 12.61052799 62 68 58
246090.10644531 3357694.78454590 13.32387161 229 233 232
246092.37695313 3357693.87915039 12.95890141 216 229 235
246093.45275879 3357695.55541992 12.39591122 115 124 133
246093.32299805 3357693.86126709 12.70160007 199 225 240
246091.40954590 3357693.95617676 13.24270344 14 22 25
246089.77612305 3357695.73620605 12.51799679 37 38 30
246090.80993652 3357693.81152344 12.38473797 185 189 190
246093.39843750 3357694.70983887 13.33574390 242 244 239
246089.72961426 3357695.12847900 13.12714100 29 38 21
246090.39367676 3357694.14678955 13.30478764 231 232 234
246092.39160156 3357693.81311035 12.54518414 177 196 211
246093.26489258 3357693.75024414 12.45496273 11 25 34
246090.03222656 3357695.67352295 12.73593426 84 84 74
246089.73706055 3357693.90148926 12.88810444 246 246 246
246093.78015137 3357695.06402588 12.32061291 154 167 183
246089.34069824 3357694.22656250 12.99873257 255 255 255
246092.11401367 3357693.94860840 13.15083218 51 64 73
246091.00292969 3357694.59863281 13.41865826 248 249 251
246090.18066406 3357694.13256836 13.26412296 248 249 251
246093.63366699 3357694.45947266 12.87380314 223 238 245
246089.38061523 3357694.81500244 13.09584141 213 222 227
246093.42797852 3357694.47888184 13.16532040 245 247 246
246093.75646973 3357693.93408203 12.09006023 73 82 81
246093.80773926 3357695.51281738 11.99285507 31 42 46
246090.31359863 3357694.21545410 13.37813377 249 251 250
246091.22802734 3357693.74047852 12.49519539 128 136 138
246093.46936035 3357693.85137939 12.29663563 65 78 94
246090.88134766 3357694.38232422 13.42335415 245 249 250
246092.31445313 3357694.45153809 13.09282875 58 86 98
246093.64904785 3357695.56384277 12.05294895 66 74 76
246088.92382813 3357695.76232910 12.17899418 120 121 115
246093.15832520 3357694.08605957 12.99893570 247 251 254
246091.31640625 3357694.81884766 13.45661354 20 31 33
246093.36364746 3357694.92156982 13.52025032 216 219 212
246093.52294922 3357693.91241455 12.34459972 139 158 172
246091.38549805 3357694.26934814 13.45781612 239 242 247
246093.52966309 3357694.61529541 13.06495667 239 244 247
246092.36914063 3357694.86682129 13.33187294 95 106 112
246091.13049316 3357693.90295410 13.15305614 202 203 207
246093.72558594 3357694.96343994 12.62890816 25 42 60
246093.33239746 3357693.81964111 12.58056831 159 172 189
246093.67590332 3357694.93823242 12.76414585 203 217 228
246093.36950684 3357694.69311523 13.37349510 243 245 240
246093.37963867 3357694.87322998 13.51705742 213 215 210
246091.32763672 3357694.94299316 13.47755337 26 36 38
246089.28735352 3357695.96228027 12.13001347 139 140 122
246089.45288086 3357693.92681885 12.66381264 224 226 225
246093.34753418 3357695.55224609 12.65765953 75 74 80
246093.67138672 3357694.31561279 12.78695107 200 216 229
246089.79064941 3357695.93103027 12.28036880 88 88 86
246093.83581543 3357695.43566895 12.02563572 29 40 46
246092.12414551 3357693.85546875 13.05272198 192 211 226
246090.15112305 3357695.91290283 12.55170155 82 90 69
246090.38427734 3357693.80126953 12.72603130 232 230 231
246093.63049316 3357694.16601563 12.76392460 177 207 218
246093.33068848 3357695.20330811 13.25138855 242 238 235
246090.73681641 3357693.79602051 12.79030228 223 227 230
246091.77673340 3357693.97503662 13.19159412 10 20 21
246091.45849609 3357694.98547363 13.51769733 25 27 24
246091.77990723 3357693.76141357 12.61432838 191 203 215
246090.79516602 3357693.89355469 13.03299427 226 228 227
246092.55212402 3357693.78149414 12.47625637 104 124 135
246092.51794434 3357694.90917969 13.44758320 148 158 160
246090.20312500 3357694.02221680 13.11827183 72 73 75
246093.71813965 3357694.72393799 12.71233273 94 116 137
246092.80859375 3357694.68811035 13.29182529 254 255 255
246093.42321777 3357694.35791016 13.11252499 245 249 250
246091.33264160 3357693.72833252 12.45938683 84 93 100
246093.38085938 3357694.94335938 13.44076443 223 224 219
246093.89733887 3357694.64691162 12.21080494 30 38 49
246093.63293457 3357695.51098633 12.09961128 40 51 53
246091.52539063 3357694.02423096 13.34935474 32 43 49
246093.87939453 3357694.30474854 12.22621727 35 45 55
246090.55505371 3357694.25189209 13.36508560 218 223 226
246090.07714844 3357695.47174072 13.10186005 132 128 117
246092.63476563 3357693.92248535 12.95115376 211 235 245
246091.59179688 3357694.83325195 13.46975327 247 240 247
246090.40380859 3357695.69049072 13.05037212 112 121 90
246093.00134277 3357694.16308594 13.08422375 213 230 240
246091.22766113 3357693.97375488 13.28448963 24 28 27
246090.27490234 3357694.11224365 13.24848652 207 211 212
246089.38208008 3357694.72778320 13.09776592 225 238 247
246092.80432129 3357693.75091553 12.49358177 56 66 75
246093.63537598 3357694.03430176 12.23991299 131 142 146
246089.67761230 3357695.27166748 13.10015869 73 84 52
246091.86157227 3357693.74206543 12.72640991 174 191 201
246092.04077148 3357694.86877441 13.35684490 32 39 45
246091.14904785 3357694.22241211 13.44621086 248 249 251
246093.03027344 3357694.70013428 13.59981251 226 230 229
246093.77502441 3357695.61712646 12.00566006 31 40 45
246090.13073730 3357695.85235596 12.58133411 50 56 42
246090.46362305 3357693.91552734 12.99715996 251 250 246
246092.98999023 3357693.92974854 12.89071274 219 233 244
246093.09643555 3357694.77642822 14.03141308 87 116 58
246089.61535645 3357693.88830566 12.80899143 221 221 219
246093.32458496 3357695.45513916 12.83379364 225 221 218
246092.04638672 3357694.69757080 13.26361370 16 25 32
246089.72558594 3357694.90093994 13.15656471 68 74 60
246089.18762207 3357695.51861572 12.71797466 66 70 71
246092.22949219 3357694.91473389 13.44015026 73 82 89
246091.24951172 3357695.41278076 13.47407818 54 58 57
246093.62841797 3357694.89495850 12.86978722 221 232 238
246091.91589355 3357693.74359131 12.68803501 171 185 196
246092.28137207 3357693.95312500 13.08493042 210 219 224
246092.29345703 3357693.80328369 12.53364944 181 199 211
246092.59252930 3357694.86944580 13.32196140 89 95 93
246093.30041504 3357693.74322510 12.42323685 26 40 49
246089.32263184 3357694.37994385 13.05314255 251 253 252
246093.37927246 3357694.99536133 13.39236546 227 228 223
246091.20007324 3357694.41680908 13.47504330 34 48 48
246088.92553711 3357695.71801758 12.21211338 106 109 102
246090.06738281 3357694.96624756 13.33697605 19 29 21
246090.01403809 3357693.83923340 12.67957211 169 175 175
246089.27197266 3357696.03656006 12.12276840 161 163 141
246090.72924805 3357694.47180176 13.35395145 250 250 248
246092.72216797 3357693.64105225 12.22165585 63 71 82
246091.86364746 3357694.12237549 13.33736038 66 80 93
246088.79821777 3357694.75946045 12.36081409 197 190 171
246089.85974121 3357695.61871338 12.80643082 131 135 98
246093.71728516 3357695.09606934 12.59343910 111 125 138
246089.94006348 3357695.46490479 13.07583332 159 158 140
246089.93493652 3357695.34136963 13.13425446 138 137 135
246089.60278320 3357696.00384521 12.17901707 53 54 40
246091.95104980 3357693.75030518 12.76804447 158 176 190
246090.86145020 3357693.80151367 12.85732746 217 216 221
246093.12365723 3357693.73950195 12.57671738 72 85 94
246089.44494629 3357693.93054199 12.66209888 224 226 225
246093.27526855 3357695.29327393 13.16159725 253 243 242
246092.22937012 3357694.69732666 13.13764858 34 47 53
246093.48681641 3357695.79644775 12.25502586 32 42 44
246093.55773926 3357693.81372070 12.12306786 124 121 114
246089.60974121 3357695.72424316 12.49249172 33 31 32
246091.15637207 3357694.16229248 13.41702557 253 254 255
246092.47473145 3357693.83697510 12.66411781 187 211 221
246090.04284668 3357695.18768311 13.23899746 13 17 18
246090.49841309 3357694.37475586 13.37111568 242 248 248
246091.32446289 3357693.78375244 12.73917103 202 210 213
246089.82678223 3357695.34484863 13.10032845 68 67 65
246093.75549316 3357694.39959717 12.56037331 61 77 103
246092.55346680 3357694.72381592 13.14618111 58 56 61
246090.68176270 3357694.46093750 13.34153080 253 255 254
246091.75024414 3357694.11566162 13.37122631 202 216 229
246092.90917969 3357694.25085449 13.12555695 221 236 241
246092.09887695 3357694.56658936 13.17091274 22 48 61
246092.62585449 3357694.56359863 13.10716915 181 182 184
246092.91137695 3357693.66223145 12.23497581 70 79 86
246093.85827637 3357694.52191162 12.25631618 26 36 46
246088.73718262 3357694.81018066 12.34319401 196 190 166
246091.06872559 3357695.25335693 13.41228008 180 194 203
246093.02880859 3357694.79254150 13.88672829 71 93 46
246090.96313477 3357695.13977051 13.40820694 182 195 201
246091.69262695 3357693.84765625 12.95402145 201 217 230
246093.77124023 3357694.72198486 12.40931225 79 97 121
246090.38317871 3357693.77136230 12.50200558 131 130 126
246090.93151855 3357693.90643311 13.07849026 228 232 235
246091.18823242 3357695.55676270 13.38940620 33 40 32
246091.57470703 3357694.34197998 13.42567635 240 245 249
246091.78320313 3357693.75567627 12.57107449 191 203 215
246089.80334473 3357694.50256348 13.18072701 67 69 68
246093.23291016 3357695.47045898 12.93454170 220 215 211
246090.14855957 3357694.90405273 13.35788536 143 149 149
246093.09204102 3357694.18090820 13.10844326 235 240 246
246093.76171875 3357695.47772217 11.99712372 41 50 55
246089.21154785 3357695.65734863 12.45084667 34 35 29
246091.82849121 3357693.75598145 12.66877842 184 198 211
246091.15551758 3357693.93975830 13.22700310 28 30 29
246091.38610840 3357694.05035400 13.37535477 36 45 50
246089.45690918 3357694.44696045 13.09208393 230 229 235
246090.92968750 3357694.30969238 13.43257427 244 248 249
246093.74572754 3357693.99560547 12.12319183 91 100 97
246093.46325684 3357693.93981934 12.73684120 96 127 155
246093.26049805 3357694.70898438 13.58975410 233 235 232
246091.77136230 3357693.83856201 12.98218727 207 223 236
246091.49548340 3357693.84039307 12.95681286 201 211 220
246091.92272949 3357694.49877930 13.30486298 31 50 67
246093.66174316 3357695.85864258 12.03052044 75 81 79
246090.93640137 3357693.80029297 12.81373692 171 172 176
246092.47790527 3357695.00872803 13.60419464 0 1 0
246090.54931641 3357694.04205322 13.18525124 58 58 56
246090.13513184 3357695.43377686 13.15976906 145 142 133
246088.93835449 3357695.71246338 12.22131443 106 109 102
246091.49670410 3357693.78771973 12.54944706 195 208 216
246090.92651367 3357694.10345459 13.35794926 33 37 40
246091.53125000 3357693.84368896 12.95961952 194 208 219
246091.06616211 3357694.31219482 13.45088100 237 241 244
246090.03479004 3357695.01464844 13.29612541 23 33 22
246092.38732910 3357694.85131836 13.29686451 84 95 99
246092.26855469 3357693.68023682 12.20665359 114 127 135
246092.46606445 3357693.90222168 12.96695232 229 243 246
246092.35473633 3357694.80908203 13.22445965 61 72 74
246090.15844727 3357694.06158447 13.16679764 93 95 92
246093.36706543 3357695.23846436 13.08072567 248 242 242
246093.43933105 3357694.68395996 13.24668789 240 242 239
246090.42895508 3357693.77252197 12.60829449 241 237 236
246089.30773926 3357694.67205811 13.07456017 210 224 235
246091.13415527 3357695.05700684 13.43908024 46 62 62
246093.87133789 3357693.98138428 12.09741116 63 76 84
246093.58728027 3357694.75994873 12.97206402 234 239 245
246089.36889648 3357695.77044678 12.29842186 50 50 42
246091.36193848 3357693.63592529 12.34547138 94 104 106
246091.04919434 3357693.80004883 12.86495972 250 249 255
246090.41113281 3357695.69921875 13.05506992 100 109 80
246090.68920898 3357694.05187988 13.21990967 46 50 49
246092.45166016 3357693.78247070 12.46946526 134 154 165
246088.97314453 3357695.96154785 12.10329628 172 169 162
246091.76110840 3357695.02667236 13.51016140 240 240 248
246093.77368164 3357694.29144287 12.31197834 171 181 193
246093.11389160 3357694.43115234 13.26319885 251 252 254
246089.81335449 3357694.66772461 13.18756390 55 57 56
246090.10278320 3357693.71063232 12.34144783 218 208 196
246093.36572266 3357693.86065674 12.64771271 208 226 246
246092.02087402 3357694.50958252 13.22410297 16 37 54
246091.04882813 3357693.83380127 13.00386238 210 213 218
246092.35095215 3357694.00384521 13.08561802 55 58 67
246090.35998535 3357695.64636230 13.02723217 91 100 71
246093.45910645 3357694.90637207 13.21238232 237 239 236
246093.33789063 3357694.99969482 13.52464390 214 216 211
246093.30187988 3357694.98217773 13.65264606 186 191 185
246092.90808105 3357693.82861328 12.79484463 213 235 248
246093.15356445 3357694.70874023 13.87086296 69 90 49
246089.27868652 3357695.68756104 12.42284203 40 41 33
246093.16284180 3357694.15515137 13.08181953 237 242 245
246093.75744629 3357695.37420654 12.04619884 37 46 55
246093.55566406 3357695.05023193 12.95131779 232 235 240
246091.98425293 3357694.46838379 13.25832176 16 37 56
246093.70153809 3357695.26763916 12.42256451 126 136 148
246091.60522461 3357693.76403809 12.49272060 130 139 144
246092.56115723 3357694.86822510 13.29353142 84 93 90
246090.21313477 3357694.21496582 13.33405495 255 255 255
246089.59387207 3357693.94030762 12.87926579 241 241 239
246090.59143066 3357694.60742188 13.28745937 242 246 245
246091.78808594 3357693.66375732 12.38546658 71 83 83
246094.15637207 3357694.54058838 12.15750217 44 56 68
246090.34667969 3357695.44110107 13.28239632 106 106 104
246090.45019531 3357695.44274902 13.31395531 125 127 124
246090.07080078 3357695.03308105 13.31502628 23 29 29
246090.66955566 3357694.52038574 13.31676102 252 254 253
246091.78259277 3357693.99066162 13.25368309 17 27 29
246092.29833984 3357694.96063232 13.49521255 110 120 122
246089.91894531 3357696.21929932 12.31791878 98 101 90
246089.66271973 3357695.51104736 12.96573544 145 152 110
246093.30664063 3357694.55609131 13.35319996 252 254 251
246093.61328125 3357695.57995605 12.11098957 30 40 41
246093.09790039 3357693.86419678 12.80760765 210 230 239
246089.09643555 3357695.97857666 12.08638000 170 170 160
246090.05883789 3357696.08447266 12.37293911 52 54 41
246093.25683594 3357693.84136963 12.72996426 205 232 243
246093.09252930 3357693.64721680 12.31569195 69 79 88
246090.59729004 3357693.84002686 12.91283703 215 219 222
246092.64013672 3357694.88806152 13.45962334 124 130 130
246089.67126465 3357694.08087158 13.03496265 254 250 247
246091.81359863 3357694.20428467 13.35960293 32 59 78
246093.55322266 3357693.83502197 12.12717342 115 112 107
246093.71887207 3357695.01525879 12.62046623 27 44 60
246090.98034668 3357695.27093506 13.39592552 179 189 199
246089.61145020 3357696.27520752 12.23449993 139 140 122
246092.32922363 3357693.76782227 12.42909050 109 125 138
246091.99255371 3357693.78204346 13.00804424 180 199 214
246089.34301758 3357695.82958984 12.24550629 47 45 33
246093.50720215 3357695.39062500 12.72892761 165 169 172
246092.42309570 3357693.73559570 12.35390377 52 67 74
246089.61267090 3357696.08331299 12.18159962 54 55 37
246092.58837891 3357694.82214355 13.22829533 86 80 82
246091.92065430 3357693.67358398 12.37535667 76 85 90
246089.54333496 3357694.36566162 13.10000324 236 230 230
246093.03222656 3357694.50537109 13.28523827 252 251 255
246090.02221680 3357693.91040039 12.95024586 207 212 215
246089.92517090 3357696.00396729 12.31954956 93 96 89
246089.07788086 3357694.38665771 13.00607681 95 100 78
246092.74768066 3357694.20025635 13.09428692 209 232 238
246091.25378418 3357695.41485596 13.47748661 54 58 57
246089.69750977 3357693.96435547 12.94750309 233 233 231
246091.98962402 3357694.02557373 13.22611618 192 200 213
246089.27160645 3357695.66882324 12.45891857 32 34 29
246092.15014648 3357693.99938965 13.16167355 227 235 248
246092.76477051 3357693.74365234 12.42912292 50 59 68
246089.47192383 3357694.85729980 13.11321068 239 242 247
246089.25842285 3357695.86181641 12.16249752 104 105 91
246093.31518555 3357694.70153809 13.49796295 237 239 238
246093.58996582 3357695.43280029 12.27868557 69 82 88
246091.13525391 3357695.55670166 13.32680511 35 40 34
246090.45422363 3357695.47320557 13.29350662 80 82 79
246090.37902832 3357694.92456055 13.36341190 252 254 253
246093.99743652 3357694.67388916 12.17833138 39 47 58
246092.73217773 3357694.64056396 13.16674519 241 249 252
246092.03308105 3357693.86254883 13.08564568 184 202 216
246090.04260254 3357695.46203613 13.10326576 127 123 111
246089.52099609 3357695.80285645 12.29646206 68 69 64
246089.05786133 3357695.74316406 12.20263004 110 110 98
246092.99365234 3357694.66528320 13.52672863 232 235 240
246091.32617188 3357694.12841797 13.40722275 146 151 155
246091.63696289 3357694.47387695 13.41895866 234 233 239
246094.10168457 3357694.77947998 12.15839005 49 59 69
246091.35644531 3357693.88043213 13.07301712 248 248 255
246089.51721191 3357694.17376709 13.03560066 250 245 239
246091.11938477 3357695.36523438 13.41529942 51 59 61
246091.77001953 3357694.14013672 13.36848354 131 145 158
246089.52075195 3357695.61035156 12.68833733 57 60 43
246089.91967773 3357695.15069580 13.18156719 28 33 27
246094.00292969 3357694.71026611 12.17527008 40 48 59
246089.42504883 3357695.27581787 13.06215858 231 244 218
246090.47656250 3357695.45153809 13.30740261 111 116 112
246089.22875977 3357694.94372559 13.08441830 219 225 221
246089.87915039 3357695.14208984 13.16933441 38 44 34
246093.28784180 3357694.04333496 12.92088890 247 253 253
246092.03967285 3357693.82464600 13.04781342 174 193 208
246091.59704590 3357693.80657959 12.79960346 178 194 209
246093.64025879 3357694.43597412 12.85889149 217 232 239
246090.29846191 3357693.94171143 13.00071526 254 254 252
246090.03186035 3357693.78240967 12.47685909 216 216 218
246090.57690430 3357695.08636475 13.38362026 196 208 206
246093.43579102 3357695.83190918 12.34568214 32 42 41
246089.96362305 3357693.87170410 12.86357689 209 210 212
246093.10339355 3357694.10491943 13.03663254 239 246 252
246090.54296875 3357694.69805908 13.28827000 245 247 244
246090.39648438 3357693.90301514 12.96444035 252 252 252
246090.48181152 3357693.99163818 13.10977077 161 156 153
246091.48449707 3357694.00335693 13.33383942 40 49 58
246090.24853516 3357695.75585938 12.81013489 78 82 67
246090.78381348 3357693.99548340 13.16228485 39 44 47
246090.41418457 3357695.26953125 13.34698296 189 200 206
246092.70715332 3357694.78039551 13.32295609 249 243 243
246093.49938965 3357695.32092285 12.80584049 225 229 228
246089.49487305 3357696.19305420 12.16785145 125 129 106
246091.56250000 3357693.71490479 12.44098568 71 78 84
246093.26696777 3357695.46673584 12.88969517 221 216 212
246092.05273438 3357693.65655518 12.25814152 85 92 98
246090.49792480 3357693.98718262 13.10659981 147 142 139
246090.85290527 3357694.84722900 13.35026169 248 248 248
246088.98693848 3357695.64239502 12.33161545 108 111 102
246090.65747070 3357693.80236816 12.37612152 209 208 204
246089.83020020 3357696.07196045 12.25040436 90 93 84
