246093.87731934 3357685.94445801 12.98288345 69 75 89
246092.13293457 3357686.61206055 13.39531517 51 71 82
246092.85522461 3357682.95513916 13.23414135 22 44 65
246092.50512695 3357684.34118652 12.25024509 101 101 93
246091.20361328 3357684.78790283 12.73039722 75 75 67
246090.47973633 3357682.65222168 13.47010422 0 4 5
246089.31994629 3357683.26177979 13.29087734 42 48 48
246092.17248535 3357686.95831299 13.34657955 28 33 36
246092.93029785 3357684.97229004 12.32349873 46 49 54
246091.96215820 3357685.67034912 13.47471523 7 31 57
246092.30761719 3357685.95513916 13.31341457 21 56 78
246092.80163574 3357686.81988525 13.10919666 4 9 15
246093.34228516 3357686.67889404 12.91714954 67 79 91
246090.79614258 3357682.76336670 13.61876106 101 108 116
246089.30541992 3357682.67535400 13.27306366 36 42 42
246092.41345215 3357684.24707031 12.29478455 42 48 48
246093.52978516 3357685.36773682 13.06116962 58 68 93
246093.74462891 3357685.36328125 12.92921925 56 65 72
246091.76794434 3357685.39739990 13.48020172 33 37 46
246091.64465332 3357684.97241211 12.30284691 56 63 69
246092.44885254 3357682.12994385 13.08279514 90 95 98
246091.64514160 3357686.26434326 13.58142662 55 66 84
246091.68981934 3357685.15863037 13.28211689 77 80 85
246089.39587402 3357683.42858887 13.39545631 24 32 19
246092.75744629 3357683.59869385 13.19242859 174 200 217
246090.91809082 3357683.30218506 13.66508389 8 18 17
246091.59948730 3357685.65020752 13.56481457 62 64 77
246092.24926758 3357686.55895996 13.27647018 38 59 78
246092.62951660 3357683.91162109 13.13179302 189 198 203
246091.25341797 3357684.29687500 12.38974953 68 75 81
246093.33764648 3357684.87231445 12.20215225 189 186 167
246091.86987305 3357682.07293701 13.65675163 0 5 3
246092.48535156 3357682.69628906 13.23082733 180 198 218
246093.98120117 3357685.87506104 12.63709450 47 59 81
246092.37402344 3357682.07055664 13.18421841 143 150 156
246092.57153320 3357684.84197998 12.36397171 30 35 38
246092.32397461 3357683.96264648 12.75257206 24 25 30
246091.75610352 3357684.82104492 12.22399044 52 59 67
246090.72668457 3357682.24670410 13.30850506 126 128 125
246093.81542969 3357685.67901611 12.97640324 88 101 117
246091.95996094 3357685.70385742 13.49470329 9 33 59
246091.96118164 3357684.73712158 12.20079708 50 59 66
246091.43701172 3357686.36486816 13.56202984 62 74 96
246092.94335938 3357682.87500000 13.19095325 66 78 100
246092.80639648 3357684.32537842 12.26735497 65 65 57
246091.83996582 3357686.77612305 13.79623413 16 20 19
246092.66479492 3357682.54760742 13.17443848 94 111 127
246093.12866211 3357686.43121338 13.17104912 72 87 110
246093.71594238 3357685.42803955 12.98521614 11 23 37
246091.36047363 3357684.03369141 13.03115273 57 63 63
246090.88012695 3357684.61407471 12.50314522 56 62 58
246092.16979980 3357684.81793213 12.22146606 33 38 42
246091.50817871 3357683.08068848 13.54742718 52 79 96
246091.03210449 3357682.87115479 13.60822964 87 96 105
246092.88720703 3357685.23638916 13.26571941 150 155 175
246092.05566406 3357684.62750244 12.20529366 43 52 59
246091.73583984 3357683.42456055 13.41806221 125 158 173
246093.62475586 3357686.63970947 12.62674236 53 54 59
246093.22277832 3357686.67480469 12.72182083 52 65 74
246089.56628418 3357682.94342041 13.42913151 55 61 61
246093.81054688 3357686.34075928 12.97047424 33 38 58
246093.37854004 3357686.69427490 12.40517616 12 16 15
246092.71276855 3357683.99035645 12.59893703 89 95 95
246091.98889160 3357682.21850586 13.29265881 144 148 151
246092.67517090 3357682.13635254 12.96560287 25 35 36
246090.76794434 3357684.32238770 13.10244560 179 180 172
246091.47827148 3357684.94470215 12.47915554 103 114 118
246092.30786133 3357684.92456055 12.41969967 31 36 40
246093.39770508 3357686.68634033 12.85842896 60 70 80
246093.17248535 3357683.00946045 13.00039673 172 190 212
246091.79797363 3357684.27526855 12.32816029 87 98 102
246090.23315430 3357682.72857666 13.52505207 121 123 122
246090.08410645 3357683.50769043 13.61140156 102 100 101
246091.21423340 3357684.76416016 12.81893921 122 119 110
246091.63146973 3357682.64233398 13.36172390 64 86 107
246093.23022461 3357685.09613037 12.66630745 4 8 19
246092.09167480 3357686.13793945 13.31404495 7 35 56
246091.74108887 3357684.53979492 12.19862080 48 58 68
246093.21569824 3357683.93395996 12.32466412 48 50 49
246093.62207031 3357685.27600098 12.82926369 148 162 173
246092.25061035 3357686.85028076 13.33714199 27 35 37
246091.54907227 3357683.87060547 13.42539501 77 84 102
246093.14624023 3357684.54223633 12.22013569 57 59 56
246092.79589844 3357685.16870117 13.20575333 7 8 26
246092.83776855 3357684.63641357 12.22244740 48 52 51
246092.55187988 3357682.06256104 13.03810692 38 43 46
246092.03808594 3357686.83959961 13.58416367 23 29 29
246092.52844238 3357684.52130127 12.23105145 47 49 44
246092.58874512 3357686.01666260 13.29135895 41 82 114
246092.55627441 3357684.91796875 12.57864475 38 42 45
246092.70092773 3357686.16186523 13.26625633 19 45 68
246092.85339355 3357685.00573730 12.58042336 179 180 182
246093.49353027 3357685.50946045 13.02130604 55 69 96
246091.80236816 3357684.28021240 12.31831932 90 101 105
246093.08886719 3357686.39215088 13.18070984 80 96 119
246091.55871582 3357685.22387695 13.35424328 98 102 105
246093.61242676 3357686.63208008 12.56011105 57 56 62
246091.40722656 3357682.43115234 13.44317722 141 139 142
246092.84887695 3357684.07751465 12.47559929 32 41 38
246092.62316895 3357682.15496826 12.98938942 32 42 43
246092.30810547 3357683.96166992 12.70183372 25 28 33
246091.85803223 3357686.27636719 13.60019684 41 56 75
246093.16479492 3357683.94128418 12.37736893 49 50 52
246092.42993164 3357686.23095703 13.26365852 22 58 82
246091.56933594 3357683.49365234 13.48509407 42 61 68
246092.20886230 3357682.89672852 13.24545097 36 46 58
246093.08447266 3357682.30145264 12.47093487 23 33 35
246092.08911133 3357684.04724121 12.63740540 57 66 71
246093.84008789 3357685.73724365 12.95709801 56 68 84
246091.56079102 3357686.67089844 13.74320126 21 22 24
246092.15942383 3357684.97204590 13.03658581 21 29 31
246091.68713379 3357684.93859863 12.47284985 68 81 89
246091.73168945 3357682.75860596 13.33232307 31 62 82
246092.53918457 3357686.57897949 13.26857281 25 53 74
246092.37646484 3357686.29571533 13.23991966 22 58 80
246091.31689453 3357686.41375732 13.59354305 45 63 83
246090.93432617 3357684.50689697 12.73737717 75 75 73
246090.95605469 3357683.32165527 13.66213608 7 15 18
246091.78063965 3357684.19958496 12.49398899 64 75 79
246091.62512207 3357684.01684570 13.24021435 128 141 147
246092.98571777 3357682.28875732 12.70962238 11 25 26
246091.00573730 3357683.14270020 13.63899612 1 11 20
246093.84252930 3357686.23199463 12.99855423 111 114 133
246093.86975098 3357686.53021240 12.43463802 45 54 61
246092.25451660 3357685.32965088 13.29594326 31 43 57
246089.60607910 3357682.82568359 13.43674850 110 113 118
246093.69042969 3357686.60015869 12.44619751 77 76 82
246093.29675293 3357686.34112549 13.07175064 74 84 111
246092.32263184 3357682.21569824 13.18207645 53 58 64
246093.47192383 3357685.30108643 13.09751701 50 61 81
246092.69323730 3357686.70874023 13.26863194 21 30 45
246091.62915039 3357685.45666504 13.51581001 143 148 152
246091.20227051 3357684.79260254 12.72011185 75 75 67
246091.58349609 3357686.48651123 13.72585773 37 47 59
246091.96752930 3357683.29174805 13.32688427 133 164 182
246091.62817383 3357685.08819580 13.24726582 90 91 93
246090.95239258 3357682.38317871 13.38443089 112 113 115
246089.84899902 3357683.09246826 13.57025814 175 170 167
246089.93420410 3357682.70111084 13.53554058 114 116 115
246091.02514648 3357686.38751221 13.63335991 41 56 63
246090.44982910 3357683.19775391 13.66177845 122 124 119
246092.54357910 3357685.08496094 13.10173988 8 13 19
246091.27160645 3357682.94915771 13.58270836 119 145 162
246093.40258789 3357685.18298340 12.87632561 179 186 205
246093.16442871 3357685.87591553 13.13274670 71 85 114
246090.66235352 3357684.04046631 13.39988422 106 111 104
246090.95703125 3357684.79016113 12.27863407 92 98 98
246093.16040039 3357683.23156738 13.00148964 179 198 215
246091.11010742 3357686.32781982 13.50323486 31 45 56
246092.19909668 3357682.26403809 13.10936642 16 23 29
246091.36364746 3357683.82812500 13.47353649 11 16 22
246092.54650879 3357686.53088379 13.26310539 24 55 76
246090.35192871 3357683.77777100 13.54610634 39 46 39
246094.01379395 3357685.95642090 12.53500748 31 47 60
246092.46081543 3357685.03894043 13.04209232 16 20 23
246091.58300781 3357686.80853271 13.76444817 31 37 35
246093.05419922 3357683.79425049 13.04521465 123 107 118
246093.27148438 3357684.62567139 12.20603848 136 126 116
246092.61413574 3357685.58856201 13.30718708 23 54 75
246092.35742188 3357684.86212158 12.34401417 37 42 46
246091.37133789 3357684.90435791 12.52572250 146 151 147
246090.15832520 3357683.88439941 13.48997116 70 75 68
246094.05004883 3357686.01379395 12.45462990 14 28 39
246092.88256836 3357684.16601563 12.35129929 43 47 50
246093.80297852 3357685.40820313 12.76819611 15 20 26
246092.03833008 3357683.83300781 13.26651192 171 190 197
246092.97155762 3357682.19458008 12.41879940 25 30 33
246090.24816895 3357682.57049561 13.33758450 11 11 11
246092.87780762 3357686.86602783 12.71922398 14 25 27
246093.25439453 3357686.66741943 12.63925266 58 72 81
246091.22131348 3357684.77978516 12.75202751 90 90 82
246092.08325195 3357684.06671143 12.57025909 62 72 74
246090.06298828 3357683.86291504 13.53655434 68 69 63
246092.87951660 3357682.12524414 12.59241009 28 31 36
246092.75219727 3357686.30548096 13.26602459 10 33 51
246090.46960449 3357682.33410645 13.18952274 53 55 52
246093.29992676 3357683.62921143 12.82025242 97 115 127
246089.27075195 3357683.48822021 13.41206932 20 32 12
246091.01928711 3357682.63928223 13.54896164 32 42 43
246091.83386230 3357684.09973145 12.90368271 42 45 52
246090.92419434 3357684.54797363 12.70967865 70 72 69
246092.28686523 3357686.62731934 13.31497860 51 69 81
246092.18823242 3357682.79486084 13.23592091 25 37 51
246092.45800781 3357683.90649414 13.14007378 182 196 199
246091.11206055 3357686.45562744 13.67480373 44 60 76
246093.06921387 3357683.14849854 13.08732128 22 31 38
246093.13854980 3357683.92303467 12.74018764 16 30 30
246093.18945313 3357683.57318115 13.00147724 138 131 139
246091.41760254 3357685.97039795 13.35218334 32 42 54
246090.95263672 3357684.60150146 12.69419765 137 139 138
246092.89379883 3357682.20373535 12.69505215 14 22 25
246093.31701660 3357686.70166016 12.41762066 0 7 6
246093.10168457 3357683.94036865 12.52396965 32 36 37
246089.91333008 3357683.66967773 13.58293629 81 83 70
246092.80065918 3357685.11035156 13.09926033 0 3 12
246088.92138672 3357682.65502930 12.39909554 39 41 38
246090.73413086 3357684.38403320 13.10740089 161 162 148
246091.21301270 3357686.22283936 13.38510895 24 31 41
246093.11230469 3357683.40417480 13.09478855 196 192 207
246092.60229492 3357683.95715332 12.96251965 46 50 53
246092.51574707 3357683.94146729 13.09875584 203 208 211
246093.34289551 3357686.67211914 12.68341923 47 61 72
246091.25256348 3357682.17962646 13.65947437 0 2 1
246091.77380371 3357684.15643311 12.68974113 50 57 65
246093.47070313 3357685.16119385 12.37971687 23 29 29
246090.52502441 3357683.94360352 13.50818539 82 88 78
246092.93212891 3357683.44677734 13.18701553 30 34 43
246090.72680664 3357684.28289795 13.14527512 123 125 114
246091.84289551 3357684.61596680 12.19570065 66 74 85
246093.23156738 3357685.12054443 13.02747917 66 69 84
246091.83044434 3357686.40869141 13.67130280 47 63 78
246090.97875977 3357686.31622314 13.60435677 23 35 35
246092.03479004 3357686.49700928 13.45484257 4 31 50
246093.12805176 3357682.53723145 12.91139603 141 155 168
246090.36523438 3357682.30517578 13.18449974 33 34 29
246093.36035156 3357683.33483887 12.60482025 39 43 55
246091.68652344 3357686.95892334 13.94421196 30 31 33
246091.30590820 3357684.80023193 12.72125816 84 85 80
246092.58862305 3357682.58538818 13.20214844 152 169 187
246091.78393555 3357684.75958252 12.20274448 40 47 55
246090.85388184 3357684.47827148 12.47471905 43 48 51
246092.12487793 3357684.96777344 13.06278038 28 33 36
246089.96313477 3357683.05322266 13.59907913 178 174 173
246090.81091309 3357683.85180664 13.55157852 45 50 44
246090.87817383 3357684.19604492 13.07060814 28 30 25
246091.77734375 3357685.85601807 13.53856850 41 57 82
246091.01123047 3357682.79595947 13.60212326 120 132 144
246091.52380371 3357685.40478516 13.47956467 66 72 72
246092.94958496 3357682.25915527 12.65584469 14 25 27
246091.32360840 3357682.17626953 13.66002083 8 18 17
246091.11462402 3357684.28936768 12.46890831 61 65 68
246092.29040527 3357686.74847412 13.30903530 20 31 35
246093.07507324 3357685.03118896 12.67228508 168 169 174
246090.51770020 3357683.23785400 13.67401409 103 108 102
246093.86401367 3357685.53948975 12.89234638 66 75 84
246089.69763184 3357682.45745850 12.87317562 29 29 27
246092.61938477 3357685.18438721 13.23151398 2 5 14
246093.68298340 3357686.62963867 12.65412617 56 59 66
246093.17382813 3357683.88146973 12.68227291 24 34 36
246093.62719727 3357686.00292969 12.98462677 44 53 82
246092.99218750 3357682.43322754 12.96105862 86 102 118
246092.24426270 3357683.30810547 13.24398613 149 168 182
246092.54675293 3357684.20312500 12.32986450 23 32 37
246092.67883301 3357683.72106934 13.18162060 180 198 212
246089.47302246 3357683.33428955 13.36985970 36 43 36
246092.78576660 3357684.99346924 12.56458473 19 23 22
246093.30798340 3357685.12792969 12.54586411 17 26 33
246091.59790039 3357685.82434082 13.49586773 49 62 78
246091.76745605 3357684.57379150 12.19768906 52 62 72
246091.47265625 3357684.78918457 12.89252090 95 101 101
246093.95483398 3357685.78240967 12.82260799 46 53 71
246093.37500000 3357686.66638184 12.52530384 119 126 132
246093.17468262 3357684.70178223 12.21708679 57 55 60
246092.78271484 3357684.25567627 12.31852818 44 49 52
246091.80175781 3357684.04193115 13.13353252 124 134 136
246093.28552246 3357686.12054443 13.03863335 69 83 110
246091.23242188 3357682.77148438 13.59595776 141 163 184
246093.20678711 3357683.84051514 12.69477367 26 35 40
246092.08325195 3357683.99884033 12.96593571 159 163 164
246089.53369141 3357682.52496338 13.23929977 42 44 41
246092.92419434 3357686.45654297 13.24219608 86 107 134
246090.57214355 3357683.32482910 13.68492603 97 101 100
246090.89697266 3357684.47052002 12.56463623 44 50 50
246091.72924805 3357684.83978271 12.63876820 83 96 104
246091.61291504 3357684.81451416 12.68365383 96 105 110
246091.01123047 3357684.33990479 12.60460567 47 51 52
246092.29003906 3357683.88061523 13.19594479 167 181 192
246091.55737305 3357682.33135986 13.32637501 143 147 150
246090.92260742 3357684.76391602 13.03368664 119 125 125
246092.79711914 3357684.99426270 12.52685070 98 100 99
246094.01281738 3357685.90405273 12.52001095 35 51 66
246092.59143066 3357683.78277588 13.18355846 184 202 214
246088.83190918 3357682.63671875 12.33987808 57 59 56
246091.55700684 3357686.29907227 13.55213451 51 64 83
246092.71911621 3357684.98687744 12.79288197 15 19 22
246090.10778809 3357682.63146973 13.46186733 4 8 7
246093.07153320 3357685.19451904 13.20063877 88 103 126
246092.52868652 3357686.43121338 13.24744034 21 57 79
246089.33264160 3357682.55676270 13.17799854 45 51 49
246091.18395996 3357684.81610107 13.01517010 88 92 91
246091.05468750 3357684.78918457 12.59013653 62 62 54
246093.46301270 3357686.65167236 12.57326889 14 22 25
246089.11071777 3357682.79730225 13.24413872 161 166 172
246091.28393555 3357684.87817383 12.55947399 158 163 157
246092.62622070 3357684.11413574 12.38796234 53 54 56
246092.32910156 3357682.97863770 13.25269413 234 237 246
246092.05358887 3357685.99597168 13.47552299 21 46 68
246093.12121582 3357686.74511719 12.59138584 105 118 124
246093.09216309 3357685.04071045 12.74706650 61 64 69
246091.01782227 3357684.71057129 12.64536858 113 112 108
246093.36328125 3357683.37329102 12.63425350 34 40 52
246093.97167969 3357686.46331787 12.38138485 45 55 65
246092.46887207 3357684.74914551 12.30391216 34 40 40
246093.15026855 3357686.12414551 13.12660027 70 86 112
246093.19763184 3357686.88031006 12.32493687 29 28 36
246091.13366699 3357686.23083496 13.40859222 26 30 39
246093.09484863 3357683.41784668 13.11324978 148 146 159
246091.17028809 3357682.64099121 13.58686829 76 86 96
246092.58959961 3357684.92236328 12.65561867 31 34 39
246093.17614746 3357686.77404785 12.45037651 25 36 40
246089.34814453 3357683.07519531 13.27585602 40 49 46
246092.22753906 3357686.84350586 13.35187531 27 35 37
246092.02478027 3357684.28314209 12.26420403 55 65 67
246093.08068848 3357684.70935059 12.22538090 58 61 66
246091.93579102 3357685.75872803 13.53432560 20 41 68
246091.39819336 3357683.62115479 13.55280781 0 8 9
246092.35852051 3357683.95123291 13.08126450 200 205 211
246093.02380371 3357685.79663086 13.21990395 75 89 116
246091.38720703 3357684.86669922 12.60395527 128 132 131
246091.87145996 3357684.60687256 12.19525814 57 65 76
246094.00634766 3357685.79595947 12.52484894 20 37 53
246092.54187012 3357683.80169678 13.18729496 183 199 214
246091.07519531 3357683.23474121 13.63178349 30 40 50
246091.27600098 3357683.86389160 13.39703560 135 135 143
246092.57067871 3357686.44311523 13.25449657 23 58 78
246091.11108398 3357682.40509033 13.48887730 179 178 183
246090.25964355 3357683.58966064 13.59403133 40 42 41
246091.50219727 3357682.21948242 13.57046604 165 164 169
246089.08593750 3357682.96350098 13.20748615 78 83 87
246092.26586914 3357685.89654541 13.31591225 18 53 75
246092.22045898 3357682.70520020 13.22093773 110 119 134
246090.64355469 3357682.45220947 13.16269493 60 62 61
246091.57958984 3357682.14715576 13.67747688 12 16 17
246092.72448730 3357684.72436523 12.25734234 47 51 52
246089.45336914 3357682.87451172 13.35544682 87 97 98
246090.85754395 3357684.55065918 12.38112068 43 49 49
246092.54858398 3357684.35876465 12.24338341 88 87 82
246093.38452148 3357686.68688965 12.96979713 70 79 94
246091.12158203 3357684.28448486 12.57314587 61 65 68
246092.58459473 3357685.04827881 13.03203392 5 10 14
246090.86523438 3357684.52539063 12.29576111 38 46 48
246092.95507813 3357682.22998047 12.49139595 21 29 32
246090.85876465 3357684.37115479 13.02117920 166 167 159
246089.79162598 3357683.30596924 13.56422234 36 40 25
246093.04357910 3357683.57501221 13.12994003 204 206 221
246092.73388672 3357682.99542236 13.28347588 205 235 246
246092.34655762 3357684.51776123 12.22628689 31 36 32
246091.19055176 3357684.88098145 12.51655769 153 154 148
246093.99707031 3357685.96453857 12.62914467 57 69 85
246092.89489746 3357682.43762207 13.03910542 49 63 76
246093.13916016 3357686.68994141 13.06233311 35 38 53
246089.97021484 3357682.40209961 13.00153351 29 29 27
246090.89099121 3357683.34075928 13.67212772 11 21 20
246092.84179688 3357685.22607422 13.26494980 138 143 163
246092.14416504 3357685.90325928 13.31430912 19 47 68
246091.98669434 3357684.13360596 12.51907253 68 77 84
246092.19201660 3357684.90484619 12.64313889 44 53 58
246092.95031738 3357682.30926514 12.83109665 5 14 19
246091.76428223 3357686.85906982 13.86819553 28 34 32
246089.77246094 3357682.65057373 13.41676331 28 32 31
246093.03381348 3357683.71270752 13.10111523 80 46 62
246093.31176758 3357685.13842773 12.77989769 67 70 89
246091.80590820 3357686.55090332 13.72715378 85 92 98
246091.78454590 3357683.19458008 13.42030811 85 113 134
246093.34606934 3357686.83135986 12.24284077 79 63 48
246092.72949219 3357685.11944580 13.11810875 4 7 16
246093.02770996 3357682.31298828 12.66129398 11 22 24
246091.91540527 3357684.82324219 12.73734665 67 72 76
246093.38732910 3357686.05462646 12.98160934 56 70 99
246088.68750000 3357682.78857422 12.35392857 56 60 59
246089.70739746 3357682.85632324 13.48679256 36 31 37
246092.32080078 3357682.24060059 13.16515541 38 43 49
246091.81713867 3357685.28039551 13.34520435 50 54 57
246091.04309082 3357684.31781006 12.53410530 46 50 53
246092.97631836 3357682.51440430 13.06983566 143 158 177
246092.66735840 3357684.54571533 12.23047447 59 60 55
246092.82531738 3357686.84838867 13.00304508 4 13 18
246091.77380371 3357686.37322998 13.66895485 46 59 76
246091.91394043 3357684.81311035 12.76567078 68 73 77
246090.94274902 3357684.20916748 13.01038170 24 29 25
246093.10827637 3357684.99682617 12.38337421 75 78 85
246092.91247559 3357683.32476807 13.19378853 29 34 38
246093.50134277 3357686.70324707 12.92146492 108 115 123
246091.91259766 3357685.59582520 13.52155590 21 39 63
246089.51586914 3357683.51367188 13.46528149 65 87 48
246091.02612305 3357683.89562988 13.35530949 81 82 86
246092.10168457 3357685.79602051 13.37674809 24 52 73
246091.40588379 3357684.78100586 12.85907841 117 121 122
246089.81408691 3357682.68041992 13.45122623 21 25 24
246093.81530762 3357686.35058594 12.95294857 38 43 62
246090.97778320 3357682.24127197 13.55835724 102 102 100
246091.54956055 3357684.80139160 12.70884323 82 90 93
246093.20385742 3357686.22637939 13.08889484 74 88 115
246091.53283691 3357684.09655762 13.03012276 20 24 27
246092.66467285 3357683.95544434 12.98838520 86 90 93
246091.90063477 3357684.83483887 12.69411945 61 68 74
246091.13940430 3357683.26342773 13.62349033 101 111 121
246091.88659668 3357683.95434570 13.24255753 138 156 166
246092.67041016 3357684.98944092 12.89208221 16 21 24
246092.74084473 3357683.16082764 13.23648167 6 34 55
246090.25842285 3357683.45227051 13.63225365 98 97 95
246092.86743164 3357682.47747803 13.09396744 129 141 153
246092.09912109 3357685.99816895 13.34863377 34 62 83
246089.62207031 3357682.47924805 12.80126190 50 50 48
246091.57678223 3357683.12561035 13.53182220 64 90 105
246091.06665039 3357686.42285156 13.65589523 38 52 65
246093.30297852 3357682.75067139 12.82284451 82 95 104
246091.35766602 3357686.09191895 13.35004139 60 69 84
246091.15588379 3357686.47235107 13.67330265 39 55 71
246091.39904785 3357685.30578613 13.43615627 56 60 59
246092.36242676 3357686.05554199 13.29445457 19 53 78
246092.32836914 3357682.17059326 13.17258739 81 86 90
246088.42089844 3357682.69818115 12.26365280 23 24 16
246091.36437988 3357684.25836182 12.43870163 68 79 83
246091.75146484 3357684.89196777 12.54124355 61 76 83
246092.32275391 3357686.19134521 13.27156067 15 51 73
246090.73901367 3357683.37677002 13.68071651 1 4 9
246093.01403809 3357683.33074951 13.14972496 24 29 32
246089.91381836 3357682.52868652 13.26873302 55 64 61
246089.90832520 3357682.68304443 13.50877190 78 80 79
246093.79785156 3357686.80450439 12.19832134 70 77 87
246093.77612305 3357685.53216553 12.99208832 97 111 124
246093.71948242 3357686.60235596 12.38876820 65 66 71
246091.96130371 3357682.21276855 13.33789539 173 177 178
246092.99731445 3357682.20257568 12.40469360 28 33 37
246092.39782715 3357682.32440186 13.12366962 31 36 39
246092.73852539 3357686.43273926 13.27466679 16 41 61
246089.49975586 3357682.52783203 13.23157024 42 44 41
246092.06628418 3357682.51251221 13.17694473 41 54 63
246093.23364258 3357684.27227783 12.21838379 63 63 53
246092.42468262 3357684.88763428 12.46233749 38 41 46
246092.73754883 3357684.05603027 12.45022583 25 31 31
246093.29309082 3357682.74365234 12.84583092 61 74 83
246091.23754883 3357682.44152832 13.54308224 70 71 73
246091.74047852 3357685.43426514 13.52420521 59 65 77
246092.19567871 3357683.76672363 13.25591087 121 134 143
246093.09558105 3357684.62567139 12.22476387 61 62 66
246093.74084473 3357685.34405518 12.61465263 15 20 24
246091.48291016 3357684.55743408 12.20341873 48 57 64
246093.32775879 3357686.67803955 12.97741604 91 103 119
246092.23229980 3357685.70043945 13.30718327 21 52 73
246090.78564453 3357684.44488525 13.06711388 153 154 138
246090.79089355 3357682.34082031 13.29168987 89 91 88
246090.20861816 3357682.50653076 13.24431801 59 59 57
246092.82373047 3357682.36932373 13.01083183 103 110 118
246091.41259766 3357684.22216797 12.56453896 61 71 73
246092.59545898 3357685.34197998 13.30139160 11 32 53
246093.13562012 3357683.87023926 12.84561157 100 118 120
246089.83984375 3357682.79388428 13.50463867 207 205 208
246092.18981934 3357682.89996338 13.24833488 36 46 58
246092.33789063 3357684.03771973 12.45013142 45 53 56
246092.75341797 3357684.56811523 12.22416687 50 55 48
246090.13330078 3357683.56384277 13.60486603 82 82 82
246090.91784668 3357684.24224854 13.01701069 19 21 16
246091.16491699 3357684.88214111 12.49461460 155 156 150
246091.61169434 3357683.70733643 13.42305183 6 13 21
246090.58471680 3357682.52166748 13.27460289 24 25 27
246093.20556641 3357686.25891113 13.09553719 75 89 116
246090.66845703 3357683.93176270 13.51373577 32 35 28
246090.47546387 3357683.86853027 13.52353191 41 46 39
246093.09606934 3357685.45281982 13.19576740 66 80 107
246092.56970215 3357686.68774414 13.27237797 26 39 55
246091.21130371 3357686.71691895 13.71691608 33 33 41
246093.45458984 3357684.85858154 12.19025803 168 163 144
246089.01037598 3357682.66888428 12.64022636 29 34 30
246093.07104492 3357686.03070068 13.18248749 74 89 118
246093.22912598 3357683.70666504 12.93582916 177 195 207
246092.08398438 3357684.87005615 12.73620987 47 52 56
246090.97082520 3357686.31030273 13.61435509 23 35 35
246092.92248535 3357683.26458740 13.18899441 28 35 43
246093.34362793 3357686.79382324 12.26754093 66 50 37
246090.13049316 3357682.73187256 13.54760456 98 100 99
246092.57775879 3357682.72467041 13.24866962 180 197 213
246092.59008789 3357683.48370361 13.22673321 167 195 207
246092.88940430 3357682.55102539 13.13080597 130 142 158
246091.92651367 3357683.86651611 13.29594517 167 186 201
246093.09545898 3357686.70318604 12.84359264 53 60 70
246092.01513672 3357685.79040527 13.47090054 33 57 83
246092.21423340 3357684.91473389 12.55319023 36 44 47
246090.30383301 3357683.83551025 13.50888920 50 55 48
246091.83984375 3357684.12371826 12.80641270 50 57 63
246093.21630859 3357686.75445557 12.43022346 0 5 8
246093.90429688 3357685.53692627 12.61799431 9 18 25
246091.17102051 3357684.76953125 12.92695045 55 52 47
246091.01171875 3357684.63745117 12.21357441 33 40 48
246091.92919922 3357683.37402344 13.34385109 138 170 183
246093.21520996 3357683.07470703 12.94158649 152 171 188
246093.55236816 3357685.39324951 13.04547787 62 72 97
246090.53894043 3357682.31488037 13.19987297 69 69 67
246090.46496582 3357683.95025635 13.48803997 57 60 51
246092.88623047 3357685.14453125 13.16854286 72 75 92
246091.19750977 3357683.40863037 13.61519623 93 101 104
246089.07470703 3357682.68218994 13.20959282 121 124 129
246092.56909180 3357683.96472168 12.61642742 79 83 84
246090.48400879 3357682.54925537 13.30551434 14 16 15
246093.17236328 3357685.03039551 12.47838783 63 68 74
246091.29882813 3357684.76751709 12.20517635 47 54 62
246092.41198730 3357683.97540283 12.52431679 35 43 45
246092.35302734 3357684.70703125 12.24870300 36 41 45
246091.72961426 3357684.12860107 12.87452602 48 52 61
246091.02307129 3357683.83312988 13.48421860 44 50 50
246092.56408691 3357683.69793701 13.20123672 183 197 206
246090.45727539 3357682.96594238 13.64686489 80 84 85
246092.11254883 3357682.31567383 13.09594631 95 96 101
246092.18237305 3357683.67724609 13.27304554 24 29 32
246090.78857422 3357684.45788574 13.06416893 153 154 138
246092.09558105 3357686.75378418 13.47075653 27 35 37
246092.46618652 3357683.07641602 13.26111698 210 220 222
246091.55151367 3357684.18225098 12.72790051 57 64 70
246092.84179688 3357684.99310303 12.41570473 56 57 61
246093.35571289 3357682.95349121 12.61590099 38 56 70
246091.17895508 3357684.74810791 12.76976871 77 78 70
246090.67602539 3357682.51110840 13.29985046 29 30 32
246091.96472168 3357685.13623047 13.21774864 25 29 32
246090.90368652 3357682.58276367 13.49060249 45 49 48
246092.73547363 3357683.94305420 13.08885193 182 186 187
246093.07238770 3357683.95928955 12.67762280 18 27 26
246092.44323730 3357683.95684814 12.58131504 86 91 95
246091.77929688 3357682.21710205 13.31468868 164 165 170
246092.57861328 3357682.75280762 13.25828075 183 201 215
246091.00793457 3357682.65441895 13.55555344 32 42 43
246093.16845703 3357683.21270752 12.99003887 179 198 215
246092.52087402 3357682.31701660 13.04509830 28 33 36
246088.49353027 3357682.86370850 12.31463528 39 46 38
246089.61840820 3357682.52746582 13.25670624 50 52 51
246090.83312988 3357684.49127197 13.03062439 155 153 140
246090.92724609 3357684.25140381 13.00520039 36 38 33
246092.82067871 3357685.12188721 13.12153053 0 3 12
246091.65954590 3357682.24176025 13.39986134 185 186 188
246091.75524902 3357684.02447510 13.19375515 132 145 151
246093.96972656 3357685.73638916 12.59538269 53 70 88
246089.03015137 3357682.58935547 12.43834877 50 55 49
246093.51916504 3357685.44171143 13.03618431 56 68 94
246092.68261719 3357684.96447754 12.70000076 32 36 39
246093.14929199 3357685.24316406 13.20336819 66 78 102
246089.54833984 3357682.49359131 12.81226540 35 35 35
246092.29846191 3357683.74249268 13.24992847 67 76 85
246091.50610352 3357684.90325928 12.25366592 66 74 77
246092.98937988 3357682.25506592 12.49003696 21 29 32
246091.85729980 3357685.12506104 13.22847939 38 39 41
246092.75720215 3357685.52423096 13.30022049 12 27 50
246093.36267090 3357682.84191895 12.61524773 38 56 68
246091.58532715 3357682.39440918 13.31575108 61 65 68
246092.49584961 3357683.78680420 13.19607735 181 197 212
246092.41516113 3357684.51647949 12.23162937 37 39 34
246091.99829102 3357684.31176758 12.25665855 73 80 86
246092.93164063 3357684.36730957 12.21505642 159 153 139
246092.41955566 3357684.88562012 12.45321751 38 41 46
246091.08886719 3357686.24212646 13.44821548 12 21 26
246093.55859375 3357685.89801025 12.96502495 56 68 94
246092.69506836 3357684.66680908 12.24791813 47 51 50
246092.05786133 3357684.60955811 12.20467377 39 48 55
246092.96533203 3357686.19055176 13.24464893 86 103 131
246091.84912109 3357682.26861572 13.17880154 145 146 151
246093.13110352 3357684.50659180 12.22180462 50 51 46
246093.06689453 3357684.65222168 12.22406673 61 64 69
246093.09045410 3357683.93109131 12.76619244 42 56 57
246092.80590820 3357684.06359863 12.47985649 11 21 20
246093.93896484 3357686.39929199 12.49392891 43 52 59
246089.06616211 3357682.62500000 13.13294888 68 72 71
246091.17065430 3357683.47100830 13.62086582 65 74 71
246092.21008301 3357684.91912842 12.74289513 33 42 47
246089.83447266 3357682.45025635 13.05569935 36 37 39
246091.51538086 3357684.20288086 12.54324722 64 73 78
246092.81835938 3357683.98974609 12.66187191 43 48 51
246094.07250977 3357686.24053955 12.45279884 35 45 55
246091.35754395 3357682.47253418 13.48114491 38 39 41
246090.90295410 3357683.33184814 13.66978073 8 18 17
246090.30041504 3357682.63592529 13.43921375 0 2 1
246091.68395996 3357684.80572510 12.79045486 115 123 126
246091.05432129 3357682.54107666 13.50874710 48 52 53
246088.97644043 3357682.59271240 12.37930107 63 68 62
246093.17492676 3357683.87164307 12.58912277 28 33 36
246091.09436035 3357684.87701416 12.32123756 110 112 107
246093.76721191 3357686.57080078 12.79078484 40 49 58
246093.69067383 3357685.95043945 12.98173141 44 54 79
246093.95458984 3357685.85675049 12.85242558 30 37 55
246092.01745605 3357683.33703613 13.30776596 138 167 181
246092.55456543 3357686.29943848 13.25776291 21 55 80
246093.51794434 3357685.36889648 13.06394577 58 68 93
246092.72497559 3357682.84350586 13.27921295 211 229 243
246090.84680176 3357682.21380615 13.51540852 120 119 124
246092.20117188 3357683.97442627 12.86028576 35 43 46
246089.39550781 3357682.66595459 13.30221081 34 38 39
246091.10815430 3357682.19061279 13.62132359 0 1 0
246091.36975098 3357686.51953125 13.70903111 39 48 63
246093.34777832 3357683.56274414 12.61649513 28 38 40
246092.11596680 3357685.77532959 13.35604000 24 52 73
246089.21142578 3357682.59149170 13.18197346 60 64 63
246093.01220703 3357686.78875732 12.62730980 95 104 109
246091.10168457 3357684.84381104 12.21436405 51 60 65
246090.88574219 3357682.57098389 13.47949791 45 49 48
246089.40136719 3357682.53039551 12.72420406 25 25 23
246092.19677734 3357686.82043457 13.37125111 28 38 39
246092.63732910 3357684.93548584 12.60441303 28 33 36
246092.38281250 3357683.00866699 13.26673794 219 226 236
246092.52197266 3357683.22100830 13.24478340 213 227 236
246093.10961914 3357686.70043945 12.92415047 43 47 59
246092.25671387 3357684.91448975 12.53129387 35 43 46
246091.66357422 3357683.82379150 13.38570690 46 56 66
246091.65747070 3357683.95495605 13.33335972 141 157 170
246093.80126953 3357685.69476318 12.98272800 42 58 73
246091.45471191 3357684.85290527 13.03179550 95 99 100
246089.89257813 3357683.68145752 13.58034801 91 95 80
246091.93884277 3357683.85583496 13.29390621 165 184 199
246093.86328125 3357685.82073975 12.96440601 174 180 192
246090.38049316 3357682.73217773 13.55473042 94 98 99
246092.22998047 3357682.22680664 13.14290714 113 123 132
246092.41442871 3357683.96154785 12.86038399 26 27 31
246090.84082031 3357683.58758545 13.64135456 10 18 20
246092.54907227 3357685.21020508 13.27740383 22 34 48
246093.31274414 3357686.17474365 13.02608871 65 79 105
246091.64758301 3357683.95996094 13.33371544 141 157 170
246091.88745117 3357686.84582520 13.82984638 24 29 25
246090.89245605 3357684.71038818 12.33293915 70 76 74
246092.18090820 3357684.92651367 12.48020267 44 52 55
246093.64941406 3357686.64965820 12.72692204 44 44 52
246093.16796875 3357685.00659180 12.36937237 39 42 49
246089.55944824 3357682.74194336 13.39438915 77 83 81
246092.76184082 3357683.45715332 13.21214581 18 44 67
246093.26086426 3357686.82305908 12.31218529 30 24 26
246091.62878418 3357684.80236816 12.83925438 95 104 103
246092.09265137 3357682.20794678 13.35888100 155 167 181
246092.84887695 3357685.50457764 13.28998852 39 49 74
246093.54809570 3357686.60827637 13.08505058 172 188 213
246093.07910156 3357686.83758545 12.47886753 54 68 69
246092.76770020 3357686.25726318 13.26602077 15 40 60
246090.72924805 3357684.36346436 13.11492920 161 162 148
246094.02929688 3357685.89898682 12.47937012 14 28 39
246091.01831055 3357683.31829834 13.65397453 27 34 40
246090.65722656 3357683.38079834 13.68262577 30 36 36
246093.59118652 3357685.25628662 12.56190872 7 17 29
246090.61645508 3357684.05792236 13.44032574 167 170 161
246092.68652344 3357682.67285156 13.22669888 147 168 189
246091.83972168 3357682.86785889 13.31792450 39 74 93
246091.75451660 3357684.28820801 12.31595421 91 102 106
246092.75939941 3357683.74664307 13.16738129 193 211 223
246088.37170410 3357682.62762451 12.29524803 22 27 20
246091.68981934 3357683.86590576 13.36529160 93 110 128
246092.27294922 3357685.48150635 13.29684734 28 55 76
246092.10815430 3357683.10766602 13.26160145 121 146 166
246091.63110352 3357685.26202393 13.36487675 68 73 76
246092.96020508 3357684.24462891 12.25369549 53 55 54
246092.70092773 3357684.97607422 12.75262260 17 21 22
246093.07727051 3357685.06292725 12.90343475 7 10 17
246091.92321777 3357683.81695557 13.30551338 166 184 198
246091.50256348 3357682.24249268 13.50833416 210 210 212
246091.73144531 3357684.19042969 12.54329872 65 76 82
246092.98376465 3357683.56439209 13.15866375 78 83 102
246093.35937500 3357685.16094971 12.62145996 20 27 43
246091.79443359 3357685.55548096 13.58647919 102 117 138
246091.31018066 3357684.54687500 12.20750141 30 39 44
246091.44738770 3357684.98870850 12.29712772 50 58 60
246092.94702148 3357686.88171387 12.61400318 62 73 79
246090.88793945 3357684.56365967 12.60461521 44 50 48
246092.63928223 3357683.88903809 13.14846325 180 193 201
246093.33862305 3357685.15167236 12.75555992 59 66 84
246091.37463379 3357686.27069092 13.40803814 63 74 94
246092.94604492 3357685.01965332 12.66559982 170 171 173
246092.20898438 3357684.93157959 12.42444801 37 45 48
246090.82983398 3357683.66668701 13.62999535 3 7 8
246091.55102539 3357682.49676514 13.37152863 28 39 45
246093.31408691 3357686.66833496 12.66859436 47 61 72
246093.32116699 3357684.68890381 12.20047855 200 188 172
246091.96459961 3357684.94287109 12.30606461 61 68 74
246091.84545898 3357685.59594727 13.56156349 58 76 98
246091.60083008 3357685.30340576 13.39845657 58 63 66
246093.05126953 3357682.25964355 12.43469429 22 32 34
246091.95019531 3357682.95043945 13.30277157 70 103 120
246090.74633789 3357682.52490234 13.36556244 17 21 20
246091.58410645 3357684.79528809 12.78057861 83 88 91
246093.45202637 3357685.20465088 12.91924381 201 209 228
246091.50891113 3357682.23199463 13.53512955 164 163 168
246092.52038574 3357682.21606445 13.02938938 104 109 112
246092.73730469 3357685.63061523 13.29836845 11 33 56
246091.06713867 3357684.31359863 12.60634613 48 52 55
246091.69262695 3357682.55969238 13.29398346 34 54 65
246092.05334473 3357684.00476074 12.98339272 141 147 147
246089.50732422 3357682.50817871 12.73044586 36 36 34
246090.13928223 3357683.40576172 13.62236691 135 133 134
246092.79003906 3357683.59570313 13.18897724 176 202 219
246091.11071777 3357682.69079590 13.59573936 150 167 177
246093.93127441 3357685.52185059 12.46610737 17 26 31
246091.41796875 3357684.21868896 12.59727097 56 66 68
246092.31738281 3357683.61724854 13.24927139 39 42 47
246092.06909180 3357686.01080322 13.40862274 28 55 76
246090.87829590 3357684.14385986 13.09596825 47 49 44
246090.97302246 3357682.77758789 13.60603237 116 125 132
246089.86413574 3357682.57775879 13.34597015 37 46 43
246091.85424805 3357686.36584473 13.62114620 46 61 80
246092.27661133 3357684.31970215 12.24902153 63 68 62
246091.69873047 3357684.13232422 12.89790058 46 53 59
246092.24707031 3357684.89398193 12.29757404 38 43 47
246093.64001465 3357685.28234863 12.86808681 173 189 202
246091.54541016 3357686.36480713 13.61037064 58 71 88
246089.82775879 3357682.87109375 13.53307343 227 222 226
246091.73046875 3357686.91455078 13.90589809 24 28 27
246089.48400879 3357682.90502930 13.37324333 54 60 60
246091.38085938 3357683.54760742 13.56677914 93 102 107
246088.33471680 3357682.84625244 12.35273170 65 75 64
246090.59716797 3357683.18536377 13.68640041 75 79 78
246091.95776367 3357683.07983398 13.33484268 85 114 132
246089.33654785 3357683.15075684 13.27515888 40 50 49
246093.06311035 3357684.27758789 12.22807026 55 56 51
246091.70202637 3357684.81671143 12.96214867 99 107 109
246092.93103027 3357685.52526855 13.27419853 76 86 111
246092.07080078 3357685.47216797 13.34353924 36 57 76
246090.65771484 3357683.22424316 13.69381714 36 42 40
246093.10229492 3357684.35693359 12.22125530 175 173 161
246090.97229004 3357686.09167480 13.63632774 24 30 30
246091.17895508 3357684.85559082 12.22419167 66 74 77
246091.32592773 3357686.90155029 13.77355766 41 50 47
246088.86596680 3357682.69561768 12.86155605 37 39 36
246090.22875977 3357682.75012207 13.54243565 195 196 198
246092.95202637 3357682.11883545 12.40225410 37 42 46
246091.40588379 3357683.66979980 13.54554844 3 13 15
246090.33703613 3357683.82666016 13.51993752 46 51 44
246092.95092773 3357686.32501221 13.23454475 90 107 135
246090.97302246 3357682.31622314 13.43698692 196 194 197
246091.00366211 3357683.90972900 13.34333992 82 83 88
246091.68420410 3357684.35247803 12.26867771 73 83 92
246090.99865723 3357686.15759277 13.55593204 14 20 20
246092.20605469 3357684.93981934 12.36159325 35 42 48
246091.46264648 3357683.91394043 13.42671108 130 141 159
246092.96826172 3357685.40124512 13.26421833 59 71 97
246090.78442383 3357682.40203857 13.25954342 57 58 60
246093.19042969 3357684.15606689 12.24128914 76 80 81
246092.68969727 3357682.86248779 13.28838444 215 225 235
246093.04736328 3357685.27520752 13.24180794 172 184 210
246093.40722656 3357685.28356934 13.12608814 36 44 63
246089.70703125 3357682.45422363 12.91885471 28 28 26
246090.30273438 3357682.62921143 13.42848206 0 2 1
246091.53991699 3357683.75738525 13.44603634 2 11 18
246091.70764160 3357684.80419922 12.70434570 125 136 142
246092.24743652 3357682.96057129 13.24807072 66 70 82
246091.33972168 3357684.83532715 13.02245712 102 108 108
246093.78173828 3357686.56463623 12.70891857 40 50 59
246092.65698242 3357685.76666260 13.30260372 20 58 79
246093.93139648 3357685.63525391 12.75292587 116 125 140
246092.39733887 3357686.26416016 13.25093269 22 58 82
246092.67272949 3357685.06909180 13.05063152 0 4 8
246091.76806641 3357684.79089355 12.20883465 45 52 58
246093.83032227 3357685.67266846 12.96881676 88 101 117
246093.56176758 3357686.71069336 12.99608612 104 111 121
246089.61987305 3357682.48138428 13.09467888 22 22 20
246091.50695801 3357682.20556641 13.59591675 160 159 164
246093.17797852 3357682.52716064 12.84011364 28 39 45
246091.35644531 3357683.39282227 13.57690525 129 146 153
246090.58557129 3357684.12371826 13.33961773 172 179 163
246093.22961426 3357682.67633057 12.87896729 103 114 118
246091.95178223 3357684.15655518 12.50482178 71 82 86
246092.86499023 3357686.49609375 13.25669670 58 83 105
246089.41564941 3357682.52398682 12.77084541 21 23 18
246091.49560547 3357682.46014404 13.36444187 39 42 47
246092.02172852 3357686.00378418 13.58003807 3 28 48
246092.47119141 3357682.72039795 13.23773479 178 197 214
246091.55517578 3357683.45141602 13.49484253 111 137 152
246093.00463867 3357685.68774414 13.23038292 68 82 108
246090.33129883 3357683.63800049 13.58543396 52 57 53
246091.12756348 3357682.83160400 13.60824776 132 155 171
246090.60900879 3357682.91046143 13.66794205 90 95 99
246093.62951660 3357686.65368652 12.27792168 61 62 66
246089.82885742 3357683.22290039 13.57205868 106 106 98
246090.68823242 3357682.83306885 13.64518166 108 116 119
246091.32653809 3357686.08276367 13.36095715 55 63 74
246090.89062500 3357684.69561768 12.32756329 60 66 64
246090.92785645 3357684.33807373 12.96247673 132 134 129
246090.66870117 3357682.45727539 13.16944408 61 63 62
246092.45727539 3357683.64318848 13.23541832 49 53 62
246090.41101074 3357682.94732666 13.62915707 89 93 92
246092.63696289 3357686.11840820 13.26644707 28 62 89
246093.17089844 3357685.71917725 13.13815117 73 86 118
246089.22375488 3357682.83282471 13.24878407 154 162 165
246092.37402344 3357686.74322510 13.28521824 21 34 40
246093.96215820 3357686.06573486 12.86251831 66 74 85
246092.14904785 3357684.91040039 12.61948586 55 63 66
246092.69836426 3357686.86816406 13.13819313 5 10 14
246088.57824707 3357682.87500000 12.58317089 46 51 45
246088.44384766 3357682.91906738 12.35438442 24 30 20
246091.29687500 3357686.65246582 13.71407604 59 62 67
246093.47497559 3357685.11181641 12.26087379 87 89 78
246093.35363770 3357685.87255859 13.01201439 67 78 106
246091.13476563 3357684.45159912 12.23030186 51 58 64
246089.84643555 3357682.74566650 13.48662186 218 218 220
246088.80676270 3357682.73309326 12.78786755 38 40 37
246093.93493652 3357686.01098633 12.93566608 68 71 86
246092.41259766 3357684.08734131 12.39520359 53 61 64
246093.86779785 3357685.53955078 12.87116241 66 75 84
246093.04199219 3357682.15155029 12.35089874 35 39 42
246089.61608887 3357682.81817627 13.43977451 119 123 126
246090.24267578 3357683.71514893 13.55861378 38 43 37
246093.00268555 3357686.73150635 12.94950008 35 42 50
246092.14379883 3357684.60235596 12.21452999 29 37 40
246092.88073730 3357682.15429688 12.61245918 23 26 33
246090.37255859 3357683.10302734 13.64180470 163 165 160
246093.12060547 3357684.94232178 12.26442242 58 61 66
246093.15930176 3357685.05566406 12.65170479 16 21 25
246093.67492676 3357686.84307861 12.17399979 64 73 82
246091.78076172 3357682.08709717 13.67304611 6 12 8
246090.00830078 3357682.39282227 13.05111694 32 32 30
246091.84997559 3357684.62719727 12.19542408 56 63 73
246091.82397461 3357684.91198730 12.28191566 61 68 74
246092.56127930 3357684.15380859 12.35889339 22 31 36
246089.57250977 3357682.93835449 13.43387985 55 61 61
246093.55163574 3357685.24468994 12.96874046 137 154 174
246090.42382813 3357683.23846436 13.65820217 140 143 136
246091.34350586 3357686.61218262 13.72996998 146 151 157
246090.31945801 3357683.09381104 13.63049316 165 165 163
246091.67565918 3357684.99945068 13.17604351 77 81 82
246091.29064941 3357686.34143066 13.46717644 64 77 96
246093.15173340 3357682.37011719 12.47484875 22 32 34
246093.25598145 3357683.79443359 12.40893650 49 51 50
246091.79565430 3357684.29479980 12.29419518 90 101 105
246092.19921875 3357683.99163818 12.67660904 42 50 53
246091.66577148 3357682.23175049 13.41707706 188 188 190
246092.53723145 3357683.95715332 12.63563061 71 75 76
246092.05871582 3357682.23455811 13.13752079 140 145 149
246092.57446289 3357683.95861816 12.87816620 52 51 56
246091.96997070 3357685.65319824 13.45552731 13 37 63
246088.63146973 3357682.84875488 12.42884254 38 43 37
246091.68395996 3357684.76086426 12.21075058 50 57 63
246089.42822266 3357682.51031494 12.91824627 26 31 25
246092.88537598 3357683.11004639 13.20644283 21 38 54
246091.65722656 3357683.69531250 13.40551472 3 10 18
246092.57312012 3357684.43402100 12.21971989 143 139 128
246091.29809570 3357682.76885986 13.58405399 154 176 199
246091.23266602 3357684.18066406 12.83824539 28 37 36
246090.50524902 3357682.82263184 13.61765862 105 109 112
246093.17504883 3357683.85070801 12.81083870 57 75 77
246090.08996582 3357683.42803955 13.61571217 123 122 120
246089.52233887 3357682.50445557 12.73906040 36 36 34
246091.61352539 3357682.95654297 13.48433304 43 68 88
246093.30261230 3357683.22515869 12.83143044 172 195 211
246091.17016602 3357684.85833740 12.57328033 133 134 128
246093.69799805 3357685.68688965 12.98581886 40 53 72
246093.13671875 3357683.54992676 13.07374191 97 87 96
246091.49755859 3357682.13452148 13.71928692 21 25 24
246091.73535156 3357685.79791260 13.54268360 53 69 94
246091.28466797 3357684.24743652 12.61903191 61 70 75
246092.47009277 3357685.08392334 13.11371613 10 15 19
246092.67456055 3357685.43133545 13.30295277 14 32 56
246091.54589844 3357686.49456787 13.72106552 30 40 50
246089.83068848 3357683.13659668 13.56765175 155 151 148
246090.97265625 3357683.34490967 13.66223907 12 17 20
246092.57397461 3357685.81396484 13.31068707 24 61 88
246093.50610352 3357686.18548584 12.97943783 51 63 89
246091.29785156 3357683.55993652 13.58809948 67 77 79
246092.93664551 3357684.99884033 12.42933273 117 120 127
246092.10144043 3357683.80487061 13.25760460 173 190 198
246091.42443848 3357682.77532959 13.56093025 17 43 66
246090.85388184 3357684.61212158 13.01943684 180 183 174
246091.31579590 3357686.03631592 13.37745953 47 52 58
246090.19396973 3357683.56591797 13.60215187 44 46 45
246090.27233887 3357683.89459229 13.46740341 55 58 49
246093.23608398 3357686.67211914 12.74735737 52 65 74
246090.35168457 3357683.51525879 13.62031651 54 55 50
246090.83129883 3357684.20147705 13.10598564 160 162 157
246092.85729980 3357682.13464355 12.65554714 23 28 32
246091.38085938 3357684.84295654 12.64486122 121 125 124
246093.45861816 3357686.67956543 12.75632286 143 153 163
246090.15173340 3357683.89868164 13.48386097 65 71 61
246091.60693359 3357682.98809814 13.49787521 43 68 88
246090.04956055 3357682.48052979 13.22588921 53 57 58
246093.59985352 3357686.62585449 12.43445206 57 55 58
246091.44714355 3357684.74224854 12.21603012 34 43 48
246090.95971680 3357684.46765137 12.80307102 66 66 64
246092.00061035 3357685.79473877 13.48878002 22 46 72
246093.80151367 3357686.50433350 12.90415001 44 50 64
246092.81823730 3357686.87554932 12.85903835 11 22 24
246091.13110352 3357686.35235596 13.51581383 40 56 72
246091.36499023 3357684.96453857 13.16883945 109 109 109
246089.83117676 3357682.41131592 12.68118191 35 38 31
246093.13732910 3357684.95898438 12.29179287 49 52 57
246093.21997070 3357685.00933838 12.31658268 34 38 39
246093.69030762 3357686.64160156 12.28820992 52 55 64
246090.74365234 3357682.99566650 13.66907310 6 11 14
246092.93188477 3357685.45129395 13.27460384 76 86 111
246091.27685547 3357683.65905762 13.56927681 46 58 54
246092.37463379 3357686.28979492 13.24135590 22 58 80
246092.66418457 3357683.03417969 13.28218555 222 239 246
246092.62988281 3357683.95764160 12.83424473 52 50 51
246093.33532715 3357685.15106201 12.86665058 139 142 161
246091.59753418 3357685.65478516 13.56211948 62 64 77
246091.68078613 3357684.95324707 13.12156391 86 90 93
246092.07775879 3357686.10632324 13.33915901 3 29 52
246091.37951660 3357682.25109863 13.56805325 99 100 102
246092.72155762 3357684.94433594 12.43969059 36 42 42
