246143.19079590 3357343.22613525 15.05255222 31 38 31
246127.10278320 3357344.58218384 15.94348049 108 115 121
246137.23217773 3357345.22622681 15.46775341 73 73 73
246125.48254395 3357344.61431885 15.76365376 58 66 68
246121.07897949 3357345.19583130 17.02498436 167 181 184
246129.63854980 3357343.68688965 15.76961613 31 33 28
246134.10278320 3357342.81668091 15.12963200 45 48 37
246124.79919434 3357346.08819580 15.60463333 175 193 203
246117.47155762 3357344.00485229 15.24791908 48 50 47
246137.86315918 3357344.48489380 15.30900002 34 38 39
246143.38537598 3357344.99139404 15.41513538 14 18 17
246123.30505371 3357346.16171265 16.08929253 179 183 194
246126.42382813 3357345.13534546 15.66304493 75 79 82
246127.91662598 3357345.90866089 15.45766544 26 27 32
246120.47949219 3357344.78616333 16.46355057 183 187 188
246124.04968262 3357346.13204956 16.28656387 116 119 126
246123.33410645 3357344.61505127 17.74155426 54 58 57
246118.20642090 3357344.48181152 15.50122833 39 45 43
246126.80004883 3357344.59008789 15.78226948 90 100 102
246138.53698730 3357343.58895874 15.00294971 52 54 51
246121.52453613 3357346.18194580 15.54372883 178 197 204
246119.13940430 3357344.44616699 15.59612465 21 31 22
246120.42590332 3357346.22497559 15.79600811 216 227 233
246136.89746094 3357343.35513306 15.22061729 25 30 23
246140.10314941 3357343.78125000 15.34002304 39 44 47
246137.54309082 3357344.60501099 15.07407856 42 44 43
246114.28405762 3357345.85540771 15.90962315 27 42 75
246133.85278320 3357345.66110229 15.69484043 51 56 59
246132.48156738 3357345.44387817 15.52762699 35 36 40
246138.85742188 3357345.35852051 15.33632851 23 21 24
246124.47009277 3357344.81085205 17.51622581 158 178 189
246113.90014648 3357345.63607788 15.15801144 67 71 74
246142.69726563 3357345.36694336 15.63437462 25 31 31
246115.54528809 3357345.75491333 16.47278214 54 58 67
246113.75610352 3357344.70700073 15.07556438 37 40 45
246122.42004395 3357346.10662842 16.87359619 152 170 180
246142.93933105 3357343.52053833 15.23602581 20 22 21
246141.92968750 3357344.69323730 15.86265945 46 64 66
246136.13305664 3357344.56649780 16.06946945 17 23 23
246143.93615723 3357344.14053345 14.94262123 38 44 44
246139.60327148 3357343.28857422 15.44097042 22 27 23
246119.82824707 3357347.66815186 19.69531822 36 47 31
246126.99060059 3357343.48071289 15.79991627 34 35 30
246139.36035156 3357345.26287842 15.84929085 13 23 25
246142.42468262 3357345.17602539 15.79784584 22 27 31
246137.66552734 3357343.56286621 15.07880688 43 48 44
246116.36547852 3357345.78460693 16.34230995 18 23 26
246124.04016113 3357346.03210449 16.98707008 186 199 208
246131.15563965 3357345.24734497 15.95499039 120 145 167
246123.98242188 3357346.15563965 16.04100800 141 151 161
246118.31481934 3357344.06005859 15.48240948 26 33 26
246126.90307617 3357345.43954468 15.89619732 79 89 91
246138.00671387 3357342.91497803 15.05845261 31 38 31
246115.43774414 3357345.29101563 16.41321373 37 36 42
246138.28723145 3357344.83215332 15.22408009 40 41 43
246138.13464355 3357343.40756226 15.02483368 25 32 25
246113.74096680 3357345.52005005 15.00145721 69 71 68
246131.60400391 3357345.41955566 15.63706303 22 30 33
246113.90100098 3357344.33648682 15.52093983 33 37 38
246130.62548828 3357344.21331787 16.12700844 26 25 21
246126.10522461 3357345.80465698 15.94552040 159 164 170
246124.29492188 3357346.03082275 17.09943581 159 172 180
246134.94372559 3357342.69699097 15.20791149 36 35 31
246127.52465820 3357345.90447998 15.77390671 98 105 113
246119.60925293 3357344.87115479 15.70223713 126 135 140
246139.23828125 3357344.82687378 15.94758797 8 17 16
246124.81298828 3357346.10635376 15.98029900 181 193 205
246137.59252930 3357342.63388062 15.09717941 32 39 31
246142.33569336 3357345.31201172 15.76999760 26 31 35
246137.84863281 3357342.65866089 15.10042572 30 37 30
246135.97290039 3357345.42306519 16.11964607 12 17 21
246121.87829590 3357344.91360474 17.43993950 97 106 105
246119.64953613 3357345.30563354 15.92667007 185 210 214
246141.09936523 3357343.81723022 15.71168041 17 23 23
246128.60205078 3357343.95727539 16.26388931 31 34 27
246132.22875977 3357344.62887573 15.65935612 32 34 33
246121.85009766 3357344.72982788 17.45504189 173 180 173
246129.71630859 3357343.19131470 15.24198437 35 36 28
246123.76416016 3357346.10546875 15.42994499 129 144 151
246137.37548828 3357344.50830078 15.53197765 37 42 45
246119.19104004 3357345.38088989 14.93311977 49 50 44
246127.63439941 3357343.59057617 15.72474289 31 31 29
246125.23718262 3357344.36755371 16.93251610 42 52 53
246127.38134766 3357345.15039063 15.98682499 88 96 98
246134.44152832 3357343.34585571 15.43832302 22 27 23
246126.62048340 3357344.58728027 15.70262527 86 94 96
246118.89123535 3357344.90591431 15.45880604 27 32 28
246133.28112793 3357344.09332275 16.43428612 29 30 25
246134.99499512 3357342.73660278 15.21674633 32 31 27
246123.61633301 3357346.09448242 15.36905384 126 137 143
246134.52050781 3357342.73165894 15.12231159 43 44 38
246132.83801270 3357345.40679932 16.09881592 209 212 217
246123.82629395 3357346.13558960 16.32829857 20 21 25
246128.21875000 3357343.49084473 15.65681458 38 48 37
246113.92395020 3357345.62933350 15.33384609 47 50 59
246130.84875488 3357345.38885498 16.05960274 128 150 174
246142.21667480 3357345.37307739 15.73387432 36 39 44
246135.23791504 3357343.17672729 15.28442860 27 28 23
246134.88244629 3357345.65747070 15.73814201 37 42 45
246115.06445313 3357345.09564209 16.29908180 3 4 8
246124.64416504 3357346.10614014 15.47071838 56 67 71
246122.76501465 3357344.68765259 17.89735603 41 46 40
246127.97656250 3357343.64236450 15.86845398 29 37 26
246142.11254883 3357343.05969238 15.20432663 26 31 27
246138.92724609 3357344.58132935 15.96991825 21 25 26
246134.55151367 3357345.64077759 15.82376099 41 46 49
246142.86523438 3357345.29681396 15.68782520 25 30 34
246143.47912598 3357344.27249146 15.01472569 31 35 36
246135.22644043 3357345.55078125 16.25016403 10 15 19
246116.37585449 3357345.99212646 16.04682159 1 4 9
246139.26611328 3357343.87060547 15.79277229 36 41 37
246131.34570313 3357345.74850464 15.42840862 49 54 60
246113.83276367 3357345.39065552 15.34312153 47 52 56
246122.23291016 3357346.18106079 15.64337254 181 195 204
246128.77014160 3357343.00164795 15.28568935 31 33 28
246125.23095703 3357345.13116455 16.77088737 87 101 104
246119.56115723 3357345.60385132 15.19629192 38 46 49
246138.76513672 3357345.35559082 15.22954559 45 47 46
246136.16333008 3357344.74511719 16.06174278 12 20 22
246142.96301270 3357345.11489868 15.68327904 27 31 34
246133.00122070 3357345.19851685 16.35148239 20 22 21
246116.36950684 3357345.85516357 15.20666599 17 26 31
246130.05957031 3357343.63323975 15.59949970 28 30 25
246125.20959473 3357345.23687744 16.78199196 96 107 111
246135.18579102 3357344.88195801 16.56260681 35 38 45
246128.80541992 3357345.18643188 16.67575645 126 142 158
246132.08276367 3357344.13085938 15.30778694 38 40 39
246138.71118164 3357344.37750244 15.44946194 12 15 20
246128.15490723 3357344.63668823 16.53097534 70 72 71
246128.53222656 3357343.69918823 15.93270969 31 33 28
246120.56176758 3357346.22854614 15.69180012 149 162 170
246139.15051270 3357343.54974365 15.45106983 38 40 39
246137.13232422 3357344.27423096 15.75679874 56 66 68
246135.04797363 3357343.17181396 15.22521305 25 25 23
246139.49194336 3357342.71154785 15.18597412 30 35 31
246122.10241699 3357344.95339966 17.49895477 42 52 43
246129.95141602 3357343.73739624 15.80362988 34 35 29
246131.07165527 3357344.76284790 15.94737148 114 136 157
246120.58581543 3357344.98800659 16.59622192 195 201 199
246138.46984863 3357343.71728516 15.07409286 31 35 36
246142.80908203 3357344.79153442 15.68410397 29 37 40
246143.36962891 3357345.07321167 15.31314182 14 16 15
246125.64733887 3357344.32379150 16.33518791 26 28 25
246139.00305176 3357344.14358521 15.89932537 17 21 22
246116.11840820 3357344.56878662 16.18322563 26 32 32
246119.07299805 3357344.34219360 15.57717133 24 34 25
246127.32458496 3357345.03713989 15.97842312 88 97 96
246139.43811035 3357345.24151611 15.87887859 18 28 30
246132.71459961 3357345.12863159 16.12270927 90 90 92
246118.89111328 3357345.32553101 15.08604240 31 36 39
246119.65673828 3357345.18530273 15.92447567 205 226 229
246115.52941895 3357345.95654297 15.92133331 16 23 33
246117.72277832 3357344.19390869 15.33184147 51 53 50
246125.19897461 3357345.55010986 16.57981300 98 105 115
246134.56823730 3357344.01696777 16.46367836 25 27 24
246132.91210938 3357343.83993530 16.03389740 36 41 37
246128.45361328 3357345.88336182 15.75519848 62 65 72
246113.87670898 3357345.56015015 15.68121624 128 129 134
246123.98156738 3357346.10156250 16.47905350 28 28 30
246135.25317383 3357344.86114502 16.53255081 117 124 132
246137.32849121 3357344.86001587 14.97086716 40 44 43
246124.06677246 3357346.15084839 16.00882149 155 165 174
246133.99975586 3357345.63153076 15.78043270 51 54 59
246138.83984375 3357345.34014893 15.52857590 25 19 19
246129.34912109 3357344.43719482 16.65779877 33 35 30
246143.79736328 3357344.96847534 14.93372059 37 42 45
246117.25512695 3357345.56729126 15.89046669 18 26 29
246136.94848633 3357343.84387207 15.72194481 24 31 24
246128.57080078 3357343.86602783 16.14234543 30 33 26
246140.41699219 3357343.92944336 15.46388531 27 32 35
246129.25219727 3357345.12496948 16.61593437 123 142 159
246137.60461426 3357345.06289673 14.93918419 28 32 33
246120.96020508 3357345.70608521 16.87397766 185 193 195
246128.61791992 3357344.94259644 16.67697906 140 153 169
246136.32604980 3357342.73559570 15.16576672 27 32 26
246129.20043945 3357343.60910034 15.71547031 33 36 29
246140.62915039 3357344.07492065 15.51892471 32 38 38
246125.47900391 3357344.76065063 15.66175461 60 67 73
246141.67065430 3357345.49496460 15.46322346 11 15 14
246130.21850586 3357343.79019165 15.80410767 27 32 26
246119.75830078 3357347.85214233 19.83028412 40 52 38
246135.64123535 3357345.68173218 15.69210625 46 50 51
246126.21484375 3357344.57739258 15.70280647 44 48 49
246125.11962891 3357345.78860474 16.72945595 24 30 42
246127.90258789 3357343.35937500 15.44863129 37 45 34
246113.92797852 3357344.31265259 15.69483089 35 39 38
246120.50451660 3357346.23303223 15.46316433 129 134 137
246128.13366699 3357345.49758911 16.50444412 61 67 67
246119.85632324 3357348.09176636 20.16740417 40 54 39
246119.56896973 3357344.99871826 15.62558460 189 202 208
246133.00134277 3357345.47372437 16.15592194 210 214 223
246138.62109375 3357343.22415161 15.05854321 41 46 40
246142.99438477 3357345.39862061 15.61292744 132 139 147
246118.77673340 3357345.53829956 15.12037182 31 35 38
246122.48095703 3357346.17727661 15.70267773 162 169 179
246133.23181152 3357345.19082642 16.51340294 150 160 170
246119.35607910 3357344.96023560 15.11958694 39 39 39
246123.55761719 3357346.09280396 15.37828541 158 168 177
246143.18261719 3357343.53540039 15.11263371 35 40 36
246125.52270508 3357344.63571167 15.72177505 47 52 55
246136.30505371 3357345.64511108 15.32293987 32 34 33
246129.66198730 3357344.38211060 16.52269936 30 30 28
246124.53576660 3357346.05169678 16.47823715 23 24 28
246123.14294434 3357346.15908813 16.12316132 204 207 216
246130.46655273 3357345.85067749 15.94456959 74 79 85
246136.70715332 3357345.29104614 15.94783497 103 120 127
246120.12695313 3357346.14422607 15.98022842 194 209 216
246119.50793457 3357345.29400635 15.15990829 28 38 40
246124.65771484 3357345.88790894 17.41749191 197 216 230
246116.54602051 3357348.42974854 19.76470566 51 67 41
246128.03234863 3357345.04571533 16.12136459 63 65 62
246119.66381836 3357345.78259277 15.87289715 171 185 188
246135.72692871 3357345.00064087 16.07629204 3 13 14
246115.40209961 3357345.92678833 15.98566914 3 8 14
246131.79589844 3357345.65466309 15.28705788 34 38 41
246134.67529297 3357345.16567993 16.57915115 74 74 84
246133.55505371 3357343.26922607 15.30012035 37 39 34
246120.28088379 3357345.89743042 16.23636055 197 206 205
246125.56872559 3357345.72396851 15.17869282 28 32 35
246116.17761230 3357345.67129517 16.43735504 18 24 24
246137.18225098 3357344.73526001 15.75373650 74 88 91
246138.83190918 3357344.01956177 15.75559139 32 28 27
246115.04846191 3357345.79177856 15.40109539 27 38 44
246138.74133301 3357345.04794312 15.36526299 20 21 23
246135.69921875 3357344.92324829 16.10849953 22 34 34
246139.07592773 3357344.86886597 15.94201469 17 21 22
246127.94567871 3357343.51089478 15.66630459 30 38 27
246125.15563965 3357345.55834961 16.92201996 113 125 137
246141.78295898 3357343.22094727 15.44019127 31 36 32
246130.34143066 3357342.99118042 15.31928539 36 38 33
246116.82763672 3357344.72979736 15.98008442 37 42 36
246118.99450684 3357344.94931030 15.27816582 31 35 34
246137.38598633 3357342.91754150 15.06369972 25 32 25
246121.13549805 3357346.16662598 16.24275208 11 15 18
246139.56054688 3357343.75711060 15.76276112 32 34 29
246114.64306641 3357345.67190552 16.37759781 8 10 23
246128.62292480 3357345.83328247 16.09727287 121 125 136
246126.49572754 3357344.28805542 16.09454536 69 73 76
246138.69104004 3357344.68960571 15.42434978 18 23 29
246142.45385742 3357343.16052246 15.19334507 33 38 34
246122.05053711 3357345.11175537 17.46771431 147 153 153
246136.89331055 3357344.17794800 15.89996529 115 128 134
246140.06225586 3357343.67138672 15.33507824 41 46 49
246139.72265625 3357345.46270752 15.44095039 23 22 27
246124.98266602 3357344.94653320 17.31319809 104 123 137
246124.64196777 3357345.84909058 17.44088173 195 214 229
246135.08288574 3357344.12835693 16.39410400 97 104 112
246133.97241211 3357343.43328857 15.61633587 30 36 26
246137.02844238 3357343.61917114 15.38536739 21 28 21
246120.52246094 3357345.12365723 16.53655624 199 203 204
246117.80908203 3357345.86474609 15.41433144 2 15 23
246137.58984375 3357345.16329956 14.92059231 31 35 38
246130.47595215 3357345.87484741 15.87568665 80 87 93
246135.28051758 3357345.67660522 15.64190483 58 59 63
246128.17749023 3357345.03518677 16.43173599 21 23 22
246133.02111816 3357343.50833130 15.45508385 37 44 36
246135.15563965 3357345.67153931 15.72494411 52 56 59
246141.79785156 3357345.15377808 15.90431404 22 32 33
246133.51538086 3357342.94046021 15.14664078 44 47 38
246115.93481445 3357345.05590820 16.23425293 54 61 54
246114.75830078 3357345.61044312 16.42005157 9 13 16
246124.33972168 3357346.05096436 16.51960564 25 26 30
246136.49169922 3357343.76428223 15.79493427 30 36 34
246133.57849121 3357343.74377441 16.06884384 37 43 33
246126.61511230 3357344.06143188 16.50824738 37 39 34
246128.20544434 3357344.99838257 16.60032463 82 85 90
246141.20910645 3357344.87966919 15.92585182 13 18 21
246131.47326660 3357345.66525269 15.15922165 24 26 25
246124.11193848 3357345.29483032 17.50634766 165 184 199
246130.62292480 3357343.07369995 15.32858467 34 35 30
246143.61633301 3357344.03741455 14.97720146 28 32 35
246139.46801758 3357345.18048096 15.94071388 18 34 34
246117.75256348 3357345.47708130 15.79990292 27 34 42
246140.29504395 3357345.27392578 15.90146828 12 16 19
246137.32238770 3357344.62179565 15.11036301 24 24 24
246130.48205566 3357343.65960693 15.59607601 32 34 29
246128.55114746 3357345.87936401 15.90996838 73 80 86
246126.89025879 3357343.88290405 16.26256752 31 33 30
246115.10070801 3357345.88992310 15.97851563 3 7 18
246134.43688965 3357345.41744995 16.35248566 9 17 20
246116.25915527 3357345.99902344 16.03511238 1 4 9
246114.74829102 3357345.89941406 16.01593018 8 15 31
246128.54858398 3357345.88311768 15.30290413 40 44 47
246143.90637207 3357344.36199951 14.93512249 38 44 44
246126.95019531 3357345.85675049 15.73146725 117 125 128
246129.76928711 3357344.70989990 16.50410461 121 134 150
246135.15844727 3357344.84085083 16.57719421 9 14 17
246120.52941895 3357344.82257080 16.51162720 193 197 198
246143.18359375 3357343.47985840 15.07392120 30 35 31
246125.97656250 3357345.07891846 16.08256340 27 27 25
246138.87133789 3357345.33581543 15.72371483 65 37 36
246129.47497559 3357345.84591675 15.36146545 57 61 64
246137.89501953 3357343.27517700 15.03082085 29 36 29
246137.05090332 3357343.17330933 15.11188793 27 34 27
246124.03955078 3357346.10186768 16.44321060 24 25 27
246138.62536621 3357343.52532959 15.01787186 32 37 33
246116.41662598 3357348.52102661 19.84401512 44 62 36
246129.98803711 3357344.00671387 16.17734528 41 42 37
246133.08874512 3357344.82138062 16.51001358 55 60 63
246126.18823242 3357345.87091064 15.42992592 32 40 42
246142.87646484 3357345.45687866 15.63010693 29 32 37
246133.36804199 3357343.43099976 15.50278854 41 51 40
246130.13293457 3357344.51455688 16.17643356 22 26 29
246135.74291992 3357345.69918823 16.05006409 110 117 123
246142.20507813 3357343.57934570 15.55860519 26 30 29
246142.26672363 3357344.84954834 15.86687565 16 24 27
246142.11682129 3357343.69204712 15.71522522 24 26 25
246139.57690430 3357344.96829224 15.97768688 73 88 91
246137.87329102 3357345.11666870 15.01455402 38 42 45
246122.45446777 3357344.75942993 17.89006805 38 45 38
246122.76098633 3357344.74630737 17.61655617 34 39 35
246135.94775391 3357343.67568970 15.97063637 30 37 30
246123.03723145 3357346.12707520 15.41393471 131 144 152
246139.99328613 3357343.57626343 15.39130020 100 109 108
246136.09533691 3357343.02816772 15.18349266 39 39 37
246141.19677734 3357344.48126221 15.75605297 22 30 32
246123.34460449 3357346.06420898 16.80236435 40 51 55
246143.98803711 3357344.22164917 14.93130970 36 41 44
246139.36254883 3357345.38919067 15.70419121 11 10 15
246143.40576172 3357343.84399414 15.09470940 29 33 34
246132.08081055 3357345.29751587 15.62302113 27 31 34
246132.76501465 3357345.09692383 16.17524147 176 177 182
246141.20471191 3357343.18380737 15.50150585 32 34 31
246124.24902344 3357345.78121948 17.46464348 193 211 223
246133.56396484 3357345.26251221 16.45303345 189 205 218
246125.62341309 3357345.51293945 15.76996422 24 28 31
246113.89074707 3357344.64871216 15.77496624 21 25 24
246131.72839355 3357345.08325195 15.66292763 21 24 29
246118.93554688 3357344.21905518 15.53592587 21 33 23
246142.54931641 3357345.03338623 15.78897762 22 30 32
246139.81933594 3357343.12542725 15.32444000 25 30 26
246114.34533691 3357345.41488647 16.22708130 37 47 59
246133.24609375 3357344.06500244 16.38697624 28 29 24
246128.90698242 3357345.07257080 16.66927910 145 163 177
246120.42199707 3357345.38177490 16.45278549 204 208 207
246136.66528320 3357345.28479004 15.94958401 106 120 129
246141.93273926 3357344.49783325 15.84390640 21 35 35
246138.76904297 3357345.24963379 15.36281586 25 25 23
246131.06835938 3357345.87683105 15.43569088 24 26 25
246124.97680664 3357345.84582520 17.16351318 135 151 164
246143.40844727 3357344.85659790 15.48109245 32 37 40
246137.67517090 3357343.03973389 15.04763031 34 39 33
246137.95422363 3357344.61975098 15.29090595 32 36 37
246119.81201172 3357345.13409424 16.04755783 215 225 227
246113.86608887 3357344.58267212 15.66943836 18 22 21
246126.51086426 3357345.60125732 15.93095112 72 80 83
246140.31835938 3357345.26113892 15.92296791 14 18 21
246138.28674316 3357343.09503174 15.03428268 35 40 34
246130.20812988 3357345.56018066 16.20228195 18 27 26
246122.10302734 3357346.06289673 17.22658539 187 204 214
246128.70422363 3357345.80734253 16.20726967 11 12 17
246140.45654297 3357343.28143311 15.40833378 37 39 36
246140.57128906 3357343.86880493 15.51871014 19 23 26
246131.33666992 3357345.28875732 15.92424488 116 141 161
246139.50183105 3357345.46243286 15.42559528 16 15 20
246116.87255859 3357345.49206543 16.07425308 16 28 26
246124.77160645 3357344.82418823 17.49275589 162 180 190
246124.26171875 3357346.12991333 15.75725460 113 124 130
246137.31579590 3357344.00769043 15.56584358 26 30 31
246136.50000000 3357342.88729858 15.15998650 25 32 24
246120.36865234 3357346.19390869 15.98054314 158 171 179
246125.16003418 3357344.81335449 16.93250847 114 127 133
246134.51635742 3357342.36975098 15.11098480 28 31 24
246125.64111328 3357344.69662476 15.74736500 30 30 30
246115.98107910 3357345.90570068 15.52918148 12 26 35
246140.97680664 3357343.78375244 15.67572689 29 33 34
246117.26135254 3357345.79858398 15.76329899 38 49 55
246121.39282227 3357344.39703369 17.23417091 46 47 49
246128.85253906 3357345.91589355 15.84611797 57 66 71
246129.46423340 3357345.49172974 16.60050011 122 140 160
246119.80297852 3357345.58703613 16.03968430 210 224 227
246142.64514160 3357344.35360718 15.69219780 26 31 35
246119.87097168 3357348.22027588 20.37745857 46 60 43
246121.24230957 3357344.85668945 17.12218857 206 216 217
246140.00708008 3357344.70510864 15.94246864 19 24 27
246122.93518066 3357346.03710938 17.30772591 209 222 231
246131.48974609 3357344.25390625 15.55761719 31 32 34
246123.81298828 3357344.90048218 17.50073624 154 164 173
246128.37353516 3357344.28857422 16.56711960 32 32 30
246113.81005859 3357344.76245117 15.58320427 19 23 24
246124.06298828 3357346.02542114 17.04834938 177 190 199
246113.72644043 3357345.04095459 15.05812931 47 51 52
246123.54211426 3357346.04461670 16.96475410 197 210 219
246113.62658691 3357345.19250488 14.98711491 54 56 55
246135.08337402 3357343.24633789 15.27648067 20 21 16
246134.12951660 3357343.01965332 15.16165733 32 38 28
246120.76257324 3357345.82220459 16.70625305 199 203 204
246121.68017578 3357346.16513062 16.20175552 185 192 200
246131.82788086 3357345.54757690 15.43029404 26 31 34
246113.77917480 3357345.40246582 15.11949825 51 55 56
246129.76953125 3357345.13220215 16.53119087 122 139 155
246119.54931641 3357345.32879639 15.29060841 110 129 135
246116.07446289 3357345.18954468 16.31567383 42 47 41
246138.93505859 3357344.82723999 15.91626549 24 28 31
246118.15893555 3357345.73364258 15.48005962 10 20 22
246114.68981934 3357345.25289917 16.27992058 8 13 16
246125.00427246 3357346.03781128 15.48003197 170 185 192
246131.18273926 3357343.79766846 15.32134247 36 38 33
246125.48413086 3357345.72268677 15.27032661 30 30 30
246121.94580078 3357345.14422607 17.43182373 160 172 172
246128.17968750 3357345.08602905 16.46624374 27 29 28
246116.04980469 3357345.79187012 16.45557404 12 13 15
246131.74145508 3357343.87988281 15.15499973 25 27 26
246122.36767578 3357346.13281250 16.42996979 25 26 30
246131.29626465 3357344.23129272 15.73803616 41 42 47
246113.81079102 3357344.67349243 15.41037464 25 29 30
246123.07275391 3357346.11895752 15.37945652 105 116 122
246134.52697754 3357344.44000244 16.70406342 43 51 53
246126.39257813 3357345.87127686 15.86754799 67 75 77
246137.25280762 3357345.12350464 15.08608150 29 31 30
246114.33520508 3357345.21307373 16.18711853 54 60 72
246118.87231445 3357345.30822754 15.11277390 30 38 40
246133.88610840 3357344.99945068 16.59220314 56 61 65
246138.08703613 3357343.67938232 15.10622597 32 36 35
246131.27600098 3357343.29946899 15.20144176 24 27 20
246114.47497559 3357344.86972046 16.20518494 69 77 80
246114.01232910 3357345.01477051 15.93677425 21 27 27
246140.65966797 3357343.48406982 15.56641388 21 23 22
246138.16833496 3357345.31900024 14.98435974 55 57 56
246140.06323242 3357344.37133789 15.72082043 39 51 49
246130.54211426 3357344.74157715 16.12885475 107 117 126
246137.39184570 3357343.60369873 15.15462589 32 37 33
246116.56225586 3357345.84661865 15.40480423 1 16 23
246133.94567871 3357345.58834839 15.95766926 102 106 115
246132.89489746 3357345.69207764 15.28146267 47 48 50
246124.78967285 3357345.95025635 17.12974739 175 191 204
246135.57995605 3357345.01034546 16.22126579 37 47 49
246122.88269043 3357346.15216064 16.23420334 130 135 139
246114.62854004 3357345.88494873 16.27398300 77 84 102
246129.24560547 3357344.32263184 16.51997566 38 48 39
246133.94213867 3357343.30715942 15.41068840 29 34 27
246137.44799805 3357345.18405151 14.92291069 36 38 37
246117.02160645 3357345.06765747 15.91288185 37 41 40
246114.69128418 3357345.83645630 15.78751659 89 100 120
246134.25598145 3357345.54724121 16.14820862 73 74 78
246124.55236816 3357346.07971191 16.36338425 17 16 21
246130.30895996 3357344.72781372 16.11950684 15 19 22
246118.83532715 3357345.23242188 15.21494865 26 34 36
246129.12634277 3357344.43206787 16.66488457 20 25 19
246139.91772461 3357345.49206543 15.20731449 116 120 123
246142.19934082 3357345.42861938 15.43887806 15 19 20
246128.02075195 3357345.75637817 16.27145576 79 87 89
246116.01306152 3357345.91448975 16.28272820 58 63 67
246133.75231934 3357344.01129150 16.44492340 34 37 30
246124.65881348 3357345.97830200 17.17144966 162 176 185
246126.96447754 3357345.02511597 15.83125019 87 95 98
246120.44775391 3357346.22357178 15.79833984 220 229 236
246142.71582031 3357343.45425415 15.26340389 26 28 27
246128.33703613 3357343.66741943 15.90374470 33 43 32
246116.27197266 3357344.90258789 16.19552994 36 42 40
246115.97790527 3357345.16412354 16.30290604 34 40 38
246136.67810059 3357345.16525269 15.91695404 113 126 135
246125.21691895 3357345.25598145 16.63524437 105 116 122
246136.28161621 3357343.38449097 15.41904163 26 33 25
246128.95263672 3357344.19790649 16.43680573 35 37 34
246134.46313477 3357344.69906616 16.82931519 23 28 32
246124.08117676 3357346.04180908 16.86124229 75 84 89
246125.42578125 3357344.41461182 16.22723198 90 103 111
246138.99353027 3357345.03643799 15.91194439 9 15 15
246134.88903809 3357344.62506104 16.65394402 54 61 67
246126.15295410 3357344.35214233 16.24391365 68 69 71
246137.68188477 3357343.50244141 15.06768894 35 40 36
246133.48559570 3357344.11328125 16.51964378 29 30 25
246123.30346680 3357345.30593872 17.56022072 38 43 47
246122.31762695 3357346.13055420 16.47753525 24 25 29
246132.80737305 3357345.49301147 15.89863205 165 164 169
246122.07617188 3357346.19018555 15.67739296 166 184 194
246132.61584473 3357345.04052734 15.93659973 93 97 96
246122.62841797 3357346.16912842 15.66605091 188 192 203
246126.94421387 3357345.85974121 15.47537899 39 44 47
246116.96728516 3357345.07797241 15.94947433 35 41 41
246134.90612793 3357345.62878418 15.91681957 81 89 92
246133.28002930 3357343.63555908 15.87140179 28 33 27
246131.64233398 3357343.47473145 15.12134647 32 37 31
246113.71887207 3357344.30972290 15.02670383 28 33 27
246116.58349609 3357345.65731812 16.21609879 60 69 68
246127.62011719 3357345.17416382 15.99914265 87 93 89
246127.20629883 3357344.45556641 16.07550430 108 112 115
246126.34533691 3357345.05889893 15.66621399 68 72 73
246125.38891602 3357344.29803467 16.62179756 25 30 23
246129.24169922 3357344.04394531 16.25035477 34 36 33
246126.42443848 3357345.63137817 15.94420338 71 76 80
246143.79980469 3357343.57717896 14.99093437 33 35 34
246113.57482910 3357344.19149780 14.97830677 34 35 37
246134.88061523 3357343.79086304 16.07112312 32 32 32
246125.03698730 3357345.62826538 17.22750854 104 121 141
246116.03784180 3357344.96633911 16.21989632 36 42 38
246137.70153809 3357343.15020752 15.04549694 35 40 34
246115.79162598 3357345.98663330 15.76095104 60 73 82
246132.79211426 3357344.60787964 16.23506737 82 83 85
246125.18237305 3357345.93838501 15.92242527 71 75 86
246137.45080566 3357343.57156372 15.12118340 33 38 34
246127.51794434 3357343.84927368 16.03026199 32 33 28
246118.36877441 3357345.65814209 15.20892429 19 23 26
246127.32324219 3357344.48931885 16.02421951 80 89 86
246122.70080566 3357345.30523682 17.50234222 39 43 46
246129.67749023 3357345.87905884 15.45736885 68 69 73
246127.26062012 3357343.77664185 15.99280834 34 36 31
246123.54589844 3357345.83380127 17.44285965 216 225 230
246115.10205078 3357344.79888916 16.19703102 29 36 28
246123.25610352 3357346.16256714 16.06439018 140 147 155
246119.57812500 3357345.76559448 15.19167900 12 18 18
246114.67272949 3357345.86080933 15.20865059 77 78 80
246119.55578613 3357345.38732910 15.39978027 115 138 144
246127.55078125 3357345.69741821 16.07489014 77 86 91
246120.80480957 3357344.50354004 16.75276375 126 132 130
246128.10595703 3357343.53985596 15.72446442 39 50 34
246117.53173828 3357345.68524170 15.78222084 70 75 79
246127.28125000 3357343.68930054 15.89066029 33 34 29
246133.09973145 3357343.09420776 15.13714886 27 32 28
246120.38000488 3357344.49395752 16.38097572 90 91 93
246138.81140137 3357345.32601929 15.33280945 23 23 23
246133.64208984 3357345.66415405 15.47322845 27 30 35
246137.54858398 3357344.96566772 14.93320656 26 30 31
246120.35473633 3357344.64739990 16.34289169 174 175 177
246134.41540527 3357343.43563843 15.58448219 22 27 21
246133.18383789 3357345.07128906 16.52014351 148 159 165
246115.44567871 3357345.87207031 15.55692577 5 22 32
246136.93469238 3357342.83282471 15.11502266 29 36 28
246140.87792969 3357344.37420654 15.71340466 26 31 34
246127.27050781 3357345.88388062 15.40644264 111 116 119
246114.99975586 3357345.94641113 15.08574581 99 89 79
246139.44604492 3357345.40814209 15.68827152 13 14 18
246132.59680176 3357344.86398315 15.83642864 111 113 112
246130.42968750 3357343.81198120 15.73612118 32 34 29
246134.63146973 3357345.63809204 15.88627338 56 64 66
246143.21630859 3357343.69189453 15.17247868 24 28 27
246120.43322754 3357346.05722046 16.27871895 154 159 162
246126.15124512 3357345.02487183 15.83386135 37 41 42
246134.44604492 3357345.64389038 15.29471874 21 22 26
246114.61560059 3357345.84643555 15.21270752 70 74 75
246124.72717285 3357345.89349365 17.39021683 190 209 224
246115.27124023 3357345.52539063 16.48210907 14 15 17
246121.44055176 3357344.92071533 17.33066368 183 194 196
246143.29162598 3357344.11697388 15.54515839 32 38 38
246138.91589355 3357342.95498657 15.07882500 31 36 30
246128.71887207 3357345.85504150 16.05577469 93 102 109
246142.04626465 3357343.37734985 15.47522449 28 32 31
246135.23425293 3357343.63748169 15.83402061 27 27 25
246130.78686523 3357344.56622314 16.05690956 122 140 154
246140.64208984 3357344.71664429 15.79727173 21 26 29
246113.63635254 3357344.63189697 14.94299126 47 48 50
246142.86254883 3357344.45465088 15.62543011 27 32 36
246136.82336426 3357345.58761597 15.78136826 70 78 80
246125.27270508 3357344.60430908 16.57148743 95 108 114
246138.25378418 3357344.86038208 15.21170807 39 43 44
246137.06860352 3357343.33807373 15.11634445 28 34 30
246123.82824707 3357346.05014038 16.88253593 134 147 155
246142.19665527 3357345.38461304 15.72797585 33 37 40
246129.67626953 3357345.85095215 15.32888699 51 52 54
246122.82885742 3357345.57501221 17.44266891 196 196 198
246131.65649414 3357345.65652466 15.24225712 27 32 35
246122.38525391 3357346.10192871 16.99560738 193 215 229
246124.90490723 3357344.83755493 17.42822838 120 137 147
246114.96520996 3357345.83966064 15.69055462 71 84 93
246139.57409668 3357345.43417358 15.66182709 14 15 19
246127.85534668 3357343.20758057 15.34123325 33 40 32
246122.62768555 3357344.71554565 17.86102295 55 57 52
246123.67639160 3357346.14913940 15.85196590 187 197 207
246128.98461914 3357345.78445435 16.28394127 0 4 5
246125.21191406 3357345.83255005 15.73452568 132 142 152
246127.74401855 3357345.11434937 16.00947762 80 87 80
246142.55053711 3357343.36245728 15.24854851 32 37 33
246120.42321777 3357347.35787964 19.66957474 47 57 49
246125.20629883 3357344.67114258 16.74578285 81 93 93
246116.08874512 3357345.90670776 15.53377438 8 22 31
246113.89245605 3357344.50921631 15.70980263 20 24 23
246136.43811035 3357342.85552979 15.16145611 22 29 22
246134.66284180 3357344.38668823 16.67590523 61 71 73
246122.90161133 3357346.16537476 15.84025669 146 144 149
246120.11499023 3357345.07800293 16.24476814 172 178 178
246128.45361328 3357345.84570313 15.46852207 93 98 102
246116.16271973 3357346.00546265 15.99095249 3 8 14
246138.93603516 3357345.39367676 15.51391506 14 21 14
246140.09423828 3357345.43646240 15.49565983 14 18 19
246134.02099609 3357343.74798584 16.08891869 27 30 21
246123.55590820 3357345.57107544 17.52233505 147 148 153
246135.26879883 3357344.86535645 16.52441025 110 119 126
246115.05236816 3357345.85852051 15.73859215 82 96 99
246132.31982422 3357344.17794800 15.44858265 33 35 34
246139.40759277 3357343.47845459 15.49201393 32 36 35
246134.22607422 3357344.69934082 16.76339340 26 36 38
246124.27209473 3357344.87557983 17.51883888 159 179 190
246117.10083008 3357344.35162354 15.74164200 44 45 40
246114.39392090 3357345.79391479 15.52648354 34 53 70
246116.78405762 3357345.26889038 16.09536934 61 67 67
246116.69641113 3357345.92813110 15.86317539 30 41 47
246129.89904785 3357345.96871948 16.10021591 69 72 77
246132.57873535 3357345.05099487 15.79251480 75 79 80
246115.19250488 3357344.82226563 16.20345879 60 71 54
246120.53735352 3357344.79110718 16.51215553 192 196 197
246139.38757324 3357344.81732178 15.94655323 82 92 93
246130.19641113 3357344.37884521 16.18663216 33 37 38
246134.43359375 3357343.90048218 16.30679703 26 30 29
246121.69738770 3357345.61737061 17.36186981 214 225 231
246123.81115723 3357345.68652344 17.45341301 180 191 197
246134.98596191 3357344.75616455 16.63656616 21 26 29
246133.31787109 3357345.67404175 15.61350822 76 77 81
246123.54394531 3357345.94232178 17.39290237 200 214 217
246129.27136230 3357344.37048340 16.58641434 31 38 30
246123.06909180 3357346.15072632 16.28968620 26 30 33
246138.16650391 3357343.08291626 15.03414440 31 36 30
246116.58947754 3357345.79312134 16.18642426 33 43 45
246137.27929688 3357344.87133789 15.29547310 18 22 23
246130.70434570 3357344.79980469 16.06558800 122 140 160
246139.17675781 3357342.59240723 15.07689095 27 32 28
246125.21691895 3357345.29608154 16.58562279 98 108 117
246126.87670898 3357343.36480713 15.82523251 33 33 31
246137.28344727 3357344.90188599 15.15918541 25 31 29
246124.03234863 3357345.11291504 17.50558853 162 179 195
246125.52954102 3357344.36743164 16.10901451 22 26 29
246128.31298828 3357345.86257935 15.46269035 26 31 35
246119.12487793 3357345.32785034 14.95527363 32 37 33
246114.70996094 3357345.76724243 16.34738541 101 103 118
246125.02783203 3357345.74230957 17.11026001 114 132 146
246142.30541992 3357344.14810181 15.83613968 26 31 34
246142.19995117 3357343.70404053 15.67121983 21 26 22
246126.38916016 3357344.93572998 15.64233017 76 80 81
246142.50708008 3357343.79620361 15.62259674 18 26 28
246128.42126465 3357345.88702393 15.76983643 58 61 68
246119.81860352 3357344.46609497 15.98001862 41 46 42
246128.98181152 3357344.15878296 16.39515305 33 35 32
246115.69274902 3357345.91485596 15.56757259 0 16 29
246127.93371582 3357345.84786987 16.06902504 155 160 166
246113.83142090 3357345.49893188 15.14772415 56 60 63
246133.07006836 3357343.14941406 15.13044548 29 39 31
246131.30651855 3357343.63397217 15.23470306 30 31 26
246119.71582031 3357345.80435181 15.92161942 227 236 241
246125.25170898 3357345.77017212 15.42944527 116 123 129
246125.22497559 3357345.41769409 16.39049149 14 23 30
246115.92993164 3357344.81472778 16.17412949 35 41 39
246129.09594727 3357345.29647827 16.62606621 124 143 160
246134.67370605 3357344.43469238 16.68603706 45 55 57
246124.63671875 3357345.98736572 17.11940765 163 176 184
246122.82324219 3357344.65881348 17.86624718 37 42 35
246113.71520996 3357344.19039917 15.08900070 34 36 35
246128.32153320 3357345.86096191 16.08357620 88 93 99
246122.59790039 3357345.21350098 17.50323105 74 82 85
246120.29504395 3357345.56362915 16.35911179 198 207 206
246126.89892578 3357345.85311890 15.56281376 73 81 84
246133.29602051 3357343.92535400 16.25537300 32 37 31
246138.62109375 3357344.31817627 15.32815075 36 38 37
246125.07531738 3357345.77429199 16.90659714 113 125 137
246127.51867676 3357345.89450073 15.62644672 41 44 49
246125.22766113 3357345.33071899 16.41081619 9 18 25
246126.85534668 3357345.84771729 15.60724449 78 83 89
246126.31701660 3357345.87838745 15.69298267 73 78 84
246118.30273438 3357345.66766357 15.33436108 18 21 26
246132.46411133 3357344.15353394 15.50887299 30 30 30
246138.74365234 3357344.84655762 15.59682274 44 48 59
246115.83886719 3357344.94961548 16.18277931 45 52 44
246136.31640625 3357343.67498779 15.83021069 37 42 35
246123.69274902 3357344.59225464 17.76619720 32 37 33
246127.51660156 3357343.55004883 15.68527412 31 32 27
246130.03906250 3357345.20046997 16.28950500 21 26 29
246134.54028320 3357343.04443359 15.13242912 33 36 29
246136.12121582 3357344.17276001 16.06576538 7 16 15
246128.19580078 3357345.00103760 16.56416321 68 68 76
246130.25830078 3357343.93606567 15.98835182 29 31 28
246127.25317383 3357345.88647461 15.32763100 130 135 138
246134.83044434 3357344.92742920 16.78985023 18 26 28
246116.49182129 3357345.89974976 15.59521294 11 25 34
246123.21057129 3357346.16394043 15.90314388 161 168 178
246134.17260742 3357344.96020508 16.75251961 25 30 34
246127.71679688 3357345.15048218 16.00854301 83 90 83
246134.06933594 3357345.54296875 16.11087990 137 140 149
246116.27795410 3357345.86062622 15.41704082 2 15 23
246130.06335449 3357344.68057251 16.15045166 34 39 42
246118.02172852 3357344.54803467 15.50183678 47 49 46
246134.68688965 3357345.64425659 15.81349754 45 50 53
246140.78234863 3357343.40682983 15.57074261 39 44 40
246126.19836426 3357345.80175781 15.99468613 179 183 192
246135.07861328 3357345.65692139 15.43356514 42 43 47
246141.85876465 3357345.48242188 15.40509033 21 25 28
246115.63793945 3357345.94668579 16.14146805 6 11 15
246139.79370117 3357343.29577637 15.42916965 28 30 27
246129.25073242 3357345.37918091 16.61285782 129 150 169
246124.16113281 3357344.51443481 17.83128929 47 48 43
246125.75524902 3357345.61251831 15.79601097 24 25 27
246123.90185547 3357345.65713501 17.46464157 182 197 204
246138.80725098 3357343.50277710 15.11664772 33 35 32
246138.79638672 3357344.88385010 15.76741695 58 65 75
246139.72778320 3357342.97375488 15.27694225 28 33 29
246127.99157715 3357344.76818848 16.04732513 70 71 63
246141.97961426 3357345.12768555 15.88688469 34 44 45
246136.82226563 3357344.58401489 15.82898903 97 111 120
246119.96081543 3357344.74655151 16.09498596 231 235 234
246129.78039551 3357344.30453491 16.44102669 25 30 24
246120.16149902 3357345.95639038 16.13445854 219 229 231
246138.65002441 3357343.26779175 15.05496311 37 39 34
246131.12219238 3357345.79501343 15.86026859 72 91 98
246129.42883301 3357344.84469604 16.58801842 121 138 156
246115.93115234 3357345.25253296 16.35838318 30 34 37
246133.97033691 3357344.21582031 16.62749672 68 72 73
246122.21838379 3357346.11602783 16.59757614 22 30 33
246135.82800293 3357343.56271362 15.82951450 38 45 38
246137.18493652 3357345.30258179 15.35180569 49 49 47
246138.98693848 3357345.43057251 15.18912029 46 48 43
246135.15332031 3357343.43438721 15.51373959 26 27 21
246120.55664063 3357346.21487427 15.82414532 220 229 236
246122.78564453 3357345.91470337 17.39115906 206 216 225
246129.90405273 3357345.34713745 16.42373657 35 39 48
246135.56323242 3357344.30096436 16.29724121 14 20 20
246129.38391113 3357344.28640747 16.44934654 21 26 20
246138.19909668 3357342.71392822 15.09741879 29 36 29
246135.55688477 3357345.70248413 16.09857178 198 202 211
246123.66040039 3357346.10406494 15.45304680 170 183 192
246132.93725586 3357343.61517334 15.58185577 27 32 28
246123.47546387 3357346.05194092 16.90335274 198 211 219
246130.01708984 3357346.03143311 16.15152550 70 71 75
246122.05554199 3357345.65841675 17.43700409 210 215 219
246138.07482910 3357343.59860229 15.08153820 41 45 44
246128.74377441 3357345.87210083 15.63656902 59 64 68
246139.53833008 3357344.19256592 15.65640068 40 44 43
246128.54956055 3357345.85778809 15.35241890 30 35 38
246134.34558105 3357343.76388550 16.10359573 25 29 28
246132.51403809 3357344.98321533 15.67774582 23 27 28
246119.51354980 3357345.30657959 15.17643833 23 34 38
246135.36547852 3357345.68130493 15.78340244 47 50 55
246127.59240723 3357343.06130981 15.27498531 25 30 24
246135.84094238 3357345.68231201 15.30816174 27 28 30
246121.31762695 3357346.16333008 16.32139778 15 20 24
246138.04443359 3357345.11288452 15.04505730 42 46 47
246129.98974609 3357343.97622681 16.14463997 33 34 28
246114.96044922 3357344.98400879 16.22681046 34 35 39
246114.95446777 3357345.55706787 16.46509552 24 26 23
246116.24438477 3357345.84118652 15.36074066 3 12 19
246129.10314941 3357343.93621826 16.17149925 24 29 25
246137.65039063 3357345.18911743 14.93395329 34 38 41
246114.28417969 3357344.94055176 16.11678123 33 40 50
246127.30249023 3357345.46664429 15.98611450 87 97 99
246114.45178223 3357344.96975708 16.18788910 35 44 49
246124.19213867 3357345.04351807 17.51296806 160 182 195
246134.41125488 3357343.94052124 16.36772728 26 30 29
246138.52648926 3357343.51821899 14.98599720 38 40 37
246119.45471191 3357345.26693726 15.03629398 45 45 45
246136.87902832 3357345.50476074 15.92075729 63 73 74
246122.13281250 3357345.06118774 17.47838020 58 64 62
246129.83483887 3357343.59591675 15.59522057 31 32 26
246126.68041992 3357345.85531616 15.23951244 36 40 43
246123.13891602 3357344.76028442 17.55524635 35 39 38
246124.06921387 3357346.03430176 16.94893074 183 196 204
246122.80688477 3357345.72363281 17.41746712 228 228 226
246129.70471191 3357343.69842529 15.77968121 29 31 26
246139.59033203 3357344.43914795 16.00962067 45 55 54
246125.36889648 3357345.15591431 16.08243561 123 139 152
246135.85119629 3357345.30374146 16.13929939 21 29 31
246123.91406250 3357345.08612061 17.50385094 167 181 192
246139.76062012 3357345.44995117 15.53656387 9 10 14
246126.98901367 3357343.97970581 16.28656006 34 36 33
246142.67150879 3357345.01348877 15.75763321 27 32 36
246125.35339355 3357345.36883545 16.11782265 126 145 159
246139.27624512 3357345.42901611 15.47696400 18 19 21
246122.51928711 3357344.76995850 17.78478622 45 50 43
246122.28637695 3357344.98016357 17.53749466 116 120 119
246134.57751465 3357345.37973022 16.43076706 23 32 37
246121.43090820 3357344.54840088 17.24376678 175 181 181
246131.18347168 3357344.53674316 15.93838978 105 123 137
246131.30554199 3357344.12136841 15.54230499 25 27 26
246121.13195801 3357344.72186279 16.99318886 208 217 216
246139.67480469 3357344.36526489 15.73259830 39 45 43
246135.28845215 3357344.93515015 16.50619888 108 117 124
246137.49768066 3357344.59967041 15.05512333 44 45 47
246137.51586914 3357342.68899536 15.08762360 34 41 34
246139.73425293 3357344.73944092 16.00333214 62 74 74
246119.73156738 3357344.43893433 15.93983746 43 48 44
246134.64831543 3357343.28213501 15.31204891 26 27 22
246114.67272949 3357344.83020020 16.19599915 26 30 33
246130.83715820 3357343.89422607 15.60241508 25 24 20
246114.76318359 3357345.92559814 15.13727283 100 92 81
246139.87707520 3357345.01089478 16.11836624 69 77 80
246135.33874512 3357343.70928955 15.99176121 24 25 20
246133.38476563 3357342.87097168 15.14860535 40 41 33
246132.99206543 3357343.85504150 16.09144020 31 33 28
246137.36169434 3357344.23190308 15.62408829 25 29 28
246132.25964355 3357343.74160767 15.15375519 34 36 33
246133.60900879 3357344.96255493 16.55287552 144 154 164
246116.92077637 3357345.20828247 16.02261543 29 38 37
246114.37707520 3357345.49597168 16.25270462 37 44 60
246124.50219727 3357344.55114746 17.52941322 152 165 173
246126.21508789 3357344.26080322 15.93262100 45 49 52
246122.57312012 3357345.80749512 17.41271591 229 233 232
246141.80615234 3357343.81399536 15.89113998 14 20 18
246133.28356934 3357344.07406616 16.41138649 38 38 36
246139.24963379 3357345.42767334 15.47244549 19 21 20
246139.95825195 3357343.91983032 15.36299896 30 40 39
246132.54760742 3357343.45089722 15.08662796 51 53 48
246141.65673828 3357345.45593262 15.88925743 39 44 47
246123.48242188 3357346.10266113 15.46081924 173 186 194
246119.96679688 3357344.98254395 16.13211632 203 204 208
246128.15649414 3357345.07592773 16.35987091 18 19 14
246131.25903320 3357344.24725342 15.78989697 55 58 63
246138.43518066 3357345.28497314 15.07904339 58 58 60
246137.45007324 3357342.62850952 15.09174442 22 32 24
246116.46057129 3357345.88085938 15.06709671 33 41 43
246137.64526367 3357345.08059692 14.94830894 29 33 36
246126.83886719 3357344.06457520 16.36543083 37 37 35
246120.31164551 3357345.97958374 16.23562813 204 213 212
246119.94274902 3357344.73315430 16.07891083 231 235 234
246131.72338867 3357345.24996948 15.63885307 22 25 30
246138.32690430 3357343.15313721 15.02362823 43 48 42
246143.31506348 3357345.16809082 15.19700909 17 17 17
246119.43823242 3357344.89791870 15.30204964 30 36 36
246132.67944336 3357345.39797974 15.71200275 108 109 113
246121.96875000 3357345.90261841 17.35998154 197 210 216
246118.45214844 3357344.71038818 15.50119305 28 34 30
246127.02331543 3357345.86425781 15.30392456 28 31 36
246130.91552734 3357345.08618164 15.99750996 123 150 167
246122.97631836 3357345.99151611 17.34700203 199 209 218
246116.17065430 3357344.56356812 16.17208290 26 30 29
246117.17773438 3357345.86401367 15.46406555 5 19 30
246137.50537109 3357343.91848755 15.38560677 20 24 23
246135.55590820 3357343.83932495 16.11648369 43 45 42
246127.66491699 3357343.86019897 16.02731514 42 43 38
246114.41687012 3357345.79177856 16.23009300 82 93 113
246133.14343262 3357344.17800903 16.44441795 32 34 31
246117.52600098 3357344.67211914 15.57653522 60 61 56
246130.22937012 3357345.25204468 16.20181656 20 25 28
246118.03857422 3357344.94134521 15.57285309 48 52 51
246135.54638672 3357342.82113647 15.28328133 22 23 18
246128.62915039 3357343.73599243 15.97357178 36 38 33
246124.39147949 3357345.23126221 17.51932526 168 187 201
246136.01806641 3357343.36706543 15.43918705 63 68 61
246133.34460449 3357345.48895264 16.26596642 108 115 123
246130.85681152 3357345.84097290 15.88306713 115 122 130
246127.75939941 3357345.54940796 16.13089561 72 78 78
246117.12133789 3357345.85540771 15.53440475 15 34 48
246141.78356934 3357344.14675903 15.88777733 22 32 34
246128.81762695 3357343.94042969 16.21677017 35 35 33
246140.55285645 3357345.46899414 15.27117825 26 28 27
246129.56848145 3357343.86831665 16.04371452 36 37 32
246133.34326172 3357344.42834473 16.55463219 134 145 149
246129.11816406 3357345.91650391 15.85774136 54 62 64
246125.14111328 3357344.46652222 17.03057480 102 117 120
246138.77441406 3357344.33242798 15.79842854 33 33 35
246139.00354004 3357343.47692871 15.31371307 41 43 40
246138.45153809 3357343.27099609 15.02249527 43 48 42
246122.34948730 3357345.51074219 17.47876740 169 173 176
246126.43371582 3357344.61239624 15.62187481 83 86 91
246132.94299316 3357345.57870483 15.88498116 60 61 63
246115.88806152 3357345.66067505 16.50264549 23 27 26
246127.25378418 3357345.88534546 15.45535851 69 77 79
246120.52600098 3357344.51580811 16.51320457 49 53 54
246137.63146973 3357342.91693115 15.05636311 35 40 34
246127.80969238 3357343.44671631 15.55199623 22 29 21
246140.05981445 3357345.22720337 16.06675339 33 36 41
246116.15441895 3357345.96899414 15.72642040 44 58 67
246121.16699219 3357344.71191406 17.02717018 206 215 214
246142.28747559 3357344.91894531 15.86571598 15 23 26
246139.40783691 3357345.41494751 15.67463589 12 13 17
246122.09436035 3357346.16299438 16.12715340 204 212 223
246142.45715332 3357343.78482056 15.63105011 19 24 27
246135.29199219 3357343.41357422 15.54894257 25 26 21
246138.68981934 3357344.64956665 15.44002628 9 12 19
246137.03308105 3357344.15200806 15.85607910 79 89 91
246117.18469238 3357345.81942749 15.71580315 40 57 64
246143.16784668 3357344.83187866 15.59639168 17 26 25
246136.26184082 3357345.65411377 15.40238667 30 31 33
246113.88146973 3357345.60983276 15.06689453 66 68 67
246121.76135254 3357346.08779907 16.89775467 185 199 208
246117.40576172 3357344.56045532 15.59995270 54 56 51
246131.43786621 3357345.67230225 15.49941540 85 89 98
246131.50708008 3357344.41604614 15.65517998 22 27 30
246130.09899902 3357343.38348389 15.37669849 33 36 29
246135.88891602 3357342.60498047 15.28077888 28 28 26
246127.83740234 3357343.78839111 16.01921463 30 30 28
246133.44909668 3357344.67892456 16.55796623 132 143 149
246128.44641113 3357343.41915894 15.56216431 30 41 27
246129.95812988 3357345.42889404 16.36457062 24 29 33
246132.82177734 3357345.31805420 16.13900566 227 227 235
246131.18176270 3357345.47439575 15.98581409 134 160 187
246123.86645508 3357345.49179077 17.47967148 164 177 185
246125.97338867 3357344.28463745 16.68990326 32 34 31
246129.57946777 3357344.62835693 16.58947754 123 133 145
246130.63122559 3357344.71151733 16.09663200 116 132 148
246119.42004395 3357345.80487061 14.97457695 105 100 81
246142.82836914 3357344.09353638 15.63536549 23 31 33
246134.17260742 3357345.65359497 15.34426689 25 26 30
