245570.16571045 3357677.43585205 18.18394661 6 11 14
245568.98059082 3357674.65814209 17.65995979 40 44 45
245568.34991455 3357675.46307373 17.94589806 38 43 47
245566.59912109 3357674.06079102 18.66953468 13 19 19
245570.11962891 3357676.78674316 18.33596992 60 79 96
245572.21972656 3357675.52929688 18.41725922 14 24 34
245567.61474609 3357674.03643799 18.48812675 42 63 90
245569.33709717 3357676.63555908 18.37450409 84 115 146
245572.07824707 3357676.18835449 18.41436768 34 55 76
245573.57257080 3357676.55725098 17.76129150 8 16 19
245568.59100342 3357675.87518311 17.80658150 38 48 49
245566.90454102 3357674.18548584 18.49492455 0 0 5
245566.34112549 3357675.43798828 18.34764481 35 39 40
245569.67767334 3357675.95214844 18.32162094 96 133 160
245571.86193848 3357676.75830078 18.38798714 22 39 57
245568.09936523 3357674.37042236 17.90545464 38 51 60
245566.24163818 3357675.24066162 18.44656563 40 46 44
245568.68298340 3357675.89978027 17.86119461 33 41 44
245570.14880371 3357677.30889893 18.28910255 1 6 12
245570.69720459 3357677.07080078 18.31322479 37 51 54
245572.22253418 3357676.92840576 18.49017143 2 9 15
245568.90997314 3357676.86389160 17.97297096 52 61 68
245573.20306396 3357676.97766113 18.23166656 23 33 42
245569.17834473 3357675.74114990 17.94746017 12 17 21
245566.47210693 3357674.86163330 18.59836388 1 10 5
245567.61163330 3357674.57061768 18.60626411 21 38 48
245567.07977295 3357674.02697754 18.51370239 15 20 26
245572.03851318 3357677.34448242 17.93918991 22 25 30
245570.07586670 3357676.57714844 18.39816093 70 89 104
245565.34777832 3357675.68408203 18.05021858 53 60 52
245567.28228760 3357674.72790527 18.68202209 52 62 71
245572.73437500 3357677.09887695 18.14009285 27 28 33
245572.21014404 3357677.25366211 17.99658966 13 14 16
245570.62982178 3357676.71875000 18.25872803 55 74 89
245573.59533691 3357675.98413086 17.98418808 72 86 86
245569.76190186 3357677.32006836 18.25476837 45 78 109
245568.53399658 3357674.86041260 18.02501297 12 17 23
245566.73162842 3357675.26055908 18.45985603 22 23 27
245570.17523193 3357676.40008545 18.37395859 39 50 56
245573.44274902 3357676.84576416 17.81523132 38 43 49
245569.81768799 3357676.51470947 18.45668411 90 121 150
245568.89147949 3357675.64080811 17.77713013 41 49 52
245566.97644043 3357674.74810791 18.62677383 33 42 51
245571.20758057 3357676.72454834 18.61087990 36 52 65
245565.54144287 3357674.86132813 18.42056084 37 47 46
245570.18640137 3357676.44830322 18.35862541 69 82 91
245573.25939941 3357676.99615479 18.07525253 29 38 47
245573.00909424 3357676.27709961 18.57517052 30 41 61
245567.75061035 3357673.52679443 18.19542503 27 40 46
245571.48419189 3357675.58666992 18.19068909 20 27 35
245572.71582031 3357675.26446533 17.86188507 17 22 25
245565.75445557 3357675.69787598 18.21345520 39 46 39
245567.94201660 3357673.68560791 17.88671684 52 58 58
245569.34936523 3357675.71417236 17.95966530 5 14 23
245572.21374512 3357676.63116455 18.49875259 37 48 66
245572.30316162 3357675.79583740 18.63492203 119 128 145
245569.82196045 3357675.54211426 17.94736862 24 31 37
245569.10290527 3357676.13732910 18.09299278 43 66 82
245568.18969727 3357674.62884521 18.01124001 39 48 55
245573.74365234 3357675.42266846 17.66036224 46 51 55
245571.11907959 3357676.26525879 18.58298111 62 85 99
245567.62359619 3357673.79644775 18.54593658 53 71 93
245569.06408691 3357674.05371094 17.70407486 40 41 45
245568.89721680 3357674.98760986 17.59240723 25 30 34
245565.24633789 3357674.96276855 18.21632957 13 17 16
245571.92407227 3357675.56512451 18.40984917 30 37 43
245571.97961426 3357675.58813477 18.46362305 11 14 19
245573.27813721 3357676.46820068 18.52586174 92 130 167
245569.87585449 3357676.15502930 18.43961143 0 18 42
245573.53594971 3357675.94927979 18.21202660 11 21 31
245569.13006592 3357675.44146729 17.65106201 42 47 51
245568.87689209 3357676.21215820 18.09445381 20 34 43
245568.92169189 3357674.77355957 17.66063881 31 36 40
245566.85504150 3357674.94427490 18.60309410 4 5 9
245573.64404297 3357676.23962402 17.93971825 35 45 44
245573.47656250 3357676.95324707 17.65750885 33 32 37
245573.66064453 3357676.46435547 17.63364220 35 39 42
245567.63476563 3357673.72174072 18.54247475 47 63 79
245573.45153809 3357676.77032471 18.14760208 51 72 91
245571.49334717 3357675.35351563 17.80543709 32 35 42
245573.20874023 3357675.44213867 18.20789337 8 17 34
245567.18218994 3357674.51147461 18.61381531 72 84 98
245570.10510254 3357675.46697998 17.97193527 28 33 37
245569.06250000 3357675.87469482 18.02753639 16 25 30
245572.18469238 3357677.05682373 18.21969223 5 9 10
245571.20971680 3357675.42919922 17.79172134 27 34 40
245569.65209961 3357676.39630127 18.49953270 84 118 146
245567.64178467 3357675.66491699 18.04508209 41 46 50
245566.37829590 3357674.55145264 18.59047699 5 14 13
245568.98150635 3357676.61419678 17.98820877 61 80 95
245573.67687988 3357675.94079590 17.69548988 28 31 36
245571.83880615 3357676.03356934 18.42122841 48 75 94
245572.61920166 3357677.05749512 18.28881264 19 22 27
245566.56066895 3357675.14013672 18.51580811 47 46 51
245573.42456055 3357676.78601074 18.21438217 47 70 88
245568.53637695 3357675.86053467 17.80610847 48 58 60
245566.86419678 3357673.88372803 18.62867737 13 19 19
245571.39117432 3357676.43811035 18.50403595 39 56 74
245571.19262695 3357676.20263672 18.57567024 59 80 97
245567.91748047 3357674.32739258 18.07617569 41 63 76
245573.55914307 3357675.48632813 17.78984642 32 37 41
245567.00683594 3357675.59051514 18.19528961 39 43 46
245571.54132080 3357675.67126465 18.39921188 2 7 13
245570.09771729 3357675.95483398 18.36180305 21 33 33
245567.26885986 3357674.03430176 18.51555634 40 47 63
245570.05596924 3357675.47906494 17.96710014 30 35 39
245571.66253662 3357677.18383789 18.14771461 15 16 20
245573.69104004 3357675.73742676 17.72121239 31 35 38
245566.02966309 3357674.50390625 18.73072433 53 69 66
245566.78228760 3357674.80950928 18.55255699 17 26 31
245571.53338623 3357676.75830078 18.49166107 10 23 29
245571.62121582 3357677.31292725 18.05753899 11 15 16
245567.59533691 3357673.71276855 18.54965591 37 50 66
245567.52423096 3357675.23028564 18.35449600 18 23 26
245566.05444336 3357674.36151123 18.89619064 92 108 107
245573.67828369 3357676.73797607 17.53333282 71 71 71
245567.75878906 3357675.33874512 18.23764801 28 33 36
245572.61602783 3357676.44903564 18.48572159 21 27 39
245572.14227295 3357675.55920410 18.47806549 22 31 40
245569.68560791 3357676.63610840 18.50523186 86 129 161
245573.51556396 3357675.97503662 18.31939316 28 53 73
245572.11334229 3357675.78796387 18.61230469 189 192 201
245568.70312500 3357674.18756104 17.71136284 102 103 98
245565.31530762 3357675.13317871 18.18384933 11 16 19
245570.71447754 3357677.50103760 17.96622276 26 31 35
245573.07495117 3357676.27502441 18.59677315 18 29 49
245572.09771729 3357675.51721191 18.37911034 26 33 43
245568.70678711 3357675.57568359 17.78051758 48 53 57
245568.53143311 3357674.61016846 17.92793465 40 47 53
245573.65148926 3357676.41778564 17.69484901 31 37 37
245570.42413330 3357675.41223145 17.93860817 33 40 46
245571.76763916 3357675.47265625 18.04395866 5 12 18
245572.39953613 3357675.36468506 17.88856316 8 19 25
245571.60986328 3357676.03521729 18.51875687 45 72 93
245573.50091553 3357676.00061035 18.35822678 40 70 94
245571.46472168 3357675.97869873 18.61256981 26 47 68
245566.31982422 3357674.16009521 18.91962051 15 29 30
245571.03704834 3357676.57995605 18.67351341 22 36 45
245567.32336426 3357675.49609375 18.19077301 42 46 49
245568.70697021 3357673.93865967 17.56304550 97 96 91
245567.99530029 3357673.72326660 17.79561043 43 48 51
245570.13507080 3357675.96752930 18.36065102 22 32 34
245573.17395020 3357677.09521484 18.02482796 36 41 47
245566.57757568 3357675.54260254 18.33986664 37 38 40
245569.90350342 3357676.07666016 18.42974854 16 34 58
245565.49499512 3357675.62219238 18.12814331 39 45 41
245567.21270752 3357675.43243408 18.26189804 37 42 45
245571.47607422 3357676.36224365 18.48329544 38 57 74
245570.64849854 3357676.89721680 18.26746559 29 46 56
245570.95904541 3357675.83013916 18.49225235 56 60 72
245573.72961426 3357676.02349854 17.56516266 40 43 48
245571.96978760 3357675.54266357 18.38049889 34 41 47
245570.99310303 3357676.44207764 18.68467903 11 28 35
245567.45227051 3357675.34564209 18.28503990 28 33 36
245567.09527588 3357673.78845215 18.56815529 11 14 19
245569.35882568 3357676.54974365 18.39393044 85 118 149
245571.78802490 3357675.91583252 18.42799187 75 82 92
245567.05969238 3357675.75482178 18.20751572 39 42 47
245569.32739258 3357676.65197754 18.36443710 84 115 146
245571.48919678 3357676.39447021 18.48078918 36 55 72
245568.10968018 3357673.60632324 17.56923294 45 56 58
245572.31311035 3357676.98553467 18.40596962 3 6 11
245572.79577637 3357676.03955078 18.54297066 33 50 80
245571.82946777 3357676.38653564 18.42291451 39 58 72
245572.08312988 3357675.59875488 18.50984001 3 12 19
245569.68701172 3357677.56237793 18.01079750 12 16 17
245570.22796631 3357676.48199463 18.33440971 83 97 110
245570.10754395 3357677.28283691 18.29767990 24 35 41
245566.75720215 3357674.46612549 18.47811508 97 109 125
245567.45568848 3357674.06750488 18.51231003 56 73 93
245572.91259766 3357677.07305908 18.23620987 19 24 30
245571.36883545 3357677.36956787 18.15270042 9 13 14
245572.06799316 3357676.51739502 18.43766403 33 51 73
245573.66827393 3357676.34613037 17.70741081 33 39 39
245572.40832520 3357675.42968750 18.00299263 34 46 58
245570.49011230 3357675.59307861 18.15512848 10 21 27
245571.31433105 3357676.92803955 18.55678940 10 19 28
245566.94256592 3357675.58355713 18.20865250 40 43 48
245569.97717285 3357677.64776611 17.78477859 21 26 29
245565.67657471 3357675.47277832 18.23319817 26 32 28
245566.07147217 3357675.12725830 18.43722534 28 38 30
245568.46423340 3357674.80529785 18.07933044 28 31 40
245573.61981201 3357676.81146240 17.56046486 55 55 57
245570.26129150 3357676.58209229 18.29179955 78 94 109
245573.34997559 3357676.96002197 17.95227051 34 41 49
245566.75170898 3357675.40136719 18.36043167 34 39 42
245572.43206787 3357675.28308105 17.75187683 29 37 39
245571.70355225 3357676.77404785 18.38060379 19 28 37
245569.11810303 3357676.59362793 18.14379692 76 108 129
245569.84680176 3357675.62750244 18.09782982 10 19 24
245571.55352783 3357675.81195068 18.52585220 109 106 113
245568.54125977 3357673.97912598 17.61585617 53 52 48
245569.17700195 3357677.79412842 17.88080788 54 55 57
245572.43359375 3357676.99713135 18.39644623 9 14 18
245569.62896729 3357675.89862061 18.24749565 69 110 138
245572.86511230 3357675.53497314 18.47420311 168 191 207
245569.09558105 3357676.94097900 18.06001091 92 110 122
245571.07397461 3357676.74060059 18.58909607 26 40 49
245572.00646973 3357675.46856689 18.18939209 16 23 29
245570.23431396 3357675.79583740 18.31177139 35 43 46
245570.53735352 3357676.24017334 18.45060921 72 81 88
245570.59252930 3357676.89593506 18.22764015 35 53 65
245569.68395996 3357675.75030518 18.15256119 13 34 51
245568.88391113 3357675.09680176 17.56032372 30 38 41
245571.74182129 3357675.45184326 17.99491310 10 17 25
245570.85577393 3357677.05242920 18.41503906 5 16 22
245567.10339355 3357674.20428467 18.50339127 101 111 121
245568.10406494 3357673.72601318 17.59284782 42 48 48
245573.30072021 3357676.91662598 18.20904541 32 46 57
245570.83453369 3357676.14483643 18.52121544 78 97 112
245569.41906738 3357677.39624023 18.13672066 37 50 59
245566.95483398 3357674.84033203 18.64848328 0 0 4
245573.67791748 3357676.39147949 17.64592934 32 36 39
245570.81933594 3357677.43139648 18.12474251 11 15 18
245568.91760254 3357675.67681885 17.78985214 41 49 52
245572.36932373 3357676.98736572 18.40185738 3 7 10
245569.44580078 3357676.09777832 18.34270477 71 92 111
245573.56158447 3357676.43505859 18.29621887 42 64 85
245570.52044678 3357675.79669189 18.31439400 22 27 31
245569.88745117 3357676.84191895 18.42647362 40 66 91
245570.78234863 3357676.94451904 18.37904930 63 77 86
245571.08087158 3357675.60449219 18.07225037 10 25 30
245571.64215088 3357675.61059570 18.28824043 16 24 27
245566.20788574 3357674.19555664 19.07145691 83 99 99
245572.89300537 3357676.53033447 18.53807068 29 31 44
245566.62609863 3357675.61730957 18.31568146 32 33 35
245570.76794434 3357676.04364014 18.44247627 95 105 114
245573.56439209 3357676.21032715 18.31004143 56 75 92
245573.56860352 3357675.87054443 17.96989059 0 12 12
245569.47802734 3357676.04406738 18.30527496 74 96 117
245570.74517822 3357675.51519775 17.93417740 17 24 32
245569.27636719 3357676.92291260 18.23657036 87 117 143
245571.22900391 3357675.63128662 18.31517029 12 23 29
245572.04290771 3357676.07067871 18.42415237 47 69 93
245567.94970703 3357675.78808594 17.95454979 45 50 54
245573.68048096 3357676.43975830 17.60084915 38 39 41
245571.70416260 3357675.45788574 17.99822617 11 18 24
245572.85107422 3357675.93664551 18.57693291 29 48 80
245572.53228760 3357675.34503174 17.90998840 12 21 30
245566.95355225 3357675.02001953 18.60944939 20 25 29
245570.08666992 3357676.80895996 18.35503387 48 67 84
245573.78271484 3357675.58062744 17.67041206 41 46 52
245571.07672119 3357676.17291260 18.60580444 68 91 105
245569.24401855 3357676.30871582 18.21361542 107 135 157
245571.24761963 3357676.98376465 18.53805542 42 51 58
245572.10607910 3357676.91387939 18.46842194 37 47 59
245570.09381104 3357676.94995117 18.33579826 25 41 56
245569.27960205 3357676.32092285 18.25502968 107 135 157
245570.27844238 3357675.59912109 18.16515350 132 136 145
245567.87182617 3357674.30645752 18.14339447 35 62 79
245572.51141357 3357677.20196533 17.95695114 16 17 21
245569.01171875 3357675.22344971 17.48925591 50 55 59
245573.55963135 3357676.55407715 18.08797646 24 37 46
245569.27661133 3357676.98541260 18.20424652 91 121 147
245573.63287354 3357675.28094482 17.67074203 50 54 57
245569.06378174 3357677.07592773 17.97589493 71 81 91
245572.60772705 3357675.86743164 18.60056496 38 55 83
245570.69830322 3357676.24572754 18.51601982 36 56 67
245568.29669189 3357674.55548096 17.93222427 39 46 54
245573.08306885 3357676.56506348 18.57077217 15 23 36
245570.12847900 3357676.59680176 18.36435127 72 91 106
245569.93621826 3357677.28778076 18.27872276 41 65 91
245568.93286133 3357676.46441650 18.03772163 44 62 74
245570.11773682 3357675.68652344 18.25542068 13 23 25
245572.28222656 3357675.54663086 18.46189308 3 17 26
245570.01141357 3357676.38348389 18.40764236 23 32 39
245568.19061279 3357673.90960693 17.66763496 49 53 54
245571.42150879 3357675.60345459 18.25586891 28 33 39
245572.69494629 3357676.20562744 18.48818016 28 40 66
245572.78192139 3357676.57836914 18.53232193 42 42 54
245570.66601563 3357675.62573242 18.15682983 12 27 32
245568.45507813 3357674.05938721 17.70876694 43 44 48
245568.11285400 3357674.65393066 18.08041191 20 29 36
245568.76812744 3357675.87066650 17.87489891 38 43 47
245565.58343506 3357674.96441650 18.37820244 31 40 39
245573.32159424 3357676.80755615 18.30290604 48 79 99
245568.32122803 3357675.22564697 18.07343864 14 24 26
245570.86749268 3357675.69689941 18.23054123 48 58 67
245571.66613770 3357677.28997803 18.05302811 13 17 18
245567.96875000 3357673.76818848 17.96442795 46 51 55
245570.50109863 3357676.22186279 18.44199753 22 33 39
245571.84289551 3357676.51251221 18.41801453 31 50 67
245572.96606445 3357675.39660645 18.23249626 8 19 39
245572.65313721 3357675.45825195 18.11561584 70 89 106
245573.55688477 3357675.35241699 17.72202873 39 44 47
245568.37866211 3357675.05938721 18.12420082 10 14 17
245570.59222412 3357675.51312256 17.98732567 19 28 33
245571.89312744 3357677.22558594 18.05017090 22 28 28
245570.96051025 3357677.20513916 18.42434883 26 34 37
245571.89349365 3357677.31933594 17.98277855 14 19 22
245567.83123779 3357673.99346924 18.36680603 51 85 112
245570.58801270 3357676.82916260 18.21517754 37 60 76
245573.49981689 3357675.77563477 18.14156342 20 33 39
245567.89489746 3357673.75793457 18.27839661 36 46 55
245567.95837402 3357674.05859375 18.11202812 33 54 73
245566.18865967 3357675.24035645 18.44075012 30 39 34
245572.68994141 3357676.44866943 18.47904587 20 24 36
245569.19232178 3357675.64898682 17.84363556 45 50 53
245571.22149658 3357677.48205566 17.95873833 20 28 30
245570.46118164 3357677.11895752 18.22087479 64 81 88
245567.57696533 3357674.26788330 18.47622299 23 44 61
245565.25958252 3357674.96740723 18.22067451 14 16 15
245568.07135010 3357674.70416260 18.18814850 18 28 30
245566.50299072 3357674.00933838 18.83767891 12 21 20
245567.97229004 3357673.82293701 18.07284927 34 43 50
245569.22174072 3357676.92639160 18.17974281 88 119 140
245573.84167480 3357676.58843994 17.47391319 72 76 79
245571.59350586 3357676.43927002 18.46533012 39 58 73
245566.14489746 3357675.54833984 18.29494858 48 50 49
245570.37084961 3357676.76959229 18.20063210 52 74 88
245569.85839844 3357675.91949463 18.41436195 74 108 136
245566.40039063 3357674.99066162 18.57934952 24 30 28
245571.41015625 3357676.89776611 18.56140137 16 25 34
245571.72570801 3357676.57354736 18.43771553 19 36 54
245568.14196777 3357674.00848389 17.83675575 33 38 41
245565.55517578 3357674.76623535 18.48064613 31 37 37
245565.47430420 3357675.45172119 18.14280701 32 37 33
245572.53240967 3357675.89855957 18.59042358 34 54 81
245571.22119141 3357677.16748047 18.46626282 20 24 27
245570.54577637 3357676.24011230 18.45247078 72 81 88
245573.67083740 3357676.06884766 17.70716858 19 23 26
245566.80462646 3357674.16284180 18.51879501 3 6 11
245573.61444092 3357676.41827393 18.02959633 27 37 39
245570.74304199 3357676.79040527 18.34653091 58 76 90
245571.63385010 3357675.63214111 18.30155182 10 15 18
245573.62316895 3357675.63763428 17.78814697 22 30 33
245571.31231689 3357677.41876221 18.06912613 17 21 22
245568.86169434 3357675.01660156 17.62701797 21 28 34
245568.31280518 3357675.70819092 17.87591934 34 39 42
245570.19580078 3357677.11865234 18.30137444 18 33 40
245572.95849609 3357675.30786133 18.01232910 12 20 22
245568.76879883 3357676.03308105 18.02446747 28 37 44
245572.42205811 3357676.92730713 18.51841164 5 10 14
245565.92596436 3357675.18542480 18.37579346 34 46 36
245573.22656250 3357677.01586914 18.08754921 29 36 46
245572.59405518 3357677.07531738 18.21881104 22 25 30
245572.02343750 3357677.29846191 17.98658371 10 14 17
245571.16729736 3357677.39117432 18.16887474 10 15 18
245573.64965820 3357675.34344482 17.67440605 45 50 53
245570.31048584 3357677.21142578 18.28463173 65 76 80
245573.00213623 3357676.67089844 18.58115387 37 43 55
245566.84960938 3357673.82592773 18.68022537 47 53 53
245567.43811035 3357675.44183350 18.22315216 37 42 45
245567.44635010 3357675.45220947 18.21285820 37 42 45
245571.02191162 3357676.69659424 18.59399605 25 37 49
245572.44934082 3357675.48748779 18.23083687 131 141 151
245570.40197754 3357675.94616699 18.37520790 16 21 25
245569.84991455 3357676.60430908 18.45769691 38 63 93
245570.03204346 3357675.52770996 18.03165436 18 25 31
245565.68304443 3357675.25256348 18.29570198 22 28 26
245571.16992188 3357675.41955566 17.78377151 29 36 42
245569.82122803 3357676.43884277 18.45340347 74 105 133
245565.48272705 3357674.91247559 18.36342049 33 42 41
245568.17669678 3357673.91082764 17.68042183 43 47 50
245570.76177979 3357676.27130127 18.53751945 62 84 98
245572.27978516 3357676.99798584 18.37333870 7 10 15
245573.62438965 3357675.37152100 17.68733978 38 43 46
245572.00262451 3357675.59735107 18.48427773 7 10 17
245567.37011719 3357674.65966797 18.68116951 54 67 75
245569.91015625 3357677.54559326 17.96750641 5 14 13
245568.97290039 3357675.30358887 17.55827141 49 54 58
245570.65850830 3357677.40417480 18.16639900 36 44 46
245569.57159424 3357675.46630859 17.76352119 34 42 45
245570.85565186 3357676.70330811 18.52675819 65 78 94
245568.07330322 3357674.00622559 17.89453697 35 40 44
245569.96862793 3357676.93682861 18.37672615 17 34 50
245567.41998291 3357675.76403809 18.07647896 38 46 48
245573.33520508 3357677.02227783 17.82767487 43 46 53
245569.93383789 3357675.43579102 17.85379601 34 39 45
245568.49468994 3357674.55291748 17.89641571 39 47 50
245569.90625000 3357676.70373535 18.44989777 27 49 70
245568.67523193 3357674.52691650 17.81158257 78 87 86
245567.46862793 3357675.42926025 18.22513771 35 40 43
245573.73150635 3357676.67425537 17.50834846 68 67 72
245565.85833740 3357674.99682617 18.42833138 26 37 29
245568.11718750 3357674.97503662 18.37497711 10 17 23
245571.43896484 3357675.39929199 17.83099937 29 34 40
245567.99011230 3357675.31970215 18.11861229 30 35 39
245573.63250732 3357676.15362549 18.00047302 67 81 81
245567.82525635 3357674.11950684 18.32402611 39 73 101
245570.62329102 3357676.75195313 18.24699402 47 66 83
245569.43823242 3357677.11462402 18.26437187 86 117 148
245569.78912354 3357676.08276367 18.43832779 108 143 175
245570.59326172 3357675.48028564 17.95977974 23 30 36
245570.18090820 3357676.25854492 18.37606621 36 48 48
245567.63586426 3357674.05712891 18.47831154 42 63 90
245566.56640625 3357675.51165771 18.34949684 37 38 40
245570.79241943 3357676.56915283 18.56480026 52 66 79
245570.59185791 3357676.99407959 18.24332809 62 76 85
245567.87860107 3357674.23883057 18.16399574 30 61 82
245570.76135254 3357675.39965820 17.82497597 32 37 43
245567.98559570 3357674.68365479 18.23303986 18 29 33
245569.94793701 3357676.41174316 18.42469597 8 19 37
245566.94683838 3357673.84313965 18.60261917 12 20 22
245567.67004395 3357675.50372314 18.14904594 38 43 46
245570.51312256 3357676.46331787 18.32696342 84 106 119
245567.67297363 3357674.46600342 18.48959923 36 56 67
245566.32965088 3357674.51403809 18.60440636 13 22 21
245567.88299561 3357675.37762451 18.16234589 37 41 44
245566.49377441 3357675.74102783 18.28228188 34 35 37
245573.46844482 3357676.99041748 17.64353561 37 36 42
245568.40148926 3357675.72485352 17.84734154 37 42 46
245570.89904785 3357676.48834229 18.69078064 10 23 31
245572.20117188 3357677.25756836 17.99566078 13 14 16
245570.60565186 3357675.73919678 18.29430580 21 28 36
245573.65240479 3357675.42236328 17.68538475 41 46 49
245572.20947266 3357677.06079102 18.20969391 12 16 17
245567.03686523 3357674.95892334 18.64071655 0 4 7
245565.96099854 3357675.38043213 18.31291771 33 43 35
245567.95727539 3357673.68011475 17.84112740 48 53 56
245572.01934814 3357675.31274414 17.79175568 27 35 37
245569.09216309 3357675.89770508 18.05430222 20 30 39
245570.44488525 3357675.46734619 18.00033379 29 36 44
245570.27703857 3357677.55371094 17.92060471 22 29 35
245570.36541748 3357676.41455078 18.34185982 75 92 100
245572.36114502 3357675.42858887 18.01523399 19 33 42
245572.76159668 3357675.76226807 18.59509850 26 44 66
245569.25476074 3357676.91149902 18.22075462 92 120 144
245568.72863770 3357674.28735352 17.73260880 41 43 40
245573.28918457 3357675.37072754 17.94278145 21 28 34
245571.36273193 3357675.91137695 18.64755058 49 61 77
245573.70526123 3357675.68157959 17.71729279 35 38 43
245571.45037842 3357675.39202881 17.82783890 26 33 39
245568.54650879 3357675.34442139 17.89999199 39 47 50
245569.55371094 3357675.35681152 17.66701508 39 44 48
245570.45080566 3357676.83660889 18.18346405 41 62 79
245567.80969238 3357673.53198242 18.05329323 32 46 49
245568.77099609 3357674.57739258 17.74059105 106 116 115
245573.67755127 3357676.16888428 17.71944237 29 33 36
245567.48596191 3357675.05139160 18.48902130 17 22 26
245565.17956543 3357675.47650146 18.00092316 35 40 36
245569.01562500 3357676.25531006 18.04339409 50 68 82
245565.78912354 3357675.57238770 18.24418449 27 37 29
245566.49389648 3357675.16650391 18.49670029 47 48 52
245569.56304932 3357676.69592285 18.50788498 81 116 154
245572.46899414 3357676.69787598 18.55908775 34 36 51
245566.90386963 3357675.52850342 18.24938202 36 39 44
245567.79095459 3357674.54144287 18.44058418 45 67 78
245570.14746094 3357676.96166992 18.31012344 31 47 60
245568.27545166 3357675.35748291 18.00750160 32 40 42
245573.31585693 3357676.39965820 18.51382637 92 139 181
245567.59100342 3357674.54394531 18.59581566 27 41 52
245570.12365723 3357676.85913086 18.31993866 50 67 83
245572.16729736 3357677.25488281 18.00926018 20 21 25
245569.97070313 3357677.41290283 18.17369080 7 20 28
245570.10485840 3357675.56140137 18.11676216 12 19 27
245570.76690674 3357676.44183350 18.56986237 48 63 82
245568.23193359 3357673.87841797 17.60033226 67 67 67
245573.43554688 3357676.23614502 18.44152260 92 144 183
245569.01165771 3357677.00189209 17.97536659 64 74 83
245572.42590332 3357675.71911621 18.64247704 129 136 152
245571.06896973 3357675.58331299 18.00611687 4 17 23
245572.06347656 3357676.98797607 18.34370804 4 9 15
245573.51202393 3357675.38226318 17.77333260 36 41 47
245570.12554932 3357677.37805176 18.23833656 0 7 10
245572.12445068 3357675.91894531 18.54051399 58 75 95
245568.04217529 3357674.79388428 18.36180496 11 20 25
245573.51745605 3357676.66156006 17.88214684 39 48 57
245569.27642822 3357676.54571533 18.30563927 86 120 148
245569.76373291 3357675.72985840 18.19062424 2 21 28
245566.47570801 3357674.37377930 18.57390785 20 24 25
245573.49554443 3357675.75396729 18.10350609 19 30 36
245570.79394531 3357677.53027344 17.82125854 26 29 34
245572.80999756 3357675.50878906 18.43232536 176 198 212
245565.10565186 3357675.33642578 18.01056671 47 52 48
245568.95123291 3357676.26898193 18.04148102 43 59 72
245566.98626709 3357674.44824219 18.50472069 74 87 103
245568.90881348 3357674.88287354 17.62472725 25 30 33
245570.52203369 3357676.53991699 18.28370285 84 108 118
245573.51892090 3357676.27148438 18.36853409 70 104 131
245566.33074951 3357675.34338379 18.39391327 43 47 46
245569.04608154 3357674.02203369 17.68184471 40 41 45
245572.47393799 3357676.99963379 18.42434120 11 16 22
245570.16119385 3357676.53259277 18.35312653 70 87 103
245573.17187500 3357676.97412109 18.26745033 24 37 45
245565.84387207 3357674.41503906 18.90421295 72 84 80
245567.81878662 3357673.63995361 18.33618927 21 30 35
245570.99273682 3357677.48687744 17.91949081 25 30 33
245567.41418457 3357675.46228027 18.20834732 41 47 47
245567.98413086 3357675.43017578 18.07027245 38 43 46
245570.29595947 3357677.06781006 18.25058937 55 69 78
245567.88049316 3357673.66760254 18.14829063 33 38 42
245573.31213379 3357676.45776367 18.50522232 94 138 177
245566.85632324 3357674.12622070 18.52323151 7 10 15
245568.32110596 3357675.54492188 17.92372322 36 41 45
245568.56323242 3357674.76177979 17.98356819 38 45 53
245568.04162598 3357673.99114990 17.93619537 33 40 46
245569.82379150 3357677.56799316 17.96211815 9 15 15
245572.45257568 3357675.90972900 18.58998489 38 58 83
245571.60174561 3357675.61273193 18.27705956 18 26 28
245570.11340332 3357676.53259277 18.38355827 67 84 100
245571.15722656 3357675.61724854 18.17846680 16 29 35
245568.35388184 3357675.09613037 18.11905098 6 14 16
245568.36059570 3357675.19921875 18.06199455 15 25 27
245571.58166504 3357675.68743896 18.40787506 0 7 15
245570.25891113 3357677.48583984 18.12595177 16 24 27
245568.17047119 3357675.30029297 18.07279778 24 32 35
245568.93713379 3357675.98120117 18.01847267 23 32 39
245567.81408691 3357674.32751465 18.24307442 37 68 86
245566.84771729 3357675.79974365 18.26627350 24 25 27
245567.60559082 3357674.00244141 18.49899101 43 64 91
245566.46154785 3357675.39489746 18.37986946 37 38 42
245571.83715820 3357676.12322998 18.42161179 42 69 86
245573.37420654 3357677.02081299 17.76815987 51 54 61
245569.92236328 3357677.10632324 18.33872032 65 96 124
245568.54589844 3357674.10125732 17.70997047 76 74 75
245569.70831299 3357676.58715820 18.50020599 96 135 166
245567.87945557 3357675.59692383 18.03148651 41 46 50
245571.79284668 3357676.83489990 18.36076164 12 22 32
245570.97509766 3357675.66442871 18.23144722 33 48 55
245565.62304688 3357675.23437500 18.28272820 6 15 12
245569.74816895 3357675.62933350 18.01996422 9 16 22
245570.12237549 3357675.41101074 17.89264107 31 36 40
245568.49438477 3357675.90014648 17.81547737 30 39 44
245571.57019043 3357675.89758301 18.54517174 118 121 128
245565.72253418 3357674.58782959 18.69467354 57 67 66
245571.81579590 3357677.29290771 18.01840782 14 18 19
245565.81311035 3357675.65887451 18.23725128 35 40 34
245567.57550049 3357674.88018799 18.61226654 16 26 27
245567.10888672 3357674.57647705 18.61687469 56 69 78
245573.57482910 3357676.07177734 18.18110275 13 22 27
245572.32257080 3357675.74511719 18.64820099 120 126 142
245567.75799561 3357674.89984131 18.55225754 10 20 21
245570.09350586 3357677.43579102 18.17047882 8 16 19
245573.15112305 3357677.04925537 18.16064262 29 33 42
245569.68383789 3357677.40155029 18.20469093 13 29 42
245572.20654297 3357676.54364014 18.47627258 37 48 66
245568.58843994 3357674.00952148 17.62964249 73 72 67
245573.21179199 3357677.10260010 17.92709351 44 45 50
245569.19946289 3357677.02679443 18.11198044 90 117 136
245573.75201416 3357676.20874023 17.54347801 38 39 44
245569.23065186 3357675.53063965 17.73701668 36 44 46
245572.21533203 3357676.07879639 18.48021698 35 55 79
245568.01409912 3357675.14086914 18.29382324 7 12 15
245570.74542236 3357677.37286377 18.20928383 2 7 10
245571.05682373 3357675.94348145 18.59341621 95 111 127
245569.22015381 3357676.67797852 18.26413536 90 120 146
245569.24945068 3357676.30480957 18.21836472 107 135 157
245567.28497314 3357674.90692139 18.61927605 32 42 44
245566.53784180 3357673.94940186 18.85249710 10 15 18
245568.69000244 3357674.74865723 17.85242271 30 37 43
245573.73712158 3357675.35833740 17.65392876 49 54 58
245573.40948486 3357676.35021973 18.46087456 93 142 183
245572.44500732 3357675.67822266 18.62719345 38 44 58
245571.71240234 3357675.72058105 18.41794205 0 7 17
245568.92529297 3357676.13470459 18.06391907 18 35 42
245567.86248779 3357675.73950195 17.97601891 46 49 54
245572.06658936 3357675.42272949 18.04434395 8 19 25
245567.58276367 3357675.62902832 18.07826996 35 43 46
245571.96893311 3357675.26898193 17.73926735 37 43 43
245570.45758057 3357676.86865234 18.18172073 40 61 78
245572.89477539 3357677.10833740 18.16265297 25 25 35
245572.98870850 3357675.60748291 18.51849747 75 96 113
245573.16918945 3357676.51647949 18.57616806 41 52 72
245566.63330078 3357674.60290527 18.52619553 5 12 22
245570.87280273 3357676.46990967 18.68280029 12 22 32
245565.73767090 3357675.03491211 18.38149261 32 42 34
245572.16967773 3357675.55529785 18.47156906 17 25 36
245569.32086182 3357676.20819092 18.26830101 94 120 143
245569.14611816 3357675.59167480 17.77291870 45 49 52
245569.57073975 3357675.40771484 17.71100998 37 42 46
245568.86370850 3357673.73321533 17.54986572 127 136 133
245573.13928223 3357675.53924561 18.42587852 143 186 220
245567.27520752 3357674.23663330 18.49480057 6 22 35
245568.58581543 3357674.74291992 17.95965004 36 45 52
245573.46807861 3357676.52313232 18.35712814 70 120 155
245570.65643311 3357676.51654053 18.41571236 86 105 120
245568.32354736 3357675.01422119 18.17597389 7 12 15
245569.37945557 3357677.00555420 18.29723740 85 118 151
245567.75793457 3357675.35113525 18.22980309 28 33 36
245567.88128662 3357673.73504639 18.29424286 36 46 55
245572.04272461 3357675.86157227 18.54317665 60 73 89
245570.91766357 3357675.64447021 18.12668800 20 33 42
245565.59289551 3357674.52087402 18.73217392 102 111 108
245567.21875000 3357673.86071777 18.53984451 19 22 29
245572.17718506 3357675.66455078 18.58994865 3 6 15
245566.65307617 3357675.40368652 18.37450218 32 37 40
245572.35144043 3357677.27728271 17.91793060 19 23 26
245569.32312012 3357676.89111328 18.30018806 85 114 144
245565.62695313 3357674.94366455 18.40746880 35 46 42
245571.40942383 3357676.81201172 18.56108665 31 45 56
245571.96832275 3357675.87542725 18.49915123 69 79 89
245565.83178711 3357674.58929443 18.69761276 51 63 61
245568.72253418 3357674.34301758 17.74426270 49 54 50
245569.19445801 3357676.20007324 18.14437866 70 97 116
245567.66381836 3357673.65258789 18.49152184 11 25 36
245572.01068115 3357677.00000000 18.30303383 1 6 12
245572.42816162 3357675.71868896 18.64218140 129 136 152
245566.21191406 3357674.61407471 18.60084534 17 28 24
245568.04107666 3357673.86798096 17.85185242 44 49 52
245572.02911377 3357676.30993652 18.41076088 38 57 74
245570.68164063 3357675.72454834 18.29377556 32 42 51
245566.49017334 3357674.06512451 18.79500961 9 15 13
245568.77459717 3357675.08892822 17.71131325 15 23 26
245571.31988525 3357677.07922363 18.50079918 6 11 14
245569.91619873 3357677.19104004 18.32712936 66 96 124
245572.92370605 3357676.39337158 18.53266144 25 34 51
245573.36352539 3357675.23730469 17.76741600 42 45 52
245572.00213623 3357675.40008545 17.93002510 19 26 32
245567.41394043 3357673.54791260 18.52076149 11 21 23
245570.83428955 3357676.00476074 18.45823288 87 97 109
245572.00585938 3357675.88031006 18.51527405 62 74 88
245573.14837646 3357676.39874268 18.59363365 10 26 42
245567.01947021 3357675.03643799 18.62033272 23 27 30
245569.38482666 3357675.83044434 18.07936096 21 40 55
245567.31555176 3357675.72937012 18.11070442 42 50 52
245568.15740967 3357674.67785645 18.07227516 20 27 33
245568.66937256 3357674.35577393 17.75910378 51 55 54
245566.81890869 3357675.01007080 18.58206558 18 19 21
245571.98236084 3357676.00683594 18.43879128 45 69 93
245570.47558594 3357676.95867920 18.19531059 36 54 66
245567.79168701 3357675.68670654 17.99867058 43 48 52
245572.61065674 3357675.49121094 18.18683624 152 169 189
245569.83343506 3357677.13653564 18.33734131 66 101 133
245566.59259033 3357674.93347168 18.57266617 10 14 15
245570.63964844 3357677.26190186 18.26002884 0 1 5
245568.39794922 3357674.56158447 17.91700935 36 45 50
245565.52264404 3357675.59332275 18.14525414 39 45 41
245570.36407471 3357676.75457764 18.20543289 52 74 88
245571.52520752 3357676.48620605 18.47383499 35 52 68
245573.40789795 3357676.74359131 18.26294708 62 98 124
245567.09295654 3357674.36218262 18.50443840 72 84 96
245568.41406250 3357675.71057129 17.84733009 40 45 49
245572.85162354 3357676.98773193 18.43484497 29 36 46
245571.99993896 3357675.66290283 18.53630638 4 4 14
245572.83465576 3357676.79101563 18.61364555 77 84 100
245572.12750244 3357677.06329346 18.20038414 8 13 16
245572.00610352 3357676.70806885 18.46817207 30 47 73
245565.84338379 3357674.97216797 18.43355560 32 43 35
245567.87097168 3357673.87640381 18.34990883 36 62 85
245569.51831055 3357676.35882568 18.49274826 89 123 151
245569.15991211 3357675.39642334 17.61971855 41 46 50
245572.86981201 3357675.29187012 17.95835876 13 21 23
245569.05865479 3357676.72576904 18.08610344 98 121 137
245570.36059570 3357677.56018066 17.91079140 31 39 42
245572.45312500 3357677.05065918 18.23892975 16 21 25
245567.35552979 3357675.62017822 18.13104248 42 47 51
245568.48156738 3357675.40081787 17.92289352 40 45 49
245567.65136719 3357675.60089111 18.08646202 37 45 48
245572.64886475 3357675.62561035 18.59544563 15 27 41
245573.83569336 3357676.77996826 17.47353363 82 86 89
245566.61364746 3357675.60003662 18.32132530 34 35 37
245572.39746094 3357676.05364990 18.52530479 37 53 76
245571.22534180 3357675.88537598 18.64080238 97 101 113
245571.55175781 3357675.77124023 18.51249313 50 47 54
245571.32208252 3357676.87890625 18.57155800 34 44 54
245570.79705811 3357675.47302246 17.87356567 23 30 38
245567.89440918 3357675.41766357 18.12745476 39 44 47
245567.89465332 3357674.65863037 18.36273956 37 54 64
245567.10858154 3357674.58679199 18.62247658 55 67 79
245567.22479248 3357675.18713379 18.47329712 29 30 34
245568.37084961 3357674.02441406 17.70936966 36 40 41
245565.72827148 3357675.24792480 18.30620766 24 33 28
245566.38867188 3357675.00665283 18.57285118 24 30 28
245569.26354980 3357675.42303467 17.65635681 42 47 51
245569.72558594 3357677.56878662 17.98929405 12 16 17
245569.83819580 3357677.21234131 18.32628250 55 90 122
245572.47967529 3357676.18981934 18.47643089 26 35 50
245571.32153320 3357676.24432373 18.53600883 60 81 102
245569.85278320 3357675.56494141 18.00309372 18 25 31
245571.62322998 3357675.68469238 18.37850189 0 7 13
245571.91754150 3357675.95623779 18.43250465 61 79 101
245573.04754639 3357676.99176025 18.31709671 32 42 51
245568.79675293 3357673.99798584 17.60956192 87 87 85
245568.05786133 3357675.42773438 18.03963470 35 40 44
245571.42303467 3357676.41546631 18.48954201 36 55 72
245572.92956543 3357675.33532715 18.07528877 12 17 23
245572.59216309 3357676.40020752 18.48805618 19 25 39
245570.21838379 3357675.67987061 18.24959946 81 84 89
245567.41906738 3357674.36547852 18.54416466 6 20 33
245568.91180420 3357675.78143311 17.87973022 37 47 49
245567.24237061 3357675.80908203 18.13695717 31 39 41
245571.64349365 3357676.10131836 18.48177338 36 64 86
245566.37316895 3357675.51483154 18.32943153 34 35 37
245569.00805664 3357673.96929932 17.64322090 37 41 44
245571.92913818 3357676.93444824 18.34442520 45 53 66
245568.45068359 3357674.82135010 18.09398270 20 23 28
245569.40093994 3357676.07708740 18.29034805 64 85 104
245568.43640137 3357675.27166748 17.97183800 31 41 43
245572.59094238 3357675.62225342 18.59821129 8 17 32
245568.62866211 3357673.78234863 17.46583557 75 70 66
245566.35314941 3357674.41961670 18.63082314 13 22 19
245570.66668701 3357676.62579346 18.33880234 76 93 109
245568.87823486 3357677.18591309 17.87603760 52 57 61
245572.50128174 3357675.94866943 18.56861687 32 52 77
245571.98919678 3357676.63421631 18.44676971 34 50 75
245567.61199951 3357674.80108643 18.63402176 15 24 29
245566.49224854 3357674.14495850 18.69912148 11 17 17
245567.31738281 3357674.28326416 18.49592972 1 10 25
245568.63189697 3357675.88623047 17.83094978 35 45 44
245568.15649414 3357674.82940674 18.29572487 11 16 20
245572.85089111 3357676.84454346 18.59196854 61 69 80
245570.75988770 3357675.79577637 18.32985878 12 23 29
245565.18206787 3357675.19744873 18.09820366 35 43 45
245570.15679932 3357676.16204834 18.37702179 54 62 65
245571.13970947 3357676.97961426 18.53555489 22 31 40
245566.32159424 3357675.54425049 18.31578445 34 35 37
245572.58306885 3357675.73419189 18.62655449 109 124 145
245572.10363770 3357676.43927002 18.42758751 42 54 76
245566.54394531 3357675.38354492 18.39287186 34 35 39
245569.04473877 3357677.07385254 17.96826553 71 81 91
245567.67871094 3357673.50256348 18.29540634 22 35 43
245565.15142822 3357675.50347900 17.98386383 36 42 38
245567.16833496 3357675.75524902 18.13852882 44 49 52
245571.23876953 3357676.20965576 18.55928230 56 77 96
245568.09204102 3357674.79858398 18.31208801 15 22 28
245572.36621094 3357677.00360107 18.35975838 4 8 11
245566.95703125 3357674.32598877 18.48542023 88 97 112
245569.43841553 3357676.64251709 18.46012115 87 123 159
245572.70660400 3357676.41906738 18.48008347 18 24 36
245571.21917725 3357676.20709229 18.56574631 56 77 96
245573.53741455 3357676.61083984 18.07576752 14 28 41
245568.70153809 3357675.84588623 17.83039665 36 44 46
245570.67205811 3357677.36596680 18.18534088 76 84 87
245568.38104248 3357675.34942627 17.97863197 34 42 44
245570.60552979 3357676.07409668 18.45283318 30 40 42
245569.35705566 3357675.95251465 18.13985443 107 129 150
245571.28033447 3357676.85040283 18.57852936 25 39 50
245568.04333496 3357674.32653809 17.93622780 41 51 60
245569.40673828 3357675.37670898 17.65393066 39 44 50
245567.99304199 3357674.08276367 18.00823593 31 44 52
245572.35144043 3357675.92492676 18.58275795 43 61 85
245573.15789795 3357676.45556641 18.58533859 7 20 37
245566.80358887 3357675.15832520 18.52457619 20 24 27
245569.47753906 3357676.87213135 18.46546173 80 115 153
245568.55517578 3357674.57794189 17.90427208 39 47 50
245573.34301758 3357676.91339111 18.13278961 29 43 52
245571.58190918 3357676.01733398 18.54368973 46 71 93
245573.68817139 3357676.26000977 17.65379143 27 33 33
245570.87664795 3357676.17004395 18.55592155 82 103 122
245569.01287842 3357675.10937500 17.45980072 51 56 59
245570.17370605 3357677.03210449 18.30742264 36 50 61
245569.91308594 3357675.63757324 18.14570236 8 17 22
245573.08837891 3357675.25396729 17.89153862 29 34 38
245569.64202881 3357677.56719971 18.01609421 17 18 22
245570.55822754 3357675.92126465 18.37648964 55 56 58
245569.34338379 3357676.10382080 18.27284431 73 100 121
245567.91906738 3357675.08190918 18.41660309 12 20 22
245572.79785156 3357675.71948242 18.58889771 127 142 161
245571.19152832 3357676.16448975 18.58627701 59 80 97
245566.32623291 3357675.47656250 18.33445358 32 36 37
245567.66271973 3357674.62481689 18.61719513 24 41 51
245573.14526367 3357675.26818848 17.87990952 30 35 39
245570.36444092 3357677.51757813 18.04965210 32 40 43
245573.61090088 3357675.24957275 17.67356873 51 52 57
245568.18988037 3357674.00384521 17.77276611 32 37 41
245571.23699951 3357675.37628174 17.76843834 29 34 38
245568.42956543 3357674.18750000 17.76949692 39 44 48
245570.27813721 3357676.06378174 18.38490486 30 38 40
245568.72528076 3357674.08068848 17.65674782 136 137 132
245573.30615234 3357676.96142578 18.07599449 31 40 49
245573.36120605 3357675.64965820 18.37736511 34 75 107
245573.32281494 3357676.91906738 18.15793800 29 43 52
245570.14605713 3357676.31671143 18.37444878 39 49 51
245565.46350098 3357675.12841797 18.25181007 12 20 22
245566.53784180 3357674.61926270 18.54471779 7 11 14
245568.73992920 3357674.74761963 17.81161308 26 34 37
245570.40502930 3357676.66607666 18.21884537 76 94 106
245566.28277588 3357674.31176758 18.76165390 22 32 31
245571.28271484 3357675.65545654 18.50838852 4 13 18
245573.54943848 3357675.26873779 17.69758987 45 48 53
245573.68005371 3357676.06622314 17.65763092 25 29 32
245573.17883301 3357675.64611816 18.49156952 141 177 211
245567.40130615 3357675.80352783 18.09555817 41 49 51
245565.77111816 3357675.01342773 18.39859009 34 44 36
245568.75512695 3357674.62615967 17.76661873 55 65 66
245565.58868408 3357675.28973389 18.24971008 66 75 72
245572.82885742 3357675.92852783 18.57695389 29 48 80
245572.37951660 3357675.49487305 18.29646492 94 107 115
245566.48144531 3357674.34832764 18.57981682 20 24 25
245571.07287598 3357675.62677002 18.17129517 16 31 36
245573.25561523 3357676.79357910 18.37654495 54 85 106
245572.10235596 3357675.42993164 18.08276367 4 14 23
245569.48443604 3357676.22521973 18.43612289 63 87 111
245567.81152344 3357675.52484131 18.09036255 43 47 50
245566.85241699 3357675.44067383 18.31758308 38 43 47
245569.49780273 3357677.06622314 18.34042931 73 111 147
245573.73345947 3357675.67150879 17.68168068 36 39 44
245572.91253662 3357677.11303711 18.15800095 21 24 33
245567.53289795 3357675.25463867 18.33582687 14 22 24
245565.93664551 3357674.37268066 18.93785667 78 88 87
245570.71032715 3357677.53472900 17.88918686 28 33 36
245569.31280518 3357676.68255615 18.34861374 84 113 143
245572.81408691 3357676.19146729 18.51200485 35 52 82
245566.74822998 3357675.71392822 18.26029778 24 28 29
245566.65698242 3357675.53051758 18.32467842 34 38 41
245571.74682617 3357675.50616455 18.11254692 11 15 24
245571.30462646 3357675.95489502 18.64068604 72 87 106
245569.84729004 3357677.65087891 17.83284760 17 22 25
245569.58721924 3357675.36810303 17.68350601 37 42 46
245567.95477295 3357675.39349365 18.10033607 35 40 43
245569.06701660 3357675.42102051 17.62616539 43 48 52
245569.36828613 3357677.14447021 18.19492340 90 118 142
245573.54284668 3357676.41259766 18.34181976 49 81 106
245567.63317871 3357675.28411865 18.30246353 20 24 27
245571.50286865 3357676.13787842 18.53060532 34 56 77
245568.39324951 3357674.86065674 18.15087891 15 19 22
245572.50305176 3357676.94158936 18.52219963 2 7 13
245567.66723633 3357675.82720947 17.95808792 45 50 53
245572.12646484 3357676.89715576 18.49677086 46 58 74
245568.13494873 3357675.10687256 18.25332451 5 13 16
245567.06652832 3357674.53704834 18.56710625 60 72 84
245567.77703857 3357674.49279785 18.40158653 46 73 82
245568.53778076 3357674.82452393 18.01636124 21 25 34
245568.42834473 3357673.74072266 17.45516014 56 57 52
245566.74169922 3357675.73040771 18.26468086 24 28 29
245569.21362305 3357677.45458984 18.01355362 43 44 48
245567.86511230 3357674.30737305 18.15580940 35 62 79
245566.29876709 3357674.09515381 19.07059097 73 91 91
245565.65795898 3357675.27941895 18.28212547 20 29 26
245572.72033691 3357676.02807617 18.53986168 31 48 76
245566.78894043 3357675.24298096 18.46266556 19 23 26
245569.61340332 3357676.80572510 18.51441193 77 115 152
245567.56652832 3357673.86181641 18.54186821 48 64 87
245565.67065430 3357675.54650879 18.21746063 30 36 32
245573.67822266 3357676.45239258 17.59683037 38 39 41
245567.52740479 3357675.81799316 18.03403854 45 49 52
245568.46655273 3357674.79663086 18.07579041 28 31 40
245572.32647705 3357675.53466797 18.42930412 12 27 34
245569.34100342 3357676.55578613 18.37576866 85 118 149
245566.29486084 3357675.41601563 18.35450172 41 47 45
245568.07647705 3357675.09674072 18.29846954 6 11 15
245573.03955078 3357675.27868652 17.95777130 19 27 29
245568.83477783 3357675.04034424 17.65240097 19 24 28
245572.27630615 3357677.22406006 18.00407410 16 16 18
245570.49450684 3357677.08648682 18.21471977 71 88 96
245567.00219727 3357675.18218994 18.50268364 22 26 29
245573.30975342 3357677.00061035 17.96188164 32 37 43
245572.43847656 3357675.40356445 17.95816612 6 23 33
245568.06567383 3357674.78857422 18.32630157 12 21 26
245567.93499756 3357675.15228271 18.33759880 9 14 17
245569.56011963 3357676.10760498 18.38569832 94 115 132
245569.36901855 3357675.87335205 18.10499191 34 55 72
245567.61267090 3357673.52014160 18.37867165 24 34 43
245572.02398682 3357676.89538574 18.43726158 56 69 85
245569.33416748 3357676.55078125 18.36783409 85 118 149
245570.43084717 3357676.79791260 18.18308830 44 70 85
245572.80584717 3357675.48834229 18.37137794 168 189 206
245566.70794678 3357674.18914795 18.53195572 7 10 17
245567.25915527 3357674.19842529 18.49339867 12 28 41
245572.77960205 3357677.11206055 18.12586212 26 26 34
245573.74047852 3357676.24621582 17.55153656 38 39 44
245573.50653076 3357676.68908691 18.06987762 23 37 50
245567.69427490 3357673.78826904 18.50983620 48 66 88
245565.81524658 3357675.45178223 18.26452255 23 30 23
245567.94958496 3357673.69403076 17.87738419 48 53 56
245573.09460449 3357677.08728027 18.13119316 26 33 41
245566.61456299 3357674.16595459 18.58181000 8 12 15
245573.62573242 3357675.64312744 17.78694916 22 30 33
245570.52697754 3357675.42626953 17.94239998 29 36 42
245567.03656006 3357675.58239746 18.19519806 40 44 47
245566.47875977 3357675.25842285 18.44949532 45 46 50
245566.61596680 3357673.92645264 18.79219818 18 22 23
245567.30395508 3357674.36578369 18.54808235 0 5 19
245566.99468994 3357674.63903809 18.58344650 73 86 102
245570.96405029 3357677.41021729 18.15009880 14 18 19
245571.81750488 3357677.18048096 18.08886528 20 24 25
245567.67285156 3357673.84753418 18.52052116 50 70 94
245573.52526855 3357676.60131836 18.20338821 41 66 86
245568.33850098 3357673.72698975 17.46796417 40 39 35
245571.19598389 3357676.18109131 18.58035469 59 80 97
245573.67944336 3357676.75775146 17.53097534 79 79 79
245573.78271484 3357675.76483154 17.61985016 37 40 45
245568.08288574 3357675.88330078 17.94246864 31 36 42
245569.12292480 3357676.56591797 18.14504051 78 108 132
245573.18133545 3357675.55743408 18.42625618 142 188 221
245569.86993408 3357675.91058350 18.41582870 22 50 74
245567.86657715 3357674.90618896 18.51401520 0 10 11
245568.28778076 3357674.43536377 17.85680389 36 45 50
245569.62756348 3357677.73443604 17.86500168 32 36 39
245573.27392578 3357675.41143799 18.02597427 4 11 19
245569.76196289 3357676.81365967 18.47262192 78 117 146
245568.13299561 3357675.87579346 17.90646935 28 33 39
245570.46795654 3357675.81481934 18.31855392 45 49 52
245572.17816162 3357676.70428467 18.50766182 36 49 68
245572.20471191 3357676.65899658 18.50319862 40 51 69
245570.29034424 3357677.41394043 18.22971535 11 15 16
245571.49029541 3357675.52264404 18.03647614 8 15 23
245572.47552490 3357677.25030518 17.90986061 20 23 28
245565.98004150 3357675.58123779 18.27718544 33 38 34
245573.26306152 3357675.48278809 18.24578476 7 20 39
245568.66363525 3357673.90045166 17.53959846 107 107 99
245572.27404785 3357675.50067139 18.34283257 72 85 93
245569.33685303 3357676.88574219 18.31676292 86 115 147
245570.69580078 3357677.53045654 17.91473961 28 33 36
245573.63806152 3357676.05590820 17.85577393 8 22 23
