245584.53894043 3357446.29208374 20.27438736 170 175 195
245584.60168457 3357454.50674438 20.41778374 6 15 20
245583.53729248 3357452.27630615 19.86544418 137 146 151
245583.19140625 3357452.75509644 20.21537018 36 47 43
245583.98144531 3357456.29583740 20.16711426 58 68 70
245583.18890381 3357446.47848511 19.93679810 37 44 50
245583.66937256 3357445.79672241 19.87785339 20 28 39
245583.41284180 3357452.89035034 20.01660728 88 102 102
245584.55133057 3357451.29034424 19.50588226 39 44 48
245584.60980225 3357450.01388550 19.55977058 34 41 49
245583.69207764 3357450.10952759 20.01983643 21 30 35
245583.91516113 3357449.35327148 20.58100891 29 34 38
245583.49914551 3357447.44372559 20.24808693 33 37 46
245584.27667236 3357454.86849976 20.43094444 71 89 101
245582.59991455 3357447.00784302 20.52117348 7 16 15
245583.96783447 3357453.89764404 20.64202118 9 17 19
245584.19879150 3357452.03613281 19.87870789 168 181 190
245584.24371338 3357452.96118164 20.02540207 67 80 88
245584.71221924 3357449.11245728 19.95680428 10 15 19
245583.16735840 3357446.46054077 19.89306068 29 38 43
245583.42285156 3357453.51675415 20.37694931 49 59 60
245583.86907959 3357447.08740234 20.25535011 54 67 84
245584.68835449 3357447.87722778 20.44078636 48 57 66
245583.33251953 3357445.78067017 19.78260994 29 34 40
245583.86285400 3357453.15747070 20.06728935 31 45 46
245583.88684082 3357455.67456055 20.37988853 50 64 47
245582.83184814 3357445.78103638 19.44788170 74 83 90
245584.17303467 3357454.42343140 20.61848640 92 101 108
245584.70721436 3357448.65951538 20.27382660 6 11 15
245584.83288574 3357452.87899780 19.63352203 14 21 27
245583.74688721 3357450.86154175 19.93013382 78 85 91
245584.21124268 3357451.53164673 19.53034210 34 39 43
245584.62219238 3357446.17492676 19.85377121 25 29 38
245583.91821289 3357450.85421753 19.82603264 107 116 123
245583.89019775 3357449.76870728 20.09840393 35 42 58
245584.28485107 3357455.44692993 20.40118408 39 40 44
245583.58850098 3357445.85894775 20.02177048 62 71 86
245584.88732910 3357448.13385010 19.97553062 31 34 43
245584.82409668 3357454.30401611 20.14770889 108 120 132
245584.33068848 3357453.65933228 20.38939476 29 40 46
245583.78479004 3357450.44067383 19.74129295 39 44 50
245583.41888428 3357445.72198486 19.86565590 28 35 43
245582.50567627 3357446.75509644 20.14000511 18 29 25
245584.66308594 3357448.05468750 20.47767639 43 50 60
245583.45806885 3357446.85565186 20.08260345 49 59 71
245582.49102783 3357446.54647827 19.80764389 20 30 31
245583.80377197 3357456.17919922 20.19565773 87 98 100
245584.21270752 3357455.88052368 20.24654579 43 47 56
245584.57482910 3357448.18099976 20.58547974 3 8 14
245584.02996826 3357452.26843262 19.86784363 140 153 162
245583.99237061 3357451.04812622 19.81877518 13 14 18
245583.77099609 3357449.65863037 20.46715164 23 28 34
245583.89648438 3357454.97052002 20.38694000 66 77 81
245582.45538330 3357446.45535278 19.93947983 24 35 31
245584.71923828 3357452.73724365 19.86444855 92 114 128
245584.85131836 3357452.96783447 19.62510490 12 17 23
245584.73968506 3357448.05920410 20.37516594 11 16 20
245584.84631348 3357452.43554688 19.56113625 17 24 34
245583.45416260 3357453.10174561 20.12748909 6 16 15
245583.68951416 3357446.79324341 20.15671921 59 72 81
245583.54138184 3357450.22836304 20.10227585 31 38 44
245583.92095947 3357454.42263794 20.65731430 76 86 88
245582.93823242 3357446.56164551 19.47445297 52 63 67
245583.68890381 3357455.18029785 20.60690880 23 34 28
245582.99865723 3357447.48977661 20.59759903 8 18 17
245584.29608154 3357451.91476440 19.77242279 57 64 70
245584.82543945 3357453.70266724 20.21611786 103 113 123
245584.42541504 3357455.85791016 20.21167946 48 53 57
245584.77185059 3357451.59600830 19.43053246 45 48 53
245584.24053955 3357446.32135010 20.20833206 21 28 38
245584.40075684 3357446.12084961 19.99120903 1 5 14
245584.45776367 3357451.99777222 19.79821205 54 68 79
245584.74822998 3357448.91760254 20.07497978 9 14 20
245584.38922119 3357448.70874023 20.70114326 15 29 38
245583.30957031 3357446.10635376 20.13579559 29 36 44
245584.75775146 3357448.98379517 20.00978661 13 16 21
245584.79968262 3357448.19570923 20.20962715 14 19 25
245584.65625000 3357455.36349487 20.21484947 31 39 42
245584.76342773 3357455.29251099 19.96128082 40 51 55
245582.76599121 3357446.31048584 19.53462410 69 76 86
245584.74218750 3357450.86831665 19.46450615 32 35 42
245583.66766357 3357456.17672729 20.41437721 22 35 28
245584.02868652 3357447.66174316 20.55950737 128 141 158
245584.48510742 3357455.86865234 20.18060875 45 50 54
245582.40673828 3357446.18032837 19.89365196 20 29 28
245584.99096680 3357454.48016357 19.76779366 33 38 42
245583.51049805 3357452.16619873 19.89529037 154 159 165
245584.67358398 3357454.95635986 20.22683144 6 9 14
245583.77154541 3357451.64617920 19.64410210 38 41 46
245584.70983887 3357449.03985596 20.01581001 8 11 16
245583.32568359 3357451.14578247 19.83185959 21 26 29
245584.22052002 3357446.70776367 20.23123360 52 64 78
245584.62109375 3357453.35952759 20.17281342 85 93 106
245584.06121826 3357453.23422241 20.11476517 50 64 67
245584.87493896 3357447.57324219 19.92383003 40 49 58
245583.53277588 3357451.63995361 19.78475952 29 34 38
245584.78979492 3357455.84912109 19.82594299 33 41 44
245584.73553467 3357447.88110352 20.34493065 7 15 18
245584.28955078 3357451.26116943 19.57052994 35 43 46
245583.90045166 3357447.68185425 20.53244400 26 32 44
245584.25714111 3357447.37844849 20.53773499 73 94 111
245583.67291260 3357447.92263794 20.76991463 26 30 33
245583.37377930 3357453.17153931 20.17336464 30 39 38
245584.61059570 3357449.76968384 19.65165710 32 37 41
245584.52416992 3357448.27301025 20.72413254 10 17 27
245584.72387695 3357454.92126465 20.03500366 103 118 125
245584.41534424 3357446.37576294 20.31987381 35 42 58
245582.56872559 3357447.10476685 20.02820778 19 22 27
245584.26623535 3357448.58868408 21.00754929 38 39 57
245584.47381592 3357449.40270996 19.85660362 10 18 21
245584.42779541 3357448.27474976 20.92129707 47 65 79
245584.01489258 3357447.03674316 20.28032112 54 67 86
245584.89660645 3357447.96084595 19.95026779 32 39 47
245584.63848877 3357446.17788696 19.82689095 25 29 38
245583.67175293 3357452.97915649 19.89390373 87 105 115
245584.59497070 3357451.60360718 19.44544029 42 42 50
245584.86981201 3357454.75222778 19.72949982 29 34 38
245584.68835449 3357448.07907104 20.44386101 10 14 23
245584.26550293 3357452.45129395 19.87540627 116 130 141
245584.03234863 3357447.83737183 20.67839241 84 94 104
245583.52093506 3357450.45730591 19.94795990 61 72 78
245582.46685791 3357446.50997925 20.01452065 16 27 23
245584.93255615 3357448.49862671 19.79027176 31 38 44
245583.56793213 3357451.62521362 19.76268578 29 34 38
245582.42211914 3357446.39273071 20.08408737 20 30 29
245584.52923584 3357448.00604248 20.65706825 5 9 18
245584.31646729 3357449.18609619 20.29590034 7 17 19
245584.86590576 3357454.41104126 19.99593353 29 38 43
245584.16992188 3357451.29122925 19.61606789 28 35 41
245584.59710693 3357449.93588257 19.59671974 35 40 44
245584.79608154 3357448.27639771 20.21102715 9 14 20
245584.31665039 3357450.45129395 19.55586624 17 22 28
245584.50469971 3357449.98193359 19.60154533 12 19 25
245584.41961670 3357445.99206543 19.73229408 27 34 42
245583.93896484 3357449.21328735 20.73287201 2 10 13
245584.79858398 3357455.56851196 19.81123734 40 47 53
245584.56695557 3357456.40609741 19.94770241 36 39 44
245584.33087158 3357449.92388916 19.66111374 25 34 41
245584.08312988 3357454.39138794 20.62921906 82 91 98
245584.24102783 3357454.37100220 20.62022209 87 96 103
245583.52648926 3357447.17977905 20.11775208 47 60 76
245584.05224609 3357454.39477539 20.62940598 83 92 99
245583.92932129 3357455.36233521 20.46708107 12 21 16
245583.70233154 3357454.82217407 20.49940872 62 70 73
245584.66735840 3357451.36260986 19.47950745 44 49 53
245584.80468750 3357455.37646484 19.81290054 42 51 56
245583.66064453 3357451.32537842 19.76907349 28 33 36
245583.70544434 3357455.66271973 20.64020348 27 40 33
245584.48767090 3357455.94107056 20.15465164 88 97 104
245583.90740967 3357450.39294434 19.68421745 18 21 26
245584.90740967 3357447.00372314 19.86404419 21 26 32
245584.18896484 3357449.81448364 19.75269508 59 66 72
245584.36230469 3357448.97760010 20.48778534 10 15 19
245582.92474365 3357445.85729980 19.47622681 34 45 51
245582.94696045 3357447.19479370 19.84643364 60 69 76
245584.63500977 3357455.46121216 20.22548676 43 48 52
245583.59851074 3357450.84564209 19.95232582 31 39 42
245583.57055664 3357447.80047607 20.58128929 83 89 89
245583.63568115 3357454.12997437 20.62516785 53 63 62
245584.92834473 3357453.78686523 20.11941719 26 37 43
245584.40808105 3357451.05395508 19.53176689 24 28 31
245583.07550049 3357452.95874023 20.29897881 35 48 41
245583.68359375 3357447.50152588 20.34300423 56 69 75
245584.50988770 3357452.83462524 19.97219467 79 91 105
245583.28521729 3357447.12255859 19.98053169 46 56 66
245584.73400879 3357447.00338745 20.02916718 24 31 39
245584.08752441 3357451.20620728 19.69271660 33 37 40
245584.50378418 3357451.09005737 19.51732254 32 40 43
245584.19885254 3357454.36160278 20.63116837 89 98 105
245584.75469971 3357454.88973999 19.93476486 30 43 49
245584.47949219 3357446.21038818 20.28370285 59 64 84
245584.79180908 3357454.77453613 19.84526634 26 37 41
245582.65167236 3357447.14422607 20.34066772 14 20 20
245583.93859863 3357449.02783203 20.86016846 18 23 26
245583.34820557 3357452.79446411 20.03719521 99 110 112
245582.56347656 3357447.06875610 20.03219795 18 23 27
245582.97326660 3357447.53720093 20.21402359 6 14 17
245584.33770752 3357455.69235229 20.27747154 13 13 15
245583.79107666 3357451.68972778 19.62750816 76 79 86
245584.89703369 3357452.36334229 19.48725891 10 19 26
245584.02087402 3357451.28460693 19.68851089 26 29 34
245584.73089600 3357447.52670288 20.12161255 12 15 20
245584.22961426 3357455.70410156 20.28936386 37 38 40
245584.55029297 3357453.05252075 20.03980255 46 60 71
245583.67871094 3357445.82635498 19.90032196 33 42 57
245584.45037842 3357451.91302490 19.66357994 135 145 155
245584.79437256 3357448.54919434 20.15812874 12 17 23
245584.45025635 3357447.68246460 20.62547112 80 104 116
245584.70147705 3357446.75012207 20.02178192 19 24 30
245583.72161865 3357453.58843994 20.35855293 22 31 36
245583.69805908 3357446.83499146 20.16238594 57 69 81
245583.92413330 3357450.14205933 19.76008797 21 26 30
245583.92205811 3357453.05227661 19.98949432 50 68 72
245584.50750732 3357448.06054688 20.72485352 8 15 25
245584.26629639 3357452.75460815 19.91933823 100 114 123
245583.70599365 3357450.98754883 19.89370155 26 30 33
245583.63262939 3357445.99859619 20.10320854 112 126 152
245583.62957764 3357454.16253662 20.63622665 50 62 62
245583.27966309 3357446.57553101 20.09641647 35 44 51
245584.35400391 3357453.81051636 20.57930946 81 90 97
245582.64147949 3357447.23956299 19.97046089 10 15 19
245582.96356201 3357447.48226929 20.06267357 17 27 29
245583.76684570 3357453.17193604 20.06636047 26 37 39
245584.84100342 3357446.83004761 19.88769722 31 34 41
245584.44128418 3357454.90905762 20.44186783 88 106 118
245583.43194580 3357450.81396484 19.94730568 24 32 34
245584.49176025 3357446.18130493 20.11248970 52 58 72
245583.38519287 3357445.90539551 19.99218559 18 23 29
245583.89581299 3357446.59597778 20.16965866 66 78 94
245584.66973877 3357447.90811157 20.46760559 32 41 50
245584.06707764 3357452.90588379 19.93119812 96 112 125
245584.88171387 3357451.57843018 19.41901207 43 46 51
245584.74127197 3357450.93292236 19.46446991 34 39 45
245584.30334473 3357449.27188110 20.14679337 1 9 11
245583.86364746 3357452.17248535 19.87683487 152 165 173
245583.91705322 3357449.51644897 20.35229492 150 159 168
245584.23101807 3357451.94558716 19.81363106 145 154 161
245584.57232666 3357448.29571533 20.60317039 3 8 14
245584.06530762 3357446.57952881 20.19569778 37 46 61
245584.69116211 3357454.70892334 20.11435699 38 45 51
245583.78381348 3357454.43887329 20.71660233 71 79 81
245583.69128418 3357455.74655151 20.49639511 35 46 38
245583.68273926 3357454.91519165 20.43642998 66 74 76
245583.42126465 3357446.59066772 20.20735550 29 35 47
245583.52557373 3357445.77465820 19.97673607 24 31 41
245584.15032959 3357451.64724731 19.54522133 32 35 40
245584.05108643 3357453.49908447 20.24057388 47 61 62
245584.73748779 3357456.37033081 19.75788498 36 41 45
245583.60308838 3357447.44436646 20.27459526 30 39 46
245584.38763428 3357450.13360596 19.56598473 12 19 27
245584.82238770 3357450.95648193 19.44952774 38 43 49
245584.87298584 3357446.92230225 19.88443947 30 33 40
245584.40832520 3357450.32244873 19.55204582 15 18 23
245583.85156250 3357449.86694336 20.06176186 36 43 59
245584.69165039 3357446.53250122 19.97665215 19 24 28
245584.31402588 3357447.96746826 20.74939919 118 144 159
245584.93762207 3357454.21917725 20.07269478 28 35 43
245583.79156494 3357454.85763550 20.43338394 65 75 77
245584.63958740 3357449.49826050 19.73980904 11 15 18
245584.73516846 3357451.97732544 19.49784851 83 91 104
245584.36608887 3357454.55773926 20.54657173 73 91 101
245582.99652100 3357445.92083740 19.50541496 24 33 40
245584.49383545 3357448.48397827 20.76227951 6 15 22
245583.98034668 3357445.94137573 19.78193855 19 29 38
245584.94665527 3357451.09075928 19.42766380 45 49 58
245584.70007324 3357448.91336060 20.13232994 9 14 18
245584.53808594 3357453.88171387 20.51200485 100 113 122
245583.76489258 3357455.30868530 20.59597969 28 37 32
245584.33056641 3357445.97131348 19.70840263 37 44 52
245584.10565186 3357445.85726929 19.66874313 36 43 51
245583.88952637 3357446.15945435 20.05243492 25 34 41
245584.77624512 3357453.09649658 19.92269516 55 73 85
245584.40045166 3357454.15899658 20.59842491 23 32 41
245584.87890625 3357447.51708984 19.90154266 38 47 56
245584.00982666 3357451.99679565 19.87373924 187 195 208
245584.09008789 3357456.19528198 20.18244743 94 103 108
245584.62597656 3357448.88644409 20.25462151 5 13 16
245583.72906494 3357454.60577393 20.67942619 68 78 79
245584.75012207 3357454.88455200 19.94786263 30 43 49
245584.66271973 3357448.51672363 20.41247177 14 18 27
245584.84716797 3357449.45236206 19.62200928 22 27 31
245583.79998779 3357447.62097168 20.46389961 45 56 58
245584.22918701 3357448.53613281 21.05129814 27 27 35
245584.93090820 3357447.46820068 19.82599258 24 33 42
245584.34600830 3357455.10461426 20.43405724 75 87 99
245584.87750244 3357454.83599854 19.70223427 28 36 39
245584.57397461 3357452.23126221 19.95520210 114 130 146
245582.87152100 3357446.44918823 19.49563599 58 68 77
245582.46081543 3357446.60910034 20.38136673 14 24 23
245584.47467041 3357456.18157959 20.10122108 91 100 109
245584.21856689 3357449.70468140 19.80105019 69 74 80
245584.09881592 3357447.59948730 20.55942726 129 152 168
245582.60113525 3357446.91104126 19.79396629 34 41 47
245584.34704590 3357450.95559692 19.53625870 30 31 35
245584.92846680 3357453.61929321 20.11638069 28 42 51
245583.62603760 3357449.80419922 20.52443504 15 20 24
245583.86755371 3357447.95626831 20.84391594 85 91 103
245583.37261963 3357452.68099976 19.93646049 82 97 100
245584.73156738 3357452.79660034 19.84742737 85 107 121
245583.89324951 3357449.71295166 20.16080284 83 92 107
245583.26367188 3357452.93994141 20.14716339 36 45 44
245583.88214111 3357451.09390259 19.84067154 26 31 34
245582.50921631 3357446.70169067 19.95487976 24 34 35
245583.90728760 3357451.97543335 19.86844444 183 193 202
245583.25152588 3357451.29492188 19.79842758 48 56 58
245584.55126953 3357448.46466064 20.61864471 5 10 14
245584.67462158 3357447.84939575 20.45691109 58 68 78
245583.80651855 3357455.68109131 20.40655899 57 74 56
245584.74505615 3357452.74548340 19.83276176 88 110 123
245584.33276367 3357453.98983765 20.62969971 6 10 13
245584.78930664 3357454.86047363 19.84244728 27 42 45
245584.51300049 3357449.74444580 19.68254852 11 16 20
245584.48046875 3357449.40750122 19.85038757 10 18 21
245583.90502930 3357451.63955688 19.63271523 30 35 41
245582.71868896 3357446.73062134 19.60856247 39 48 53
245584.07269287 3357448.28076172 21.04412079 24 29 33
245584.84039307 3357449.47003174 19.61765671 22 27 31
245582.32403564 3357445.74697876 19.67657089 23 33 32
245584.07592773 3357446.82318115 20.22140503 34 47 63
245583.59014893 3357447.62518311 20.42270470 142 148 144
245585.13690186 3357453.50631714 19.56475258 35 43 46
245584.25646973 3357454.90628052 20.41539574 69 87 101
245584.73645020 3357448.71520996 20.20055962 10 15 19
245584.06896973 3357448.91067505 20.83999825 22 27 33
245582.30450439 3357446.01199341 20.08967400 15 24 21
245584.63690186 3357449.39663696 19.78069496 15 19 22
245583.39691162 3357446.89819336 20.03730202 45 55 67
245584.39636230 3357447.44580078 20.53487015 108 141 150
245584.72003174 3357449.51861572 19.68988609 22 25 30
245584.69934082 3357450.32229614 19.49612045 22 27 33
245584.18853760 3357446.08062744 19.97120094 11 15 24
245583.61560059 3357452.95675659 19.90402794 86 104 114
245583.15728760 3357446.15216064 19.87033844 56 65 72
245583.27276611 3357447.76730347 20.73413849 4 4 6
245584.80328369 3357454.93780518 19.81377602 30 41 45
245583.59649658 3357451.02856445 19.88484955 27 31 34
245582.54486084 3357446.89135742 20.15111351 18 28 29
245582.45428467 3357446.57266235 20.37735176 14 24 23
245583.75482178 3357453.42626953 20.17313385 29 39 41
245584.15454102 3357452.26379395 19.88231277 135 147 159
245584.14221191 3357450.06240845 19.64572144 62 70 73
245584.18286133 3357448.50390625 21.07074547 25 26 31
245584.42926025 3357446.34774780 20.31786919 76 83 101
245584.74487305 3357447.78457642 20.28222847 23 27 30
245584.75451660 3357456.26495361 19.77864075 34 42 45
245583.50927734 3357446.57104492 20.25467110 119 127 140
245583.90100098 3357455.09954834 20.39231873 82 98 97
245583.20446777 3357447.53686523 20.15797806 8 13 17
245582.45312500 3357446.47503662 20.03977585 19 30 26
245585.15039063 3357453.80981445 19.81094933 19 28 35
245584.68420410 3357454.96255493 20.19161606 3 6 13
245582.68273926 3357445.70312500 19.49313545 66 70 79
245584.93273926 3357454.13314819 20.10259438 22 29 37
245583.98510742 3357449.12655640 20.75332069 5 13 16
245583.07727051 3357447.05410767 19.83798409 24 33 38
245584.70782471 3357447.84213257 20.38892555 22 29 37
245584.81408691 3357448.56048584 20.09250069 11 16 22
245584.87799072 3357448.05969238 20.01494980 28 31 38
245584.63574219 3357452.08325195 19.72808075 125 142 152
245583.19659424 3357447.49365234 20.09985924 11 16 20
245584.72625732 3357455.73663330 19.96641541 36 44 47
245584.75939941 3357446.53820801 19.86685753 25 30 36
245584.41302490 3357446.14767456 20.07625198 33 37 49
245583.63677979 3357447.55001831 20.37290573 50 66 66
245584.54766846 3357452.90911865 19.99043846 78 85 101
245584.35382080 3357450.39096069 19.55480385 16 21 27
245584.28033447 3357449.40997314 19.95433044 15 24 29
245584.81292725 3357448.00985718 20.19159126 11 14 21
245583.47595215 3357451.94003296 19.91210365 30 31 33
245582.44000244 3357446.39035034 19.90848541 20 31 27
245583.63726807 3357450.46536255 19.85194778 31 41 43
245583.41064453 3357450.31927490 20.18154335 31 38 46
245584.29327393 3357453.78817749 20.56996536 88 97 104
245583.47833252 3357451.01644897 19.88112259 22 27 31
245584.54809570 3357453.01702881 20.02788353 74 86 100
245584.65600586 3357454.87625122 20.25681686 8 12 15
245582.59442139 3357447.07101440 19.82606888 30 35 41
245584.51177979 3357452.44094849 19.94531631 88 101 117
245582.45159912 3357446.47750854 20.06645775 18 29 25
245584.78741455 3357448.46099854 20.19042778 8 13 17
245583.60485840 3357445.79446411 19.92626572 21 29 40
245584.48284912 3357455.25405884 20.43417549 2 6 7
245583.96099854 3357446.76181030 20.19999504 52 66 79
245584.62561035 3357448.19281006 20.51932335 79 85 97
245584.74761963 3357447.88656616 20.32070351 12 17 20
245584.08941650 3357455.14825439 20.38851547 82 100 102
245583.72631836 3357452.53768921 19.76755333 122 137 144
245582.32806396 3357446.10174561 20.15164375 20 32 28
245584.17309570 3357453.11376953 20.08825493 97 110 116
245583.90509033 3357447.58145142 20.46920586 32 43 49
245584.64166260 3357455.48489380 20.20024300 40 45 49
245583.50177002 3357452.90390015 19.91745567 73 88 91
245584.78027344 3357448.52606201 20.20069695 11 16 20
245583.67407227 3357451.98486328 19.87375259 198 203 207
245584.87683105 3357452.44708252 19.49041367 19 26 34
245583.81805420 3357446.65634155 20.17363167 50 62 76
245582.30035400 3357445.97683716 20.03957367 23 32 29
245584.79797363 3357446.51705933 19.81163597 20 23 30
245583.61010742 3357447.85397339 20.64565849 46 52 52
245584.61328125 3357449.88784790 19.60982513 48 53 57
245584.66284180 3357454.96078491 20.26707268 6 9 14
245584.47985840 3357452.84689331 19.98224449 79 93 102
245583.01733398 3357446.15423584 19.65719795 11 21 31
245584.73345947 3357456.30035400 19.79042244 34 39 43
245584.81109619 3357454.19619751 20.20498657 100 110 120
245584.49658203 3357452.31356812 19.94440460 100 114 127
245584.81427002 3357454.53369141 19.95483398 25 39 42
245583.80566406 3357453.66104126 20.44953728 81 89 92
245584.26696777 3357450.18505859 19.57810402 24 31 37
245582.39703369 3357446.26467896 20.04564095 22 31 30
245584.71923828 3357450.84353638 19.46975899 29 32 39
245585.06579590 3357453.78134155 19.95215225 41 48 54
245583.37103271 3357453.36843872 20.26770210 46 58 58
245584.62652588 3357451.25799561 19.48907280 37 42 46
245584.46075439 3357452.63754272 19.94366646 94 108 119
245584.69354248 3357452.37487793 19.89894104 88 101 117
245584.73632813 3357446.55517578 19.91015816 22 27 33
245583.75592041 3357455.78967285 20.33916855 47 61 46
245584.26318359 3357451.00894165 19.57679749 31 30 35
245583.11511230 3357452.87594604 20.27948952 33 44 38
245584.60131836 3357454.68234253 20.35383224 11 19 21
245584.43756104 3357446.17858887 20.18410873 69 75 89
245584.43646240 3357446.16537476 20.11987495 73 79 93
245584.80731201 3357447.71270752 20.11337280 18 23 27
245584.79858398 3357453.18252563 19.95886040 58 72 83
245584.03088379 3357451.74008179 19.61654472 65 69 80
245583.60736084 3357453.79214478 20.60525322 57 67 66
245583.69586182 3357450.68750000 19.90375137 95 109 112
245583.77233887 3357446.49459839 20.18373108 75 85 95
245584.15551758 3357447.56155396 20.58402824 105 134 150
245584.81542969 3357449.38336182 19.68490791 18 23 27
245584.23785400 3357447.60980225 20.62281609 104 137 154
245583.78906250 3357455.03765869 20.40803337 74 85 87
245583.07983398 3357445.77487183 19.51081657 29 38 45
245584.35168457 3357449.26004028 20.09241295 10 18 21
245582.93334961 3357446.11395264 19.58486366 47 57 67
245584.21209717 3357451.16955566 19.60818291 31 36 39
245584.16229248 3357454.52239990 20.58942795 90 103 109
245584.88934326 3357451.82876587 19.40064240 43 48 54
245584.60247803 3357455.12194824 20.39836693 15 24 29
245582.63378906 3357447.25775146 20.06892395 12 17 21
245583.91827393 3357449.08230591 20.84265327 15 20 23
245583.67224121 3357456.10540771 20.37506485 22 34 30
245584.84613037 3357450.55068970 19.43639374 31 38 46
245584.68798828 3357454.04122925 20.36034203 4 9 13
245583.66094971 3357447.66220093 20.46596336 138 147 142
245584.02093506 3357455.23760986 20.40539169 90 106 103
245584.56927490 3357449.66998291 19.69579315 14 19 23
245584.84558105 3357450.89697266 19.44759178 37 40 47
245584.64892578 3357446.40051270 19.96249008 18 22 31
245583.55865479 3357447.45584106 20.27490234 33 40 48
245584.71966553 3357448.13342285 20.39586067 6 13 19
245582.67028809 3357447.17718506 20.35129166 15 21 21
245584.50415039 3357450.39672852 19.53368568 27 30 37
245584.55413818 3357451.23159790 19.50546837 39 44 48
245582.76202393 3357447.31042480 20.38388634 14 20 20
245584.81231689 3357453.02618408 19.83415031 25 43 47
245582.82373047 3357445.73260498 19.45443916 74 83 90
245585.01086426 3357454.19204712 20.00067902 26 31 37
245584.20739746 3357451.51525879 19.53662300 34 42 45
245585.08300781 3357453.46011353 19.67168045 29 37 40
245584.84136963 3357451.12646484 19.44239235 37 42 46
245584.25592041 3357454.44638062 20.60430717 77 88 94
245584.79431152 3357447.90603638 20.21896553 15 19 22
245584.51184082 3357454.12112427 20.56076241 99 111 127
245583.67822266 3357453.75357056 20.56667519 90 100 102
245583.93206787 3357452.59454346 19.78929520 118 131 137
245583.94183350 3357455.83084106 20.25441742 36 49 40
245583.19482422 3357446.38589478 19.96805954 28 37 42
245584.84979248 3357452.82223511 19.56067276 27 36 43
245584.06457520 3357455.63867188 20.36707497 29 39 31
245583.30883789 3357445.91098022 19.82611465 23 26 33
245584.22210693 3357455.76501465 20.27126503 20 21 23
245583.64007568 3357452.82522583 19.78410339 113 127 136
245584.48687744 3357448.34179688 20.83529091 0 13 22
245583.70007324 3357453.37930298 20.15106392 21 31 32
245584.20697021 3357447.32791138 20.50583076 91 104 121
245584.85101318 3357454.59320068 19.82005882 23 32 37
245582.55999756 3357446.02368164 19.54977417 79 84 90
245584.12670898 3357445.80303955 19.63994408 39 46 54
245583.38238525 3357446.53073120 20.21451378 44 51 61
245582.61315918 3357447.17486572 19.92847633 19 24 28
245584.91345215 3357453.33273315 19.98319817 25 38 46
245584.03552246 3357454.00921631 20.67823601 17 23 23
245584.45635986 3357455.96102905 20.16244698 89 100 106
245582.48315430 3357446.69607544 20.36521530 16 27 23
245583.72857666 3357454.80447388 20.49479675 63 71 74
245584.41436768 3357456.23736572 20.11516380 78 87 94
245584.06097412 3357446.01318359 19.82254028 19 26 32
245583.78070068 3357447.99505615 20.90937042 37 40 47
245583.97076416 3357447.22192383 20.38681412 54 68 81
245583.85827637 3357451.08776855 19.84710884 26 31 34
245583.41656494 3357452.75695801 19.92775154 87 102 105
245584.30609131 3357453.35470581 20.18225098 70 85 88
245584.71545410 3357454.85729980 20.04930878 105 120 127
245583.24237061 3357453.46633911 20.53907013 29 38 33
245584.68353271 3357455.54492188 20.09530640 67 74 80
245584.64526367 3357455.42858887 20.21452332 41 49 52
245584.26391602 3357450.53152466 19.55770111 17 22 26
245584.43212891 3357450.50778198 19.53673363 14 17 24
245584.66418457 3357453.12265015 20.03733826 81 97 112
245584.41918945 3357455.22836304 20.46433640 17 23 23
245582.13299561 3357445.75967407 19.83466148 26 37 31
245582.50616455 3357446.76751709 20.29355049 17 27 26
245583.97888184 3357452.93414307 19.91057968 93 111 123
245584.42840576 3357451.53170776 19.46139526 44 47 54
245584.14868164 3357449.05255127 20.65337753 156 168 180
245583.94836426 3357449.27532959 20.65403748 27 37 39
245582.37872314 3357446.03250122 19.85376740 31 40 37
245583.53002930 3357451.83624268 19.86956024 58 63 66
245584.80963135 3357454.43289185 20.06346512 90 103 112
245584.10662842 3357450.38858032 19.60324669 95 106 110
245583.42358398 3357450.44363403 20.10125732 51 60 65
245584.83843994 3357454.06961060 20.18983078 112 121 130
245584.73687744 3357448.15612793 20.36717606 9 14 20
245582.61065674 3357447.10446167 20.24496078 15 24 23
245584.84869385 3357448.47094727 19.97820663 21 30 39
245583.96972656 3357445.86251831 19.72701836 30 39 46
245584.66076660 3357451.99801636 19.58419037 43 55 69
245584.63104248 3357446.54364014 20.16340637 14 18 27
245584.71563721 3357454.83816528 20.04540443 107 122 125
245585.05291748 3357454.17126465 19.96255302 35 40 46
245583.35211182 3357447.27563477 20.05082512 60 70 82
245583.90667725 3357453.69839478 20.52892876 100 108 111
245584.17913818 3357454.70281982 20.48708153 88 101 109
245583.25531006 3357446.31607056 20.11438942 24 33 38
245583.60913086 3357446.53540039 20.24403954 67 77 87
245584.35943604 3357449.46249390 19.87675095 7 17 19
245584.75988770 3357446.64593506 19.91144562 25 28 35
245583.36401367 3357453.44659424 20.33956718 53 63 65
245583.24780273 3357447.71704102 20.62927437 4 4 4
245584.73712158 3357448.05126953 20.38002396 9 16 22
245583.59509277 3357451.34567261 19.76943588 30 35 38
245584.00469971 3357446.48052979 20.17179489 57 67 77
245584.79101563 3357455.36166382 19.86063957 42 51 56
245582.42529297 3357445.59353638 19.57588768 15 29 29
245583.37994385 3357446.29278564 20.25933266 21 27 39
245585.08923340 3357454.53561401 19.65197372 25 32 38
245584.18438721 3357451.73040771 19.56769180 106 109 118
245583.94409180 3357451.45141602 19.64339256 30 35 39
245584.77917480 3357455.40225220 19.89560890 40 51 55
245584.15753174 3357449.94824219 19.69183159 61 69 72
245582.41381836 3357446.41970825 20.28124237 18 28 29
245582.74169922 3357447.37817383 20.06758690 9 14 18
245583.48419189 3357450.29727173 20.08612633 32 40 43
245584.77490234 3357450.60388184 19.45965004 25 32 40
245584.72741699 3357452.49584961 19.84955025 81 99 113
245583.63507080 3357450.74911499 19.95646477 79 87 90
245583.38342285 3357447.82821655 20.71857071 32 33 35
245584.63562012 3357455.19488525 20.33161736 15 18 23
245584.75836182 3357451.66992188 19.42600060 42 45 50
245584.84759521 3357451.55941772 19.42495155 43 46 51
245584.37683105 3357452.72457886 19.94209480 93 110 118
245584.27941895 3357450.06439209 19.61653900 29 38 43
245584.26159668 3357454.26791382 20.63320160 1 9 12
245584.43725586 3357450.99053955 19.52368164 20 25 29
245583.31353760 3357450.95062256 19.92741776 15 23 25
245584.00402832 3357449.17037964 20.70745087 57 67 69
245585.01214600 3357454.24255371 19.94539642 24 29 35
245584.49151611 3357446.79443359 20.18746567 32 42 52
245584.51141357 3357453.90567017 20.53254890 90 102 114
245584.82806396 3357448.16116333 20.13764763 10 13 22
245584.78356934 3357454.38427734 20.16420174 75 85 95
245582.55621338 3357446.75775146 19.82270432 28 35 41
245584.90319824 3357446.94378662 19.85636902 20 23 30
245584.79510498 3357454.62503052 19.90496254 29 40 44
245583.67767334 3357447.97335815 20.90951538 31 35 38
245584.57794189 3357452.10040283 19.83119774 92 108 121
245584.70776367 3357451.18338013 19.47107506 41 46 50
245583.65637207 3357451.73797607 19.74981689 24 27 32
245584.53570557 3357446.19284058 19.99157333 63 67 79
245583.37493896 3357452.44253540 19.88062286 97 111 114
245583.10144043 3357451.54577637 19.87784004 36 40 41
245584.40606689 3357449.27392578 19.98415756 2 12 14
245583.23541260 3357452.42718506 20.00325775 30 36 36
245584.11907959 3357446.75738525 20.21970367 27 41 54
245583.75799561 3357447.62496948 20.45807076 47 59 59
245584.77850342 3357455.69409180 19.86421585 27 34 40
245584.49926758 3357448.41442871 20.79034424 6 16 25
245583.14630127 3357453.25024414 20.32451439 44 54 55
245584.37463379 3357452.52905273 19.90779495 103 117 128
245583.66607666 3357454.81039429 20.56155777 64 74 75
245584.32794189 3357448.37564087 21.05426407 110 117 127
245582.57788086 3357446.31637573 19.60685158 62 69 75
245584.62792969 3357455.36703491 20.28032494 55 60 64
245584.29040527 3357447.64550781 20.63057137 110 139 155
245584.60498047 3357447.07040405 20.15663147 8 17 24
245584.45336914 3357454.58630371 20.51325798 99 115 130
245584.76977539 3357455.65264893 19.89832115 28 38 40
245583.74206543 3357455.43972778 20.67278099 32 45 38
245582.97003174 3357447.17745972 19.84688759 60 69 76
245584.23895264 3357446.10089111 20.05048943 24 31 41
245583.96057129 3357453.40023804 20.15907288 49 63 66
245584.38256836 3357448.14730835 20.85002518 33 52 66
245584.80364990 3357452.86358643 19.72184563 9 20 26
245584.23760986 3357454.25329590 20.64099503 16 24 27
245584.86175537 3357452.81356812 19.51938629 26 33 41
245583.50164795 3357453.84924316 20.67799187 28 38 37
245584.84814453 3357455.39489746 19.67811584 16 21 25
245584.41674805 3357447.86972046 20.68070412 76 103 114
245582.34002686 3357446.08755493 20.06234169 17 28 24
245584.29034424 3357447.21035767 20.41041946 36 46 58
245582.60968018 3357446.69812012 19.69664192 45 54 59
245583.17254639 3357446.37612915 19.92117310 20 27 33
245583.87426758 3357449.53427124 20.42439842 16 21 25
245584.07049561 3357445.97979736 19.78131294 20 27 35
245584.69049072 3357454.90563965 20.14568520 42 51 58
245584.05126953 3357452.08340454 19.88683701 168 180 192
245584.15032959 3357450.51522827 19.58523178 11 14 19
245583.25201416 3357452.70758057 20.10612488 27 38 34
245583.52294922 3357452.75732422 19.81351471 103 116 124
245582.71447754 3357446.63156128 19.54436874 35 46 50
245584.36218262 3357453.33941650 20.18005371 74 92 96
245582.34344482 3357445.81222534 19.67101669 18 28 27
245582.25775146 3357445.81369019 19.79767990 27 36 33
245584.30712891 3357446.30908203 20.23481941 11 17 29
245584.28839111 3357452.66619873 19.90122986 106 121 128
245583.67144775 3357455.88604736 20.55288124 34 47 40
245584.36383057 3357449.39706421 19.91442871 5 16 20
245584.18218994 3357447.34994507 20.51799011 105 118 137
245583.66943359 3357454.00408936 20.61253166 48 58 59
245584.53167725 3357456.34762573 20.01898956 35 38 43
245584.67218018 3357453.26989746 20.11846924 71 83 97
245584.32238770 3357452.64492798 19.90746689 101 116 123
245585.08325195 3357453.46771240 19.68926620 24 34 36
245584.45098877 3357447.38305664 20.43431282 28 51 57
245584.11456299 3357451.51870728 19.58373833 34 38 41
245584.62591553 3357455.28189087 20.31941414 56 61 65
245584.58386230 3357452.60867310 19.96401405 88 105 123
245584.57592773 3357448.68179321 20.47499275 55 58 67
245584.72900391 3357446.52429199 19.91252899 20 25 29
245584.43847656 3357451.42910767 19.48333931 41 44 51
245584.78765869 3357454.97817993 19.84957504 35 48 54
245584.89678955 3357448.12484741 19.94726753 26 29 38
245583.96948242 3357452.51638794 19.80533218 121 134 142
245584.68719482 3357453.57028198 20.26252556 0 1 6
245584.34710693 3357446.47412109 20.28193665 50 54 66
245584.75805664 3357452.31237793 19.71799660 57 70 78
245583.22448730 3357446.64450073 19.96801567 37 46 53
245583.43908691 3357451.09219360 19.85319901 20 25 29
245584.85742188 3357446.70281982 19.82235909 23 26 33
245583.67803955 3357450.87133789 19.93693352 59 67 70
245584.75659180 3357455.89877319 19.84278488 31 39 42
245583.72515869 3357446.79074097 20.16383743 58 71 80
245584.94091797 3357448.39633179 19.79132271 49 56 62
245584.67065430 3357446.60363770 20.07495499 16 21 27
245584.71221924 3357449.47122192 19.73281860 14 17 22
245582.80969238 3357446.35519409 19.50735474 70 79 88
245583.31872559 3357452.80691528 20.07989120 87 99 99
245584.46057129 3357453.08917236 20.07280731 70 88 98
245584.56237793 3357449.25885010 19.91462708 10 15 19
245583.94976807 3357450.73553467 19.73185349 42 53 57
245584.83117676 3357455.61682129 19.70941353 24 29 35
245583.80780029 3357449.24072266 20.82313347 16 22 22
245583.59289551 3357446.81988525 20.13916206 49 61 73
245584.24005127 3357453.37475586 20.18152618 68 83 86
245582.92590332 3357446.49078369 19.48640060 47 60 66
245584.39233398 3357450.33465576 19.55332947 15 18 23
245584.55487061 3357455.80847168 20.14290619 63 70 76
245584.58489990 3357448.50708008 20.52915001 24 27 34
245583.00787354 3357445.91986084 19.50829887 24 33 40
245584.42242432 3357450.50262451 19.53865242 14 17 24
245582.49261475 3357446.71096802 20.20593452 18 28 27
245584.06304932 3357455.63278198 20.37178612 25 35 24
245584.22735596 3357452.60903931 19.86727715 100 117 124
245584.84088135 3357451.46606445 19.43911362 46 49 54
245584.65838623 3357450.30871582 19.51101875 25 30 36
245583.53662109 3357450.89163208 19.93409348 23 28 31
245584.95355225 3357454.08389282 20.08776665 29 36 42
245584.78515625 3357455.30081177 19.88730431 38 49 53
245582.72418213 3357446.69073486 19.57582474 41 52 56
245584.92932129 3357453.42294312 20.06309128 53 68 75
245584.86761475 3357448.20175171 20.01475143 32 35 44
245584.37854004 3357446.02124023 19.76663589 13 17 26
245583.98876953 3357447.33291626 20.45171356 15 28 37
245584.37243652 3357449.37069702 19.92621231 5 16 20
245583.63232422 3357447.94152832 20.81188202 18 21 26
245584.66522217 3357446.55899048 20.06303024 16 19 28
245584.86706543 3357453.34088135 20.05191803 65 77 89
245583.76562500 3357455.85153198 20.31231499 52 66 53
245583.61871338 3357451.17611694 19.82895279 26 29 34
245584.34704590 3357447.09295654 20.30993652 51 64 80
245584.01416016 3357454.64437866 20.51504517 78 89 95
245583.88842773 3357447.18798828 20.31224251 62 75 91
245583.82012939 3357451.21224976 19.79624367 24 29 33
245582.63818359 3357446.63323975 19.60091972 49 60 64
245583.97833252 3357456.27023315 20.17156410 73 82 87
245583.36853027 3357446.82855225 20.02070618 33 41 52
245583.82287598 3357447.96011353 20.85271835 59 64 70
245584.18731689 3357448.24008179 21.00138092 29 36 42
245584.79528809 3357449.35614014 19.71577072 29 34 40
245584.65484619 3357448.18704224 20.48188972 42 48 60
245582.31805420 3357446.02212524 20.04586411 20 29 26
245583.92669678 3357451.59417725 19.62061310 31 36 40
245584.24066162 3357450.42721558 19.56689262 23 30 36
245583.19830322 3357453.20794678 20.24609184 40 50 49
245584.54931641 3357451.12261963 19.50695038 37 42 46
245584.61468506 3357446.86511230 20.12380791 9 16 26
245584.80181885 3357453.89227295 20.23257256 10 14 23
245584.59344482 3357446.11129761 19.79356384 31 35 44
245584.37579346 3357451.29602051 19.52291679 37 42 46
245585.10656738 3357453.64627075 19.87303162 30 39 46
245584.64868164 3357454.15209961 20.40840340 10 15 19
245584.36669922 3357446.42648315 20.29243088 48 54 68
245584.94738770 3357448.16769409 19.83889389 49 54 60
245584.29864502 3357447.19418335 20.39625740 46 55 70
245584.66778564 3357450.90133667 19.48112679 31 34 41
245583.70300293 3357451.89682007 19.85223770 55 60 64
245584.32641602 3357446.67886353 20.22736359 52 64 76
245584.26599121 3357448.40057373 21.08862305 21 26 32
245584.71411133 3357447.53417969 20.15756607 24 29 33
245584.64520264 3357454.06997681 20.41433716 5 13 15
245584.54235840 3357447.61959839 20.53351212 24 42 52
245584.81616211 3357451.14273071 19.44683838 36 41 45
245584.05047607 3357450.41452026 19.62223816 54 64 65
245584.42120361 3357448.34902954 20.97299576 28 45 61
245584.28021240 3357449.32339478 20.08179283 2 10 12
245582.95550537 3357447.49774170 20.40896416 7 15 17
245584.04827881 3357454.39453125 20.62960052 83 92 99
245583.03369141 3357447.39172363 19.94064522 32 39 45
245583.48944092 3357451.33432007 19.77419281 32 37 41
245583.85491943 3357447.71087646 20.54420280 49 56 66
245584.79998779 3357455.79681396 19.82319260 33 43 45
245584.60357666 3357448.54785156 20.48970032 61 65 74
245583.69854736 3357453.69699097 20.50865936 66 76 78
245583.42144775 3357452.33331299 19.87607384 121 131 133
245583.61535645 3357451.58395386 19.71228981 24 29 32
245582.60461426 3357445.61578369 19.51250076 45 56 62
245582.75427246 3357445.77441406 19.46828651 67 74 82
245583.71606445 3357454.35421753 20.70595741 65 75 76
245583.52105713 3357451.30175781 19.77943039 30 35 39
245583.60198975 3357446.77206421 20.16205597 50 62 74
245582.19738770 3357445.90158081 20.02536392 21 30 27
245583.87329102 3357449.50613403 20.46134186 25 30 33
245583.01818848 3357446.42404175 19.55312729 24 35 41
245584.06671143 3357446.79278564 20.21397591 49 62 78
245583.87805176 3357453.38510132 20.15254211 47 58 60
245584.50805664 3357454.36257935 20.51384354 95 113 125
245584.03143311 3357451.61557007 19.59153366 32 35 40
245583.96801758 3357451.17294312 19.77198410 32 33 35
245584.87194824 3357452.84384155 19.49697304 20 27 35
245583.28869629 3357447.50012207 20.18039131 8 16 19
245584.88629150 3357448.72265625 19.90417099 28 32 41
245583.92797852 3357456.09576416 20.20287514 90 100 110
245583.43023682 3357450.43121338 20.09478760 51 60 65
245582.44781494 3357445.75473022 19.60081291 26 37 39
245583.77233887 3357453.62353516 20.41740799 55 64 69
245585.19378662 3357453.87893677 19.74264526 24 31 37
245583.85552979 3357449.35540771 20.64825630 31 39 41
245584.03222656 3357453.63769531 20.43590927 10 21 25
245584.33593750 3357451.22012329 19.56204033 36 41 44
245584.50952148 3357451.94906616 19.67615891 156 168 180
245583.25585938 3357447.10122681 19.95775414 33 44 50
245583.78576660 3357454.76779175 20.48315239 64 74 76
245584.61779785 3357451.91290283 19.55350685 93 102 117
245583.89379883 3357450.40100098 19.68906593 18 21 26
245582.65441895 3357447.11053467 20.43566895 16 22 22
245584.41296387 3357455.32434082 20.43104172 30 32 31
245582.44555664 3357446.11721802 19.73030281 18 28 27
245583.36236572 3357451.99880981 19.95112991 63 64 66
245582.98156738 3357446.00460815 19.53223991 23 32 41
245583.66497803 3357456.03060913 20.43382263 32 44 40
245583.85443115 3357451.90585327 19.83707619 94 105 107
245584.71398926 3357447.60317993 20.22377968 23 28 32
245583.23168945 3357446.08474731 19.95890236 22 30 33
245584.49652100 3357455.94525146 20.14452934 79 90 96
245584.54101563 3357455.44165039 20.32523918 51 52 56
245584.21789551 3357450.77999878 19.55540466 28 31 36
245584.55462646 3357448.68881226 20.50600624 7 10 17
245585.06500244 3357454.07406616 19.97531319 36 41 47
245584.25396729 3357452.65652466 19.88563538 106 121 128
245583.77038574 3357446.41073608 20.17073822 52 60 71
245583.62756348 3357446.13690186 20.21702385 115 131 147
245584.37860107 3357449.11779785 20.33134651 8 18 19
245584.23730469 3357449.37420654 20.05001259 7 12 15
245583.62329102 3357451.24810791 19.80204010 28 33 36
245583.58508301 3357453.97521973 20.62286377 49 59 60
245583.72937012 3357449.76284790 20.42884636 40 45 51
245583.73052979 3357454.14184570 20.60200119 29 39 38
245583.69555664 3357449.79452515 20.44594574 46 53 59
245582.86737061 3357447.46963501 20.20222282 2 12 14
245583.92602539 3357446.72528076 20.19474792 53 67 80
245583.39410400 3357445.77795410 19.87725258 30 33 42
245584.38360596 3357453.28796387 20.16150475 77 96 102
245584.22338867 3357452.12255859 19.90194321 147 164 174
245584.59124756 3357449.94754028 19.59397316 35 40 44
245582.56268311 3357446.90997314 20.31026077 16 26 25
245583.48040771 3357452.77706909 19.85735512 107 120 126
245584.09313965 3357450.74569702 19.60501099 32 37 43
245583.67053223 3357455.89675903 20.55083466 34 47 40
245584.93713379 3357454.30087280 20.00112343 28 35 43
245582.85119629 3357447.38623047 20.42595100 8 12 13
245582.73785400 3357446.70248413 19.57636261 50 59 64
245584.86273193 3357451.34320068 19.43562317 46 51 57
245584.33209229 3357452.28335571 19.90357971 121 135 148
245584.57818604 3357454.50204468 20.44507027 11 22 28
245582.70935059 3357445.90316772 19.46784210 53 60 68
245583.58264160 3357447.52859497 20.34240723 49 62 68
245584.28918457 3357451.52304077 19.49225426 41 46 50
245583.98199463 3357445.78186035 19.68081093 37 46 53
245584.65844727 3357448.80245972 20.28537369 12 17 21
245584.86096191 3357447.69985962 19.98873138 25 30 36
245583.72430420 3357455.83807373 20.37370110 77 91 78
245584.46118164 3357452.13864136 19.91459084 143 160 176
245582.72210693 3357445.93182373 19.46249199 69 76 84
245584.09582520 3357450.26785278 19.61879921 67 74 80
245583.89312744 3357454.99234009 20.38754463 69 80 84
245583.98010254 3357449.30740356 20.56838799 25 32 40
245584.65380859 3357449.20336914 19.92257500 8 13 17
245584.53424072 3357446.09817505 19.82149506 41 46 52
245583.66815186 3357446.10375977 20.14327431 114 131 151
245584.50030518 3357453.10647583 20.07353783 60 78 90
245584.49267578 3357449.93972778 19.61899948 10 17 23
245583.73077393 3357446.18902588 20.13496208 98 114 130
245584.44439697 3357456.06646729 20.13213158 88 101 109
245584.68286133 3357448.94030762 20.12530327 9 14 18
245584.22570801 3357452.28164673 19.88327599 133 147 156
245583.50598145 3357452.03976440 19.91569519 169 172 179
245583.87438965 3357455.50799561 20.48177719 27 36 31
245585.15631104 3357454.26922607 19.73108292 27 37 39
245584.69970703 3357448.50061035 20.36035347 11 16 22
245583.53491211 3357452.36343384 19.84699631 136 147 153
245583.83868408 3357453.59124756 20.35432053 23 33 35
245584.44219971 3357453.83395386 20.55631828 84 97 106
245584.41711426 3357451.13778687 19.53482246 38 42 45
245583.72198486 3357445.80175781 19.83882332 15 23 36
245584.64099121 3357454.38897705 20.39582825 11 16 20
245583.72918701 3357453.49438477 20.22712708 14 24 26
245584.30334473 3357446.18887329 20.18793869 34 40 52
245584.13507080 3357454.42825317 20.61850929 90 99 106
245584.25927734 3357445.99874878 19.73506927 23 27 36
245583.72680664 3357447.20584106 20.22934723 70 78 97
245583.06182861 3357446.36523438 19.65014458 31 38 44
245582.38354492 3357446.34991455 20.36452675 15 25 27
245582.57873535 3357445.95898438 19.53294754 84 91 97
245583.88659668 3357451.65472412 19.63574791 50 54 63
245583.84234619 3357453.97189331 20.62616730 1 9 11
245584.12640381 3357449.31411743 20.34791946 32 47 52
245583.93157959 3357447.15390015 20.32676888 58 69 87
245584.78771973 3357448.47763062 20.18843079 8 13 17
245584.61798096 3357449.19882202 19.94490814 7 12 16
245582.50238037 3357446.35629272 19.71536255 51 61 62
245584.27728271 3357448.34713745 21.06680298 24 29 35
245583.30230713 3357451.63162231 19.85720062 47 52 55
245583.95141602 3357452.94790649 19.90853310 88 106 118
245584.24121094 3357448.10025024 20.83494568 52 71 86
245583.31707764 3357445.90734863 19.84036446 26 29 36
245583.62133789 3357447.32861328 20.22535896 20 26 40
245582.99249268 3357446.45324707 19.50275803 29 40 46
245584.47393799 3357446.37579346 20.33542633 67 72 91
245583.65008545 3357446.53323364 20.22509003 44 54 64
245584.75146484 3357448.12396240 20.34553528 10 15 21
245583.57659912 3357451.74871826 19.81324196 29 32 39
245583.72039795 3357447.25900269 20.24908638 49 58 73
245583.59967041 3357453.27386475 20.11623383 24 35 37
245584.69073486 3357449.50549316 19.72571754 16 19 24
245584.26220703 3357454.32150269 20.62394333 62 71 78
245584.34826660 3357446.09106445 19.91028404 63 65 77
245584.67706299 3357447.14938354 20.10354042 17 22 26
245583.22662354 3357453.34759521 20.34932518 38 46 48
245582.53234863 3357446.37445068 19.65654945 70 75 78
245584.48773193 3357451.69393921 19.45750809 40 43 50
245583.60406494 3357450.82629395 19.95555305 31 39 42
245583.83801270 3357453.04251099 19.97876740 50 65 70
245584.61755371 3357448.87606812 20.27496529 8 13 17
245583.57855225 3357454.17260742 20.67522240 40 52 52
245584.66003418 3357454.52902222 20.31157112 7 12 16
245582.91101074 3357446.38790894 19.49802971 64 74 83
245583.94476318 3357449.75311279 20.01146126 33 40 50
245583.08752441 3357451.31924438 19.89630890 41 49 51
245583.73034668 3357455.19830322 20.54323196 25 40 35
245584.36315918 3357450.78079224 19.52713585 16 16 24
245584.01788330 3357455.48779297 20.44045067 18 24 20
245584.50952148 3357447.10693359 20.21628952 21 31 41
245584.69232178 3357456.16839600 19.86352730 34 35 40
245583.53295898 3357445.83071899 20.06564903 9 15 27
245584.36840820 3357448.45031738 20.99789619 90 105 124
245583.84460449 3357452.97879028 19.90583420 79 99 108
245584.17993164 3357454.84701538 20.41651726 75 92 102
245584.51409912 3357454.25546265 20.53158951 94 110 125
245584.56201172 3357446.36029053 20.30885696 94 99 118
245584.02105713 3357448.76788330 20.96991539 18 22 25
245584.85437012 3357454.35763550 20.07339859 40 50 60
245584.77294922 3357446.62826538 19.88497734 29 33 42
245583.77545166 3357445.96194458 19.89266014 111 127 150
245584.46179199 3357447.84307861 20.66090965 36 58 69
245583.00506592 3357447.28112793 19.88199615 50 59 66
245582.92651367 3357446.46701050 19.49335289 49 59 68
245584.28070068 3357447.38241577 20.53257751 88 106 118
245584.83197021 3357454.77178955 19.78073883 25 35 37
245583.35913086 3357446.76876831 20.04641724 34 42 53
245583.77398682 3357455.40405273 20.56989288 42 52 44
245582.94305420 3357447.25933838 19.87041855 53 60 66
245584.23211670 3357450.77862549 19.55025482 26 27 32
245584.62225342 3357446.35284424 19.98545647 21 25 34
245584.57916260 3357453.52185059 20.25494003 63 69 81
245582.21221924 3357445.66427612 19.70499611 19 32 25
245584.10601807 3357452.20605469 19.88710022 141 155 166
245584.72998047 3357451.69174194 19.42753029 44 47 54
245584.91961670 3357447.18585205 19.84768867 25 32 40
245583.54614258 3357446.41986084 20.29408836 77 89 103
245583.89031982 3357454.13327026 20.64130592 20 28 30
245584.09143066 3357448.30078125 21.05721283 24 29 33
245583.97198486 3357449.11828613 20.77061272 5 13 16
