245666.81909180 3357751.43481445 15.59658527 71 76 72
245669.08666992 3357752.19696045 16.69726181 39 57 59
245669.68701172 3357751.33935547 17.09486198 188 203 210
245667.66638184 3357751.18890381 16.19515991 166 176 175
245670.24041748 3357751.64807129 17.11322021 206 221 224
245669.91577148 3357752.56152344 16.63735199 195 211 211
245670.21929932 3357752.54187012 16.11784172 160 159 157
245668.71228027 3357752.42486572 16.52833176 207 227 236
245670.13116455 3357751.01715088 16.62166405 5 11 7
245667.85729980 3357752.13726807 16.37480164 189 207 211
245669.39007568 3357751.29089355 15.90746212 115 123 99
245670.53271484 3357751.67126465 15.72551918 134 144 136
245667.76171875 3357752.38427734 15.91028214 99 101 96
245666.38189697 3357751.90783691 15.50615692 74 79 73
245669.52557373 3357751.41180420 15.96586609 117 122 100
245666.93841553 3357752.13201904 15.49821472 77 83 81
245671.17248535 3357752.26318359 16.19087219 93 98 101
245669.37072754 3357752.56921387 16.25251579 157 161 162
245670.00573730 3357751.51464844 15.98055363 148 152 129
245669.40032959 3357751.37268066 15.84733295 117 125 102
245668.19653320 3357751.55072021 16.54233932 197 214 221
245669.78802490 3357751.48559570 15.51735210 93 102 97
245670.04742432 3357751.26458740 16.31091690 110 110 102
245669.91027832 3357750.87109375 16.62508774 68 76 55
245670.24432373 3357751.05853271 17.22132492 35 53 41
245669.18524170 3357750.83813477 15.39684105 158 161 152
245669.83184814 3357752.54187012 16.20095444 161 165 166
245670.03533936 3357750.83062744 16.74196625 18 23 16
245670.30212402 3357752.35577393 16.91441727 31 26 22
245669.22082520 3357751.23126221 16.87338257 12 26 27
245669.38385010 3357751.92114258 16.94292450 50 56 56
245667.58294678 3357751.77355957 16.12482262 110 120 121
245669.96447754 3357750.85278320 15.47151566 103 103 93
245667.54711914 3357752.10650635 15.63870430 193 194 137
245667.85504150 3357752.00982666 16.39199638 192 209 217
245667.79534912 3357752.40765381 15.58835793 145 139 127
245670.87023926 3357751.85205078 16.26649857 161 168 174
245669.60791016 3357751.63201904 17.03537941 201 214 220
245670.55859375 3357751.28930664 16.45146942 11 11 11
245669.18182373 3357751.87188721 16.86160278 8 14 14
245669.51995850 3357752.45294189 16.69728851 18 36 50
245670.96234131 3357751.98071289 16.96349525 207 220 228
245669.15637207 3357752.56274414 16.03850174 156 156 156
245669.57421875 3357751.12341309 17.07469368 156 170 173
245671.11035156 3357752.05010986 16.37558746 155 168 174
245670.32757568 3357751.05328369 16.65722084 15 25 17
245671.17968750 3357752.10858154 15.84967613 113 117 118
245670.12615967 3357750.90209961 16.72273636 5 12 5
245669.19665527 3357752.56878662 15.98546505 130 130 130
245668.90362549 3357752.55572510 16.15484238 166 164 167
245670.09674072 3357751.47125244 16.07395935 165 166 150
245669.15673828 3357751.05902100 15.62211704 73 76 67
245670.90356445 3357751.42047119 16.67786980 143 153 155
245670.56079102 3357751.47241211 16.28295135 54 56 53
245668.11541748 3357752.04687500 16.49080086 196 214 224
245669.73425293 3357751.50720215 17.08291626 198 211 217
245668.29400635 3357752.61523438 16.07896614 37 41 42
245667.21978760 3357751.28436279 16.13983154 83 89 77
245670.17810059 3357751.33905029 17.18300247 187 204 211
245667.79565430 3357752.13586426 16.31696129 168 188 189
245667.85070801 3357752.43963623 16.12940598 177 187 189
245666.44787598 3357751.92431641 15.50261021 68 75 68
245670.39343262 3357751.28411865 16.39259529 30 31 26
245668.47747803 3357752.60614014 16.09716797 33 37 38
245669.59863281 3357752.21618652 16.99344826 198 205 211
245668.73419189 3357751.77105713 16.59605026 14 20 20
245668.96875000 3357751.45098877 16.71817589 21 25 26
245667.54522705 3357752.54040527 15.51905918 83 84 79
245670.02990723 3357752.38726807 16.89295578 30 26 25
245669.91082764 3357751.29486084 15.48191452 76 80 79
245666.84002686 3357752.06542969 15.49634361 82 86 85
245669.64636230 3357750.93548584 16.35876274 99 104 72
245669.70996094 3357752.19323730 17.02910423 195 200 206
245668.51611328 3357752.57690430 15.76618481 67 72 75
245668.00195313 3357752.49383545 15.78121758 99 98 96
245666.30175781 3357752.22155762 15.54265308 84 89 85
245669.82354736 3357750.82342529 16.57458496 109 118 89
245669.42401123 3357750.76287842 16.21479416 92 100 77
245669.49841309 3357751.67614746 16.99482536 225 236 240
245666.38220215 3357752.26995850 15.54135704 99 105 101
245668.84893799 3357752.01794434 16.57325935 16 28 26
245668.02856445 3357752.48413086 15.69523239 40 40 38
245670.70727539 3357751.81182861 15.95784664 184 194 196
245669.68115234 3357751.36090088 17.08343124 189 204 211
245669.91668701 3357752.55737305 16.07471657 162 162 162
245669.36517334 3357751.21337891 15.93757343 96 104 83
245670.34173584 3357751.27288818 16.39063263 29 30 25
245666.91040039 3357751.38879395 15.72095299 80 81 76
245667.17810059 3357751.42120361 15.73945045 71 76 69
245666.93109131 3357752.43566895 15.51116562 102 106 105
245669.91064453 3357751.43261719 17.13498878 196 211 216
245670.09979248 3357752.56707764 16.59854317 191 199 201
245669.07269287 3357752.56005859 16.07957458 167 169 168
245670.94384766 3357751.60058594 16.90566635 156 165 162
245670.01092529 3357751.51110840 15.59004307 104 114 103
245669.98815918 3357752.54492188 16.15804863 173 174 176
245670.92431641 3357751.60357666 16.56985283 138 148 150
245670.57214355 3357751.49768066 16.26347733 83 85 80
245668.31945801 3357752.61505127 16.09164619 35 39 40
245669.99914551 3357751.19116211 16.38676834 51 51 43
245671.12145996 3357752.01043701 16.63145828 133 147 148
245669.70056152 3357751.30609131 15.51791859 78 80 75
245669.12005615 3357751.00421143 15.70096684 133 136 129
245670.00134277 3357751.51947021 15.97018051 148 152 129
245667.97235107 3357751.37890625 16.46117973 189 208 214
245669.20721436 3357751.14257813 15.73153496 95 103 90
245667.55627441 3357752.29864502 15.61080456 140 128 114
245669.91821289 3357752.52325439 16.70199203 194 212 222
245669.09936523 3357752.56707764 16.02363396 159 159 159
245667.24218750 3357751.44140625 15.74932671 67 72 65
245669.72509766 3357752.37646484 16.91621590 24 24 22
245669.80560303 3357752.56091309 16.61904907 201 220 226
245667.53796387 3357751.60009766 15.88480473 65 70 66
245669.38940430 3357751.67083740 16.95731735 8 14 12
245669.05718994 3357751.92340088 16.74070930 80 90 92
245669.98522949 3357751.59216309 15.81451130 153 161 120
245670.87805176 3357751.88696289 17.00055313 223 234 240
245670.52648926 3357751.07098389 17.11270714 154 168 169
245667.75262451 3357751.46783447 16.33414841 191 209 213
245667.82293701 3357752.22808838 16.33826828 176 187 191
245669.91943359 3357751.51623535 17.10878944 196 214 218
245670.71002197 3357751.78771973 17.06257629 210 222 222
245668.65637207 3357751.28399658 16.57616806 14 26 24
245669.50329590 3357750.77795410 15.36957836 71 74 65
245669.17395020 3357750.74993896 15.39173412 87 93 83
245670.67553711 3357752.53729248 16.40174103 182 182 182
245670.76867676 3357751.32495117 16.60325050 47 48 50
245669.94207764 3357751.39996338 16.11172676 153 154 136
245667.11895752 3357751.84393311 15.51501560 79 80 75
245666.69036865 3357751.41241455 15.60977459 66 73 65
245670.89880371 3357751.39709473 16.94625282 188 194 192
245668.41796875 3357752.48797607 16.50204659 205 220 225
245670.11840820 3357751.52905273 15.77902794 127 137 102
245670.10559082 3357752.54016113 16.19339561 166 165 163
245668.42651367 3357752.58538818 15.86655235 100 110 111
245668.51055908 3357752.29211426 16.55363083 200 224 234
245667.57165527 3357751.82446289 15.79792023 114 115 109
245669.46234131 3357752.55255127 16.10985374 165 169 170
245669.74047852 3357751.36389160 15.51319695 109 114 110
245670.05877686 3357752.54663086 16.13755035 171 171 173
245670.95800781 3357751.35290527 16.90475273 134 143 140
245670.61279297 3357752.21875000 17.06558609 216 219 224
245669.07678223 3357751.21313477 16.76706505 11 23 23
245666.92077637 3357751.75518799 15.50977039 72 77 71
245669.44598389 3357751.22589111 16.03198624 106 111 88
245670.35723877 3357751.53674316 15.90191841 142 152 144
245667.58984375 3357752.30548096 15.60535145 143 131 119
245669.92480469 3357751.15710449 15.46348476 83 85 80
245669.02453613 3357751.41387939 16.75562668 47 55 58
245669.60278320 3357752.54614258 16.11622047 169 169 171
245670.02331543 3357751.49072266 16.02810669 160 161 143
245666.76470947 3357751.35186768 15.89656258 66 72 68
245667.89697266 3357751.32086182 16.43110466 180 199 203
245667.99597168 3357752.27581787 16.46136284 193 212 218
245670.93853760 3357752.33306885 16.82183266 1 13 13
245667.61199951 3357752.16491699 16.04666901 144 150 136
245668.55419922 3357752.59545898 16.05043602 52 53 57
245668.57409668 3357752.37030029 16.53248215 203 223 230
245668.24267578 3357752.39611816 16.52513695 199 218 224
245668.58636475 3357751.17633057 16.56104851 151 159 162
245670.40594482 3357751.48828125 16.06805420 184 188 189
245670.60443115 3357752.53430176 16.20187378 164 164 164
245669.02258301 3357751.61499023 16.77480507 15 21 21
245670.29949951 3357751.41687012 16.20126152 150 147 138
245666.39605713 3357752.08636475 15.52235699 68 73 69
245669.00561523 3357751.42395020 16.74225426 46 51 55
245666.38897705 3357751.62078857 15.53005791 77 79 76
245668.41473389 3357752.60211182 16.01991844 64 68 69
245670.71105957 3357751.81951904 15.90179539 174 184 185
245668.46459961 3357752.60876465 16.25675201 40 36 37
245669.65679932 3357751.01568604 15.38874817 76 78 73
245670.45117188 3357752.38293457 16.83858871 21 26 22
245668.99389648 3357752.05139160 16.64406967 50 66 65
245669.64331055 3357750.79260254 15.39854145 80 82 71
245669.66857910 3357751.68353271 17.04899597 203 218 221
245670.51226807 3357751.21472168 16.52075195 3 3 3
245670.34240723 3357751.29779053 15.47747803 114 115 97
245669.36541748 3357752.38714600 16.74573326 20 25 29
245668.20831299 3357752.57073975 15.80648327 13 15 14
245667.85046387 3357751.33215332 16.40534210 184 202 204
245669.95941162 3357750.83422852 16.68736649 51 60 41
245670.69757080 3357751.74139404 17.05676079 208 219 221
245668.71002197 3357752.57482910 15.99887180 22 22 24
245668.28198242 3357752.35961914 16.54759979 194 217 225
245666.96093750 3357751.35443115 15.86341286 74 77 68
245667.63812256 3357751.78985596 16.27403259 68 84 84
245670.15393066 3357751.20446777 17.21648216 159 178 182
245670.73144531 3357751.25372314 16.62525177 0 1 0
245666.94104004 3357752.08599854 15.49982357 80 85 81
245667.57037354 3357751.92248535 15.68684578 157 161 128
245667.41925049 3357752.08984375 15.54270458 189 178 160
245666.13903809 3357751.56036377 15.57142735 71 76 72
245670.24047852 3357751.52490234 17.11425018 197 210 216
245670.46520996 3357752.19848633 17.07394981 222 223 227
245669.16131592 3357751.19232178 16.82489586 12 26 26
245666.71887207 3357751.58331299 15.51050377 80 85 79
245669.22009277 3357750.95666504 15.39651203 87 90 83
245668.53948975 3357752.59967041 16.26548004 44 44 42
245666.66302490 3357751.40606689 15.64204597 63 73 65
245668.45806885 3357751.89276123 16.51998138 205 224 231
245667.60241699 3357751.40936279 16.13860893 154 164 163
245667.56445313 3357752.23669434 15.64122009 168 152 137
245670.29724121 3357751.24688721 16.40911674 16 16 14
245668.80609131 3357751.00085449 16.59287262 19 29 28
245670.72686768 3357752.52496338 16.03660774 26 27 29
245669.95507813 3357751.42474365 15.49532318 61 67 67
245666.84912109 3357752.31256104 15.50822639 77 81 80
245670.17395020 3357752.53552246 16.22426033 165 166 161
245669.69201660 3357751.70855713 17.05381584 202 217 222
245670.58312988 3357752.53466797 16.55686569 186 194 196
245669.66906738 3357751.54040527 15.85969257 124 129 109
245670.15582275 3357751.41754150 15.54469967 100 104 87
245669.97845459 3357751.28472900 16.26500511 131 131 121
245667.53112793 3357752.49938965 15.52151871 80 81 76
245669.17462158 3357751.06121826 15.74994183 147 153 141
245671.13275146 3357752.15008545 16.25926781 84 94 95
245669.88708496 3357751.53826904 15.92113400 139 145 119
245666.56536865 3357751.67724609 15.49953651 67 72 68
245670.93560791 3357751.71112061 16.51460457 145 157 157
245669.05310059 3357750.89709473 15.66386127 114 117 110
245669.89392090 3357750.86920166 15.47110939 107 107 99
245670.39990234 3357751.26226807 16.42147446 14 15 10
245669.77886963 3357751.48449707 15.96017647 131 136 113
245670.17254639 3357751.73956299 17.12170029 202 220 224
245670.89776611 3357751.94610596 16.11489868 167 172 178
245667.57141113 3357751.85443115 15.85075092 88 89 83
245667.38848877 3357751.47161865 15.82964134 67 70 63
245668.15356445 3357752.50805664 15.61115646 37 42 38
245667.70208740 3357751.55438232 16.30492783 205 220 223
245669.93463135 3357750.94415283 16.58981895 56 60 43
245669.15869141 3357751.07360840 16.82243347 75 87 87
245667.24078369 3357751.40704346 15.84114647 72 79 71
245668.02294922 3357752.50036621 15.76612282 63 62 60
245668.62152100 3357752.58666992 15.83001328 116 121 124
245670.44042969 3357751.37023926 16.30070496 118 119 114
245669.39599609 3357750.80462646 16.16920471 124 132 111
245670.92687988 3357751.55169678 16.92649460 164 173 170
245667.68774414 3357752.34191895 15.89569187 59 60 54
245669.26818848 3357751.13598633 15.50675678 128 131 124
245668.60406494 3357751.54687500 16.57126236 21 30 29
245670.49261475 3357751.63421631 15.85647583 136 145 142
245668.33300781 3357752.30755615 16.56186485 202 225 233
245668.80102539 3357751.92999268 16.57986259 13 23 22
245669.75604248 3357752.09887695 17.04741096 217 230 236
245667.75756836 3357751.63317871 16.33442116 186 205 211
245668.52008057 3357751.43487549 16.57682037 144 155 157
245669.54821777 3357751.26879883 17.00434113 199 210 216
245669.01043701 3357751.78851318 16.74261856 23 33 34
245670.23687744 3357751.19042969 16.46033287 9 9 9
245668.79205322 3357752.57092285 16.06373215 14 10 9
245666.92901611 3357751.83331299 15.50756168 67 72 66
245670.66064453 3357751.76165771 15.94831467 179 187 189
245670.77056885 3357751.41534424 16.53289604 35 39 40
245667.73010254 3357751.18524170 16.28236389 109 125 122
245667.57220459 3357751.82708740 15.99304771 87 91 90
245670.64483643 3357752.38024902 16.82905769 16 26 27
245669.18371582 3357750.96771240 16.92245293 38 49 45
245670.11334229 3357752.29071045 17.01740646 166 160 162
245666.53820801 3357752.45617676 15.54349041 86 88 85
245670.57696533 3357751.32061768 16.42771721 18 18 16
245670.17431641 3357751.45922852 16.11058044 168 166 151
245668.03594971 3357752.50024414 15.74903679 41 41 41
245667.41558838 3357751.25317383 16.09277153 60 65 61
245670.69580078 3357752.53643799 16.36030197 178 178 178
245670.99633789 3357752.50823975 16.24735451 60 59 54
245670.70806885 3357751.42724609 16.46490669 0 0 0
245666.22283936 3357751.61395264 15.52738190 78 80 77
245670.52526855 3357751.21160889 17.13053894 160 177 171
245670.16369629 3357752.53662109 16.20847321 166 165 161
245669.10729980 3357751.80419922 16.83789444 47 56 55
245667.78485107 3357751.83795166 16.35437584 186 207 212
245670.75500488 3357751.47875977 17.03182220 140 149 148
245667.70275879 3357751.28253174 16.25959778 128 142 142
245667.21228027 3357751.58386230 15.55613899 103 103 95
245669.25042725 3357751.09893799 15.84478092 156 162 148
245666.31250000 3357751.97436523 15.51923370 74 79 75
245670.41607666 3357752.48309326 16.68056107 213 226 232
245668.75109863 3357751.75872803 16.60419273 14 20 20
245668.72821045 3357752.56469727 16.07509613 17 16 14
245669.81506348 3357751.19372559 15.48692799 93 94 89
245668.59197998 3357751.46929932 16.57105255 11 21 20
245669.97619629 3357751.20184326 15.46311569 91 93 88
245668.19720459 3357751.47021484 16.55908203 200 219 223
245668.33331299 3357752.59039307 15.85901070 99 107 109
245668.87713623 3357752.41101074 16.57301331 203 225 236
245670.99249268 3357751.50079346 16.72489548 124 134 136
245666.91326904 3357752.29296875 15.50169086 72 76 75
245667.40905762 3357751.48913574 15.80230236 66 69 62
245667.42071533 3357752.41729736 15.52999878 73 78 74
245666.31182861 3357751.84130859 15.50780964 72 79 72
245668.38366699 3357752.56762695 15.67053604 98 103 107
245669.00079346 3357751.83129883 16.71645355 23 33 34
245669.12078857 3357752.57092285 16.42584038 177 185 188
245668.31011963 3357751.63110352 16.54829788 190 205 210
245667.12402344 3357752.04669189 15.51370716 93 94 89
245671.16076660 3357752.16186523 16.43607140 120 131 133
245667.86993408 3357751.19122314 16.42222595 186 202 202
245669.14239502 3357750.97180176 15.47923470 80 83 76
245669.98126221 3357751.19042969 15.46036243 91 93 88
245668.61065674 3357752.58642578 16.08075523 19 19 19
245670.52465820 3357751.30706787 17.11261940 168 180 180
245668.30920410 3357752.56414795 15.65199375 50 54 55
245670.24377441 3357752.39562988 16.86296654 25 25 25
245667.92034912 3357751.37359619 16.43512726 183 204 209
245669.37121582 3357752.55834961 16.03263664 152 152 152
245671.13256836 3357752.35034180 16.63531685 131 143 143
245670.18591309 3357751.48095703 16.06634331 166 165 145
245666.38275146 3357751.78259277 15.49525166 76 81 77
245667.89282227 3357751.95788574 16.40682411 191 208 216
245669.14624023 3357751.45422363 16.87004471 112 117 121
245667.63006592 3357752.11077881 16.13305855 201 212 204
245669.88781738 3357751.00793457 15.44869995 87 89 84
245668.91467285 3357751.47290039 16.68157768 27 33 33
245669.00366211 3357751.75317383 16.74884605 35 45 44
245669.08374023 3357751.57031250 16.83363152 32 33 37
245667.80773926 3357752.35540771 16.27301979 65 74 79
245669.37274170 3357752.57543945 15.97678375 49 49 47
245669.24945068 3357752.58691406 16.46042633 166 171 174
245669.74749756 3357751.65472412 17.07371140 198 216 220
245671.13439941 3357752.08520508 16.41540527 126 137 141
245668.66387939 3357752.57556152 16.26024437 105 105 105
245669.39007568 3357750.92449951 16.11064339 97 102 82
245669.02429199 3357752.35144043 16.63809776 184 201 211
245670.81536865 3357751.81512451 16.23422432 167 172 178
245666.26068115 3357751.53771973 15.55285549 65 70 66
245666.83599854 3357751.69146729 15.50918007 72 77 71
245671.16424561 3357752.19183350 16.56644249 122 132 133
245667.28564453 3357751.33251953 15.99846363 70 73 66
245671.09472656 3357752.11346436 16.14257240 56 64 66
245667.50146484 3357752.28051758 15.58539104 154 140 127
245669.19537354 3357751.00671387 16.91707993 78 89 85
245666.92523193 3357752.28204346 15.49991322 72 76 75
245667.59210205 3357751.89648438 16.10040474 165 173 175
245666.35827637 3357751.59069824 15.52319241 75 77 74
245669.18524170 3357752.56213379 16.14339256 157 163 163
245669.55340576 3357752.55169678 16.07673645 171 172 174
245667.60827637 3357752.14489746 16.03394890 144 152 139
245669.04504395 3357752.36242676 16.64523506 167 184 192
245670.12060547 3357751.39154053 17.15974998 193 211 215
245666.22894287 3357752.08697510 15.53778553 88 90 85
245666.29437256 3357752.26129150 15.54709911 82 87 83
245669.64379883 3357751.60144043 15.76754856 124 132 109
245669.50683594 3357751.78808594 16.98991013 203 211 214
245669.63397217 3357751.16235352 17.10429573 181 196 199
245669.13146973 3357752.56738281 16.01289558 156 156 156
245668.33392334 3357752.60809326 16.03197861 62 67 70
245668.79016113 3357752.16101074 16.55263138 2 22 23
245667.77026367 3357751.97070313 16.34483910 190 211 214
245668.12567139 3357751.24926758 16.53312683 186 205 209
245667.88983154 3357752.18688965 16.39768410 194 209 214
245669.41162109 3357751.80957031 16.95533180 12 21 18
245669.10046387 3357750.89984131 15.44784832 72 78 68
245669.36206055 3357751.40594482 16.94115639 94 102 104
245669.41381836 3357751.41845703 15.74663830 132 139 121
245669.45318604 3357751.07556152 16.10786057 132 140 116
245667.40905762 3357751.50732422 15.73966599 67 68 62
245670.55450439 3357752.53686523 16.04143715 51 51 49
245670.35583496 3357751.22344971 16.45589066 4 6 3
245671.04187012 3357751.94000244 16.88660812 143 154 158
245671.08789063 3357752.29229736 16.81908226 29 38 35
245670.02667236 3357752.37908936 16.90449333 30 26 25
245671.10620117 3357751.98583984 16.57383347 134 148 149
245667.51409912 3357751.59765625 15.80069065 57 62 58
245670.92828369 3357752.50610352 16.30516243 115 114 109
245669.46875000 3357752.56469727 16.54028320 184 195 201
245668.84967041 3357752.54571533 16.24684334 179 180 182
245669.73559570 3357751.35968018 17.11338234 189 207 211
245668.85845947 3357752.29705811 16.58872795 3 27 37
245670.71783447 3357752.31835938 16.92791557 29 21 19
245669.44683838 3357752.51507568 16.62525368 203 222 236
245670.39660645 3357751.95983887 17.12672043 212 225 231
245667.97686768 3357752.48846436 15.84531403 147 146 144
245670.33264160 3357751.99572754 17.13757324 211 224 230
245667.71905518 3357752.28887939 16.21742439 188 202 205
245668.95672607 3357751.70611572 16.71620560 48 59 55
245669.30072021 3357752.09265137 16.85458755 18 28 30
245670.82025146 3357752.34942627 16.82502365 11 22 24
245668.78076172 3357752.55456543 16.16769028 121 119 120
245668.41076660 3357752.51672363 16.48070526 193 209 209
245668.38183594 3357752.57977295 15.78358269 123 131 134
245666.84570313 3357752.10040283 15.49543762 83 87 86
245670.79754639 3357752.19226074 17.04694748 214 218 219
245667.57226563 3357751.81011963 15.93253231 70 72 69
245669.71789551 3357750.92901611 16.42649651 124 129 97
245668.30792236 3357751.04357910 16.51696968 185 208 216
245669.97021484 3357751.03997803 17.27788162 16 30 17
245670.03021240 3357751.56201172 15.88408756 154 162 121
245666.15399170 3357751.74127197 15.52049446 73 75 72
245668.18334961 3357751.74041748 16.51621628 191 211 218
245670.60223389 3357750.99328613 16.98369980 81 92 88
245669.45416260 3357751.26104736 15.53100777 92 97 91
245669.43249512 3357752.49560547 16.64242172 158 177 191
245667.55413818 3357751.60540771 15.89713287 89 95 93
245670.20288086 3357751.42565918 15.54619026 89 95 69
245669.83068848 3357751.12988281 15.47354126 84 86 81
245670.36682129 3357751.67260742 17.09163857 203 218 223
245670.19677734 3357751.73559570 17.11985970 202 220 224
245670.41094971 3357751.46832275 16.10795212 189 191 188
245668.46783447 3357752.05059814 16.52360916 194 216 227
245671.18450928 3357752.32824707 16.20726013 94 98 99
245668.49652100 3357751.26428223 16.58036232 204 215 219
245669.92156982 3357751.58178711 15.83346558 142 149 115
245669.05499268 3357751.43676758 16.78769875 108 116 119
245670.01898193 3357751.30297852 16.25487137 131 131 123
245669.34185791 3357750.97283936 15.37979984 103 105 100
245670.16754150 3357751.44964600 16.12151527 168 166 151
245666.20019531 3357751.95715332 15.52960873 70 76 72
245670.18975830 3357751.14404297 15.46448612 142 142 130
245667.75665283 3357752.35662842 16.16444397 187 198 200
245666.12548828 3357751.48937988 15.66350555 68 70 65
245666.21575928 3357751.70135498 15.51876640 77 79 76
245669.87664795 3357751.43267822 15.50253010 91 97 95
245666.89831543 3357751.85180664 15.50569820 75 80 74
245667.01385498 3357752.30383301 15.49459171 79 85 83
245671.14440918 3357752.16375732 16.29124641 95 107 107
245668.55249023 3357752.60382080 16.17083549 21 23 20
245668.06842041 3357752.55969238 16.09274292 166 166 168
245668.86090088 3357751.17535400 16.61637688 63 75 73
245669.91876221 3357752.35260010 16.94435883 25 25 23
245670.88842773 3357751.30773926 16.95907402 196 200 199
245668.53735352 3357751.61468506 16.57365799 35 45 46
245669.98785400 3357751.07696533 17.26844406 15 31 20
245667.75531006 3357751.28479004 16.32839775 174 190 190
245667.65832520 3357752.03057861 16.22418594 96 111 108
245668.41528320 3357752.59252930 15.92685795 90 99 98
245669.50170898 3357752.09448242 16.96588707 94 97 102
245667.32708740 3357751.48553467 15.71518993 68 71 64
245667.57330322 3357751.72497559 15.88050365 52 53 57
245668.41058350 3357752.31872559 16.55602264 202 224 235
245666.76116943 3357751.62145996 15.51007557 73 80 73
245670.61181641 3357751.02172852 16.80672073 18 22 21
245670.04895020 3357751.03155518 16.56787682 11 16 9
245671.18090820 3357752.38665771 16.15146828 82 86 85
245670.98815918 3357751.99157715 15.74458122 94 96 93
245668.30230713 3357752.58349609 15.77429104 87 93 93
245670.46313477 3357751.31829834 16.37171364 47 49 44
245668.69268799 3357752.23876953 16.54499817 60 89 103
245669.79443359 3357751.30023193 16.18968773 140 143 122
245668.45483398 3357752.52996826 16.45576668 191 205 205
245667.59320068 3357752.34112549 15.58737183 121 111 101
245669.43420410 3357752.57916260 16.51618385 173 183 185
245671.00439453 3357751.54730225 16.79933548 135 144 143
245668.84429932 3357751.22241211 16.62063026 92 107 104
245670.55517578 3357752.53051758 16.29566383 173 173 171
245669.90301514 3357751.04547119 17.26691246 18 28 17
245670.57745361 3357751.14038086 16.64178848 0 0 0
245670.79113770 3357751.80401611 16.20855331 154 157 162
245670.24517822 3357751.18011475 17.20158958 150 168 170
245670.43426514 3357751.00183105 17.14510918 25 42 34
245669.90917969 3357752.54205322 16.22001457 165 167 166
245669.08367920 3357750.87426758 15.44454384 72 78 68
245668.74896240 3357752.50640869 16.44058037 190 195 198
245666.37304688 3357751.43511963 15.69597530 63 69 65
245669.18414307 3357751.50524902 16.88885880 82 86 89
245670.86627197 3357752.04260254 17.04051590 224 233 240
245668.66925049 3357751.94348145 16.52654457 9 23 24
245669.60516357 3357751.07159424 15.39784336 128 130 125
245671.05645752 3357751.96490479 16.87723351 143 154 158
245670.75018311 3357752.00915527 17.07547379 223 232 239
245670.79644775 3357751.91259766 15.80243969 160 166 162
245668.09777832 3357751.22363281 16.51828194 189 208 212
245671.19451904 3357752.40509033 16.07147026 73 77 78
245667.57336426 3357751.75482178 16.04559708 110 118 121
245668.28741455 3357751.31158447 16.58313370 212 227 232
245671.16357422 3357752.16925049 16.44300270 120 131 133
245669.61920166 3357751.43200684 15.97350979 125 130 107
245670.78118896 3357751.47119141 17.02046585 163 169 167
245669.70391846 3357751.42736816 17.08202362 195 210 217
245669.27935791 3357752.17742920 16.80792236 12 23 25
245670.38537598 3357752.20648193 17.06692696 221 220 226
245667.15820313 3357752.31848145 15.51146221 77 83 83
245670.12597656 3357751.11968994 15.45810413 136 137 131
245669.23333740 3357752.29968262 16.73610306 181 195 195
245670.05187988 3357751.06823730 16.53630447 9 14 7
245669.22387695 3357752.52166748 16.59980774 221 234 242
245666.64703369 3357752.08099365 15.50300312 73 79 75
245671.11907959 3357752.02270508 16.54327583 139 153 154
245666.33355713 3357751.84796143 15.50609493 72 79 72
245669.88598633 3357751.10284424 16.42283058 75 77 63
245669.73101807 3357751.02593994 15.41580486 88 90 85
245669.42340088 3357752.55822754 16.56785393 195 210 217
245669.70434570 3357751.38537598 17.09075928 188 207 213
245669.41467285 3357752.55395508 16.14539337 166 170 171
245669.36218262 3357751.99310303 16.91290092 31 36 39
245666.78430176 3357752.08245850 15.49349976 75 77 76
245670.42358398 3357751.27923584 15.46656036 90 91 73
245667.40093994 3357751.30834961 16.06023407 64 66 61
245666.74725342 3357751.91259766 15.49751472 80 82 79
245670.29125977 3357751.36444092 15.50129700 70 73 52
245670.86895752 3357751.96649170 15.80101871 127 133 129
245668.16192627 3357752.55065918 16.25667191 187 193 193
245670.16809082 3357752.33959961 16.95582008 27 16 14
245670.82983398 3357751.93951416 17.04137802 226 235 240
245670.38446045 3357751.15997314 16.54298973 9 14 8
245670.85931396 3357751.18017578 16.98367310 160 166 166
245669.98223877 3357752.29608154 17.01073456 165 161 162
245669.44934082 3357751.15106201 16.07084846 117 122 99
245670.22613525 3357751.53277588 15.83315563 111 120 91
245669.53039551 3357752.60577393 16.41954803 171 172 177
245669.87683105 3357751.39776611 17.14588547 193 211 215
245670.02587891 3357752.55346680 16.07011604 156 156 156
245670.07629395 3357752.53588867 16.22113609 165 163 164
245666.27526855 3357751.80224609 15.50829506 73 78 74
245666.88525391 3357752.02508545 15.49951744 80 85 81
245669.28839111 3357752.56927490 15.98838902 120 120 120
245670.06317139 3357751.41308594 15.49803829 84 89 85
245668.66418457 3357752.57305908 16.05928612 13 11 12
245670.73364258 3357751.86975098 15.62019730 138 145 137
245670.73553467 3357752.46313477 16.64576340 202 213 219
245671.07257080 3357751.92883301 16.46566010 139 153 154
245667.04980469 3357751.36999512 15.82798767 72 75 66
245667.23065186 3357751.53155518 15.58774376 86 87 81
245670.00585938 3357752.06158447 17.12298775 214 227 236
245667.22778320 3357752.09576416 15.52545166 110 110 102
245667.76153564 3357751.87866211 16.34564781 188 209 214
245670.07733154 3357751.83782959 17.11769295 202 221 227
245666.29107666 3357751.75689697 15.50559235 77 82 78
245667.54156494 3357751.24377441 16.09754372 99 105 103
245666.97088623 3357751.47363281 15.58638477 71 73 68
245667.11981201 3357751.33074951 16.01183701 92 95 86
245667.81341553 3357751.80560303 16.36574936 183 207 211
245667.67822266 3357752.14434814 16.21868134 176 191 186
245668.60339355 3357751.19952393 16.56787300 18 26 28
245670.42053223 3357751.60266113 15.78511047 135 144 127
245670.85449219 3357751.78497314 16.99699020 217 228 232
245670.70953369 3357751.74822998 17.05633926 208 219 221
245670.14990234 3357751.39251709 15.50555706 98 102 88
245669.03002930 3357750.83544922 15.60497189 121 124 117
245667.81597900 3357752.41558838 15.93230057 139 141 136
245670.83465576 3357752.05627441 17.05253983 220 231 235
245666.16265869 3357751.83062744 15.52264023 69 74 68
245669.36950684 3357751.08923340 16.01763725 151 159 138
245669.34167480 3357752.55670166 16.17004395 152 157 160
245666.31256104 3357751.74975586 15.50427341 76 81 77
245669.79168701 3357751.26605225 17.16987991 188 207 211
245670.38201904 3357751.67480469 17.08905983 201 216 219
245669.60424805 3357751.18103027 17.07389259 186 204 208
245670.40258789 3357752.40167236 16.81634140 15 25 26
245667.99511719 3357751.62371826 16.44007301 185 204 210
245666.74499512 3357751.84674072 15.49956608 74 79 73
245670.36352539 3357751.52105713 15.99242592 157 163 161
245669.32836914 3357750.76538086 15.35393715 105 108 101
245667.81719971 3357751.31860352 16.38581657 185 203 205
245667.68975830 3357752.34344482 15.60277843 165 158 150
245669.68164063 3357751.53240967 15.87308788 126 131 109
245670.45758057 3357751.03063965 16.73105240 6 15 10
245669.39508057 3357751.25537109 16.93969727 137 148 150
245668.17083740 3357752.55187988 16.26231956 187 193 193
245669.21002197 3357752.57080078 16.35990906 167 171 174
245669.10119629 3357750.97918701 15.65608883 110 113 106
245671.14434814 3357752.25366211 16.75676537 98 107 104
245666.79003906 3357752.21978760 15.50573540 72 78 76
245670.39398193 3357752.53784180 16.15654373 161 161 159
245670.88482666 3357752.22680664 16.97840118 195 195 195
245668.60089111 3357752.53381348 16.40712738 189 193 196
245671.17901611 3357752.27703857 16.33308220 109 118 117
245667.91088867 3357752.47106934 15.97588634 175 181 181
245669.67144775 3357751.10534668 17.15290070 127 141 141
245666.92669678 3357752.10772705 15.49852657 80 85 81
245670.95574951 3357752.39758301 16.67888260 180 203 209
245671.07049561 3357752.09393311 16.92980003 180 191 193
245669.68627930 3357751.36602783 17.08618546 188 203 210
245670.04595947 3357752.58477783 16.55462074 175 184 183
245666.34283447 3357751.42480469 15.73734570 71 76 72
245670.92120361 3357751.27746582 16.81519318 121 129 131
245669.55596924 3357751.38763428 15.54528713 77 84 77
245670.64306641 3357751.65728760 16.13806152 158 163 166
245666.54870605 3357752.18725586 15.52077484 76 81 77
245668.75976563 3357751.19891357 16.59608459 17 27 26
245669.35272217 3357751.65875244 16.94540977 15 19 18
