246101.52075195 3357674.56677246 12.32950401 50 54 57
246101.37573242 3357675.98681641 13.11585426 33 45 61
246101.00744629 3357675.34082031 12.26014042 183 176 168
246102.96350098 3357676.03741455 13.39553738 77 118 150
246101.54052734 3357673.50482178 13.14876938 74 90 105
246104.81176758 3357674.29766846 12.53938389 32 37 33
246101.71264648 3357675.53155518 12.79044724 67 66 64
246101.03991699 3357676.18444824 12.94006157 34 46 62
246100.56884766 3357673.03039551 12.72773647 73 72 68
246104.30676270 3357675.59631348 13.04185009 24 25 27
246104.22497559 3357675.59851074 13.08056355 26 30 29
246102.79418945 3357676.46887207 13.56228733 103 138 178
246100.86157227 3357677.47680664 12.34479141 48 45 38
246100.46228027 3357673.41717529 12.74423599 171 174 179
246102.85937500 3357676.16723633 13.46158981 71 118 162
246104.07861328 3357674.57269287 12.46530056 23 27 30
246101.05859375 3357675.51147461 12.71410084 138 137 135
246102.57727051 3357673.92010498 13.62940025 131 152 173
246104.29907227 3357674.48773193 12.80363750 12 14 13
246102.29321289 3357674.52038574 12.99521065 27 29 28
246102.23828125 3357674.01629639 13.37048912 157 186 204
246101.50854492 3357673.06219482 13.05505848 23 30 38
246100.49621582 3357673.23211670 12.93658352 112 113 117
246102.53845215 3357673.94592285 13.57384014 146 164 186
246102.33276367 3357675.60839844 12.48463440 64 61 54
246102.37780762 3357674.54022217 12.87964535 20 25 21
246101.26208496 3357677.00500488 13.02502728 32 45 61
246102.57336426 3357673.03625488 13.69521332 10 18 21
246104.87707520 3357674.23876953 12.52627087 30 36 32
246103.69555664 3357674.53619385 12.51299000 24 33 32
246103.97863770 3357673.92553711 13.74837875 26 30 33
246104.15075684 3357675.50262451 12.88531113 46 46 44
246102.47570801 3357675.47210693 12.30004025 189 181 160
246102.90014648 3357675.57550049 12.62336254 64 64 64
246100.67419434 3357674.11260986 13.08554554 129 137 148
246102.65820313 3357673.78924561 13.72661495 83 102 119
246103.87011719 3357674.02215576 13.75328636 39 43 46
246104.46264648 3357677.41046143 12.73778439 26 31 34
246101.29760742 3357674.52526855 12.80270004 31 31 33
246103.20593262 3357675.77954102 13.29765129 22 31 40
246103.30969238 3357675.57531738 12.53185558 68 60 58
246104.12768555 3357674.51861572 12.53243828 41 45 46
246101.79528809 3357676.91827393 13.11366844 115 168 200
246103.05859375 3357674.34991455 13.44764423 18 20 19
246101.75744629 3357673.99719238 13.35629749 21 29 32
246102.57409668 3357676.91137695 13.43554497 151 154 161
246102.88562012 3357676.58947754 13.06933403 81 116 154
246104.96582031 3357675.43487549 12.25133324 208 195 179
246101.38244629 3357674.50805664 12.50766850 33 34 36
246102.46130371 3357676.65197754 13.29586315 158 176 190
246102.85559082 3357675.47277832 12.30571747 204 187 167
246101.15454102 3357672.78155518 13.02430153 10 11 13
246102.91589355 3357676.12530518 13.40610886 79 123 160
246101.18933105 3357675.49884033 12.49223995 105 102 93
246103.58020020 3357673.28942871 13.90368938 1 11 10
246101.89465332 3357672.67333984 12.98175907 38 40 37
246103.66125488 3357673.37060547 13.87459850 3 9 9
246101.52380371 3357672.92541504 14.81967354 77 86 65
246101.47656250 3357672.88812256 14.89749718 124 137 109
246102.30187988 3357676.11083984 13.15516853 187 212 217
246103.81372070 3357676.64288330 13.11212921 29 60 106
246103.43627930 3357673.19213867 13.93663120 11 17 15
246104.43469238 3357677.27545166 13.13606358 3 7 8
246102.21850586 3357677.58843994 12.97347450 37 42 45
246101.56713867 3357672.88305664 14.98009872 110 126 81
246104.86816406 3357675.72894287 12.83162785 24 23 19
246101.75646973 3357672.76666260 14.37541103 36 47 39
246103.25170898 3357674.39575195 13.32898998 119 121 133
246103.24328613 3357676.53851318 12.90939999 36 74 123
246105.21984863 3357675.63970947 12.39725494 177 180 151
246102.95141602 3357674.17749023 13.82941246 205 212 228
246104.92565918 3357677.15496826 13.06370068 76 84 73
246104.57470703 3357675.75219727 13.20883465 51 51 53
246104.54052734 3357677.22564697 13.20458794 8 10 9
246104.02673340 3357674.50976563 12.79146004 22 23 25
246102.86132813 3357674.06451416 13.83731270 126 144 164
246100.92102051 3357673.27838135 12.95708561 91 93 106
246101.97314453 3357675.57598877 12.68600845 67 66 62
246103.80834961 3357674.22344971 13.63332939 24 28 31
246101.48205566 3357673.45214844 13.07560825 67 80 96
246102.67712402 3357676.29205322 13.59243584 67 87 112
246100.54858398 3357673.25549316 13.09635925 169 173 176
246105.47949219 3357676.77801514 12.68559074 29 47 21
246101.82934570 3357677.68194580 12.52087402 58 64 62
246102.81591797 3357674.41613770 13.31523991 107 107 119
246104.26428223 3357675.82440186 13.24428177 0 1 0
246101.60302734 3357672.78759766 14.46395588 47 57 46
246101.66796875 3357672.60455322 13.94043922 29 32 25
246103.08789063 3357676.60522461 12.95556927 39 85 134
246101.88500977 3357675.54266357 12.92647362 43 42 48
246100.91516113 3357672.93322754 13.06514454 28 33 39
246100.51184082 3357676.34033203 12.77920532 96 112 127
246101.07043457 3357676.22174072 12.93423176 35 47 63
246101.55664063 3357677.60797119 12.53385258 57 59 58
246101.63623047 3357675.52410889 12.43896580 56 45 39
246105.43762207 3357677.32928467 12.41841221 15 27 17
246101.49230957 3357672.93737793 13.07200623 23 24 29
246102.96374512 3357674.66217041 12.51181412 53 63 64
246100.48754883 3357673.26373291 12.73016930 95 95 95
246100.90881348 3357675.99633789 13.00726509 44 55 75
246100.42028809 3357673.66571045 12.89459515 161 171 183
246101.53857422 3357674.53302002 12.94096756 20 21 23
246100.81994629 3357675.89373779 12.94757175 59 80 101
246101.89733887 3357675.54455566 12.79881382 68 66 67
246102.26525879 3357676.90661621 13.07504082 130 174 201
246100.77526855 3357676.84832764 12.78810787 37 53 69
246103.50744629 3357675.54998779 12.97281265 30 31 35
246105.13085938 3357674.20147705 12.22350025 53 55 50
246103.32812500 3357675.57086182 12.46272373 79 69 60
246102.82824707 3357674.26354980 13.78091049 62 66 69
246103.64404297 3357675.53869629 12.33047962 186 173 156
246101.70751953 3357676.45599365 13.17690563 145 190 213
246104.25439453 3357674.41839600 13.20298958 0 4 3
246100.87902832 3357672.79229736 12.86383152 0 0 0
246101.93579102 3357672.66644287 13.42862415 52 54 51
246102.80236816 3357676.36077881 13.33951283 94 137 182
246101.77893066 3357675.54064941 12.77902126 66 65 63
246102.02807617 3357674.51715088 12.94200802 21 26 29
246105.22412109 3357675.96057129 12.74842834 21 30 25
246101.56945801 3357677.35180664 12.96012974 6 7 12
246101.67785645 3357674.05407715 13.33592224 70 79 88
246103.85717773 3357675.44555664 12.23065376 188 182 166
246101.18176270 3357673.92999268 13.09927940 59 77 97
246101.04907227 3357674.51049805 12.84273815 31 29 30
246101.30090332 3357674.51885986 12.66560841 44 43 48
246104.12927246 3357674.51904297 12.72662830 38 42 45
246101.47753906 3357677.14733887 13.09432125 31 45 58
246105.34704590 3357676.41632080 12.82128525 46 61 38
246101.38830566 3357672.62554932 14.34199142 40 53 36
246101.61120605 3357672.87261963 14.60477829 49 59 48
246102.64929199 3357673.12518311 13.71730614 25 35 37
246101.75366211 3357673.47985840 13.35984039 26 41 44
246103.43225098 3357676.77288818 13.07885361 35 63 103
246100.95300293 3357675.85900879 13.01554298 35 52 70
246103.77087402 3357674.20587158 13.65185261 32 36 39
246103.64721680 3357673.69531250 13.78340340 11 21 20
246102.47290039 3357674.66717529 12.41996193 57 64 70
246102.42016602 3357672.85229492 13.67694759 40 41 43
246103.67443848 3357676.20050049 13.12229347 28 60 109
246103.89123535 3357675.62066650 13.14483833 30 32 31
246104.40917969 3357674.63226318 12.29793453 64 74 76
246101.46191406 3357672.73767090 13.08098316 6 6 6
246103.24462891 3357676.20941162 13.11999416 18 70 118
246103.39550781 3357676.61059570 12.93741608 46 79 124
246102.58569336 3357675.54077148 12.32249451 190 183 165
246100.69592285 3357673.96820068 13.05771828 94 103 118
246100.79125977 3357677.34088135 12.65023899 39 43 46
246103.39440918 3357674.41833496 13.25342751 47 52 56
246100.96032715 3357675.93359375 13.04623222 29 42 61
246105.48669434 3357676.69897461 12.71132278 27 50 24
246104.75622559 3357676.60583496 13.25480556 71 80 77
246105.29223633 3357676.08288574 12.83116055 24 35 31
246100.99609375 3357675.52636719 12.68661308 118 119 114
246102.67285156 3357674.27893066 13.71852779 66 69 74
246101.72131348 3357674.54223633 12.34539604 53 61 64
246103.14440918 3357673.91009521 13.79181004 65 79 90
246101.16821289 3357674.60888672 12.37590981 70 76 76
246102.83447266 3357676.52435303 13.09764290 104 143 184
246102.93615723 3357674.55065918 12.98392487 19 20 22
246101.24938965 3357677.61956787 12.33982277 89 89 87
246104.12365723 3357674.61517334 12.38147640 52 60 63
246102.06164551 3357674.49261475 13.28359222 18 18 20
246102.22607422 3357675.61572266 12.60506916 62 63 58
246102.38183594 3357675.57397461 12.34752178 155 148 132
246101.99755859 3357674.56170654 12.34189415 54 64 66
246105.02514648 3357674.60107422 12.21673965 90 96 96
246101.15368652 3357677.39996338 12.75536537 26 27 29
246103.07043457 3357673.37176514 13.78064060 22 30 33
246100.56579590 3357673.94982910 13.10634995 183 191 194
246105.48400879 3357677.18591309 12.49885750 12 24 12
246103.38610840 3357673.69403076 13.75065708 26 34 36
246100.81738281 3357676.18371582 12.81186676 44 57 74
246103.79125977 3357673.62762451 13.79422474 12 22 21
246105.05432129 3357676.94171143 12.97830772 57 65 54
246101.80761719 3357677.57550049 12.68198776 51 57 53
246105.07824707 3357676.44567871 13.10915756 30 43 23
246102.35314941 3357673.13415527 13.51835251 14 29 32
246102.45678711 3357676.71459961 13.22019100 131 167 191
246102.38110352 3357673.90893555 13.41425800 112 133 150
246101.51562500 3357675.82586670 13.13698673 32 45 62
246101.27819824 3357676.70440674 13.01317883 26 39 56
246103.20788574 3357675.96984863 13.29062843 35 69 104
246102.38378906 3357674.02081299 13.44263172 112 131 145
246101.48498535 3357677.34869385 12.94063187 5 10 14
246101.24829102 3357675.63391113 13.00045967 49 58 67
246101.54016113 3357674.51806641 12.57675076 26 25 30
246102.54724121 3357674.51843262 13.03916645 29 31 30
246104.33007813 3357674.42260742 13.17893982 11 15 16
246101.53320313 3357674.52935791 12.97895718 27 31 32
246104.68750000 3357675.70825195 12.97587395 27 28 30
246101.70434570 3357675.95227051 13.20287704 129 170 188
246101.54455566 3357676.60650635 13.10275078 43 60 80
246102.06811523 3357677.51989746 12.99593925 62 66 67
246101.18383789 3357674.19720459 13.21064472 84 100 123
246104.47448730 3357674.14349365 13.59060097 22 34 32
246104.54565430 3357677.18109131 13.25179005 62 66 67
246101.02416992 3357674.01812744 13.08259678 65 80 103
246100.53955078 3357677.08642578 12.65477467 38 42 43
246102.58984375 3357675.53924561 12.32213402 190 183 165
246103.12329102 3357675.61450195 13.22553349 111 126 131
246105.80798340 3357677.62615967 12.44057751 19 38 8
246102.32238770 3357677.62298584 12.95193863 36 42 42
246103.59838867 3357676.23828125 13.09113121 28 64 112
246103.30944824 3357674.16284180 13.80592728 141 147 161
246101.11242676 3357674.51397705 12.88333130 37 38 40
246101.14685059 3357673.22906494 12.94133186 66 78 92
246102.50817871 3357676.83892822 13.17304420 175 193 205
246100.97912598 3357677.14929199 12.90516472 46 58 72
246103.68090820 3357673.37615967 13.86956120 5 10 13
246102.24890137 3357674.28656006 13.61166668 101 118 126
246102.22399902 3357674.09539795 13.42704010 167 200 215
246104.19299316 3357674.51391602 12.81125736 18 19 21
246102.09289551 3357675.62274170 12.38522339 102 88 77
246104.08483887 3357675.46832275 12.49569321 99 92 82
246102.08666992 3357674.52362061 12.78988361 22 27 30
246101.84985352 3357674.51373291 12.46376896 35 45 46
246102.47509766 3357675.55078125 13.07129192 13 18 22
246103.37121582 3357674.52709961 12.98393250 29 30 32
246103.41857910 3357676.06616211 13.20915318 23 66 109
246104.62109375 3357677.36578369 12.88332081 35 39 38
246101.26562500 3357677.71142578 12.28466511 183 180 173
246101.66662598 3357677.48431396 12.82883644 41 45 44
246101.98779297 3357677.65716553 12.57537746 52 58 58
246102.28930664 3357673.19000244 13.45383930 85 105 114
246104.20251465 3357677.20928955 13.15897465 78 79 83
246102.34106445 3357675.65612793 13.22351646 53 69 85
246101.53430176 3357677.03613281 13.13067532 27 46 61
246101.50427246 3357675.87072754 13.14330578 33 46 63
246100.42492676 3357673.57830811 12.85579491 167 177 187
246102.92382813 3357677.23461914 14.15404606 152 159 117
246101.62109375 3357674.41284180 13.28704453 34 41 51
246102.01806641 3357674.52337646 12.67235374 29 34 37
246100.61791992 3357672.92382813 12.64175224 133 129 126
246102.31176758 3357675.71252441 13.24388218 38 55 73
246100.70227051 3357677.02093506 12.78789616 58 72 85
246101.46948242 3357677.63415527 12.42429256 56 57 59
246102.15820313 3357674.11138916 13.43313503 128 173 178
246100.49108887 3357676.69549561 12.80543804 80 93 102
246101.72729492 3357675.50659180 12.32307434 196 179 171
246103.65332031 3357675.55078125 13.01537704 21 21 21
246104.38879395 3357674.27050781 13.43928528 9 14 17
246101.10693359 3357676.22601318 12.94908524 34 43 60
246102.10888672 3357677.41345215 13.18861103 64 68 69
246101.26660156 3357673.25805664 12.94557858 50 60 72
246103.25573730 3357673.40936279 13.77620125 14 22 25
246101.40100098 3357672.80633545 14.92908573 50 63 20
246100.70410156 3357672.97918701 12.97795105 112 112 112
246104.82055664 3357676.45001221 13.22965622 83 92 89
246103.77526855 3357673.60809326 13.79995632 15 24 23
246102.58300781 3357677.04010010 13.32131672 170 173 178
246102.79455566 3357674.52160645 13.08133984 30 32 31
246103.82409668 3357675.98895264 13.18446636 8 26 38
246102.35888672 3357675.91937256 13.23963356 99 141 165
246105.37597656 3357677.07312012 12.54202175 17 27 18
246103.38903809 3357675.58660889 13.11256886 24 29 32
246102.45080566 3357674.54852295 12.81056499 21 25 24
246102.18518066 3357677.53198242 13.05485916 38 42 41
246105.86633301 3357677.31420898 12.50692463 17 36 14
246101.22058105 3357675.44537354 12.28141880 195 191 182
246102.68420410 3357675.48486328 12.30908012 198 187 165
246102.31384277 3357675.59613037 13.17054844 29 40 44
246100.84106445 3357676.92224121 12.80456638 37 50 67
246102.25158691 3357674.45861816 13.47527027 64 69 72
246104.68298340 3357677.41503906 12.61980820 23 27 26
246102.85327148 3357677.23583984 14.36196232 139 148 93
246103.46459961 3357676.82043457 13.14853191 36 64 101
246103.76513672 3357675.54479980 12.84954262 44 44 42
246102.93627930 3357673.79522705 13.78855038 67 84 92
246104.50183105 3357674.43029785 12.67714596 17 26 23
246103.69958496 3357675.57293701 12.67495346 54 54 52
246102.35205078 3357673.76190186 13.37568855 153 172 189
246101.89526367 3357672.65899658 13.92031002 28 31 24
246103.09826660 3357674.30633545 13.66734886 13 15 12
246103.93872070 3357673.85687256 13.75355148 49 53 56
246103.57482910 3357676.35064697 13.04322624 30 66 114
246103.00012207 3357677.39276123 14.45518589 115 129 67
246101.36010742 3357673.56036377 13.00438690 68 85 103
246105.37951660 3357675.93170166 12.55269432 25 33 18
246103.42431641 3357674.52899170 12.71818638 25 30 33
246100.93029785 3357673.62890625 12.95259190 61 74 91
246103.06237793 3357674.12609863 13.84145355 190 198 217
246104.53100586 3357677.35235596 12.96901894 29 35 33
246103.21875000 3357674.53430176 13.02799416 26 28 27
246101.65258789 3357673.23974609 13.23335934 31 40 47
246104.97082520 3357674.15075684 12.99532509 71 66 60
246104.31616211 3357675.48089600 12.67863274 121 121 113
246102.57629395 3357676.82037354 13.52721024 68 72 81
246103.08190918 3357675.55157471 13.03790951 15 21 21
246102.92504883 3357676.74011230 13.13744545 95 125 159
246102.66687012 3357675.62451172 12.44451809 68 63 57
246100.99621582 3357674.49829102 12.69188499 21 20 16
246105.23925781 3357676.93762207 12.74717808 40 55 36
246105.33605957 3357676.61077881 12.78596592 39 54 31
246101.88867188 3357675.56481934 12.69911289 76 68 66
246100.72106934 3357677.34417725 12.48477554 40 40 38
246102.18005371 3357674.41369629 13.51698875 92 100 103
246104.45446777 3357676.71984863 13.32895470 37 51 51
246101.84509277 3357674.51214600 12.91509724 24 25 27
246104.49829102 3357674.30133057 13.35389996 13 14 18
246102.55419922 3357676.59826660 13.53615475 44 44 56
246105.28881836 3357676.85595703 12.75472927 39 53 28
246101.20080566 3357674.51837158 12.96956539 33 37 38
246102.86694336 3357674.48516846 13.20008278 26 24 25
246104.73657227 3357675.77490234 13.05239010 12 12 10
246100.76965332 3357676.97650146 12.78081226 60 76 92
246103.67163086 3357674.06079102 13.78804779 72 81 86
246101.34350586 3357673.30267334 12.97658539 63 75 91
246102.98693848 3357674.24029541 13.80072498 69 72 77
246105.43774414 3357676.88867188 12.67926788 27 45 21
246101.70971680 3357672.86987305 13.20524502 8 12 15
246103.34301758 3357675.99542236 13.24668598 26 65 106
246102.57897949 3357673.05474854 13.68609524 10 18 21
246103.52478027 3357674.12145996 13.81752300 134 142 153
246102.37646484 3357674.53540039 12.63675976 28 33 36
246104.90869141 3357677.15875244 13.10330200 84 90 80
246104.04248047 3357676.81719971 13.21930027 35 61 96
246103.74560547 3357675.54675293 12.92295361 27 29 28
246104.27307129 3357675.76379395 13.22235012 22 23 25
246103.56274414 3357675.63769531 13.14488697 94 97 102
246101.26696777 3357673.74005127 13.02277756 60 78 98
246104.86840820 3357676.87597656 13.21252251 67 76 73
246102.37829590 3357675.47247314 12.28581429 184 176 157
246101.18029785 3357673.16528320 12.95053101 59 67 80
246105.44885254 3357676.99670410 12.59219837 17 29 15
246102.05090332 3357676.95501709 13.07958221 98 162 197
246102.23193359 3357674.50573730 13.40577221 18 22 23
246102.26989746 3357675.69311523 13.23726463 26 42 58
246101.59667969 3357676.05444336 13.16084099 158 177 192
246103.11560059 3357675.55072021 12.99319744 16 17 21
246104.70739746 3357675.69525146 12.92482853 20 20 18
246100.68444824 3357672.97198486 12.96577263 67 68 70
246102.37170410 3357673.64501953 13.36831665 172 188 204
246100.47265625 3357676.11651611 12.73530006 107 105 106
246104.04748535 3357677.36126709 13.08743572 27 27 29
246103.93029785 3357674.50109863 12.69288826 51 56 59
246105.29431152 3357675.86383057 12.53651810 42 47 25
246103.17602539 3357674.61090088 12.54397392 46 56 57
246100.90393066 3357675.77893066 12.93483639 87 110 128
246103.10827637 3357676.28002930 13.09132195 35 77 127
246100.81506348 3357673.28118896 12.98066521 152 146 156
246103.22827148 3357673.12957764 13.95515156 54 63 62
246102.74475098 3357674.52532959 13.03862762 33 33 33
246104.20520020 3357674.67071533 12.30885601 72 81 86
246104.19543457 3357675.91601563 13.25920773 12 20 22
246105.19274902 3357674.31347656 12.19314480 64 67 60
246102.30285645 3357676.94232178 13.06383228 131 172 200
246102.06933594 3357672.93005371 13.47922516 77 82 86
246101.97534180 3357672.94262695 14.75591850 86 103 85
246104.91345215 3357675.96820068 13.10316181 32 34 31
246103.64404297 3357675.57489014 12.69752026 50 52 51
246100.87304688 3357677.40905762 12.46389198 56 58 55
246102.14624023 3357677.58166504 12.91310883 54 60 60
246104.96118164 3357674.08740234 12.64898109 18 23 19
246101.72033691 3357675.53869629 12.69953346 80 79 77
246102.62927246 3357673.66973877 13.66431141 82 96 105
246101.74279785 3357672.89154053 13.27912235 13 16 21
246102.58959961 3357674.50299072 13.12180519 30 32 31
246105.19091797 3357673.85559082 12.64925289 60 60 50
246101.83398438 3357674.41424561 13.32185555 13 16 23
246105.34265137 3357675.89489746 12.53981972 32 39 21
246103.85961914 3357677.19555664 13.21164513 36 37 39
246102.47839355 3357673.71697998 13.46263695 152 169 185
246102.57275391 3357674.63928223 12.55981350 47 55 58
246100.55920410 3357675.81079102 12.69132423 65 60 64
246105.12145996 3357674.26220703 12.20434284 59 62 55
246101.65405273 3357672.67932129 14.22954369 43 51 40
246101.38769531 3357677.01525879 13.08558655 30 41 59
246102.08776855 3357674.52551270 12.89341640 23 26 31
246105.53015137 3357677.06091309 12.56847858 8 24 11
246105.24206543 3357677.09716797 12.57210064 36 42 38
246101.92504883 3357673.94921875 13.39313221 115 140 147
246101.90161133 3357672.86328125 13.42497253 25 29 30
246101.11877441 3357674.14349365 13.16641426 75 92 112
246103.97619629 3357676.73895264 13.18543243 40 70 108
246101.77075195 3357672.88366699 14.57255173 37 49 37
246102.18029785 3357677.17742920 13.10797405 45 62 80
246102.27331543 3357676.31713867 13.17489624 139 179 204
246103.30236816 3357674.53118896 12.85235977 22 26 27
246102.70458984 3357675.54217529 12.99526787 15 20 23
246101.99072266 3357675.61755371 12.41963387 108 91 83
246102.78479004 3357677.25122070 14.31600761 168 177 122
246102.28442383 3357676.22802734 13.15232277 144 185 205
246104.18237305 3357674.26715088 13.49469852 28 33 37
246101.15026855 3357674.10388184 13.16394711 71 88 108
246101.97131348 3357677.35351563 13.10159683 14 15 19
246102.62365723 3357673.14562988 13.66892529 22 31 36
246101.09936523 3357676.67657471 12.92242050 30 43 59
246101.98596191 3357672.88244629 13.46046543 28 32 33
246102.94335938 3357675.58770752 13.15419102 45 56 58
246100.89489746 3357673.42864990 12.94122982 82 90 103
246103.12451172 3357674.54315186 12.83741379 23 27 28
246104.92272949 3357677.03344727 13.15908241 79 87 76
246103.48913574 3357676.30206299 13.03502941 28 66 113
246101.34631348 3357674.45550537 13.17886066 46 53 61
246102.87829590 3357677.24407959 14.05941391 175 175 151
246102.49255371 3357674.46520996 13.37182522 64 65 70
246101.28613281 3357675.54370117 12.90739441 20 20 22
246102.43212891 3357672.76580811 13.94363880 43 48 41
246104.68615723 3357677.36224365 12.80157089 37 39 36
246103.02197266 3357675.63128662 13.22578621 90 103 109
246102.40380859 3357675.60784912 12.41710949 89 83 69
246102.46667480 3357677.15423584 13.13943291 30 37 43
246103.24438477 3357675.59301758 13.15017319 46 56 55
246103.36511230 3357677.04907227 13.31300449 26 34 47
246104.96984863 3357677.16265869 12.90216923 60 72 62
246101.93774414 3357674.36962891 13.38122082 34 41 47
246104.74963379 3357675.80126953 13.06639671 7 7 5
246101.25402832 3357673.20977783 12.93701839 61 71 83
246103.71911621 3357676.16485596 13.13327312 31 62 109
246102.29956055 3357673.86578369 13.37286377 138 164 179
246102.22802734 3357674.51983643 12.82161045 21 25 26
246103.42333984 3357677.03717041 13.32873440 26 34 45
246105.17846680 3357675.63476563 12.39545155 201 199 178
246101.95556641 3357675.56274414 12.74555492 66 65 63
246104.28552246 3357673.60797119 13.77902412 25 35 34
246104.61059570 3357674.32092285 13.28697872 27 27 27
246101.74633789 3357675.56610107 12.47125435 114 109 103
246101.35119629 3357672.81390381 14.70184517 37 49 27
246102.98034668 3357673.06579590 14.01227379 56 69 60
246101.74499512 3357675.72070313 13.16283512 146 173 182
246105.25708008 3357675.99273682 12.74917603 20 31 23
246104.85498047 3357674.21600342 12.88226509 38 39 34
246105.33764648 3357676.38201904 12.84333134 43 58 35
246104.77612305 3357674.32464600 12.55710602 23 28 24
246103.93225098 3357676.95617676 13.24721336 34 47 63
246105.09082031 3357676.91650391 12.93654633 52 62 51
246105.12561035 3357677.42504883 12.36122227 34 43 42
246102.62670898 3357673.74401855 13.67157364 89 108 123
246101.46789551 3357674.26342773 13.32285976 97 110 127
246103.05273438 3357675.75640869 13.30768967 19 27 38
246103.69311523 3357673.46398926 13.84078884 20 25 28
246100.45239258 3357673.52893066 13.02031326 142 149 159
246103.42968750 3357675.59875488 12.46029854 71 62 53
246100.42761230 3357673.70629883 12.83199787 170 180 190
246103.67834473 3357673.98809814 13.78581047 26 34 37
246103.86230469 3357677.12518311 13.26203346 14 17 22
246101.77380371 3357672.72650146 14.30543232 29 39 30
246103.89196777 3357676.08013916 13.16190624 33 53 77
246104.93859863 3357674.11267090 12.64025497 18 23 19
246104.36791992 3357676.18865967 13.31937885 51 55 58
246104.17858887 3357675.80084229 13.22860622 0 1 0
246100.58789063 3357676.72540283 12.78504848 70 86 101
246104.96643066 3357674.08477783 12.73497772 70 71 65
246101.10681152 3357673.30310059 12.93417168 66 77 95
246103.04614258 3357674.27935791 13.76351166 19 19 19
246100.77551270 3357677.60980225 12.27994347 185 182 173
246100.72290039 3357672.96179199 12.97881126 72 72 72
246100.58691406 3357673.38299561 13.12949848 182 181 187
246103.34179688 3357673.56768799 13.75877762 19 29 28
246101.72131348 3357672.66027832 14.07140255 40 45 38
246103.71069336 3357673.65637207 13.79840660 10 19 18
246103.36694336 3357673.93536377 13.80997467 59 69 78
246102.47814941 3357675.71594238 13.27128315 18 25 33
246100.55493164 3357673.80285645 13.12762642 176 183 189
246101.24389648 3357674.38055420 13.21623707 46 55 70
246102.87438965 3357676.00994873 13.52130413 67 101 136
246102.50134277 3357675.53942871 12.94292259 30 34 35
246103.82421875 3357673.61212158 13.79324055 11 20 19
246105.25036621 3357676.00354004 12.77846813 22 33 25
246105.00317383 3357675.68518066 12.54251957 115 107 96
246101.44787598 3357674.51666260 12.59150982 31 32 36
246102.56054688 3357676.13732910 13.50032234 112 121 138
246101.76464844 3357674.02832031 13.35425472 35 40 46
246103.16088867 3357674.54083252 12.86894798 26 28 27
246102.26879883 3357675.60986328 12.64557362 62 64 59
246104.60107422 3357675.49407959 12.40106773 196 190 176
246101.68261719 3357672.59216309 13.89053345 28 31 24
246100.92968750 3357675.52569580 12.56892681 99 99 91
246102.71728516 3357675.58532715 13.11808300 46 53 63
246102.64160156 3357676.68249512 13.60749435 58 75 93
246101.07824707 3357674.53338623 12.46713924 55 57 56
246104.75988770 3357674.47473145 12.42491531 55 61 61
246102.59399414 3357672.89093018 13.91248322 47 57 48
246103.27636719 3357675.60937500 13.17329502 80 90 89
246101.67114258 3357672.96563721 13.21850491 19 24 30
246104.91979980 3357675.68817139 12.64313602 43 39 28
246101.88732910 3357674.18939209 13.39809132 81 107 104
246101.48547363 3357676.04272461 13.13327312 32 46 59
246104.16088867 3357676.54296875 13.22280312 37 60 94
246103.30712891 3357673.76879883 13.75832462 30 40 42
246102.62158203 3357673.10211182 13.70009136 17 26 31
246102.88330078 3357674.27648926 13.79531002 40 44 45
246102.82519531 3357676.68109131 13.22784328 68 111 153
246100.81481934 3357674.44812012 12.54833698 115 114 112
246101.71215820 3357675.69750977 13.14039326 131 151 158
246102.03369141 3357672.62292480 13.66576958 24 25 20
246102.25988770 3357673.02172852 13.52621937 19 30 26
246100.61413574 3357674.28454590 12.95781517 45 52 58
246101.22375488 3357674.24493408 13.24035645 80 93 112
246103.70910645 3357673.91778564 13.77854443 19 29 30
246101.41589355 3357672.87512207 14.86976051 103 113 86
246104.27087402 3357676.46514893 13.28330326 25 42 49
246102.18383789 3357673.82598877 13.37105465 132 158 175
246102.71081543 3357676.53692627 13.61344337 58 84 111
246101.66845703 3357672.77966309 14.40666199 48 58 49
246104.09130859 3357674.30474854 13.45067310 13 14 18
246102.74060059 3357677.04980469 13.54723072 32 46 57
246100.42651367 3357673.83618164 12.88185024 160 165 171
246103.39501953 3357674.48901367 13.09065247 32 34 33
246102.46765137 3357675.57550049 12.75631905 54 55 57
246103.65661621 3357673.56091309 13.81263065 14 24 23
246105.52990723 3357677.60351563 12.38112640 16 40 18
246101.63769531 3357677.41137695 12.91501522 45 46 48
246104.02062988 3357675.48022461 12.52052975 81 76 70
246102.09814453 3357673.67553711 13.40891933 138 158 169
246105.26110840 3357676.48449707 12.92358685 45 61 35
246102.73400879 3357675.53875732 12.92149353 29 33 34
246105.22570801 3357677.28863525 12.40711117 22 31 30
246102.80895996 3357673.00390625 14.11289501 43 60 44
246103.49450684 3357675.49359131 12.32751656 217 206 184
246101.43505859 3357677.25573730 13.01865482 26 35 44
246101.32543945 3357672.81347656 14.80051708 56 69 41
246102.79504395 3357676.91473389 13.44949341 72 106 141
246101.69079590 3357673.14001465 13.25820255 23 33 35
246102.24621582 3357674.06762695 13.40713882 156 185 201
246101.07714844 3357674.25299072 13.16319084 51 63 79
246102.97998047 3357673.61767578 13.75383854 22 34 34
246101.24121094 3357672.70593262 12.95387363 31 31 31
246103.09143066 3357676.79974365 13.12669373 35 79 124
246102.69958496 3357675.54278564 13.01647472 15 20 23
246104.22680664 3357674.44372559 13.14839077 19 25 25
246102.51757813 3357676.66552734 13.44874001 147 150 155
246102.60595703 3357673.11907959 13.66702557 15 24 29
246103.97509766 3357676.20263672 13.16170216 38 66 103
246104.94238281 3357676.40472412 13.18989372 22 30 15
246102.57019043 3357673.82720947 13.60104561 134 153 170
246104.97778320 3357677.04138184 13.08709431 92 98 86
246105.04248047 3357677.27105713 12.51372051 27 36 31
246102.90466309 3357676.16809082 13.39671898 67 112 153
246101.67602539 3357673.53436279 13.30498600 46 57 61
246101.67700195 3357677.21020508 13.09034538 44 60 73
246100.68469238 3357675.93914795 12.85373592 186 193 201
246101.04467773 3357674.67254639 12.33491993 157 161 160
246103.15429688 3357674.54083252 12.76031971 30 34 37
246103.96362305 3357674.46850586 13.10924911 29 30 32
246104.94580078 3357675.82348633 12.90581322 32 33 37
246103.42810059 3357676.65234375 12.96239853 29 62 105
246103.35681152 3357676.28979492 13.04837322 26 70 117
246100.79687500 3357675.66827393 12.77457428 102 110 113
246101.90173340 3357677.51477051 12.83564281 40 46 46
246104.10302734 3357677.18658447 13.18557549 35 37 36
246102.80578613 3357672.98840332 14.18655586 37 56 36
246101.10131836 3357677.35192871 12.80361843 7 12 18
246100.51049805 3357673.27880859 13.03163910 158 161 166
246101.47875977 3357672.79742432 13.09950733 15 16 20
246104.23315430 3357673.67749023 13.75305843 25 35 36
246100.69702148 3357677.01287842 12.78505039 58 72 85
246102.55651855 3357673.79895020 13.57683468 138 155 175
246101.72155762 3357677.50366211 12.79932690 37 41 40
246104.45227051 3357674.09490967 13.60205555 26 36 35
246102.42102051 3357675.59582520 13.14057446 58 63 67
246105.34667969 3357674.58410645 12.26558590 57 69 59
246104.30065918 3357675.65759277 13.13842583 39 40 42
246100.86474609 3357675.74420166 12.88213348 109 132 148
246101.83007813 3357675.73834229 13.19743824 141 173 184
246100.83459473 3357673.46343994 12.94224548 101 103 116
246100.74487305 3357676.46380615 12.77950668 37 51 64
246101.52917480 3357673.68890381 13.16417408 74 89 108
246105.04785156 3357674.02606201 12.53752708 34 40 36
246101.31726074 3357675.49957275 12.53289318 115 120 114
246101.19714355 3357675.50054932 12.57856750 122 121 116
246102.33898926 3357672.99133301 13.55935192 26 30 31
246105.42675781 3357677.45977783 12.37255192 23 39 28
246103.18334961 3357676.93780518 13.24843979 46 73 103
246104.59313965 3357675.59008789 12.79786015 26 19 11
246100.47509766 3357673.27679443 12.91085339 114 115 119
246102.37048340 3357675.66595459 13.22261620 63 80 96
246101.12866211 3357674.51507568 12.86809921 33 33 33
246100.54821777 3357676.83123779 12.74961281 69 88 102
246103.45751953 3357676.66088867 12.97038269 32 64 111
246104.40270996 3357674.46405029 12.56029224 14 20 18
246102.00085449 3357673.70440674 13.43490601 57 74 81
246103.63061523 3357674.36529541 13.36912251 53 61 64
246102.22119141 3357675.56878662 12.79541874 60 62 59
246104.40979004 3357677.16223145 13.23845768 40 44 45
246104.35913086 3357674.56945801 12.32533550 53 63 65
246102.85559082 3357674.53894043 13.01294804 21 21 21
246100.58642578 3357673.00524902 12.69710255 77 76 72
246100.97692871 3357672.76934814 12.83331680 0 1 0
246101.88110352 3357672.88903809 14.56995773 38 54 41
246103.53906250 3357674.51617432 12.63519001 29 37 39
246101.84106445 3357675.55029297 12.76007748 69 65 66
246103.07861328 3357675.98962402 13.32541275 46 87 119
246103.45300293 3357677.19128418 13.25563431 9 9 9
246102.87341309 3357675.64013672 13.20755577 68 81 87
246101.41418457 3357674.53051758 12.98438168 17 19 18
246103.95446777 3357677.31359863 13.12347889 5 5 5
246104.59765625 3357675.70288086 13.10356522 26 26 28
246101.14587402 3357675.50128174 12.55473232 101 98 93
246102.15661621 3357676.61663818 13.16513538 148 198 221
246101.50939941 3357674.53198242 12.91311836 15 16 18
246101.49609375 3357675.51135254 12.70641041 101 97 96
246100.61303711 3357673.62915039 13.07015514 179 184 190
246101.42089844 3357675.96960449 13.12931538 33 46 62
246102.80358887 3357677.09063721 13.44257259 46 63 73
246100.55908203 3357673.25219727 13.10176468 171 172 176
246102.07128906 3357675.83105469 13.19676781 121 168 186
246105.06872559 3357677.45599365 12.37309551 40 49 48
246105.26770020 3357677.39044189 12.34456635 37 46 45
246104.34252930 3357675.57440186 12.99278355 22 22 24
246101.74084473 3357674.56744385 12.32846069 67 75 78
246101.71191406 3357677.49505615 12.81553555 37 41 40
246104.91088867 3357674.15081787 12.82280636 53 54 49
246103.33093262 3357674.08654785 13.83102798 133 141 160
246104.32446289 3357675.69866943 13.19109631 88 87 92
246105.29785156 3357676.85302734 12.74905682 39 53 28
246100.90466309 3357677.51824951 12.33310413 81 80 75
246104.63378906 3357675.60662842 12.80461216 17 13 4
246100.49792480 3357676.29376221 12.76029491 108 126 140
246104.01501465 3357674.50653076 12.89757156 17 19 16
246103.28662109 3357676.38598633 12.97235680 28 71 124
246104.94763184 3357676.20269775 13.19274902 21 29 8
246103.26708984 3357674.71221924 12.42253113 78 83 89
246102.93103027 3357673.55969238 13.75909615 39 47 50
246104.85681152 3357677.23864746 13.00102997 40 53 46
246103.84924316 3357674.71990967 12.36334991 75 86 92
246105.22326660 3357677.17242432 12.51159573 22 28 26
246100.51672363 3357673.20690918 13.01496601 105 110 113
246104.95373535 3357675.48199463 12.28705406 209 193 177
246104.91381836 3357675.99853516 13.12921238 41 43 38
246101.25000000 3357672.76367188 13.04140759 12 13 15
246101.17028809 3357673.78204346 13.01379681 61 78 96
246101.23095703 3357675.87274170 13.10532475 29 38 55
246104.01086426 3357673.28662109 13.79015923 13 17 20
246104.17175293 3357676.92199707 13.25484657 30 43 62
246101.39660645 3357677.47888184 12.76638603 35 36 40
246101.98706055 3357672.90161133 14.60178852 40 54 39
246104.92468262 3357674.14178467 12.90643024 76 73 66
246105.07055664 3357673.96539307 12.68200111 80 81 75
246101.88037109 3357673.28759766 13.38789940 81 102 105
246100.55249023 3357676.83166504 12.75052071 69 88 102
246103.02648926 3357675.79431152 13.33034992 22 32 42
246102.62329102 3357673.52575684 13.63148594 67 80 88
246104.67175293 3357674.35772705 13.07544422 20 18 19
246103.68603516 3357677.07800293 13.29745483 14 22 25
246103.80578613 3357676.22985840 13.11757755 30 62 109
246102.30139160 3357676.88610840 13.08119774 130 174 201
246103.60522461 3357674.49780273 12.94209766 27 31 30
246102.20007324 3357672.65661621 13.70888424 18 20 15
246101.48303223 3357675.95288086 13.14653492 33 49 65
246102.25659180 3357675.53955078 13.09005260 34 45 49
246104.56188965 3357677.18041992 13.25560093 37 39 38
246103.36096191 3357673.12622070 14.00420189 72 76 75
246100.83105469 3357675.60021973 12.72623730 33 35 32
246104.37854004 3357674.05786133 13.62311172 31 41 40
246105.29846191 3357674.44921875 12.23250771 83 93 84
246101.61157227 3357674.46795654 13.18450356 13 16 21
246105.30517578 3357674.74676514 12.25447655 63 75 71
246102.18139648 3357675.60955811 12.33163929 118 106 90
246102.68176270 3357673.16729736 13.72568798 32 41 46
246102.80468750 3357673.91387939 13.84084797 88 107 124
246101.98071289 3357672.98596191 13.44587994 61 66 70
246101.90393066 3357677.24456787 13.11026764 56 73 89
246103.39587402 3357675.57635498 12.39932632 105 89 76
246105.18884277 3357673.93780518 12.43540764 68 73 66
246104.30883789 3357676.94744873 13.27188396 35 43 46
246101.31884766 3357673.85223389 13.10291481 64 83 100
246102.33349609 3357677.04516602 13.06587791 128 158 184
246103.18395996 3357675.95581055 13.30410671 35 69 104
246101.10815430 3357673.49066162 12.94396973 62 75 92
246104.45886230 3357677.34039307 13.00103855 27 31 30
246103.08483887 3357676.52288818 12.94871902 43 85 133
246101.45410156 3357673.68188477 13.09728622 70 87 107
246103.85290527 3357676.96966553 13.25612640 26 42 58
246101.33666992 3357674.51080322 13.03875923 22 26 27
246101.24182129 3357676.37689209 12.99854374 33 44 62
246102.79821777 3357676.70800781 13.41307068 74 118 165
246101.76818848 3357673.81860352 13.37163162 50 61 63
246102.95593262 3357674.12670898 13.83855247 204 212 231
246100.80529785 3357673.70996094 12.96315384 82 91 108
246101.74206543 3357675.55133057 12.91107941 52 56 57
246100.58410645 3357673.01751709 12.90318108 55 57 56
246100.78576660 3357672.85852051 13.01943493 111 112 114
246105.08630371 3357676.92907715 12.93079758 52 64 52
246103.13342285 3357676.26257324 13.09876251 38 80 130
246103.17712402 3357676.23675537 13.10782623 31 74 125
246101.12365723 3357673.19323730 12.94919109 66 76 88
246102.90649414 3357677.22570801 14.31400871 128 139 81
246104.06774902 3357674.51257324 12.88209820 16 18 17
246102.53698730 3357674.38555908 13.50222969 32 32 30
246101.53491211 3357676.15155029 13.13820839 37 53 66
246100.63659668 3357674.32110596 12.83631516 47 47 47
246101.21179199 3357676.67102051 12.98008442 31 44 60
246101.39343262 3357674.48193359 13.12373734 27 32 36
246102.29638672 3357677.62060547 12.93393135 34 39 42
246101.83264160 3357677.54791260 12.74269962 43 48 44
246104.00207520 3357674.13165283 13.68523693 58 59 61
246103.94787598 3357673.99676514 13.74889469 34 38 41
246105.38146973 3357674.51959229 12.28045940 42 54 40
246101.23352051 3357676.59973145 12.98585701 30 43 59
246104.41943359 3357674.45086670 12.90373421 14 20 16
246102.70104980 3357675.55310059 12.79436684 60 62 61
246100.78295898 3357673.52819824 12.94925880 136 138 151
246100.78393555 3357677.42126465 12.38392544 58 55 50
246102.37048340 3357675.53527832 12.31420422 177 171 155
246103.14636230 3357675.54144287 12.86646938 27 25 26
246100.76428223 3357677.49340820 12.31062222 183 180 173
246101.44921875 3357677.25518799 13.02288723 18 27 34
246103.16906738 3357676.37695313 12.99299908 36 77 129
246102.52563477 3357674.55633545 12.70783806 29 33 36
246102.18603516 3357674.37097168 13.54882336 58 68 70
246101.04626465 3357674.48669434 13.03186607 22 20 21
246103.04052734 3357676.45678711 12.98882294 49 90 136
246104.88146973 3357674.36810303 12.40256977 47 49 46
246102.51428223 3357676.28680420 13.50047112 139 148 163
246105.21398926 3357677.07891846 12.60388088 30 36 34
246104.71960449 3357675.60614014 12.59094810 80 70 58
246100.74316406 3357674.40838623 12.60648060 108 108 106
246102.54772949 3357674.16357422 13.69562531 112 126 139
246103.91979980 3357673.22943115 13.82243919 11 17 17
246101.84484863 3357672.78912354 14.40435982 24 36 26
246100.61206055 3357673.75738525 13.09043026 152 159 167
246101.13256836 3357677.18432617 12.94717503 33 43 53
246102.67883301 3357676.39990234 13.61749268 41 54 71
246102.93371582 3357674.61267090 12.66005993 30 38 40
246101.48095703 3357672.99487305 13.05401611 20 23 28
246100.82458496 3357673.42193604 12.95171165 114 112 125
246104.21289063 3357675.53039551 12.94450474 17 19 16
246103.81030273 3357675.58483887 13.08277130 21 23 22
246104.66784668 3357675.94866943 13.23896122 27 29 28
246104.79309082 3357677.30413818 12.85676289 41 52 44
246103.84558105 3357673.76574707 13.76425838 29 37 39
246103.60327148 3357676.61242676 13.01341534 32 64 115
246102.24401855 3357675.95306396 13.15089035 121 158 174
246103.06445313 3357676.91796875 13.22521114 56 83 110
246102.42492676 3357676.77105713 13.18190289 138 172 197
246103.31835938 3357673.43829346 13.77804279 15 25 26
246101.89489746 3357672.85687256 13.41816902 25 29 30
246102.33923340 3357677.44598389 13.18537331 20 21 16
246100.72692871 3357677.29125977 12.71466446 117 124 130
246103.12390137 3357675.54266357 12.90546799 21 21 21
246103.03515625 3357674.33764648 13.51891518 24 26 25
246104.91015625 3357677.27593994 12.68310547 34 47 37
246104.46008301 3357674.16284180 13.58601475 20 32 30
246102.06860352 3357674.63488770 12.32357788 68 76 79
246101.00695801 3357673.92742920 13.03765583 65 80 99
246101.99792480 3357675.65484619 13.18977165 192 213 216
246102.79431152 3357673.31152344 13.75102139 32 39 45
246104.73889160 3357677.35351563 12.73319149 32 41 36
246102.23278809 3357676.27624512 13.15401459 137 178 198
246102.53759766 3357676.94250488 13.16157246 188 199 205
246101.87097168 3357677.42395020 12.96198654 38 42 43
246104.19409180 3357675.97888184 13.24987125 15 24 31
246101.98925781 3357677.54357910 12.83782482 43 49 49
246102.37902832 3357677.62030029 13.03618240 37 42 45
246100.58532715 3357677.19757080 12.53913212 48 50 49
246104.27636719 3357673.87030029 13.69205284 17 23 23
246103.51623535 3357675.83129883 13.23243809 16 28 42
246105.48986816 3357674.04266357 12.37791729 33 45 25
246104.22973633 3357673.45056152 13.81256390 4 14 13
246100.81762695 3357675.51037598 12.42871189 195 190 187
246101.81091309 3357677.35675049 13.02308273 6 9 14
246103.11071777 3357673.38342285 13.77841759 23 31 34
246101.89477539 3357673.13476563 13.40525246 57 73 72
246102.54785156 3357672.85266113 13.91291428 40 50 41
246102.30639648 3357674.17755127 13.55032063 146 165 180
246103.13513184 3357676.22406006 13.13044739 34 78 127
246101.53881836 3357672.90295410 14.72525406 42 50 35
246103.96923828 3357677.14007568 13.23939610 16 18 17
246102.93090820 3357676.16833496 13.35909843 55 100 139
246105.13452148 3357675.89813232 12.78123093 32 36 37
246101.51489258 3357673.97558594 13.24516964 77 91 104
246104.23205566 3357674.50585938 12.74578476 29 33 34
246102.77758789 3357676.79302979 13.51024151 74 113 152
246103.37072754 3357674.60009766 12.53914928 47 55 57
246104.49963379 3357674.23095703 13.47405052 12 20 22
246103.56860352 3357675.87371826 13.22356796 17 30 47
246105.68737793 3357677.29345703 12.51223660 11 35 13
246104.85705566 3357676.30596924 13.22137547 47 55 44
246100.78527832 3357675.57800293 12.55284882 42 43 38
246103.25024414 3357674.33081055 13.55203533 31 32 34
246100.89550781 3357676.46838379 12.84580421 33 46 63
246101.75134277 3357674.56213379 12.32896423 67 75 78
246103.18627930 3357676.30065918 13.05180168 24 70 120
246104.06433105 3357674.67364502 12.37514782 64 73 78
246103.54711914 3357676.61877441 12.99401665 27 59 108
246105.09692383 3357676.68566895 13.06474304 40 52 30
246104.54406738 3357674.41619873 12.75616264 21 27 27
246103.48046875 3357674.30688477 13.51612377 25 29 32
246101.95617676 3357672.69067383 13.48307323 16 22 18
246102.25610352 3357674.10253906 13.44896698 153 180 197
246100.57055664 3357677.12799072 12.68380737 49 53 56
246105.43359375 3357676.68188477 12.72831726 28 48 21
246105.73962402 3357677.17730713 12.54713917 12 34 13
246100.78308105 3357674.43292236 12.68626499 76 75 71
246102.44531250 3357676.42474365 13.38327980 119 129 154
246104.64965820 3357674.30664063 13.29975033 29 29 29
246101.14208984 3357674.37030029 13.15882587 52 64 78
246103.82897949 3357674.20068359 13.65150452 31 36 40
246102.95410156 3357673.12585449 13.91982651 36 48 44
246103.70935059 3357674.16754150 13.72094631 31 34 39
246101.64245605 3357672.60717773 13.97674847 29 30 24
246101.15222168 3357676.73211670 12.95596409 32 45 61
246101.91918945 3357676.86547852 13.10908508 113 172 206
246101.07739258 3357674.61737061 12.37837124 87 93 91
246102.51599121 3357675.60107422 12.38369274 98 90 79
246104.90527344 3357674.15002441 12.59590626 13 22 19
246102.10546875 3357672.75878906 13.53348541 4 8 9
246100.76049805 3357674.42144775 12.88741779 93 93 91
246101.97326660 3357673.92871094 13.40502644 112 141 149
246104.76391602 3357674.41394043 12.48197174 46 50 49
246104.72814941 3357675.57305908 12.43707848 143 131 115
246100.44042969 3357673.77264404 12.97082329 121 130 139
246102.31591797 3357677.41931152 13.17111969 19 19 19
246102.34033203 3357677.67486572 12.67196846 31 34 27
246103.37890625 3357675.51733398 12.33734322 207 199 176
246101.85192871 3357675.53900146 12.80727005 66 64 65
246104.80908203 3357677.10375977 13.21536827 72 79 71
246105.32128906 3357676.52966309 12.82778645 41 57 30
246104.85852051 3357674.26538086 13.08624077 81 78 73
246103.46704102 3357673.43664551 13.80708981 8 20 18
246101.07836914 3357674.03680420 13.11105347 68 86 108
246101.61669922 3357674.51202393 12.45158768 16 17 21
246103.28234863 3357674.53454590 12.75801849 27 31 32
246103.77758789 3357675.98730469 13.18377495 12 29 45
246103.17712402 3357674.64178467 12.50932121 52 64 64
246102.26989746 3357677.78967285 12.46023464 45 50 46
246101.95605469 3357672.64642334 13.84241104 25 27 22
246104.50769043 3357675.55932617 12.80889893 28 25 18
246100.61279297 3357676.77697754 12.76625061 61 77 93
246104.40222168 3357676.62762451 13.33152390 46 57 59
246104.55883789 3357676.03686523 13.30198097 37 37 39
246103.32604980 3357673.99609375 13.82579899 66 78 92
246102.40417480 3357677.63549805 12.96978760 24 33 32
246104.08361816 3357675.93096924 13.23646545 9 18 23
246102.49902344 3357676.75384521 13.23312855 180 202 215
246104.72949219 3357675.50964355 12.33470631 191 179 163
246102.03552246 3357674.41491699 13.39438057 45 48 57
246105.23291016 3357673.87084961 12.76590252 67 63 52
246100.90844727 3357675.77178955 12.93203259 79 100 119
246105.24133301 3357677.54602051 12.29586124 39 50 46
246104.77160645 3357674.57238770 12.35443497 72 77 80
246101.02917480 3357674.50695801 12.80776691 25 24 22
246102.00524902 3357672.70159912 14.16302395 34 41 33
246103.85559082 3357676.15167236 13.14042377 35 67 105
246104.17468262 3357675.47656250 12.81414127 97 98 93
246101.04821777 3357673.89660645 13.03489017 65 78 97
246105.32226563 3357676.64758301 12.79554367 41 56 33
246101.89575195 3357676.86627197 13.11038780 122 179 209
246100.88269043 3357675.76916504 12.91468334 94 117 135
246101.76135254 3357677.47271729 12.87396240 33 37 38
246104.17150879 3357673.32073975 13.79616642 7 19 19
246105.16113281 3357677.28570557 12.41443348 28 37 36
246102.05407715 3357677.11157227 13.07415676 115 158 190
246105.20788574 3357676.45257568 13.00642109 34 48 25
246103.08728027 3357677.39501953 14.21999550 68 76 27
246102.54589844 3357677.70733643 12.79934692 40 49 46
246104.64855957 3357674.29656982 13.31733608 27 27 27
246103.47314453 3357676.56304932 12.95765972 37 69 116
246104.68896484 3357674.33862305 12.85131264 19 21 20
246103.79516602 3357674.35034180 13.40127850 44 49 55
246102.45092773 3357677.64880371 12.92912292 29 38 37
246102.23034668 3357674.51629639 12.56468010 29 34 37
246103.29675293 3357675.58233643 12.59298706 67 66 62
246103.75695801 3357676.11621094 13.14766216 33 62 104
246100.95104980 3357675.53082275 12.62888908 88 89 83
246101.25207520 3357674.66949463 12.30859661 96 101 104
246104.98620605 3357674.06750488 12.84436607 80 77 72
246101.24194336 3357673.76629639 13.02904415 60 78 98
246101.81604004 3357677.68450928 12.51683140 58 64 62
246105.50073242 3357677.43109131 12.41732407 10 31 14
246101.00012207 3357674.21301270 13.13475895 58 67 84
246104.62219238 3357675.62969971 12.88423920 5 4 0
246102.23608398 3357677.76568604 12.45899391 47 52 48
246101.72656250 3357674.51452637 12.49638271 28 32 35
246102.65039063 3357675.85772705 13.49311829 73 90 100
246102.48986816 3357676.87225342 13.12674618 149 175 192
246104.02294922 3357675.64562988 13.15171528 65 65 67
246104.11132813 3357674.43670654 13.17100620 7 9 8
246104.15600586 3357676.09393311 13.22619629 12 28 43
246104.71264648 3357675.99121094 13.21975517 24 28 27
246105.04223633 3357673.99865723 12.71720409 81 80 75
246101.11132813 3357677.45587158 12.52272797 27 32 35
246101.21459961 3357676.82568359 12.99088764 33 45 59
246102.38378906 3357677.15051270 13.10823154 68 80 96
246102.55187988 3357674.45050049 13.32795620 103 106 113
246101.39160156 3357674.52441406 12.69342995 25 25 27
246100.94421387 3357673.82580566 12.99569511 59 72 89
246103.78662109 3357673.24267578 13.87875748 0 6 4
