246108.44958496 3357442.08914185 15.15327835 127 139 129
246106.03588867 3357441.78170776 15.75037956 129 131 120
246108.11315918 3357441.89443970 15.08187103 119 129 121
246107.64477539 3357442.38681030 15.56795406 113 115 112
246108.57946777 3357444.80831909 15.12063122 202 206 217
246106.11743164 3357442.10675049 15.43288803 108 116 105
246110.17517090 3357443.25216675 14.64255810 44 44 46
246106.79516602 3357441.60116577 15.42660236 60 65 69
246106.36816406 3357441.95736694 14.96642590 131 133 132
246108.08032227 3357444.31680298 15.17032814 203 211 213
246107.20812988 3357443.38278198 15.79777718 224 235 237
246107.47265625 3357442.01049805 15.36539173 94 93 98
246107.60192871 3357443.46820068 14.28454304 190 193 184
246108.71936035 3357444.82751465 15.18289661 196 202 214
246109.88830566 3357443.96926880 15.14225101 202 208 222
246105.99792480 3357442.13134766 15.78958225 150 164 167
246107.96899414 3357443.29544067 15.79829693 47 50 55
246106.49218750 3357441.75732422 15.83365440 207 225 235
246109.02954102 3357442.43597412 14.82928467 115 125 117
246107.94665527 3357442.55200195 15.82756042 222 226 235
246107.20935059 3357443.39694214 15.05674934 229 234 237
246108.01538086 3357442.68206787 15.83840752 217 223 237
246108.28625488 3357443.99114990 15.72148323 212 219 238
246109.47814941 3357444.64691162 15.05813313 219 225 241
246109.47790527 3357444.20874023 15.21148872 23 33 35
246106.71936035 3357442.77072144 15.03960133 156 161 157
246107.62756348 3357443.84741211 15.34515667 19 29 28
246106.96472168 3357442.20449829 15.55905533 51 51 49
246108.94201660 3357442.00930786 14.26520538 152 143 134
246107.18603516 3357443.22860718 14.83893776 191 197 195
246107.88781738 3357444.03469849 15.59619617 51 66 71
246108.85949707 3357442.74600220 15.58178234 59 73 74
246108.61840820 3357444.56994629 15.32855606 145 167 181
246109.77038574 3357443.00207520 14.68764496 71 80 75
246109.03662109 3357444.97412109 15.00815487 219 225 239
246107.56079102 3357444.12277222 14.24165249 106 106 98
246109.94921875 3357443.31964111 15.06480312 133 143 145
246108.55725098 3357444.90917969 14.46722412 86 84 85
246108.20776367 3357444.19607544 14.91317368 185 185 183
246109.63696289 3357442.98086548 14.94731712 104 113 110
246106.67163086 3357442.43569946 14.80602455 147 152 146
246110.71618652 3357443.11114502 14.29409790 71 79 64
246108.25537109 3357443.99685669 14.50750637 186 181 175
246108.72595215 3357442.34747314 14.53358841 123 132 137
246108.42944336 3357442.01147461 14.32279110 50 39 35
246106.56188965 3357442.57223511 15.85501957 36 41 37
246106.72924805 3357441.55090332 15.15160084 8 12 15
246107.75708008 3357442.84573364 15.86234188 228 231 246
246110.48022461 3357444.38821411 14.32512760 66 67 69
246110.11267090 3357443.43704224 14.85607147 32 42 41
246106.60388184 3357442.97302246 15.82278347 248 255 255
246110.37890625 3357442.86853027 14.36394405 57 58 52
246107.49206543 3357441.46447754 14.74106407 21 30 35
246108.22509766 3357444.47726440 14.34148026 196 198 193
246106.42187500 3357441.64541626 15.73052120 110 116 114
246109.02868652 3357444.72491455 15.20885468 163 172 181
246106.38659668 3357443.11657715 14.29248905 71 71 69
246110.12573242 3357444.44497681 14.42247009 54 63 62
246108.55090332 3357443.84555054 15.42558002 19 27 29
246107.92553711 3357443.91497803 14.28094292 174 179 175
246107.15893555 3357443.24996948 15.93087864 43 62 68
246106.90991211 3357442.58389282 15.71154594 102 104 103
246108.66662598 3357442.07266235 14.29893017 85 70 65
246107.41052246 3357441.50988770 15.04300690 133 142 139
246106.60949707 3357441.65930176 15.42349052 90 100 99
246108.45019531 3357444.42745972 14.77499485 130 123 117
246109.99877930 3357442.66952515 14.41858292 131 128 113
246109.46069336 3357442.57171631 15.00042629 112 123 117
246108.52746582 3357442.84805298 15.86992073 210 219 234
246108.38439941 3357442.90597534 15.87503242 154 149 155
246109.70776367 3357442.85571289 14.60253239 31 33 30
246107.02478027 3357442.00131226 15.57865238 29 29 29
246108.45043945 3357444.44445801 14.67569542 200 193 187
246107.90490723 3357444.14575195 15.21310997 188 196 199
246109.26892090 3357445.06311035 14.95013618 190 196 208
246106.59606934 3357442.54379272 14.94217396 180 187 180
246106.54931641 3357443.19677734 14.31051445 28 32 33
246108.64990234 3357444.11209106 15.14581299 36 53 60
246107.51354980 3357442.49411011 15.62741566 105 106 108
246106.75683594 3357441.61203003 15.42807007 66 74 76
246107.65295410 3357443.20840454 14.50348091 206 209 198
246108.32446289 3357443.55950928 15.80360794 22 33 35
246106.71777344 3357442.64352417 15.84317398 48 53 56
246106.35778809 3357441.86126709 14.92255020 74 74 74
246107.24108887 3357442.74383545 15.82179832 60 64 67
246108.50231934 3357442.20755005 14.43309879 71 80 85
246106.61474609 3357442.66604614 15.87675953 39 45 45
246107.88281250 3357441.62222290 14.40379238 12 8 9
246109.71350098 3357442.95755005 14.78160858 103 113 105
246107.56652832 3357443.83068848 15.17489529 202 210 213
246107.27172852 3357443.43508911 15.68926525 133 152 158
246108.62805176 3357442.28585815 15.38701630 93 98 94
246107.35070801 3357443.15277100 15.93236256 12 35 51
246107.99255371 3357441.99624634 15.44065952 43 48 42
246108.93359375 3357443.29815674 15.67624187 61 72 78
246109.63024902 3357442.67190552 14.91447067 93 104 96
246107.68701172 3357443.25097656 14.47181797 206 209 198
246107.59851074 3357441.58282471 14.77370548 26 34 37
246108.67150879 3357443.21618652 15.81098461 103 101 114
246108.89550781 3357443.37445068 15.67067146 106 116 126
246108.45336914 3357444.41940308 15.34618473 54 71 79
246107.19848633 3357443.36206055 15.20270157 67 68 72
246108.71325684 3357442.05029297 14.29221249 96 81 76
246108.00170898 3357441.77270508 14.39171028 21 22 17
246106.40625000 3357442.55944824 15.18616772 21 16 13
246108.19201660 3357443.90499878 14.45993423 188 187 182
246108.38293457 3357442.02679443 15.07557487 124 134 125
246110.12194824 3357444.68844604 14.31325245 112 122 124
246108.35119629 3357442.08273315 15.27789021 160 168 157
246107.98266602 3357441.82077026 15.10900784 116 127 121
246107.90991211 3357442.31878662 15.67444324 93 105 101
246108.05102539 3357444.14773560 14.97168159 197 199 196
246107.57958984 3357443.20950317 15.87080097 223 229 241
246106.75500488 3357442.62100220 14.89831352 204 209 203
246111.00708008 3357443.22079468 14.34492588 80 86 74
246108.00634766 3357443.73184204 14.59736919 193 204 208
246107.78271484 3357443.75738525 15.80984116 227 235 248
246109.24951172 3357443.04028320 15.45142365 150 141 134
246106.47521973 3357442.86434937 15.84827995 247 255 255
246107.23217773 3357443.30786133 15.92062855 53 68 87
246106.99182129 3357442.03283691 15.60471725 32 30 31
246106.74768066 3357443.46502686 14.27677822 72 74 71
246109.45520020 3357442.84777832 14.39478683 30 31 26
246107.39013672 3357441.49783325 15.03399086 133 139 135
246110.31042480 3357444.08981323 14.85839272 106 111 107
246109.82641602 3357442.79046631 14.62748337 86 95 78
246108.68859863 3357442.21466064 15.10948277 126 139 132
246108.12756348 3357443.95684814 14.68324661 180 182 177
246107.82458496 3357443.97961426 15.74136353 179 201 212
246108.38732910 3357444.49536133 15.43487072 65 79 88
246108.17431641 3357441.91705322 14.92268944 110 120 112
246109.02539063 3357443.57482910 15.28276730 24 34 35
246107.70080566 3357441.54565430 14.50918484 25 27 26
246107.93591309 3357442.20898438 15.54721260 85 98 91
246107.96997070 3357443.80767822 15.81017685 190 208 218
246107.00561523 3357443.17120361 15.10620403 201 204 213
246110.43261719 3357442.83334351 14.36893463 48 49 43
246107.78430176 3357443.68572998 14.23686790 176 182 170
246110.02197266 3357443.88690186 15.16981316 197 207 219
246109.53613281 3357444.58975220 15.04972172 222 228 242
246109.02038574 3357444.43478394 15.22758198 81 104 110
246109.17297363 3357443.61090088 15.22174740 30 45 50
246110.41784668 3357443.71646118 14.47228336 63 67 66
246107.45556641 3357442.11734009 15.36497021 92 94 93
246108.33068848 3357444.63369751 15.27767467 147 152 158
246106.63146973 3357441.63882446 15.78100014 183 207 211
246107.85498047 3357443.99816895 15.55101871 47 65 67
246108.86889648 3357443.83767700 15.11427212 22 36 39
246107.50854492 3357443.51947021 14.26898861 177 182 175
246107.62585449 3357443.99014282 14.24521923 156 162 158
246110.28405762 3357443.88455200 15.07705116 118 132 133
246107.77636719 3357443.20242310 15.83069611 223 229 243
246106.44201660 3357441.58551025 15.15091610 138 139 133
246109.67614746 3357444.41091919 15.02390385 220 228 241
246107.39782715 3357443.56271362 15.71914005 194 212 214
246109.21691895 3357442.72738647 15.11112976 131 142 138
246109.65100098 3357444.87289429 14.96663284 173 182 191
246107.29248047 3357443.42330933 15.23544979 32 30 31
246106.39916992 3357442.83898926 14.39273739 59 65 65
246106.71093750 3357441.55899048 15.57847977 62 73 75
246108.83776855 3357444.30111694 15.20438862 32 50 54
246109.37658691 3357442.60940552 14.84322357 110 119 116
246108.02404785 3357442.43588257 15.81180668 197 206 213
246107.95922852 3357443.22903442 15.80677414 36 40 43
246106.46728516 3357442.07443237 14.61054802 47 43 34
246110.27514648 3357443.31570435 14.51372528 48 49 51
246109.95288086 3357443.15878296 14.78647614 40 40 40
246107.54333496 3357443.23217773 14.68134594 200 209 204
246108.47180176 3357442.15243530 14.55232811 147 158 164
246108.04003906 3357444.30157471 15.23288250 172 178 178
246106.30090332 3357442.72378540 15.74001694 89 99 100
246107.27416992 3357441.39553833 14.93688583 97 106 105
246106.43444824 3357441.83441162 14.41357040 46 41 35
246106.99536133 3357441.42575073 14.77263069 25 29 28
246110.01940918 3357444.53497314 14.85959053 68 71 78
246109.46911621 3357444.49176025 15.13213539 214 220 234
246107.33056641 3357442.72482300 15.83088684 65 64 69
246107.47583008 3357442.58224487 15.72108364 100 101 105
246108.10644531 3357444.24325562 15.03576279 217 227 228
246108.30541992 3357441.67028809 14.30442047 137 122 119
246108.04028320 3357443.73809814 14.55939102 195 204 209
246108.74401855 3357444.60812378 15.30313587 78 103 110
246108.61743164 3357444.15969849 15.16567707 32 53 58
246110.19543457 3357444.14270020 14.82086849 152 166 175
246108.99243164 3357442.14340210 14.29213715 145 136 127
246107.39416504 3357442.34539795 15.45298290 104 104 104
246109.91113281 3357443.01104736 14.65273571 47 53 53
246106.66992188 3357441.55722046 15.18751907 11 12 17
246110.29479980 3357444.26852417 14.49942207 105 114 119
246109.00732422 3357444.25408936 15.20479393 37 54 61
246106.91442871 3357442.53350830 15.66441727 99 99 97
246107.88049316 3357443.97964478 14.28105259 188 192 191
246110.01599121 3357443.04638672 14.62511063 48 53 49
246107.65478516 3357443.87298584 15.35085297 24 34 33
246108.91406250 3357443.75708008 15.14294910 21 35 36
246110.08898926 3357444.12515259 14.92506123 190 202 214
246107.05676270 3357443.20205688 15.03031063 214 222 225
246106.45703125 3357442.60369873 15.09610844 152 153 148
246108.93957520 3357444.79086304 15.20167828 197 207 217
246107.53527832 3357443.67752075 15.64028645 72 96 96
246108.02746582 3357443.46185303 15.80049133 31 41 43
246109.01843262 3357444.23229980 15.20136070 37 54 61
246109.99780273 3357444.16445923 14.89864254 210 218 231
246107.66711426 3357442.41415405 15.61359787 110 112 109
246108.16992188 3357444.01870728 14.69998264 172 171 166
246106.96850586 3357443.43249512 14.29220390 191 201 202
246108.59655762 3357444.85104370 14.93079472 201 205 214
246108.90820313 3357442.48358154 15.08201122 118 130 126
246106.67602539 3357441.51788330 15.13341045 10 11 15
246106.50903320 3357442.45727539 14.40098095 208 213 209
246109.69897461 3357442.85906982 14.60280323 31 33 30
246108.30358887 3357444.51382446 15.08820057 111 110 108
246109.83813477 3357442.46990967 14.30997658 135 130 110
246108.52429199 3357444.24313354 15.20437241 58 78 85
246108.72387695 3357442.25360107 14.67735958 115 126 122
246110.17871094 3357443.27313232 14.64295769 44 44 46
246106.53588867 3357442.59906006 15.86866093 47 51 50
246107.33935547 3357442.01071167 15.36355114 66 70 73
246109.11437988 3357444.12701416 15.19154835 32 49 56
246108.77490234 3357442.24270630 15.03986073 117 130 123
246107.47607422 3357443.52731323 15.80392742 228 237 244
246108.40808105 3357444.71734619 14.49156857 204 203 201
246109.51391602 3357442.93545532 14.47808266 80 85 79
246106.77905273 3357442.82678223 15.92233276 35 45 46
246108.18383789 3357441.90655518 14.45793629 36 41 35
246107.59277344 3357443.34811401 15.84148407 235 237 249
246108.17675781 3357442.54977417 15.83847904 200 208 219
246107.85729980 3357443.67211914 14.25078011 181 184 175
246107.69958496 3357442.36907959 15.58875465 106 111 107
246108.54443359 3357442.76263428 15.84107399 205 217 229
246108.60498047 3357442.23696899 15.29453659 154 164 156
246108.24865723 3357444.43286133 14.36465836 185 187 184
246107.37475586 3357443.48678589 15.25043488 33 31 32
246109.34936523 3357442.36169434 14.33045769 143 137 125
246107.36975098 3357441.80398560 15.43829346 46 49 56
246106.16540527 3357442.26193237 15.45022297 50 58 60
246109.78186035 3357442.87100220 14.52665710 25 26 21
246108.44738770 3357441.84426880 14.30408669 96 78 74
246107.48242188 3357443.12991333 15.90677071 114 128 141
246108.98632813 3357443.23504639 15.65480995 56 66 68
246108.27551270 3357441.95663452 14.84071255 104 116 106
246107.89025879 3357443.80609131 14.79133034 185 197 197
246108.86572266 3357442.91247559 15.74210072 130 143 149
246109.02416992 3357443.62673950 15.24439812 24 34 35
246108.22436523 3357444.14816284 15.68781471 53 62 69
246109.73107910 3357442.99496460 14.81109238 90 99 94
246110.20153809 3357442.98974609 14.44467258 65 66 60
246106.99194336 3357443.12313843 14.31261635 175 191 191
246107.82507324 3357443.68084717 14.74486542 187 198 202
246108.80432129 3357443.34930420 15.73204803 207 213 235
246108.29125977 3357442.09811401 15.40783978 85 90 83
246106.62084961 3357442.77395630 15.12268257 88 89 84
246106.45727539 3357441.99551392 14.37725925 193 189 178
246107.27575684 3357442.19134521 15.40253735 91 93 92
246107.89111328 3357444.01663208 15.43446636 48 62 65
246106.60314941 3357442.80068970 15.17224598 60 61 56
246108.91845703 3357445.22390747 14.44910526 52 50 53
246106.74926758 3357442.81350708 15.04721355 173 178 174
246107.89367676 3357440.99822998 14.25995731 97 105 81
246106.76171875 3357442.27078247 14.38861370 172 169 154
246108.70922852 3357445.00854492 14.75585079 131 128 135
246108.23510742 3357444.03134155 14.65557861 185 182 175
246110.02856445 3357444.41174316 14.62069130 130 133 140
246106.52368164 3357441.68780518 15.35561848 66 72 72
246108.56567383 3357444.90658569 14.74061298 76 77 81
246110.01867676 3357442.68072510 14.47951031 86 82 70
246107.71191406 3357442.66104126 15.83939552 73 78 84
246106.71313477 3357441.82263184 15.85379028 243 253 255
246108.76660156 3357442.19763184 14.97685719 116 129 122
246106.06445313 3357442.20846558 15.59611893 215 220 224
246110.36376953 3357443.56707764 14.44974232 40 44 43
246106.70007324 3357442.72525024 15.02131748 150 155 151
246108.90637207 3357442.21749878 14.31625080 65 56 47
246106.91577148 3357443.06735229 15.15316391 201 205 208
246110.08862305 3357442.55407715 14.38383198 114 112 89
246110.33337402 3357443.98770142 14.97850227 129 130 124
246108.42358398 3357444.02648926 15.22447395 17 28 30
246107.35986328 3357443.29513550 14.29347420 189 194 187
246110.28527832 3357443.84423828 15.07725334 121 135 136
246109.03308105 3357445.26974487 14.53737640 175 179 188
246108.99658203 3357442.89730835 15.59064865 96 104 106
246107.02368164 3357442.68798828 14.55967808 120 126 116
246109.37658691 3357442.52746582 14.33125591 75 64 58
246108.38806152 3357442.52438354 15.80375671 165 180 185
246110.30468750 3357443.11199951 14.40915203 36 36 36
246108.82531738 3357444.81985474 15.21287632 140 153 162
246107.95727539 3357442.11807251 15.49763393 82 89 82
246108.53198242 3357443.84393311 15.24040985 16 25 24
246108.54040527 3357442.55368042 15.76130486 120 135 138
246107.30798340 3357442.47125244 15.56514740 108 108 110
246108.02941895 3357443.91635132 15.78629112 204 216 230
246106.63781738 3357443.24899292 14.31632519 152 163 165
246106.26904297 3357441.84320068 15.86221313 58 74 87
246108.65026855 3357442.57315063 15.69718075 76 95 99
246109.19543457 3357443.47952271 15.27863407 29 40 44
246109.42285156 3357443.14575195 15.23032093 133 134 126
246110.07373047 3357443.84994507 15.17533875 198 206 219
246106.83679199 3357442.49322510 14.68426800 230 235 229
246109.29931641 3357443.05252075 15.40772343 168 167 165
246107.08459473 3357443.16403198 15.36814594 24 28 29
246109.25585938 3357442.70962524 15.07172203 124 135 131
246109.90502930 3357443.18667603 14.85786915 17 23 21
246107.92053223 3357441.86212158 15.37377644 134 136 135
246108.96179199 3357443.03015137 15.69618797 118 131 140
246107.81713867 3357442.19436646 15.48434734 89 98 95
246107.54223633 3357443.54772949 15.80039883 231 241 243
246106.82934570 3357442.66766357 14.84926224 229 236 229
246107.42333984 3357443.48522949 14.26776123 181 188 181
246107.89001465 3357442.14767456 15.47960186 109 115 111
246108.55822754 3357442.74737549 15.83201408 199 211 223
246109.33227539 3357442.98147583 15.29204845 173 175 174
246108.84631348 3357442.76892090 15.62465096 100 115 118
246109.02612305 3357442.93716431 15.59683609 113 117 116
246110.06945801 3357443.40332031 14.88198757 15 24 23
246108.73107910 3357443.23132324 15.78761673 217 222 242
246107.12158203 3357441.43319702 15.30310535 69 78 59
246108.21386719 3357444.16271973 14.38126755 186 185 183
246107.11889648 3357441.59948730 15.55441093 162 172 173
246109.99072266 3357443.51361084 15.15619278 144 154 156
246107.35571289 3357443.39883423 14.87524796 222 232 233
246107.98229980 3357441.83862305 14.81126404 112 121 116
246108.99255371 3357445.25738525 14.54026794 144 149 155
246110.56811523 3357443.69393921 14.39477158 68 70 67
246106.58227539 3357442.06741333 15.90543461 163 177 180
246106.79626465 3357443.02658081 15.30191231 107 103 102
246106.89526367 3357442.58438110 15.71949863 102 104 103
246106.62109375 3357442.90197754 14.39904213 58 72 72
246107.07458496 3357442.30706787 15.44195271 87 87 87
246106.51464844 3357442.68856812 15.14965534 90 89 87
246108.79394531 3357442.36224365 14.35641193 28 26 27
246106.98181152 3357441.52731323 15.37580013 172 179 171
246108.52209473 3357442.51910400 15.75300884 105 121 121
246108.29528809 3357444.68814087 14.28450489 90 89 85
246109.58300781 3357443.98818970 15.22084713 21 32 34
246110.52929688 3357444.03396606 14.52140713 101 110 107
246107.70825195 3357441.66708374 15.08097649 122 135 128
246108.75366211 3357441.68716431 14.24333286 127 126 108
246110.29113770 3357442.94943237 14.40092659 92 93 85
246107.87609863 3357443.84423828 14.83163738 188 198 199
246109.24096680 3357442.64019775 14.73352909 94 106 96
246107.67260742 3357442.47207642 15.66890240 106 108 105
246106.40039063 3357442.12033081 14.88578415 70 72 69
246108.62744141 3357442.29269409 15.41873455 49 53 52
246107.10668945 3357441.52130127 14.86602592 34 44 46
246107.87780762 3357443.72949219 14.24681282 181 184 177
246108.21813965 3357443.94161987 14.44368458 186 183 176
246107.39538574 3357442.71667480 15.84071732 80 83 88
246107.68261719 3357441.48339844 14.49184132 31 35 34
246108.70825195 3357444.79864502 15.24383926 110 125 130
246106.15966797 3357442.49676514 15.85586643 245 246 250
246110.29028320 3357442.74401855 14.41936970 83 83 75
246107.37414551 3357443.08993530 14.35366821 192 198 194
246106.12292480 3357442.64953613 14.35328102 44 44 44
246110.37609863 3357444.24511719 14.45746899 103 111 113
246106.65209961 3357443.14010620 14.32204342 44 54 53
246110.41394043 3357443.83804321 14.74191189 111 116 110
246108.05578613 3357443.26867676 15.76835918 36 41 44
246107.30566406 3357442.33734131 15.42945194 113 113 111
246107.87463379 3357444.02111816 15.58466434 50 68 72
246109.09301758 3357443.22793579 15.55510616 38 38 38
246107.87585449 3357441.76266479 15.08226204 118 131 124
246108.28674316 3357442.48492432 15.78999424 173 186 194
246109.54504395 3357442.95751953 15.01739883 120 131 127
246108.08959961 3357442.62765503 15.84807110 213 219 231
246107.46643066 3357442.25942993 15.42074108 102 102 100
246106.27575684 3357441.69552612 15.76379585 126 130 133
246108.88049316 3357442.35571289 14.74338627 108 119 113
246107.39355469 3357442.46954346 15.57727242 107 107 109
246106.79919434 3357443.02862549 15.28556919 154 154 152
246107.41638184 3357443.37954712 14.81848335 200 212 212
246107.47924805 3357442.06359863 15.35696888 92 93 95
246106.17041016 3357442.30682373 15.51136684 100 110 111
246110.40441895 3357443.64761353 14.43700886 45 46 48
246108.56494141 3357442.07641602 14.87649059 94 104 93
246108.41442871 3357444.70547485 14.52596664 205 204 202
246108.29187012 3357443.29211426 15.75743675 30 33 40
246106.21240234 3357441.83004761 15.56140804 147 150 139
246110.38281250 3357443.75146484 14.84977627 127 134 127
246109.98437500 3357443.32522583 15.01124382 90 100 101
246108.01025391 3357442.26962280 15.65078449 87 104 98
246110.05798340 3357444.22372437 14.79022503 132 136 145
246108.97167969 3357442.77169800 15.46838188 64 75 69
246106.15954590 3357442.39126587 14.31900501 199 203 204
246109.75390625 3357443.95700073 15.17869091 203 207 218
246106.81140137 3357443.15243530 14.31795311 175 193 197
246108.68542480 3357445.02188110 14.53252125 56 54 55
246107.94323730 3357443.80850220 15.80907917 207 224 234
246107.67932129 3357443.81561279 14.99513245 210 220 222
246106.98876953 3357442.76885986 15.85357285 76 81 84
246107.68554688 3357441.67028809 15.23334694 143 152 147
246109.83935547 3357442.90258789 14.59303093 42 47 40
246109.73596191 3357444.16815186 15.09563446 212 218 232
246106.25415039 3357441.90402222 15.37831116 144 147 126
246107.36145020 3357442.81610107 15.86713505 47 48 52
246109.91589355 3357444.41018677 14.87675285 223 229 243
246109.12133789 3357444.98818970 14.99212646 221 227 239
246110.81506348 3357443.10842896 14.31145191 79 88 69
246106.49353027 3357442.57449341 15.03049946 173 178 174
246110.95861816 3357443.23654175 14.33033848 89 95 85
246108.53015137 3357444.88372803 14.40575695 59 55 54
246110.04370117 3357443.32235718 14.83308029 25 29 30
246107.47619629 3357442.71185303 15.83866310 58 63 66
246108.29614258 3357444.62966919 14.32812977 180 182 179
246109.69824219 3357442.70578003 14.76981640 89 94 88
246109.00366211 3357444.16864014 15.19387722 28 43 50
246108.81225586 3357442.34112549 14.65824318 114 125 121
246108.46081543 3357444.73425293 15.08394051 187 188 192
246106.48754883 3357441.69793701 15.56337452 131 140 135
246106.17199707 3357442.53091431 14.34968948 190 196 196
246110.50207520 3357442.86105347 14.35491276 55 56 48
246109.37731934 3357444.29598999 15.21875572 28 42 45
246108.18176270 3357443.40954590 15.75886345 23 31 34
246106.44812012 3357442.67822266 15.46791172 14 28 28
246109.42517090 3357444.53689575 15.13291740 215 221 235
246106.33874512 3357442.08096313 15.13381767 80 85 79
246106.89843750 3357441.60253906 15.29865074 4 4 6
246108.93591309 3357442.96356201 15.71609783 113 124 130
246107.39941406 3357442.71322632 15.83948040 80 83 88
246108.01037598 3357441.22561646 14.29786110 126 127 109
246107.91760254 3357441.80120850 14.94466209 115 126 120
246107.89587402 3357441.59524536 14.38154507 19 14 11
246106.21862793 3357441.92196655 15.89198780 123 140 156
246108.41198730 3357444.40234375 15.38647652 66 83 93
246105.94519043 3357442.45910645 14.30792427 182 186 185
246109.20678711 3357444.56640625 15.19437408 74 87 93
246109.35046387 3357442.56427002 14.33096981 58 49 44
246107.65087891 3357443.92050171 15.27805710 73 81 83
246106.41467285 3357442.26339722 15.89542770 251 255 255
246106.84069824 3357443.01965332 15.93731403 74 82 85
246107.71777344 3357441.67935181 15.20105171 141 150 145
246110.00207520 3357443.72955322 15.21037769 186 194 205
246108.22265625 3357444.34698486 15.03576756 192 197 200
246108.86828613 3357443.40939331 15.67805004 145 155 167
246108.23974609 3357442.09710693 15.48816013 44 57 47
246108.62402344 3357444.43228149 15.27298260 64 86 97
246106.46301270 3357442.85446167 15.70636272 16 30 30
246109.75634766 3357442.69519043 14.77537060 76 81 75
246107.54382324 3357442.82043457 15.87240601 49 57 60
246109.87988281 3357442.74716187 14.64224052 88 97 80
246108.74768066 3357445.08691406 14.41460228 96 95 100
246108.64672852 3357444.99447632 14.42023087 87 87 89
246109.09265137 3357442.64331055 14.49298573 80 90 79
246107.22937012 3357441.76199341 15.48038673 26 27 29
246109.93090820 3357443.90811157 15.16498375 197 205 216
246108.07861328 3357444.39212036 14.29937172 163 163 163
246106.72338867 3357442.39212036 15.75684261 42 44 43
246106.00976563 3357442.75216675 14.33193016 50 45 42
246109.71313477 3357442.85046387 14.39948177 42 39 34
246108.31140137 3357444.60702515 15.34176731 100 107 113
246107.64184570 3357443.34173584 14.73515224 208 218 220
246106.54687500 3357442.38116455 15.84301567 53 52 50
246109.15905762 3357444.57589722 15.20709705 38 53 56
246106.86572266 3357441.46456909 15.63782787 138 154 154
246107.66979980 3357443.89074707 15.70675945 87 114 123
246109.66369629 3357442.94183350 14.47796154 28 30 25
246107.20874023 3357443.24673462 15.47677803 21 41 40
246109.60192871 3357444.64007568 15.01693344 221 227 241
246106.95788574 3357442.79022217 15.86911297 76 81 84
246109.84631348 3357444.07061768 15.06159687 210 216 230
246106.59252930 3357442.46386719 14.87569237 174 176 173
246107.07849121 3357443.57662964 14.27341938 153 159 157
246108.59362793 3357443.16372681 15.83374500 42 29 36
246107.52416992 3357443.50979614 15.82193375 229 238 243
246106.39270020 3357442.07070923 14.32030869 198 196 184
246109.99230957 3357444.71255493 14.69130516 53 63 65
246108.08837891 3357444.32839966 14.32373714 195 199 198
246110.14086914 3357443.13317871 14.58261776 39 41 36
246106.89843750 3357441.43777466 15.54042721 133 144 136
246109.28564453 3357442.73196411 14.61479855 96 103 95
246108.96826172 3357442.49951172 15.06239414 120 132 128
246108.18518066 3357444.29263306 15.02307415 219 227 229
246108.89501953 3357444.84796143 15.16043663 218 224 238
246106.23596191 3357442.65921021 15.75154400 119 129 128
246108.73950195 3357442.31521606 14.34519196 31 27 28
246109.13879395 3357442.66305542 14.53135777 101 108 100
246108.60913086 3357442.29437256 14.39152050 49 54 58
246108.32092285 3357441.99432373 15.08035469 127 139 129
246107.21362305 3357443.30145264 15.56722546 56 84 87
246107.86486816 3357441.05398560 14.26794052 108 112 95
246108.77587891 3357443.51794434 15.69707870 198 210 224
246109.65625000 3357442.94396973 14.47291183 22 23 18
246107.72399902 3357443.83160400 15.79343700 218 232 241
246108.79797363 3357443.38549805 15.72435570 207 215 234
246110.13110352 3357444.67788696 14.31346130 136 148 148
246109.50634766 3357442.88140869 14.57462788 109 116 108
246106.13024902 3357442.23809814 15.51116180 164 169 172
246106.90246582 3357441.57775879 15.35735512 66 68 65
246107.00451660 3357442.19274902 15.51581860 64 66 65
246106.29870605 3357441.80676270 15.53520107 169 172 163
246105.95568848 3357441.76296997 15.80788231 133 134 128
246108.32897949 3357442.01596069 14.36160660 38 37 33
246109.79699707 3357443.55737305 15.19075108 123 126 133
246109.12402344 3357442.49468994 14.85288811 119 129 121
246107.99243164 3357441.83242798 15.05247116 118 129 123
246109.74670410 3357442.83801270 14.60620117 21 21 19
246109.26867676 3357443.18655396 15.39520264 70 63 53
246108.31457520 3357444.12948608 15.55139160 21 31 33
246109.38244629 3357442.71966553 15.02861214 119 130 126
246109.37341309 3357443.10226440 15.32633781 179 179 179
246108.52124023 3357442.22244263 14.46329308 111 120 125
246107.89794922 3357442.82788086 15.83265114 223 226 243
246106.77893066 3357443.08132935 15.71176338 143 161 163
246107.16516113 3357442.70275879 15.77269268 95 99 102
246107.73193359 3357443.70956421 14.87269020 202 209 215
246109.62109375 3357443.28692627 15.12585640 159 161 158
246106.43164063 3357441.95111084 14.51966763 42 37 33
246106.37170410 3357442.08328247 15.05092716 105 110 104
246107.80065918 3357443.78515625 15.80793953 223 233 245
246107.40270996 3357441.28726196 14.64338684 22 31 36
246109.12060547 3357441.87075806 14.24401855 86 88 67
246107.85034180 3357444.03475952 14.98982906 200 206 206
246110.25134277 3357443.60079956 15.02369881 134 147 140
246107.15234375 3357442.27908325 15.42751408 83 83 81
246106.57958984 3357441.97793579 15.90765667 144 155 161
246108.86572266 3357443.05493164 15.77539158 175 191 206
246106.39111328 3357442.77380371 14.39837170 71 75 76
246107.37072754 3357441.28112793 14.68249893 25 34 39
246107.05603027 3357443.30126953 14.29500484 177 191 191
246105.99377441 3357442.11038208 15.74173641 152 163 165
246106.71044922 3357442.69076538 15.87201309 45 53 55
246108.13916016 3357444.03176880 14.74242592 170 173 166
246106.18725586 3357442.31231689 15.47804451 48 60 60
246107.31848145 3357441.34127808 14.75928211 19 30 34
246109.90234375 3357444.30477905 14.86499119 219 227 240
246108.36157227 3357444.17819214 15.37047005 30 45 52
246108.95422363 3357445.20150757 14.65860367 169 172 181
246107.91479492 3357444.05230713 15.54721737 49 62 68
246108.22595215 3357442.65652466 15.86114025 212 218 234
246106.66748047 3357442.43591309 15.77272797 26 28 27
246107.04724121 3357441.59603882 15.61866665 182 194 194
246108.00976563 3357444.14492798 15.60039139 62 72 81
246108.14721680 3357442.62069702 15.85663509 212 218 232
246110.66882324 3357443.74291992 14.36543083 75 77 76
246108.76330566 3357441.65737915 14.23281288 111 110 90
246108.93041992 3357442.15603638 14.29597282 129 116 108
246107.99340820 3357444.12033081 15.45460701 70 84 87
246106.97558594 3357441.52386475 14.85503101 39 43 46
246110.29321289 3357443.69732666 14.60987186 50 59 56
246106.43603516 3357442.35552979 14.36430836 202 202 200
246107.55822754 3357443.26684570 14.70586300 199 210 206
246109.55676270 3357442.89389038 14.59137249 123 128 122
246107.02856445 3357443.17010498 15.28693199 20 20 20
246108.14770508 3357443.26525879 15.73578358 31 35 38
246107.23168945 3357442.23181152 15.41705322 90 90 88
246110.67028809 3357443.59967041 14.37115002 83 85 84
246109.67260742 3357444.52886963 15.01944637 224 230 244
246108.95166016 3357444.53201294 15.24919701 93 113 120
246108.09020996 3357442.34533691 15.73381519 158 170 170
246107.88330078 3357441.76959229 15.27331257 150 157 150
246109.39672852 3357444.59646606 15.11694241 216 219 234
246107.00427246 3357442.04666138 15.58235359 29 30 32
246109.38903809 3357443.27084351 15.24833584 36 35 30
246106.41259766 3357442.23431396 15.89969635 249 255 255
246107.94909668 3357444.14187622 15.32093048 42 50 52
246106.76440430 3357443.49850464 14.27381897 84 84 82
246106.79333496 3357441.57727051 15.72873306 179 197 201
246106.71093750 3357441.82522583 15.85538769 243 253 255
246109.06652832 3357442.97998047 15.59500504 116 117 112
246106.60913086 3357442.88595581 15.46568966 10 21 17
246110.37426758 3357444.06964111 14.85380459 129 130 124
246106.50292969 3357442.89895630 15.74052715 68 82 83
246106.42431641 3357441.92074585 14.51365662 42 37 33
246106.71447754 3357442.63882446 15.84178352 48 53 56
246108.94812012 3357442.51443481 14.38745880 51 58 51
246107.21594238 3357441.95043945 15.42374134 38 43 49
246108.80041504 3357442.32312012 15.08517742 118 131 124
246106.61376953 3357442.21469116 15.85760784 253 252 255
246108.37792969 3357444.01779175 15.51452923 33 43 44
246108.65368652 3357442.29766846 14.52483559 125 134 143
246108.44250488 3357443.98013306 15.23757935 19 29 30
246109.20715332 3357442.67584229 14.43062973 47 53 43
246109.36926270 3357442.77200317 14.65499496 82 89 81
246109.76354980 3357444.01721191 15.15596485 205 211 223
246108.69140625 3357445.00979614 14.70931530 88 83 89
246109.26452637 3357444.73886108 15.08924580 218 224 238
246106.83459473 3357442.01324463 15.80529594 189 185 184
246108.60461426 3357441.75256348 14.28117085 149 136 128
246106.60327148 3357442.06091309 14.40570354 147 141 125
246108.66955566 3357442.28375244 14.33961582 31 29 32
246106.89172363 3357441.69390869 15.74079990 222 234 234
246106.73120117 3357442.58996582 14.89453506 203 208 202
246107.44042969 3357443.08007813 14.40690231 216 221 214
246108.57104492 3357442.18957520 14.59914112 130 138 140
246108.45935059 3357443.93365479 15.49951553 30 38 40
246108.46826172 3357442.46353149 15.75858498 117 132 129
246107.64965820 3357441.57623291 14.62791061 22 26 27
246109.10375977 3357442.86941528 15.43689728 65 70 64
246106.55493164 3357442.48999023 14.91905975 179 181 178
246106.69384766 3357441.48587036 15.70729923 108 121 127
246108.93005371 3357442.29226685 14.94200802 114 125 119
246109.49304199 3357444.74618530 15.01690769 223 229 243
246108.34509277 3357444.62265015 14.37762070 197 197 197
246108.66833496 3357442.28842163 14.55669785 128 137 142
246106.93054199 3357443.20251465 15.75191212 196 207 211
246109.10461426 3357442.58084106 15.08961105 121 133 129
246110.04406738 3357443.64620972 15.19776821 142 150 153
246110.26062012 3357443.89978027 15.10481930 111 126 129
246108.61267090 3357444.36889648 15.24658871 45 68 76
246107.93676758 3357444.02261353 14.90375710 182 188 186
246108.05139160 3357440.94580078 14.27560902 93 100 69
246107.54248047 3357441.42755127 14.60388851 19 24 28
246108.39648438 3357443.66720581 15.78489113 211 221 233
246108.96691895 3357441.54364014 14.21780682 72 79 48
246107.90673828 3357443.61956787 14.29600239 192 195 188
246108.84875488 3357445.04144287 14.89024639 215 219 231
246110.05322266 3357442.64620972 14.43050194 134 133 115
246108.54223633 3357444.79776001 14.98001003 199 206 212
246106.04919434 3357442.14257813 15.56372070 157 162 165
246107.07116699 3357441.61105347 15.00177765 87 99 99
246107.89624023 3357443.92623901 14.27291965 186 192 190
246109.24694824 3357442.43640137 14.32672215 89 79 70
246107.95422363 3357441.85617065 15.36866856 131 133 130
246106.45434570 3357442.03430176 14.58580303 39 36 27
246108.38696289 3357442.12255859 15.32434177 159 165 155
246107.43164063 3357441.38790894 14.69018173 23 34 36
246108.18579102 3357444.04452515 14.72275162 175 174 169
246108.95678711 3357445.06771851 14.91045666 212 218 232
246107.76660156 3357443.31979370 14.56749058 197 200 189
246108.48681641 3357442.86978149 15.88126278 215 221 233
246106.64025879 3357442.76687622 15.10148144 104 104 102
246110.22204590 3357442.68557739 14.45520115 80 82 71
246109.52636719 3357442.93139648 14.49547577 100 105 99
246109.60119629 3357443.48864746 15.12872791 64 68 69
246106.44934082 3357442.02575684 14.59298992 39 36 27
246108.67248535 3357444.93560791 14.88891506 201 207 219
246108.45874023 3357444.40942383 15.33670616 64 81 91
246108.86157227 3357445.03332520 14.90492725 215 218 233
246106.42321777 3357441.63690186 15.75699902 82 93 95
246107.69201660 3357443.99893188 15.19333172 218 226 229
246106.37451172 3357441.77536011 15.49702454 165 168 161
246109.19775391 3357445.26336670 14.70305729 170 177 187
246108.19824219 3357442.52908325 15.82478809 198 208 220
246108.11059570 3357442.92004395 15.84333706 220 225 244
246108.72888184 3357444.91625977 14.97773647 209 213 224
246106.39038086 3357441.75296021 15.81719875 122 139 149
246110.58605957 3357443.47305298 14.35079193 73 75 70
246107.79577637 3357442.55792236 15.80670166 79 83 86
246108.62219238 3357442.28396606 15.41064644 93 98 94
246108.02783203 3357443.98052979 14.79114056 177 183 181
246106.91748047 3357443.51608276 14.29038525 106 111 107
246107.68908691 3357441.44845581 14.44445133 24 24 26
246106.84790039 3357443.05685425 15.31354332 64 60 59
246109.72729492 3357443.59115601 15.16575718 97 100 105
246106.79675293 3357443.07546997 15.90358257 247 251 252
246108.22766113 3357444.46438599 15.48617458 20 33 41
246106.69067383 3357441.63571167 15.41044712 78 88 87
246106.59533691 3357443.05029297 14.35026741 56 66 65
246109.16247559 3357441.70114136 14.24516964 71 75 48
246108.43872070 3357444.32324219 14.72552204 100 89 85
246109.38012695 3357442.85980225 15.09398746 132 141 138
246106.45239258 3357442.71456909 15.52502632 10 26 25
246110.05285645 3357444.59017944 14.41793060 64 76 76
246106.03820801 3357442.69543457 14.34048176 43 43 41
246109.05737305 3357442.77999878 15.35372257 64 70 66
246107.46752930 3357443.90866089 14.25022793 110 115 109
246108.36791992 3357441.99459839 14.91766548 108 119 111
246109.62402344 3357442.88537598 14.60906219 78 80 77
246107.13916016 3357443.18231201 15.46036339 24 43 41
246106.61523438 3357442.51812744 14.42943382 205 214 213
246107.56140137 3357441.56030273 14.83245373 38 46 49
246106.88647461 3357441.55938721 15.69661427 187 203 203
246110.32385254 3357443.60687256 14.48560619 41 45 44
246108.95422363 3357444.29547119 15.21300888 35 53 57
246108.06018066 3357442.22845459 15.62252712 76 93 85
246109.79162598 3357442.38601685 14.32063675 135 133 110
246106.43847656 3357441.96173096 14.50027180 42 39 32
246110.04309082 3357444.37457275 14.61842728 128 135 141
246110.13330078 3357444.24197388 14.66915894 89 96 102
246110.71569824 3357443.46380615 14.32390881 99 100 95
246109.88720703 3357444.37506104 14.89418888 220 228 239
246106.83093262 3357441.56149292 15.16490841 43 47 48
246107.77575684 3357444.02185059 14.25285339 195 204 201
246106.39978027 3357442.60006714 15.39175606 10 22 20
246106.42297363 3357442.37844849 14.90741348 168 174 172
246108.84143066 3357443.02081299 15.80427647 175 189 202
246108.10815430 3357444.42822266 14.29879761 162 164 163
246107.58190918 3357443.80465698 15.27713394 17 26 25
246108.48852539 3357442.19406128 14.42651653 68 77 84
246107.12829590 3357442.42425537 15.50206470 107 106 104
246109.76721191 3357444.07742310 15.13207626 206 214 225
246109.81591797 3357443.67581177 15.20849514 161 165 174
246109.03405762 3357442.47149658 14.36034107 57 64 48
246108.31445313 3357441.49752808 14.29227257 151 143 130
246106.01049805 3357442.11178589 15.82117367 127 140 146
246109.12438965 3357442.13943481 14.28429604 145 143 130
246107.83288574 3357443.51162720 14.31816578 198 198 188
246110.29553223 3357444.06893921 14.93026066 103 109 109
246107.33068848 3357443.50497437 15.72025967 172 191 195
246109.39648438 3357443.02413940 15.25282574 159 165 165
246107.25634766 3357443.28106689 14.83778191 201 207 207
246109.37756348 3357445.11975098 14.88651466 160 169 178
246108.77856445 3357442.82818604 15.75553513 135 148 156
246107.39575195 3357442.60592651 15.72988510 102 101 106
246109.25329590 3357443.74807739 15.21636200 29 42 48
246108.03186035 3357442.27209473 15.66196156 87 104 98
246109.03625488 3357442.51303101 14.68228436 106 115 110
246107.75329590 3357442.97738647 15.85109329 221 224 241
246107.80688477 3357444.00006104 15.35360527 43 53 55
246107.79650879 3357443.33435059 14.52947140 195 197 186
246107.09338379 3357441.63647461 15.06816673 104 114 115
246107.09484863 3357443.69937134 14.26091003 88 89 84
246108.39343262 3357442.01013184 14.77961445 105 116 102
246107.08666992 3357441.48541260 15.54484749 69 80 82
246107.49987793 3357443.82788086 14.24772930 186 192 188
246106.77978516 3357443.01586914 15.34592819 54 48 48
246109.86535645 3357442.50595093 14.31746960 137 135 114
246108.43286133 3357443.84533691 15.72996044 211 219 238
246107.27368164 3357443.02648926 14.59704018 169 172 163
246109.78991699 3357443.01699829 14.65582180 30 39 36
246110.21765137 3357443.40170288 14.59064484 45 49 50
246108.85620117 3357441.71054077 14.25628757 81 83 59
246108.89074707 3357442.39050293 14.69595528 111 122 116
246107.01184082 3357442.06115723 15.56577682 31 35 36
246108.80664063 3357441.35473633 14.19779587 99 104 74
246106.41625977 3357441.69873047 15.63281918 112 118 114
246109.56628418 3357442.79748535 14.70575714 112 119 112
246108.14770508 3357440.86560059 14.29545498 67 76 45
246107.69995117 3357443.77136230 15.80464935 229 236 246
246108.26904297 3357443.94537354 15.76083755 211 220 237
246106.67382813 3357441.68386841 15.78904629 215 232 239
246109.68713379 3357443.35131836 15.12864971 163 166 173
246107.15734863 3357443.23794556 15.93455982 43 62 68
246107.30432129 3357441.46044922 15.17276096 149 151 148
246107.48742676 3357441.43585205 14.68807220 23 31 34
246107.92932129 3357443.53393555 14.53464699 192 201 198
246109.45666504 3357442.38354492 14.33928680 142 134 123
246107.24511719 3357442.49462891 15.57936096 112 110 111
246109.98693848 3357444.75888062 14.62173462 67 81 82
246109.73754883 3357442.36798096 14.32534981 138 133 114
246107.34375000 3357443.36816406 14.28023529 181 186 180
246109.57946777 3357442.12329102 14.33155918 99 103 80
246109.02270508 3357443.46383667 15.36916256 21 27 27
246108.37487793 3357444.17669678 14.59814644 75 71 60
246107.42285156 3357443.02416992 15.90736866 23 40 50
246109.36157227 3357443.96212769 15.21443653 78 98 107
246108.38891602 3357442.49755859 15.78771019 154 169 172
246108.88366699 3357444.99615479 14.95555019 217 223 237
246107.17651367 3357443.12158203 14.31584358 186 201 198
246106.96606445 3357443.50073242 14.28755093 149 155 155
246106.72021484 3357441.67407227 15.77786827 209 226 233
246106.32714844 3357441.68847656 15.77359200 73 81 84
246108.47937012 3357444.73507690 14.70961380 213 213 213
246107.04016113 3357441.57781982 14.91952896 70 75 78
246107.61706543 3357442.75607300 15.86624622 79 86 92
246109.23095703 3357442.63067627 14.73775291 94 106 96
246108.47106934 3357443.99514771 15.20476341 16 26 27
246107.30834961 3357441.67172241 15.47773457 49 50 54
246107.03479004 3357441.94171143 15.59518147 29 27 30
246107.82165527 3357440.99319458 14.27159119 101 104 85
246109.41430664 3357442.17669678 14.30974865 142 144 123
246108.07580566 3357443.80694580 14.55816364 192 202 203
246107.91979980 3357444.06896973 15.65718937 81 95 104
246106.61804199 3357442.38061523 14.78998852 133 139 135
246107.49584961 3357443.50051880 14.89869118 225 234 239
246107.57202148 3357441.54681396 14.78121662 23 33 35
246108.79370117 3357442.25717163 14.32437229 44 36 33
246106.46411133 3357441.73117065 15.46286011 133 138 132
246108.15063477 3357442.00811768 15.43893051 79 87 76
246107.29882813 3357443.45257568 14.27835846 181 191 183
246106.21252441 3357441.78918457 15.62043381 141 145 131
246107.29357910 3357442.49554443 15.58819580 103 103 103
246107.73535156 3357441.32617188 14.33776951 77 74 69
246107.28198242 3357442.37603760 15.46171665 112 112 114
246107.96508789 3357441.82302856 14.99367523 117 128 122
246106.78649902 3357442.91586304 15.09892559 168 174 170
246107.19409180 3357441.82012939 15.46040344 29 33 36
246107.98132324 3357442.92391968 15.83260155 221 224 241
246106.07458496 3357442.44998169 14.32125950 200 206 206
246107.40295410 3357441.16757202 14.57078266 19 22 27
246106.47351074 3357442.83114624 14.41057396 64 73 72
246109.49218750 3357441.98202515 14.29035473 68 75 41
246109.07092285 3357442.53884888 14.68222046 103 112 107
246110.27270508 3357442.79846191 14.40838623 72 73 65
246106.55908203 3357442.77520752 15.25559235 3 4 0
246106.60827637 3357441.74603271 15.82922363 213 232 239
246106.96875000 3357443.31649780 14.30042171 183 197 198
246107.12695313 3357443.12020874 14.81072712 179 186 179
246106.85681152 3357443.11437988 15.90490818 217 222 226
246110.49450684 3357443.02255249 14.29019833 56 57 51
246107.76953125 3357443.96731567 15.35358334 40 50 52
246107.96057129 3357441.82904053 14.74056911 110 120 112
246108.76196289 3357443.63977051 15.56457233 17 25 27
246106.09899902 3357442.23089600 14.27841473 185 187 186
246108.11584473 3357444.25000000 15.55221462 42 56 59
246107.08886719 3357443.21261597 15.92648983 40 54 54
246106.80981445 3357442.85702515 15.01549721 182 187 181
246108.18762207 3357444.42840576 14.32874298 197 199 198
246106.75036621 3357442.67538452 15.84894085 46 54 56
246106.78527832 3357443.07180786 15.68499947 112 132 133
246108.47509766 3357442.03735352 14.90142822 105 115 106
246110.07653809 3357442.64459229 14.53000164 70 71 65
246108.65124512 3357444.97509766 14.74078560 98 93 100
246108.15917969 3357444.18533325 14.93712330 192 194 191
246108.77575684 3357442.22302246 14.31498718 50 40 38
246108.51879883 3357441.41876221 14.22693062 72 75 48
246108.33923340 3357441.10220337 14.31060886 55 65 31
246109.52770996 3357442.20101929 14.33544922 137 138 120
246106.51477051 3357442.73440552 15.32137966 10 12 9
246110.22888184 3357442.96640015 14.42336273 69 70 62
246107.11706543 3357443.32177734 15.74082470 215 228 236
246108.30444336 3357444.10775757 15.66156101 37 44 50
246109.23999023 3357444.58627319 15.17523479 212 219 235
246108.92114258 3357441.47921753 14.21246529 74 79 47
246107.43908691 3357442.59777832 15.73056030 107 107 109
246107.49523926 3357441.93927002 15.38036537 135 139 142
246108.04431152 3357441.86340332 14.79662132 111 121 113
246109.16442871 3357445.00061035 14.98251820 221 227 241
246110.43737793 3357443.36810303 14.39006424 44 46 43
246108.89294434 3357442.57669067 15.22331619 168 177 172
246107.00549316 3357441.43164063 15.52298737 45 57 57
246108.61315918 3357444.95462036 14.61591530 79 79 81
246108.41271973 3357444.45819092 15.41653156 60 77 85
246108.98339844 3357442.47888184 14.37494087 43 51 38
246107.86596680 3357443.94531250 14.91167450 193 202 201
246107.81164551 3357442.01867676 15.40086555 1 3 0
246108.09887695 3357443.49209595 15.79064274 26 36 38
246107.12744141 3357442.00372314 15.47810459 28 33 36
246109.13842773 3357442.73004150 15.17397308 163 172 167
246109.70202637 3357443.37078857 15.12684822 172 175 182
246107.55981445 3357441.73742676 15.41112041 81 87 87
246107.66711426 3357441.38754272 14.41676807 11 11 9
246106.72607422 3357443.09005737 14.32922745 108 124 124
246107.24340820 3357442.25814819 15.42016029 96 96 94
246107.78076172 3357442.34698486 15.62401104 104 110 106
246108.20544434 3357444.12374878 14.81588268 167 166 162
246108.38562012 3357441.84542847 14.30888176 82 67 64
246107.05236816 3357443.11495972 14.91865253 192 197 193
246106.58239746 3357442.21420288 14.61210060 117 114 107
246107.09289551 3357442.63461304 15.71932316 96 97 99
246109.84606934 3357442.84283447 14.59707928 59 64 57
246106.78552246 3357443.01309204 15.53878975 34 48 49
246107.77392578 3357443.34741211 14.58368778 195 200 193
246106.90698242 3357442.49755859 14.47624683 140 143 134
246108.28063965 3357444.14834595 14.78973007 144 143 139
246108.88818359 3357442.96481323 15.76717663 139 152 160
246108.96374512 3357445.21771240 14.63260269 148 151 160
246107.52343750 3357441.42733765 14.62603855 21 26 30
246110.77404785 3357443.93164063 14.32091999 64 64 64
246107.71899414 3357442.65780640 15.83837032 74 79 83
246108.12634277 3357442.79580688 15.85847855 217 220 235
246106.85180664 3357442.72299194 14.86571312 224 232 221
246108.27966309 3357441.31262207 14.30057335 144 146 124
246110.16345215 3357443.52130127 14.82077503 44 56 52
246106.03515625 3357441.79098511 15.74321556 129 131 120
246108.31970215 3357444.21981812 15.49689388 31 45 48
246109.05053711 3357445.28118896 14.52117825 175 182 190
246109.24487305 3357442.33233643 14.32008362 126 116 106
246109.53491211 3357444.70874023 15.02386951 222 228 242
246107.31652832 3357443.45458984 15.79774570 229 240 244
246108.99865723 3357443.60336304 15.26688862 27 35 38
246109.93591309 3357444.63891602 14.91911411 59 63 72
246108.71789551 3357443.78317261 15.11608505 22 36 37
246108.34252930 3357441.98638916 14.74379539 81 92 75
246108.97009277 3357442.34802246 14.99063969 117 128 122
246109.19335938 3357442.85476685 15.28147888 139 144 138
246106.36474609 3357442.43560791 15.04947090 156 161 155
246109.31518555 3357442.58474731 14.85640335 106 117 111
246108.95654297 3357442.49993896 14.58846951 107 117 109
246107.14978027 3357442.86767578 14.50742626 163 169 159
246108.42834473 3357443.58178711 15.78790569 190 198 211
246108.42065430 3357443.95806885 15.40411758 36 46 45
246108.91174316 3357441.40197754 14.21556854 81 88 57
