246102.68103027 3357686.06964111 13.56053638 100 105 101
246103.34960938 3357683.43011475 12.52902031 82 82 74
246101.48413086 3357684.08685303 12.11828327 247 231 182
246101.50158691 3357684.87194824 13.14709663 175 194 209
246101.32177734 3357682.03112793 12.91612625 166 168 167
246103.13586426 3357684.55554199 13.14434719 26 30 31
246100.54614258 3357685.76135254 12.37656498 145 146 138
246100.86267090 3357685.27612305 12.83174896 193 212 226
246102.97985840 3357683.39691162 12.91016388 77 74 67
246103.41845703 3357682.20623779 13.54506874 100 108 111
246101.33715820 3357684.52984619 12.64275932 56 57 61
246102.83435059 3357684.90930176 13.39216900 115 122 128
246100.92443848 3357683.50744629 12.14505196 164 160 149
246101.96130371 3357682.97296143 12.38772202 172 172 164
246102.05371094 3357684.94702148 13.15403843 102 144 168
246100.66748047 3357685.89312744 12.67270660 125 129 132
246104.04162598 3357684.68920898 13.39521694 11 12 14
246100.66174316 3357685.77001953 12.68203354 146 150 159
246100.94580078 3357683.07440186 12.68424225 167 172 175
246105.41894531 3357683.38897705 12.52699471 12 22 13
246100.98413086 3357681.96582031 12.50949478 147 146 144
246103.81994629 3357683.90637207 12.08821583 122 113 96
246103.30358887 3357684.67761230 13.34541702 12 16 17
246103.54223633 3357684.04870605 12.11300182 247 242 204
246105.30456543 3357684.40655518 12.41050911 184 177 151
246103.49487305 3357684.21325684 12.11162186 158 147 119
246100.77893066 3357682.58966064 12.41454983 145 149 148
246103.51452637 3357684.41662598 12.24872971 145 132 116
246103.11608887 3357683.38012695 12.88055134 100 100 88
246102.92626953 3357685.67950439 13.53804874 12 22 23
246103.72033691 3357682.65814209 13.53675938 104 110 110
246103.94946289 3357684.69488525 13.36609840 8 10 9
246105.17224121 3357683.74096680 12.11372185 37 43 41
246104.12048340 3357683.26068115 12.83256340 34 34 32
246102.50512695 3357684.57470703 13.20044899 31 32 34
246103.39550781 3357683.52746582 12.34039307 115 115 107
246101.59460449 3357684.87817383 13.15069008 173 192 207
246101.83557129 3357684.55413818 12.29084587 57 52 49
246101.78857422 3357683.93078613 12.11185646 155 144 116
246104.81555176 3357683.46783447 12.31407547 38 43 39
246101.79223633 3357684.50018311 12.63122082 55 54 52
246103.76831055 3357684.42181396 12.82289124 31 31 29
246101.42614746 3357682.90087891 12.83718967 162 170 172
246102.42968750 3357684.19171143 12.13375378 156 147 106
246105.57275391 3357683.66595459 12.32988167 18 27 0
246100.74438477 3357684.69897461 12.46405697 205 204 202
246103.33520508 3357684.20074463 12.11138153 158 147 117
246101.78576660 3357684.46649170 12.19973087 122 112 110
246100.50219727 3357685.47705078 12.37961292 141 143 138
246104.07263184 3357684.33398438 12.69580460 58 59 61
246101.65234375 3357684.93151855 13.14205647 173 195 209
246103.63757324 3357683.46844482 12.45125198 97 96 91
246100.94445801 3357685.91766357 12.82622910 135 145 155
246102.27990723 3357683.27868652 12.43506813 94 94 84
246104.53027344 3357683.00750732 13.24931717 17 19 18
246104.38232422 3357682.62988281 13.44472122 47 54 47
246102.42309570 3357684.55645752 12.34003830 72 67 48
246101.52526855 3357685.59228516 13.01659966 135 155 166
246103.90673828 3357683.81951904 12.11819649 58 58 50
246100.61083984 3357685.04663086 12.34336376 164 166 161
246101.47375488 3357681.74951172 12.45320415 194 189 183
246105.22045898 3357684.03143311 12.15323162 172 164 153
246102.07666016 3357681.73413086 12.60286808 28 29 24
246101.78247070 3357686.16381836 13.09783459 73 79 79
246101.42687988 3357686.16473389 13.00763702 130 135 141
246102.68469238 3357684.50378418 12.86292267 39 42 35
246102.56652832 3357682.16619873 13.13108158 98 122 134
246102.53234863 3357683.45184326 12.72167110 71 73 68
246103.56286621 3357684.46417236 12.34884548 64 57 47
246101.70166016 3357684.57275391 13.06012058 122 133 139
246103.46582031 3357683.50708008 12.35090160 109 108 103
246105.50732422 3357683.84881592 12.30753517 118 121 76
246101.82910156 3357684.53234863 12.48395729 53 51 52
246103.05505371 3357682.53161621 13.56581593 145 153 166
246102.24060059 3357685.94195557 13.09593868 19 35 35
246103.23510742 3357683.37139893 12.81725693 91 91 83
246103.17651367 3357685.37731934 14.23902321 40 41 33
246101.42114258 3357684.52697754 12.64546204 49 50 54
246102.83520508 3357684.50738525 12.84749031 39 40 34
246105.33264160 3357683.77618408 12.11544418 36 42 38
246100.50268555 3357685.63726807 12.42798519 134 139 132
246102.23364258 3357683.04412842 12.67578888 126 126 114
246102.68029785 3357683.47686768 12.78861332 65 70 64
246103.10852051 3357684.56744385 13.14304829 15 20 23
246103.93469238 3357682.27471924 13.53573895 86 90 89
246104.47900391 3357683.92022705 12.03214169 88 81 65
246104.62475586 3357683.25445557 12.74120712 32 36 35
246103.39953613 3357683.57495117 12.28843021 113 112 107
246104.30017090 3357683.02783203 13.22420025 29 33 32
246101.36889648 3357684.57177734 12.85744572 107 116 125
246103.02661133 3357686.01696777 13.73841286 59 62 51
246104.23388672 3357684.33270264 12.42729568 63 61 62
246102.53833008 3357683.49572754 12.42659378 48 54 52
246102.11767578 3357685.33697510 13.17473221 123 150 169
246103.87329102 3357684.38226318 12.30875683 88 81 73
246101.46691895 3357681.84307861 13.01275253 42 43 37
246100.72900391 3357684.73175049 12.49422455 176 175 173
246102.56542969 3357686.12310791 13.10732841 81 94 100
246101.66137695 3357684.83514404 13.14918137 169 185 200
246102.81713867 3357683.33630371 13.05236244 55 56 50
246103.09082031 3357684.93115234 13.45941353 9 14 17
246101.83068848 3357685.57672119 13.17777729 54 74 85
246101.13806152 3357682.31433105 12.78353405 206 207 209
246104.44213867 3357684.16320801 12.07718182 179 164 143
246101.18603516 3357685.88653564 12.88424587 117 128 134
246102.05773926 3357682.80731201 13.09668636 147 170 178
246102.82556152 3357685.85235596 13.35575008 17 30 36
246100.81628418 3357684.67077637 12.65206623 122 119 114
246102.19042969 3357684.68023682 13.33674622 224 227 236
246104.11022949 3357683.21740723 12.95214939 27 29 26
246103.14929199 3357684.49707031 12.86097908 39 39 37
246102.08544922 3357683.63299561 12.24760151 43 49 49
246103.22058105 3357683.38146973 12.78970814 93 93 85
246102.17272949 3357682.77032471 13.08962727 162 185 191
246100.99133301 3357681.94641113 12.50123692 147 146 142
246103.87255859 3357684.08215332 12.04535484 232 218 183
246101.59570313 3357685.86029053 13.06799030 96 107 111
246104.00085449 3357682.82855225 13.42508602 76 81 84
246101.66638184 3357682.56329346 12.95984364 153 162 167
246100.90124512 3357682.07836914 12.42848587 172 171 169
246102.15942383 3357682.26068115 13.13838100 173 193 200
246101.48559570 3357682.65142822 12.85384560 159 167 170
246102.73803711 3357685.33331299 13.28076363 23 46 60
246102.64050293 3357682.18432617 13.35389328 155 173 183
246102.62109375 3357685.69378662 13.02000427 101 123 137
246102.17395020 3357685.77276611 13.08870125 13 34 35
246102.38024902 3357683.11822510 13.08181381 118 136 136
246103.44482422 3357684.48510742 12.75772095 33 36 29
246103.76647949 3357684.25024414 12.08650112 172 155 135
246100.87475586 3357684.61608887 12.57994938 132 129 122
246101.26367188 3357684.52673340 12.57685089 57 57 57
246102.78381348 3357685.34802246 13.33463383 26 44 58
246105.42919922 3357683.89581299 12.22195816 138 137 109
246100.72973633 3357684.68060303 12.29813194 159 154 151
246101.02917480 3357685.81823730 12.79246616 148 162 175
246104.83178711 3357682.88934326 13.19367504 107 114 106
246104.79846191 3357683.94628906 12.06773472 75 73 60
246104.78173828 3357684.44116211 12.75747585 45 44 39
246101.46325684 3357681.95751953 12.99077702 127 129 126
246102.98937988 3357684.50793457 12.86482430 41 43 38
246101.78979492 3357681.75689697 12.84795761 36 36 34
246101.30334473 3357682.49298096 12.82054043 174 178 181
246104.33947754 3357682.54730225 13.44832516 55 62 55
246100.67749023 3357686.01678467 12.35515213 151 148 143
246103.40209961 3357683.03729248 13.35192299 98 104 104
246104.30798340 3357684.38323975 12.90785122 32 34 31
246104.13110352 3357683.55639648 12.29923725 60 60 58
246102.29406738 3357684.56396484 12.45361042 75 71 60
246103.18603516 3357683.50335693 12.49273205 104 104 96
246103.23767090 3357682.64428711 13.54857731 124 133 140
246102.31396484 3357685.37432861 13.13143063 99 140 162
246102.24011230 3357683.32244873 12.39994240 75 76 70
246103.47717285 3357684.45642090 12.31163311 59 51 40
246101.34057617 3357684.98461914 13.10696888 172 189 207
246101.63391113 3357684.44165039 12.15399456 140 133 127
246102.84667969 3357684.02490234 12.09234333 250 238 198
246102.28417969 3357681.72985840 12.55885410 22 23 15
246103.62683105 3357684.56475830 13.19235706 1 1 3
246102.40356445 3357684.97363281 13.18173122 115 148 167
246102.99279785 3357685.48370361 13.62265301 7 16 15
246102.84570313 3357681.91229248 13.35470486 54 60 60
246104.47705078 3357684.35430908 12.53110409 65 63 64
246102.55126953 3357683.45135498 12.87583351 95 96 90
246102.94262695 3357681.91876221 13.28816032 43 48 51
246105.27160645 3357683.21795654 12.78238487 17 24 17
246103.49475098 3357683.54119873 12.31524277 121 118 111
246100.96362305 3357686.16076660 12.92454243 107 115 118
246104.22265625 3357684.66503906 13.23910522 8 10 9
246102.51574707 3357682.55859375 13.19681740 140 164 176
246103.06738281 3357684.50329590 12.80279160 30 31 26
246102.52319336 3357684.08953857 12.10860252 228 216 166
246103.87268066 3357682.66717529 13.51999092 86 96 97
246102.15698242 3357683.65319824 12.23945045 41 50 47
246104.67919922 3357683.17730713 12.93174839 59 59 59
246102.10009766 3357682.66558838 13.09054375 166 193 200
246102.49108887 3357683.11419678 13.09759903 92 107 110
246105.28100586 3357683.82696533 12.09664249 35 40 34
246103.19958496 3357684.88732910 13.72958279 20 21 23
246103.78564453 3357683.37115479 12.67818642 67 68 63
246102.66564941 3357686.09710693 13.46403599 91 97 93
246104.35144043 3357683.45465088 12.41949558 57 59 58
246100.58923340 3357685.88238525 12.33325386 160 159 154
246104.55334473 3357683.57958984 12.15164852 62 67 63
246101.81079102 3357682.92858887 12.67107964 168 169 155
246102.34973145 3357684.52655029 12.28099155 80 73 57
246104.20361328 3357683.46533203 12.41545010 66 68 65
246103.20947266 3357683.04937744 13.32071114 80 81 83
246101.44592285 3357683.68621826 12.19881630 159 155 146
246101.27307129 3357681.76141357 12.31682110 150 148 136
246102.16528320 3357681.79052734 13.00964260 12 16 19
246101.43725586 3357685.72668457 12.91086197 134 148 161
246102.64636230 3357684.80426025 13.44229698 119 130 134
246102.74291992 3357685.15545654 13.30696964 38 56 68
246102.05541992 3357683.05816650 13.10677242 91 105 114
246102.03051758 3357684.61859131 12.28416252 71 64 58
246100.90588379 3357684.58123779 12.48449230 72 69 60
246101.72058105 3357682.96215820 12.96611118 151 158 164
246103.32434082 3357684.71502686 13.42959309 15 17 16
246101.06164551 3357684.67279053 12.95534706 130 133 142
246104.60034180 3357682.59655762 13.36535931 32 42 31
246102.33776855 3357685.42584229 13.12454796 68 109 129
246104.07177734 3357684.62994385 13.23591900 6 8 5
246104.86743164 3357683.32171631 12.64254570 31 33 32
246102.07360840 3357685.75738525 13.11019707 23 38 41
246102.26123047 3357684.93334961 13.18000317 116 153 169
246103.62976074 3357684.72314453 13.56040096 30 34 35
246102.56066895 3357684.15203857 12.11110115 180 167 122
246103.47192383 3357684.40228271 12.23414040 148 135 118
246103.19799805 3357682.12951660 13.52500343 101 114 122
246102.82263184 3357684.01013184 12.09188461 250 238 198
246101.27758789 3357685.33142090 12.91322899 168 185 201
246101.77795410 3357685.58435059 13.17605877 21 39 49
246103.83142090 3357684.70782471 13.57537270 19 21 18
246101.76049805 3357685.93151855 13.14881706 24 36 36
246103.55993652 3357683.33807373 12.78574085 59 60 54
246101.22912598 3357685.50988770 12.82773113 168 186 200
246103.77941895 3357684.42871094 12.87552071 25 25 23
246103.78234863 3357684.41632080 12.66869450 50 50 50
246105.27832031 3357683.23754883 12.75211811 14 21 14
246101.88562012 3357683.03692627 12.40206146 168 167 163
246103.17956543 3357684.69549561 13.29617405 10 19 18
246100.79199219 3357684.65850830 12.48666859 126 123 118
246101.03198242 3357685.51129150 12.79259968 177 193 208
246102.86853027 3357684.51159668 12.49056053 76 69 59
246103.27648926 3357683.06353760 13.32683468 75 79 78
246102.73168945 3357683.37805176 13.01832581 50 49 44
246102.71533203 3357684.02416992 12.08535385 250 238 198
246101.18920898 3357681.76824951 12.34155369 146 142 131
246103.38354492 3357682.53784180 13.58409882 123 132 137
246101.65917969 3357681.76190186 12.88523579 77 77 69
246103.61437988 3357684.25366211 12.15468979 170 156 130
246103.19812012 3357685.45678711 13.99492931 11 16 20
246104.49780273 3357682.84143066 13.36394691 19 25 21
246104.97167969 3357683.48590088 12.30569649 42 43 45
246101.71069336 3357683.21258545 12.43883801 127 126 121
246104.30920410 3357684.25933838 12.14268494 118 112 98
246103.54931641 3357683.66699219 12.23455620 111 108 103
246104.13781738 3357682.99243164 13.25263786 39 43 42
246102.56359863 3357685.50238037 13.08557415 52 78 101
246102.50292969 3357684.87597656 13.31422901 131 145 156
246103.33032227 3357682.25073242 13.54602337 99 110 116
246103.75073242 3357683.64550781 12.26490784 102 99 92
246101.84741211 3357684.13165283 12.14083290 224 215 182
246102.35668945 3357683.03094482 13.05006504 137 155 159
246101.22534180 3357683.41265869 12.46810532 62 61 57
246100.72961426 3357686.02380371 12.65120983 82 84 81
246102.00805664 3357686.19641113 13.10834789 87 88 90
246100.65075684 3357685.93133545 12.54656887 104 104 104
246102.50683594 3357685.92193604 13.02238941 2 17 24
246101.89770508 3357682.97027588 12.41280174 167 166 161
246103.65466309 3357684.45764160 12.90950871 26 26 26
246102.70092773 3357682.02783203 13.22944832 50 61 65
246103.99890137 3357684.05541992 12.07649422 237 222 193
246100.65942383 3357685.00720215 12.39226151 125 122 115
246103.37915039 3357682.83721924 13.45735359 131 138 144
246101.56237793 3357685.29589844 13.08359051 155 171 187
246102.19433594 3357683.32965088 12.36440754 65 67 64
246102.13317871 3357684.52117920 12.68029499 75 75 67
246103.83129883 3357684.70758057 13.56430244 19 21 18
246101.69567871 3357682.75848389 12.99420452 154 161 167
246102.59484863 3357684.51763916 12.58808136 79 77 65
246102.56640625 3357682.65832520 13.17876720 129 151 162
246101.31542969 3357684.51824951 12.45421028 57 55 56
246100.96887207 3357683.08032227 12.73656464 148 153 157
246102.38684082 3357683.43041992 12.51885605 40 45 41
246103.18811035 3357684.78710938 14.07896328 17 18 20
246101.17504883 3357684.88885498 13.09125042 136 152 165
246101.70861816 3357684.52459717 12.69626045 45 45 45
246104.00537109 3357682.76477051 13.45146275 78 86 89
246101.98376465 3357682.89703369 12.66784859 145 146 132
246103.25610352 3357684.48864746 12.90833282 43 43 43
246103.60253906 3357683.50946045 12.36701488 103 102 97
246103.89697266 3357684.39892578 12.87471867 46 46 46
246104.13989258 3357682.22753906 13.48591995 49 55 55
246103.73205566 3357682.38885498 13.57907581 103 109 109
246105.09411621 3357683.91900635 12.08537388 43 43 33
246100.60131836 3357685.47222900 12.65724182 132 146 149
246102.29418945 3357683.57440186 12.29298878 38 44 44
246104.78515625 3357682.31451416 13.39112663 82 89 71
246101.43969727 3357685.54132080 12.93541813 151 168 184
246101.75622559 3357683.10260010 12.43754005 149 148 144
246101.46520996 3357686.02972412 13.03399372 92 97 101
246103.90466309 3357683.46514893 12.44564724 72 71 69
246102.29309082 3357683.27459717 13.11223888 137 143 143
246105.08068848 3357683.55249023 12.25711441 35 41 37
246104.73986816 3357683.20587158 12.84215069 31 33 32
246103.28894043 3357682.04797363 13.49578571 86 94 97
246102.02038574 3357683.58770752 12.25408649 55 56 58
246101.67102051 3357684.50317383 12.46961975 42 43 45
246102.77734375 3357682.06079102 13.44139194 169 179 189
246104.24365234 3357684.66015625 13.20627308 14 16 15
246102.65039063 3357683.47003174 12.68953800 71 72 67
246101.88037109 3357683.28192139 12.35570908 97 97 95
246102.75732422 3357682.39495850 13.52010727 174 184 196
246102.37658691 3357684.35351563 12.17448044 153 142 122
246102.30102539 3357684.44476318 12.91203022 52 53 48
246102.22851563 3357684.16693115 12.13596439 160 145 112
246102.16308594 3357681.73504639 12.81271076 38 39 33
246102.93029785 3357684.67913818 13.18214226 81 91 90
246104.42175293 3357684.39031982 12.89273453 33 35 32
246104.33605957 3357683.78948975 12.08849049 64 65 57
246102.88146973 3357685.21502686 13.46319866 18 29 33
246101.20715332 3357681.90649414 12.85668755 182 181 187
246104.66625977 3357684.35717773 12.34332657 45 42 35
246100.53430176 3357685.49523926 12.51998138 206 220 220
246104.91967773 3357684.23797607 12.22287369 155 148 129
246100.72851563 3357685.28894043 12.79059410 213 223 232
246102.53491211 3357684.28356934 12.13049316 173 162 132
246102.85021973 3357685.89984131 13.52988148 11 19 21
246102.50329590 3357686.07012939 13.06302261 1 11 20
246103.78369141 3357683.15081787 13.07434464 34 36 33
246101.36840820 3357684.39965820 12.16750526 130 122 111
246100.77062988 3357684.71148682 12.58715630 118 115 110
246102.82312012 3357685.57830811 13.34149456 28 46 56
246101.51586914 3357681.58337402 12.25197601 161 154 135
246102.59790039 3357682.27185059 13.30648232 145 172 183
246104.71972656 3357683.32110596 12.60998535 31 35 34
246104.28710938 3357683.90216064 12.10113430 90 83 67
246100.84008789 3357683.02154541 12.32537746 160 157 148
246103.71533203 3357684.26177979 12.11546421 172 157 134
246103.42919922 3357683.76000977 12.17371082 105 105 95
246104.25024414 3357682.51647949 13.46036720 58 62 61
246100.81738281 3357685.94421387 12.80400085 151 155 166
246101.69201660 3357682.66735840 12.99224758 153 162 169
246105.05834961 3357683.17944336 12.87746620 34 39 32
246102.74230957 3357683.99639893 12.08701038 247 236 204
246102.07885742 3357684.61035156 13.24148941 92 93 97
246101.17895508 3357683.13067627 12.87584877 154 158 159
246103.93847656 3357682.86187744 13.42369556 86 92 92
246101.34997559 3357684.52154541 12.51444054 55 53 54
246103.16186523 3357682.37329102 13.55660629 121 134 143
246103.12658691 3357685.01141357 14.02232838 3 8 11
246104.20166016 3357683.76110840 12.13200665 66 67 59
246103.93359375 3357683.42333984 12.52124691 65 64 62
246101.25012207 3357684.87597656 13.11647415 147 165 179
246101.74145508 3357682.16583252 12.99785233 150 157 163
246102.15466309 3357684.48925781 12.79621792 61 60 55
246104.08422852 3357683.70098877 12.17139816 76 77 72
246105.50170898 3357683.49871826 12.41142941 14 26 14
246101.76391602 3357683.04125977 12.85910225 172 177 173
246101.49377441 3357685.34423828 13.02809334 152 168 184
246102.65881348 3357682.83477783 13.43592358 189 206 213
246100.98632813 3357681.94091797 12.47518635 147 146 142
246103.22998047 3357685.52050781 14.18171024 36 36 34
246103.09521484 3357684.50427246 12.53502941 67 64 57
246102.38867188 3357684.59899902 13.27579975 23 24 26
246100.68493652 3357684.85162354 12.68993282 130 124 124
246101.32495117 3357684.23724365 12.12654305 141 127 101
246102.78894043 3357683.49743652 12.70979595 58 60 55
246105.35473633 3357684.41613770 12.44367123 164 160 122
246102.28759766 3357684.17529297 12.14394379 156 142 107
246105.06457520 3357684.55267334 12.67705250 57 54 45
246103.23779297 3357684.49157715 12.81380367 33 34 29
246101.51098633 3357683.97668457 12.10824394 223 211 173
246102.81860352 3357683.43811035 12.87501621 64 65 57
246101.39599609 3357683.36560059 12.64880180 176 176 174
246102.62573242 3357685.92980957 13.01402187 6 19 25
246101.51489258 3357684.99127197 13.12946701 167 188 205
246101.87133789 3357682.11901855 13.07700157 50 58 61
246101.97229004 3357681.87945557 13.05970478 25 34 33
246101.46533203 3357682.95483398 12.83790302 161 167 167
246101.17578125 3357683.21960449 12.86751461 206 210 213
246102.76965332 3357682.86700439 13.48085117 188 198 207
246104.37902832 3357684.18371582 12.09214497 167 156 134
246104.15197754 3357684.59277344 13.17167091 54 56 53
246102.03491211 3357683.11956787 12.96823311 124 125 120
246103.93420410 3357683.29388428 12.83188915 43 42 38
246104.29846191 3357683.24078369 12.80585575 28 30 27
246102.65258789 3357685.91815186 13.02998638 6 21 26
246102.38598633 3357682.76794434 13.06522274 152 175 181
246102.31774902 3357684.48553467 12.80313206 56 55 50
246101.17529297 3357682.08703613 12.76614761 195 196 201
246102.11425781 3357685.33508301 13.17479038 123 150 169
246101.01611328 3357681.96411133 12.60453510 161 161 163
246102.26171875 3357686.10302734 13.14146996 70 81 83
246103.86657715 3357683.34460449 12.73265743 59 58 56
246100.88391113 3357685.97100830 12.84531116 170 176 188
246104.61340332 3357684.13543701 12.08756351 190 175 154
246102.22070313 3357682.97991943 12.60147953 136 138 125
246103.44750977 3357684.63714600 13.34828472 2 4 3
246102.39538574 3357683.62622070 12.24083710 43 47 46
246102.86218262 3357683.57849121 12.49267292 74 79 73
246101.94909668 3357685.65704346 13.14936924 44 62 74
246100.82507324 3357685.15936279 12.85538673 211 226 231
246104.50537109 3357684.34954834 12.29280853 64 61 56
246101.56445313 3357684.50219727 12.22880363 67 64 59
246101.36938477 3357684.52795410 12.62042999 56 57 61
246102.33862305 3357685.98657227 13.08211899 49 59 61
246102.33825684 3357684.54266357 12.56131172 79 75 63
246104.65979004 3357683.24816895 12.75357533 29 33 32
246103.48059082 3357684.01306152 12.11179733 244 238 202
246103.57556152 3357684.37689209 12.22961712 160 148 132
246103.74633789 3357683.44281006 12.52299595 81 80 75
246101.30224609 3357681.79797363 12.69193840 95 93 94
246102.36376953 3357686.11242676 13.14018345 103 114 120
246104.46813965 3357683.48040771 12.39222050 58 59 61
246101.69409180 3357682.12152100 12.96847820 144 152 155
246103.56225586 3357684.47094727 12.92901421 44 46 45
246101.06103516 3357686.32031250 12.78463173 73 74 79
246104.51464844 3357682.86114502 13.35594463 23 29 27
246103.60546875 3357684.56304932 13.19404411 0 0 0
246104.34008789 3357682.58911133 13.44961357 54 60 56
246102.92187500 3357683.22448730 13.23151112 159 156 151
246102.89184570 3357682.03466797 13.46511078 131 138 148
246101.78222656 3357685.28839111 13.16162586 54 79 99
246103.96826172 3357683.36425781 12.64329243 52 51 47
246102.28271484 3357684.32684326 12.15748692 147 136 114
246102.20007324 3357682.64825439 13.09097958 164 185 190
246104.14074707 3357682.45172119 13.50144577 67 72 75
246102.26074219 3357685.67926025 13.08654594 103 132 140
246102.46411133 3357684.54425049 13.18536377 31 32 34
246105.37585449 3357684.04132080 12.28198147 179 172 144
246102.84802246 3357686.03033447 13.66869640 100 105 99
246104.56225586 3357684.39086914 12.85026455 26 26 24
246101.68286133 3357683.54992676 12.26423073 50 54 57
246101.37707520 3357684.48846436 12.29695892 49 48 46
246105.47485352 3357683.42144775 12.49397564 12 22 13
246102.88562012 3357683.59112549 12.47544765 80 85 79
246102.88110352 3357684.19781494 12.11424541 160 147 115
246102.04675293 3357684.38323975 12.12699413 184 177 171
246102.46118164 3357684.82489014 13.32419586 106 119 127
246101.61547852 3357682.14886475 12.93358994 155 160 164
246101.48571777 3357683.57775879 12.27276993 46 46 38
246102.50891113 3357682.62548828 13.13000202 133 157 167
246101.91723633 3357684.54962158 12.52675152 70 69 65
246100.75280762 3357684.70721436 12.51425362 157 156 152
246101.93176270 3357685.06738281 13.14887714 89 129 155
246101.62048340 3357684.81768799 13.14697933 172 190 204
246102.86535645 3357684.50885010 12.74679184 40 41 35
246101.70666504 3357684.51367188 12.64200687 16 16 14
246103.18872070 3357685.94812012 13.77335167 28 29 24
246100.52185059 3357685.59973145 12.49048996 144 153 150
246100.70385742 3357686.00567627 12.63246441 85 85 83
246102.03100586 3357681.90063477 13.09945774 16 26 25
246102.61303711 3357684.50134277 12.25979137 119 106 87
246100.81921387 3357686.14300537 12.77510262 110 114 113
246101.28784180 3357686.09405518 13.00608826 153 160 166
246103.55920410 3357683.97344971 12.11486053 206 202 167
246104.39025879 3357683.22222900 12.84781075 20 25 21
246102.16027832 3357681.64727783 12.31659794 85 85 77
246100.98742676 3357681.93981934 12.47582817 147 146 142
246102.79150391 3357685.79486084 13.21549034 23 42 48
246104.81994629 3357682.71539307 13.22677612 105 116 99
246100.54418945 3357685.82580566 12.30291176 154 154 146
246103.20263672 3357683.80120850 12.14541721 76 76 64
246101.54333496 3357686.10717773 13.04035759 117 123 123
246104.59924316 3357683.74414063 12.05990791 56 61 57
246102.37695313 3357683.60705566 12.25821114 43 47 48
246101.45092773 3357683.93200684 12.10591507 189 174 143
246101.12475586 3357685.99359131 12.95298290 138 147 154
246105.57531738 3357683.64172363 12.34500504 14 23 2
246102.27331543 3357684.30572510 12.15427399 148 136 114
246104.59814453 3357684.36364746 12.61550140 71 70 66
246103.18774414 3357685.88256836 13.76407337 20 22 21
246101.87414551 3357681.75244141 12.80667782 41 43 40
246102.22204590 3357683.84362793 12.14211178 68 59 50
246103.47595215 3357683.30657959 12.86537933 43 44 38
246102.43103027 3357685.74084473 13.00180244 7 32 39
246102.26440430 3357683.82696533 12.13893795 35 34 30
246101.04211426 3357683.90386963 12.11955547 178 167 137
246105.50756836 3357683.93255615 12.40509796 133 130 77
246102.51855469 3357686.10375977 13.09216976 79 92 98
246102.43469238 3357681.80786133 13.14319229 46 54 57
246100.62634277 3357685.07141113 12.68761539 198 190 188
246102.12524414 3357684.44934082 12.96042252 46 45 40
246101.77832031 3357682.88354492 13.04914856 158 162 171
246101.32421875 3357683.31872559 12.77398491 202 202 200
246104.12304688 3357682.83190918 13.41649151 61 67 67
246101.42333984 3357681.77105713 12.54154682 175 172 167
246102.67968750 3357685.87420654 13.03489304 15 30 35
246102.42529297 3357686.10784912 13.11325359 74 85 91
246103.85290527 3357682.67138672 13.52147007 89 99 100
246105.37158203 3357684.04803467 12.28191471 179 172 144
246103.28552246 3357684.65063477 13.31558609 11 15 16
246101.33825684 3357682.77233887 12.82753658 168 176 179
246101.12500000 3357686.05499268 12.98685265 177 184 192
246100.85595703 3357686.18811035 12.74643517 102 104 101
246103.86853027 3357682.85003662 13.44063473 90 95 98
246103.51953125 3357683.43768311 12.49611378 76 75 70
246100.59069824 3357685.55303955 12.62354088 161 180 178
246101.32995605 3357681.79351807 12.76563263 87 86 82
246102.20312500 3357683.06475830 12.40896320 125 125 113
246102.89062500 3357684.97796631 13.44947338 27 32 35
246102.68945313 3357682.27832031 13.47181988 183 197 208
246102.51318359 3357685.90808105 13.01748562 2 17 24
246104.46118164 3357682.46563721 13.42745972 37 43 31
246102.61962891 3357684.51306152 12.59355164 74 72 60
246102.94152832 3357685.10144043 13.53883266 13 23 24
246103.17883301 3357684.51367188 12.54509068 64 64 56
246103.47412109 3357684.73901367 13.73861504 24 28 27
246105.54699707 3357683.53088379 12.38582134 16 30 15
246101.68371582 3357684.45684814 12.17336559 129 120 115
246101.76892090 3357685.98754883 13.13969231 42 52 54
246103.90295410 3357684.70104980 13.51039219 9 13 12
246101.27148438 3357681.90655518 12.93821621 131 131 129
246102.74987793 3357684.52471924 13.00227928 70 72 69
246100.91625977 3357682.34533691 12.65356064 178 183 186
246104.37280273 3357683.46301270 12.40763855 55 57 56
246101.90979004 3357684.85144043 13.17171860 140 171 191
246101.63769531 3357683.04510498 12.72721100 137 140 133
246102.87951660 3357683.22607422 13.22570992 165 161 158
246102.71875000 3357683.10034180 13.42050362 146 153 159
246103.06530762 3357684.52593994 12.37252045 60 56 45
246102.61962891 3357684.59490967 13.15979195 26 27 31
246101.05090332 3357684.55126953 12.77051067 76 77 79
246101.90270996 3357682.88854980 12.62668228 163 164 150
246102.12109375 3357684.48040771 12.82049942 62 61 56
246103.23962402 3357683.05285645 13.32905769 80 81 83
246101.46508789 3357681.75122070 12.44759846 194 189 183
246103.48425293 3357682.54772949 13.58105183 120 128 131
246101.89416504 3357684.50720215 12.86502266 56 55 53
246102.71789551 3357685.78112793 13.07483768 80 100 111
246102.21154785 3357684.78594971 13.28014183 144 154 163
246104.27221680 3357683.01281738 13.23829460 29 33 32
246102.65625000 3357684.75531006 13.36197853 86 91 95
246100.66113281 3357685.93542480 12.60408783 89 89 89
246103.25195313 3357685.57537842 14.14433956 30 34 33
246103.14050293 3357682.36920166 13.55575371 121 134 143
246102.54870605 3357684.45025635 12.21250916 151 140 120
246101.03967285 3357683.74743652 12.11680126 155 153 140
246102.27954102 3357684.42352295 13.00805950 39 39 37
246103.05615234 3357683.97747803 12.10811520 247 241 207
246103.25488281 3357685.68762207 13.91664791 29 30 34
246102.39685059 3357685.42224121 13.09822464 37 75 98
246102.60034180 3357683.46142578 12.63404942 67 69 64
246102.00305176 3357681.80499268 12.99210835 11 12 14
246105.05859375 3357684.06848145 12.14116573 181 173 160
246104.73803711 3357683.44354248 12.36361694 34 40 38
246105.43603516 3357684.25085449 12.46396446 143 140 85
246105.19824219 3357683.89489746 12.08496666 45 45 35
246104.46386719 3357684.16375732 12.07947731 179 164 143
246101.97473145 3357685.51904297 13.18390083 51 73 86
246103.58361816 3357684.46539307 12.71987057 32 34 31
246101.69702148 3357682.35601807 12.97868061 152 160 163
246102.09619141 3357682.87860107 12.54002380 146 147 131
246102.92260742 3357685.66827393 13.53108311 11 21 23
246102.46728516 3357685.70800781 13.00299644 19 47 58
246102.08679199 3357682.13067627 13.15777302 172 191 198
246104.53320313 3357682.95050049 13.30071831 6 10 9
246100.67163086 3357684.72412109 12.27470779 162 158 149
246100.78466797 3357682.78607178 12.34641743 146 148 143
246104.17578125 3357683.20568848 12.96365833 30 32 29
246102.11303711 3357682.61395264 13.09617043 167 192 199
246103.95373535 3357684.40972900 12.94651031 42 42 40
246101.41552734 3357683.06323242 12.84669590 159 163 164
246102.46887207 3357684.45880127 12.97791100 32 32 30
246101.64318848 3357684.50317383 12.57630539 47 47 49
246102.21691895 3357683.07611084 13.09447193 140 159 163
246102.16564941 3357682.28436279 13.13483906 173 196 202
246100.57910156 3357684.99261475 12.29325008 143 144 138
246101.69580078 3357681.74597168 12.75929642 88 87 82
246102.48327637 3357683.62164307 12.24473667 45 49 48
246101.91967773 3357683.42816162 12.29618263 57 59 58
246101.57141113 3357685.14215088 13.10405445 163 182 197
246105.08117676 3357683.20880127 12.84308434 30 35 29
246105.25036621 3357683.33117676 12.63359547 16 23 16
246105.30078125 3357683.32104492 12.64481926 13 23 15
246103.75842285 3357682.64147949 13.54123974 100 108 110
246101.95617676 3357686.15435791 13.12714958 77 81 84
246101.60791016 3357686.15124512 13.05670071 88 92 91
246102.98889160 3357683.55511475 12.56661415 101 104 95
246104.71398926 3357683.40423584 12.43495750 34 40 40
246103.23620605 3357685.84069824 13.84213924 22 23 27
246104.77795410 3357683.51434326 12.24608898 39 44 40
246102.05456543 3357685.09094238 13.14261246 75 117 142
246102.39550781 3357684.10729980 12.12744808 228 218 169
246102.23474121 3357684.22167969 12.14125347 148 134 107
246103.68957520 3357684.54260254 13.14291668 31 31 31
246103.06921387 3357684.42401123 12.21314144 143 136 120
246100.82873535 3357685.18505859 12.84951591 207 225 229
246101.51684570 3357684.59008789 12.88389206 92 101 110
246101.62670898 3357681.90362549 13.00934792 71 73 70
246103.07568359 3357685.96203613 13.71100235 48 49 44
246102.67236328 3357683.61920166 12.29769611 56 61 55
246104.66406250 3357682.49322510 13.33337402 58 69 53
246102.65649414 3357683.52429199 12.44715118 51 56 50
246102.66882324 3357683.02917480 13.27566910 141 156 159
246105.34497070 3357683.95678711 12.17504597 163 156 146
246101.61279297 3357684.97485352 13.14030552 171 194 210
246102.77502441 3357684.28936768 12.12713146 152 142 117
246103.07019043 3357684.57995605 13.13425922 12 17 20
246103.18603516 3357683.97711182 12.10982227 248 240 203
246105.36462402 3357683.77362061 12.12435436 36 42 38
246104.11376953 3357683.30297852 12.72233677 35 35 33
246104.19885254 3357683.41534424 12.48876095 62 64 61
246102.22021484 3357682.79571533 13.09096909 157 178 183
246104.11523438 3357682.09814453 13.50557232 50 54 53
246102.64587402 3357686.03735352 13.06627464 2 17 22
246100.50708008 3357685.39233398 12.31509876 141 142 136
246102.94409180 3357684.50769043 12.93189907 48 50 45
246102.22790527 3357683.59729004 12.27983093 43 47 46
246101.99755859 3357683.15777588 12.34484577 170 171 166
246101.03735352 3357682.35406494 12.75059223 204 205 207
246104.25085449 3357684.34820557 12.75179386 57 59 58
246102.76538086 3357683.21856689 13.25281239 112 110 113
246101.27490234 3357686.07043457 12.98601532 146 153 159
246102.05957031 3357683.15734863 12.35729694 143 144 138
246101.18676758 3357684.90100098 13.09099674 156 174 186
246103.87011719 3357682.23937988 13.54155445 96 100 99
246102.75781250 3357686.00659180 13.51198483 22 26 27
246101.67968750 3357683.01092529 12.66800404 133 136 129
246102.35375977 3357684.76727295 13.33558750 174 187 193
246100.43518066 3357685.30108643 12.19970989 144 143 138
246103.93078613 3357684.35131836 12.21852112 139 131 120
246102.66076660 3357682.84918213 13.41144180 185 202 209
246100.94018555 3357684.80767822 12.97577953 211 216 220
246103.14721680 3357682.32147217 13.54948330 120 133 142
246102.77124023 3357685.12359619 13.36319351 50 64 75
246103.93603516 3357683.84399414 12.10593414 53 50 41
246102.74157715 3357683.20233154 13.28572273 102 102 104
246102.13977051 3357684.44305420 13.08303738 59 61 58
246102.14440918 3357684.40576172 12.15684700 139 134 115
246101.32421875 3357683.45849609 12.47684479 46 46 44
246102.49401855 3357685.48852539 13.08094597 24 59 81
246101.50524902 3357686.14111328 13.02639198 120 125 128
246101.28039551 3357684.40887451 12.18304729 122 114 111
246103.23840332 3357685.53942871 14.16003704 35 37 34
246101.64379883 3357682.53491211 12.93502140 151 160 165
246100.99658203 3357684.01641846 12.13040257 249 240 197
246100.87573242 3357683.04858398 12.41292000 137 138 132
246103.24072266 3357682.12475586 13.52582169 99 108 115
246102.93676758 3357685.41680908 13.54381275 10 20 22
246102.50695801 3357686.03381348 13.05200195 0 6 15
246102.09729004 3357681.96105957 13.12469482 23 34 36
246104.13781738 3357684.59948730 13.17173100 54 56 53
246102.59094238 3357683.15588379 13.26758862 163 172 177
246101.98315430 3357684.01171875 12.12864971 248 239 208
246103.47888184 3357682.95581055 13.40240097 100 110 111
246103.00671387 3357685.32891846 13.63638020 12 17 20
246103.25415039 3357684.21697998 12.13401890 142 130 104
246102.80529785 3357682.86981201 13.47359562 194 203 212
246105.06042480 3357684.32733154 12.29873180 211 204 194
246102.34436035 3357683.97106934 12.11670589 226 215 183
246100.88171387 3357683.14331055 12.23110771 163 160 153
246103.00488281 3357683.40411377 12.89172554 77 74 65
246103.08886719 3357684.96032715 13.57643414 17 22 25
246103.20239258 3357684.77624512 13.99485111 23 25 24
246103.22851563 3357682.89752197 13.41178703 150 157 167
246103.38000488 3357682.98291016 13.37919712 104 114 115
246101.72375488 3357683.01220703 12.56311512 161 162 156
246104.03759766 3357683.19409180 12.99383354 49 51 48
246101.39221191 3357684.60095215 12.94428158 177 190 199
246102.33142090 3357681.72009277 12.90127468 22 24 19
246103.04077148 3357685.49481201 13.72598553 4 14 16
246105.12158203 3357684.38867188 12.34155941 179 171 158
246103.16259766 3357684.51861572 13.10226727 58 62 63
246100.89514160 3357686.11151123 12.90163136 113 120 126
246101.91552734 3357684.77130127 13.17654037 145 163 177
246104.37915039 3357683.02435303 13.23805237 29 33 32
246101.82543945 3357683.10681152 12.41104984 173 173 171
246102.60925293 3357684.38299561 12.16238880 164 153 131
246103.33764648 3357683.88415527 12.12115669 99 94 72
246102.41174316 3357682.36853027 13.14348602 155 182 191
246101.24768066 3357681.96813965 12.89287758 191 192 196
246103.15075684 3357682.04333496 13.45776558 106 115 124
246102.77429199 3357685.95001221 13.37234592 2 13 15
246102.77038574 3357684.52587891 12.31590271 69 59 47
246102.41979980 3357684.45568848 12.93042374 38 34 31
246102.79760742 3357682.07904053 13.47378159 172 182 194
246100.99426270 3357685.63519287 12.77468395 169 185 200
246101.40576172 3357683.62908936 12.23975372 129 126 117
246102.07873535 3357682.51416016 13.10795116 173 197 207
246101.03063965 3357685.58703613 12.77942753 172 188 203
246100.55981445 3357685.82019043 12.33031368 150 151 143
246102.33654785 3357683.19610596 12.58872414 114 116 105
246102.96545410 3357685.63183594 13.59258366 11 21 22
246105.51525879 3357683.91534424 12.40039158 132 132 80
246104.96679688 3357683.46710205 12.32352352 37 38 40
246103.24987793 3357685.54791260 14.06992245 45 46 41
246102.74853516 3357686.01672363 13.42892933 0 3 5
246102.27514648 3357681.59271240 12.24400043 86 83 74
246103.07373047 3357682.46618652 13.56774902 142 150 163
246104.34521484 3357684.34576416 12.51342010 65 64 62
246105.21301270 3357684.07281494 12.18439293 175 167 156
246104.12805176 3357684.46466064 13.06352901 52 52 50
246102.57885742 3357684.22503662 12.11642075 165 153 115
246101.41003418 3357684.54632568 12.73642826 59 59 67
246101.90405273 3357685.08618164 13.15601444 84 120 146
246101.75842285 3357684.52514648 12.23492718 61 51 49
246103.76123047 3357684.04144287 12.07038116 186 173 138
246101.97851563 3357683.01141357 13.10309410 76 89 98
246101.12207031 3357683.59295654 12.16567898 157 153 142
246101.88891602 3357682.06451416 13.08178043 36 44 46
246102.84558105 3357683.47192383 12.76456642 62 63 57
246102.34082031 3357684.43957520 12.93363190 47 46 42
246100.77832031 3357686.18133545 12.32868671 136 132 120
246100.83312988 3357682.84558105 12.67336845 162 171 176
246102.72387695 3357682.43756104 13.50689316 193 205 217
246101.03369141 3357684.48419189 12.23086452 134 130 121
246100.65625000 3357684.81713867 12.43700409 224 218 220
246103.19445801 3357683.07843018 13.31023121 94 95 97
246101.91955566 3357685.15551758 13.16652203 80 114 141
246100.75292969 3357684.67236328 12.36836910 177 173 172
246103.16308594 3357685.39355469 13.97065735 5 12 18
246101.25524902 3357682.16955566 12.81512260 199 200 202
246103.55078125 3357684.45928955 12.85190392 32 32 30
246101.23083496 3357681.81140137 12.40945816 116 113 106
246100.83801270 3357685.00830078 12.93660069 193 200 206
246101.51452637 3357681.57055664 12.20738506 153 146 127
246102.68383789 3357684.50146484 12.90286732 42 44 39
246101.89294434 3357682.84411621 13.10646534 91 101 111
246103.43347168 3357684.47357178 12.32336998 67 58 49
246101.54931641 3357685.26373291 13.07687283 156 173 189
246101.88854980 3357683.03936768 12.91863632 137 137 127
246102.25012207 3357681.91998291 13.10854721 43 54 56
246102.88256836 3357686.02563477 13.67433357 87 94 87
246101.25805664 3357684.29992676 12.13510895 140 128 114
246101.00769043 3357683.91784668 12.12267208 178 165 133
246102.21667480 3357681.73059082 12.54803562 23 24 16
246104.72436523 3357684.23785400 12.17189598 167 154 138
246104.57385254 3357683.04150391 13.19751167 14 16 15
246104.54895020 3357683.11364746 13.10875320 47 49 48
246102.70861816 3357681.98602295 13.23532391 22 32 34
246103.94543457 3357682.75836182 13.46781540 83 91 93
246103.44201660 3357683.28540039 12.93028259 48 49 43
246101.63549805 3357683.58959961 12.23876858 42 43 45
246101.95898438 3357684.36492920 12.13758469 203 196 190
246103.60998535 3357683.34460449 12.75407982 68 67 63
246104.88195801 3357684.06518555 12.10398579 202 195 177
246103.45996094 3357684.73895264 13.68590927 32 34 33
246102.08630371 3357682.38128662 13.12020016 176 199 207
246103.68847656 3357683.41705322 12.56053448 78 77 72
246102.43664551 3357684.19317627 12.13291550 155 147 110
246102.68798828 3357685.09130859 13.27383327 46 65 82
246104.43774414 3357683.72570801 12.08940887 67 70 63
246102.56604004 3357682.42163086 13.31221962 136 160 172
246105.40710449 3357683.64807129 12.21572971 48 58 49
246104.60192871 3357682.41992188 13.42346001 58 70 48
246103.57873535 3357684.72705078 13.57676125 35 40 43
246100.90844727 3357684.65832520 12.80753803 244 245 250
246105.59838867 3357683.60351563 12.39118290 15 27 5
246101.82885742 3357682.93273926 13.08487988 132 139 147
246102.66015625 3357682.13409424 13.34107590 116 133 143
246102.52893066 3357681.71368408 12.67793083 35 38 31
246102.41992188 3357685.88562012 13.04199600 0 14 19
246103.07617188 3357685.41271973 13.82122040 0 7 13
246101.54895020 3357684.86492920 13.14937496 171 190 205
246101.28381348 3357684.37091064 12.15443325 132 125 115
246103.01989746 3357682.03039551 13.45247173 107 114 122
246100.82263184 3357682.81927490 12.59624863 193 204 208
246101.73046875 3357684.86553955 13.14276791 144 163 177
246101.97875977 3357683.15600586 12.34975910 170 172 167
246104.00280762 3357682.35382080 13.53622055 81 87 87
246104.35241699 3357683.54675293 12.31833363 64 66 63
246101.56140137 3357685.43084717 13.07533836 154 170 186
246103.38049316 3357683.44586182 12.47388935 96 96 88
246101.18151855 3357681.82586670 12.71402454 147 145 146
246101.34655762 3357684.02862549 12.11671257 249 234 195
246102.93823242 3357685.35546875 13.54792690 9 19 21
246101.24365234 3357684.28344727 12.13477612 143 130 111
246102.56762695 3357682.32910156 13.28960800 157 183 196
246102.93310547 3357682.84808350 13.43088245 186 193 203
246101.80065918 3357681.77087402 12.88280678 23 25 22
246102.63867188 3357685.90093994 13.01372814 10 25 32
246101.15002441 3357684.38507080 12.16863346 138 129 120
246102.39855957 3357683.39947510 12.59327698 93 95 84
246101.43041992 3357682.42480469 12.83998203 167 172 176
246102.13208008 3357682.78570557 13.09236240 166 191 198
246101.46337891 3357684.56713867 12.81187153 53 57 66
246103.90844727 3357682.45721436 13.57984161 89 94 97
246104.83239746 3357683.46612549 12.31574059 38 43 39
246100.81115723 3357682.73999023 12.58031750 174 191 199
246103.42419434 3357683.43328857 12.50163841 81 81 73
246104.56555176 3357684.18835449 12.10753727 173 162 142
246104.56799316 3357682.72332764 13.36614895 30 37 29
246104.36853027 3357684.05200195 12.08877468 172 161 139
246104.47802734 3357683.10876465 13.13397026 46 46 46
246104.45056152 3357684.35418701 12.58543491 58 56 57
246102.40734863 3357681.89245605 13.12390995 68 80 80
246103.61193848 3357682.73516846 13.51400280 115 120 123
246104.09326172 3357683.01776123 13.22769451 39 43 42
246102.54882813 3357681.61572266 12.25863838 50 52 47
246104.09252930 3357684.62512207 13.22641182 7 9 6
246104.92895508 3357683.15490723 12.91753292 37 39 34
246101.39074707 3357681.98828125 12.97907829 148 149 151
246102.48168945 3357683.44329834 12.70152664 75 77 72
246103.42492676 3357684.49523926 13.07916832 57 61 60
246102.21313477 3357685.56842041 13.13184166 73 103 114
246101.82409668 3357681.94653320 13.04863453 58 64 64
246101.17883301 3357682.06896973 12.77722836 195 196 201
246102.76843262 3357684.26129150 12.11748314 152 142 117
246103.07006836 3357682.43402100 13.56340408 137 147 159
246102.26806641 3357684.58697510 12.33100986 72 66 54
246103.02709961 3357682.77355957 13.44732285 178 184 196
246103.89685059 3357683.48907471 12.40586472 76 75 71
246103.61730957 3357683.29461670 12.86724186 46 47 42
246102.65344238 3357686.11199951 13.25967979 41 53 53
246102.39892578 3357682.35479736 13.13655090 160 187 196
246102.71166992 3357683.39111328 13.00186920 50 49 44
246100.90917969 3357684.61267090 12.63541031 100 99 94
246104.38964844 3357684.34466553 12.37871933 63 62 60
246100.83483887 3357682.75836182 12.68215942 160 169 176
246101.48742676 3357681.81390381 12.97985935 44 45 39
246103.45544434 3357684.73657227 13.62605286 66 71 67
246104.90893555 3357683.89227295 12.07421494 43 46 39
246102.85864258 3357684.81610107 13.29727554 79 89 88
246103.16894531 3357684.92492676 13.67099857 16 17 21
246102.69091797 3357682.18798828 13.45895672 137 151 160
246100.94201660 3357686.14129639 12.92489910 107 115 118
246104.08483887 3357682.96350098 13.30272961 49 55 55
246104.28332520 3357684.44781494 13.06576824 43 45 42
246102.82861328 3357685.57611084 13.35457611 25 42 50
246101.23986816 3357685.56085205 12.81608868 165 182 198
246102.62963867 3357684.67059326 13.24245644 35 39 42
246103.59448242 3357684.72637939 13.58317280 35 40 43
246104.74731445 3357684.22528076 12.16951180 167 154 138
246103.31091309 3357684.51928711 12.61588192 49 48 44
246101.13391113 3357682.28387451 12.77802753 207 208 210
246103.29125977 3357683.51977539 12.40257835 110 111 103
246103.78906250 3357684.57745361 13.17887020 15 15 15
246100.83947754 3357686.16320801 12.81071186 93 97 100
246101.82812500 3357682.53607178 13.08963299 114 123 132
246101.47924805 3357683.02252197 12.84232903 158 162 161
246102.83447266 3357684.50500488 12.92011738 44 46 41
246100.91162109 3357685.51269531 12.79120255 179 197 211
246103.76330566 3357683.55487061 12.34290886 84 84 76
246102.72253418 3357684.02435303 12.08474636 250 238 198
246100.53857422 3357685.15014648 12.28336906 141 138 133
246102.50512695 3357685.32867432 13.11515141 64 97 116
246102.61755371 3357685.68737793 13.02004433 101 123 137
246103.79309082 3357683.26428223 12.90247536 42 41 39
246104.51184082 3357684.51501465 13.10969353 44 46 41
246102.70068359 3357683.08789063 13.41999817 169 180 186
246102.94006348 3357683.22003174 13.24185944 148 145 140
246104.88977051 3357682.55377197 13.28348160 82 90 67
246101.72534180 3357682.98492432 12.62046719 166 167 161
246101.04211426 3357684.55926514 12.77640820 94 95 99
246102.71105957 3357682.41180420 13.50540352 193 205 217
246101.81262207 3357685.96282959 13.15258217 5 15 16
246101.48791504 3357685.58489990 12.97851467 137 157 168
246103.39013672 3357684.50335693 12.69567871 36 37 32
246104.77331543 3357684.39605713 12.57913303 66 65 60
246102.47448730 3357685.60192871 13.03430462 32 65 84
246100.82067871 3357682.54772949 12.59441280 179 190 194
246103.82434082 3357684.70855713 13.58455467 26 30 29
246102.91149902 3357684.37243652 12.17274284 150 138 122
246100.89294434 3357682.17968750 12.51515865 179 183 182
246101.29016113 3357684.65679932 13.01825809 165 179 190
246103.46276855 3357684.51342773 12.56264305 50 53 46
246101.92492676 3357685.26428223 13.18240738 76 106 130
246104.86181641 3357683.31610107 12.65897179 31 33 32
246101.56481934 3357685.11492920 13.10259628 163 182 197
246101.18029785 3357684.15362549 12.12915802 153 140 105
246100.93786621 3357683.56982422 12.13444901 168 164 153
246103.87414551 3357683.58905029 12.28138924 81 80 75
246103.91369629 3357683.25042725 12.91517735 36 37 32
246100.79919434 3357684.68218994 12.61152267 123 120 113
246100.83117676 3357682.73968506 12.66705227 161 174 183
246100.70861816 3357684.77880859 12.64235401 107 103 102
246102.53344727 3357681.69348145 12.46102428 26 29 20
246103.52282715 3357682.89202881 13.44051743 116 124 126
246102.65393066 3357684.50628662 12.70535946 57 57 47
246101.97351074 3357683.62347412 12.22949600 71 75 78
246101.48803711 3357681.67651367 12.34338188 168 165 150
246104.84973145 3357683.55157471 12.22082424 39 43 42
246104.35461426 3357684.55975342 13.16249657 52 54 51
246102.22973633 3357682.96575928 12.55212593 136 138 125
246101.74487305 3357681.46203613 12.23219585 158 151 143
246101.00964355 3357684.56225586 12.62448502 79 79 77
246102.26562500 3357683.29260254 13.00144577 114 116 111
246101.21923828 3357681.81774902 12.73315525 139 137 138
246102.70434570 3357684.73919678 13.29944706 35 40 43
246102.43811035 3357684.47705078 12.22919846 152 144 125
246103.67248535 3357683.11419678 13.22645569 12 14 13
246103.16735840 3357683.38226318 12.82144260 97 97 87
246105.10571289 3357683.85217285 12.07947731 34 37 30
246104.47155762 3357683.84503174 12.04715443 51 51 39
