246160.14050293 3357590.86968994 13.57967091 145 137 135
246164.08801270 3357590.01605225 13.31324768 47 48 52
246161.91564941 3357586.21765137 13.90425110 128 129 133
246163.28784180 3357590.54626465 12.92276955 43 42 47
246157.29895020 3357588.37719727 13.27947903 49 53 56
246160.82543945 3357590.94958496 13.63299561 144 140 137
246160.94238281 3357592.13977051 12.79794693 52 51 46
246159.25915527 3357584.51678467 13.13717175 93 92 87
246159.48071289 3357591.18737793 12.95572376 25 30 26
246156.30249023 3357585.06097412 13.80260849 137 132 128
246161.71740723 3357591.72918701 13.33883381 122 122 120
246161.60229492 3357584.17755127 12.81725025 102 102 100
246164.92773438 3357588.61907959 13.02060223 62 65 72
246162.03930664 3357590.33422852 14.03749943 27 28 32
246153.04223633 3357581.18652344 13.47845459 171 171 169
246155.80285645 3357585.56616211 13.39070320 102 94 91
246160.37182617 3357592.04327393 12.88428593 109 105 80
246159.91845703 3357590.62652588 13.21929932 226 226 226
246155.13073730 3357585.25866699 13.20859623 83 82 78
246164.07482910 3357585.72778320 13.69011021 169 175 175
246157.70520020 3357585.22467041 14.14452457 108 103 100
246154.30969238 3357587.50439453 13.48985863 69 66 61
246161.90881348 3357593.66613770 12.73087978 125 129 79
246161.62524414 3357586.44781494 13.01815128 94 103 102
246162.18249512 3357586.63696289 12.93721390 97 106 115
246151.00329590 3357584.89147949 12.90034676 46 41 35
246162.95922852 3357594.21618652 12.69273472 67 86 22
246162.36389160 3357593.14410400 12.70247364 164 155 140
246154.16491699 3357583.61468506 13.52247715 39 43 42
246155.57165527 3357588.57611084 13.04605961 58 47 41
246156.92431641 3357588.15435791 13.54703331 46 50 53
246162.93115234 3357592.73986816 12.75649738 105 105 103
246154.65734863 3357584.18823242 13.21957302 69 82 90
246153.34960938 3357582.10266113 13.25218773 60 61 65
246162.79956055 3357585.06457520 13.71571827 72 76 77
246159.10498047 3357588.28735352 13.72554016 57 61 64
246158.05468750 3357585.70745850 13.69880962 28 32 33
246155.63085938 3357589.08935547 12.72285271 150 143 125
246156.44335938 3357584.56127930 12.84813881 187 172 153
246161.57128906 3357586.13623047 12.79576778 73 72 70
246161.25085449 3357591.48187256 13.80502224 115 116 118
246158.80139160 3357586.36621094 14.01066875 45 45 47
246155.02246094 3357582.52337646 13.10441589 79 81 80
246162.50646973 3357588.89721680 13.65316200 45 55 57
246165.68212891 3357584.69256592 13.32201004 54 62 65
246160.51416016 3357593.27911377 12.75927258 124 126 76
246164.91467285 3357586.92700195 12.89692688 86 90 99
246160.58813477 3357591.72393799 13.50940418 90 103 96
246156.46313477 3357589.84826660 12.75751877 104 116 66
246160.50659180 3357589.08862305 13.29753590 80 84 83
246157.36926270 3357588.39599609 13.26043797 56 57 59
246155.50036621 3357586.04577637 13.28002930 37 36 34
246164.14672852 3357588.31506348 12.69980335 57 64 70
246158.19567871 3357585.49902344 13.67299747 28 28 26
246164.92651367 3357588.75805664 13.08750916 55 58 63
246162.74243164 3357587.43121338 12.99948120 113 115 114
246159.15490723 3357587.25439453 13.89506626 39 44 47
246163.66650391 3357590.93139648 13.06766891 39 39 41
246163.12207031 3357591.88391113 12.85899448 46 46 46
246157.99499512 3357587.87188721 14.06005669 86 91 95
246153.51855469 3357586.41870117 13.45873451 15 11 8
246158.03747559 3357587.81890869 14.08220291 83 86 93
246157.51306152 3357590.21197510 12.71601963 112 114 74
246152.65063477 3357581.66870117 13.69489384 227 231 230
246151.55139160 3357580.64428711 13.58882713 252 252 250
246160.38867188 3357593.11791992 12.74926853 102 102 48
246163.30053711 3357592.79290771 12.99808121 177 170 160
246153.85595703 3357586.28625488 13.44518280 42 38 35
246164.66088867 3357584.35327148 13.84444904 35 36 40
246159.79382324 3357588.24456787 13.55958271 75 75 73
246155.53942871 3357584.74389648 13.01662827 77 73 70
246155.80749512 3357586.21881104 14.11353302 49 49 47
246156.10278320 3357582.79815674 13.00379562 255 251 248
246160.40563965 3357588.77349854 13.50311565 121 123 120
246160.62109375 3357592.34576416 12.66660213 90 102 54
246156.04357910 3357584.91992188 13.29175568 146 136 124
246165.94299316 3357587.22772217 12.81228065 54 61 69
246150.39587402 3357583.76617432 14.03571510 33 34 38
246162.40991211 3357585.26409912 13.16889286 84 88 89
246150.94335938 3357586.33703613 12.82212257 173 158 139
246152.35925293 3357583.59808350 13.58140278 148 159 163
246156.66076660 3357584.45947266 13.05998325 113 106 96
246159.90112305 3357590.70147705 13.37563610 235 234 230
246151.45983887 3357580.75292969 13.54877949 253 246 240
246157.09326172 3357590.97430420 12.82775688 104 125 58
246165.51013184 3357585.49835205 14.03143787 19 37 37
246160.40869141 3357586.12847900 14.00330257 99 99 101
246154.89978027 3357585.15081787 13.42090702 85 84 82
246151.46936035 3357585.80120850 13.25710392 80 73 67
246153.82971191 3357582.19641113 13.47246742 183 182 187
246161.66455078 3357592.54498291 12.64741707 223 203 178
246157.10009766 3357583.58587646 12.92775726 41 41 39
246161.39855957 3357588.89379883 13.70244408 83 87 88
246155.56994629 3357590.03137207 12.76614475 150 142 123
246151.51940918 3357579.93212891 13.18603802 43 42 40
246153.74108887 3357587.40148926 12.85540199 149 133 120
246159.41333008 3357587.12866211 14.05294609 36 41 44
246156.51696777 3357590.23919678 12.78495216 127 143 81
246163.04467773 3357584.79248047 13.95084763 41 41 41
246163.84655762 3357591.54675293 13.01617527 103 105 104
246162.23510742 3357588.73321533 13.57362938 52 61 66
246158.91186523 3357583.11096191 12.90926647 109 103 91
246150.86157227 3357584.68957520 13.46560669 96 95 91
246157.94726563 3357584.99670410 13.89623165 100 98 101
246155.03491211 3357586.74591064 13.41235733 44 43 41
246164.20593262 3357589.39843750 13.25568581 43 46 51
246154.74597168 3357586.61633301 12.82496548 53 48 42
246152.05529785 3357586.16235352 13.85194588 28 24 25
246161.70104980 3357591.81494141 12.73637009 28 32 31
246163.17358398 3357584.72607422 13.96695232 20 20 20
246159.26635742 3357587.59692383 13.60317421 56 57 61
246160.12561035 3357589.74334717 12.92501259 45 47 46
246160.45593262 3357588.45739746 13.18824100 217 219 216
246156.02294922 3357585.65460205 13.72714710 138 134 133
246150.15185547 3357584.49060059 13.19032764 54 50 47
246160.96850586 3357593.48339844 12.75980186 105 116 56
246161.81933594 3357588.73681641 13.55457115 227 238 244
246163.72546387 3357586.13446045 12.79338074 120 127 133
246160.99792480 3357587.64379883 12.81665993 54 56 55
246160.25097656 3357593.56689453 12.77643681 102 125 47
246150.97985840 3357581.97753906 14.21513271 254 255 255
246159.19641113 3357585.91027832 14.01936626 83 87 90
246153.73156738 3357586.11730957 13.56352329 37 36 34
246161.19042969 3357590.64709473 13.93808079 25 32 38
246151.84338379 3357582.72454834 14.13758755 210 214 213
246159.29248047 3357589.61700439 13.19751072 50 50 50
246155.43188477 3357583.90979004 13.30349827 35 39 42
246162.13806152 3357590.14184570 14.01459122 27 30 35
246158.97790527 3357583.30700684 12.82547855 132 123 108
246153.38464355 3357587.02038574 13.24100494 240 236 237
246154.92041016 3357585.66375732 13.16356754 59 58 56
246159.74511719 3357589.55932617 12.93018246 83 82 80
246154.64099121 3357584.38079834 13.59728622 67 76 83
246166.54711914 3357585.24530029 13.23163700 19 24 28
246161.98461914 3357586.67486572 13.53295708 105 112 120
246161.64794922 3357591.77111816 13.31819153 127 126 124
246161.55895996 3357584.94335938 12.90348625 72 72 70
246154.18786621 3357585.81408691 13.53108215 33 33 31
246157.37548828 3357589.72741699 12.72609425 97 90 74
246161.22216797 3357591.90588379 13.50079918 42 42 40
246157.77917480 3357584.51025391 13.03669357 38 36 37
246162.05456543 3357586.03076172 12.79604912 56 61 65
246151.69116211 3357583.28076172 14.12681198 52 52 52
246164.98022461 3357584.46490479 13.76030827 45 46 51
246164.70275879 3357587.41265869 12.62177658 73 82 89
246153.49084473 3357584.35412598 14.13896751 10 11 13
246151.65209961 3357580.52856445 13.53022480 249 254 248
246163.09094238 3357587.87548828 13.40890694 131 144 153
246152.92199707 3357582.04498291 13.59240437 50 52 49
246159.59680176 3357589.08007813 12.92464828 104 101 94
246156.58654785 3357584.70678711 13.24988461 191 184 174
246161.13500977 3357592.75720215 12.69353485 138 146 97
246152.68457031 3357583.86828613 13.70643711 175 173 174
246154.71594238 3357584.34985352 13.41605186 79 89 98
246152.62768555 3357587.69854736 12.79987335 125 109 93
246153.21423340 3357586.58990479 13.09810734 98 95 90
246157.36560059 3357589.25555420 12.72695637 96 90 78
246151.48815918 3357583.11712646 14.17344666 240 240 240
246157.10803223 3357582.63983154 12.77382278 169 155 142
246156.56652832 3357584.34631348 13.05467796 142 135 129
246165.73278809 3357587.96356201 12.66037750 71 78 84
246164.10437012 3357589.81854248 13.33138847 47 48 52
246162.68310547 3357586.85968018 12.61036110 67 70 75
246153.44763184 3357581.40563965 13.29458332 66 67 62
246161.70166016 3357589.15466309 13.74318027 29 37 39
246163.05004883 3357586.35498047 12.62623501 84 89 92
246163.16857910 3357585.50958252 13.16457653 129 133 136
246155.43066406 3357588.43395996 13.72578144 85 76 67
246153.38476563 3357586.99017334 13.39074230 237 237 237
246163.13854980 3357587.63775635 13.21996307 23 35 47
246163.46252441 3357590.25640869 12.99440098 40 41 45
246164.34521484 3357588.87634277 12.88799095 54 54 62
246152.69506836 3357584.86230469 14.08544445 39 43 46
246151.53210449 3357586.17407227 13.01000881 132 120 106
246155.61816406 3357586.97485352 14.52223110 41 37 34
246163.38159180 3357584.92553711 14.09812450 35 37 36
246161.98144531 3357587.28771973 13.09521198 70 73 78
246159.79333496 3357590.48040771 13.02105904 180 171 162
246160.69494629 3357584.89276123 12.80253410 80 79 75
246161.83483887 3357588.79937744 13.56311417 97 105 108
246159.10583496 3357584.62420654 13.44029522 84 81 72
246158.14355469 3357584.11596680 13.07058334 190 174 148
246161.81982422 3357586.19116211 13.08557415 167 171 172
246160.22094727 3357591.21649170 13.63451481 183 173 161
246157.17285156 3357589.23138428 12.72703743 122 117 111
246161.76269531 3357586.26367188 13.09988308 162 166 169
246161.61828613 3357586.50579834 13.64592743 132 132 132
246151.66796875 3357582.07238770 14.07776546 31 37 35
246160.07666016 3357588.96917725 13.32675838 74 74 74
246159.13073730 3357583.31091309 12.78989315 113 106 96
246162.97521973 3357589.73608398 13.60950661 9 18 23
246158.85717773 3357588.08300781 13.81249142 56 57 59
246160.67919922 3357590.54290771 13.63422394 189 194 190
246163.16455078 3357589.23333740 13.58049107 29 40 46
246160.13037109 3357587.89465332 13.37934303 80 84 85
246156.46423340 3357585.89422607 14.03995419 154 156 151
246164.63598633 3357584.18347168 13.35360432 82 89 95
246163.93481445 3357584.27813721 13.77208424 27 25 26
246157.77990723 3357589.69903564 12.76285076 167 154 135
246154.26342773 3357582.67657471 13.58605003 146 150 153
246157.36840820 3357584.46099854 13.45346642 105 99 99
246162.23205566 3357587.50000000 13.28142643 77 86 91
246163.15380859 3357589.75146484 12.80192661 26 29 34
246156.53381348 3357586.00042725 14.20815372 140 149 154
246161.54919434 3357584.91369629 12.87139130 72 72 70
246160.99719238 3357584.37915039 12.67299557 161 150 132
246162.84655762 3357583.50317383 13.94055557 18 17 15
246158.91625977 3357584.34985352 13.07525063 81 76 70
246154.15686035 3357583.47076416 13.66811180 57 58 60
246154.36352539 3357586.69537354 13.47583294 60 62 61
246153.66589355 3357585.08630371 14.01541233 15 15 15
246157.61608887 3357585.41412354 14.15281963 35 37 36
246166.20483398 3357585.06616211 13.57445621 61 69 72
246154.75024414 3357589.37023926 12.78956413 182 173 156
246152.70092773 3357585.78643799 13.74469280 15 15 15
246154.52966309 3357587.78051758 13.70048332 113 93 92
246161.54309082 3357587.96838379 13.25993538 85 89 88
246155.14086914 3357582.55731201 13.00309658 64 63 59
246160.44885254 3357588.76531982 13.51292133 126 126 124
246153.72045898 3357584.20251465 13.68968010 27 31 32
246163.58630371 3357586.39843750 12.66068649 102 107 111
246159.48449707 3357587.53155518 13.50760746 60 60 62
246158.29504395 3357582.63458252 12.91171551 72 71 66
246161.76538086 3357587.73168945 13.26865387 28 27 33
246153.48181152 3357587.07568359 13.35259056 221 219 220
246165.51196289 3357586.64520264 13.56316280 52 62 64
246159.72949219 3357587.75555420 13.45593262 63 64 66
246151.91772461 3357586.50756836 12.95668125 132 123 108
246152.93664551 3357583.09808350 13.36154461 127 137 138
246163.97814941 3357583.73974609 13.45221233 43 47 50
246157.68164063 3357586.17633057 13.89170361 53 61 64
246154.45434570 3357584.46929932 13.83292770 36 46 55
246160.24340820 3357584.14019775 12.55033684 207 187 160
246151.43164063 3357584.85784912 12.91929054 55 57 54
246151.30041504 3357584.93591309 12.88974857 57 54 49
246155.01867676 3357585.57904053 13.12843895 66 65 63
246164.92504883 3357587.93365479 12.63786030 79 84 90
246150.91076660 3357584.70599365 13.39608574 105 106 101
246161.86743164 3357591.18029785 13.65923691 5 6 8
246161.47644043 3357588.90118408 13.65266037 76 81 84
246163.95349121 3357585.89678955 13.07917118 185 186 188
246153.56909180 3357586.56018066 13.44120121 241 237 234
246151.46289063 3357582.65570068 14.21914005 230 230 228
246150.62292480 3357586.16363525 12.84476757 191 174 156
246166.07824707 3357587.95007324 12.64819527 75 82 88
246156.38647461 3357587.51806641 14.27608395 138 142 141
246163.78735352 3357588.12036133 12.81305504 31 40 49
246159.54016113 3357588.96276855 12.96926308 82 83 78
246154.84777832 3357588.56915283 12.79699707 162 150 134
246160.67028809 3357589.95758057 13.57315254 149 158 155
246156.43798828 3357584.91107178 13.65986633 118 109 104
246153.12072754 3357582.98577881 13.30969429 68 72 73
246163.04248047 3357584.30804443 13.85986423 30 29 27
246154.46423340 3357584.36743164 13.58488846 85 99 108
246162.44653320 3357590.32824707 13.55545998 3 8 11
246158.77233887 3357591.20672607 12.66904449 88 83 54
246156.27502441 3357587.04724121 14.43484879 21 21 21
246167.34143066 3357586.47174072 12.67167759 38 44 56
246152.81250000 3357587.25909424 12.82324886 172 154 134
246156.79516602 3357589.24713135 12.71373749 125 118 108
246151.11596680 3357584.66827393 13.34752655 52 54 49
246150.13488770 3357584.48278809 13.11977291 49 48 43
246151.65148926 3357583.81335449 13.77369785 59 60 62
246166.42761230 3357586.14324951 13.46867752 99 113 124
246155.14331055 3357589.01818848 12.77804470 176 164 148
246164.15795898 3357585.99420166 13.12528229 182 183 185
246153.57421875 3357584.03485107 13.70804405 20 24 25
246157.53955078 3357583.33789063 13.03149128 31 31 29
246162.05285645 3357593.70550537 12.74378490 60 69 16
246164.07702637 3357585.93646240 13.14052677 182 183 185
246155.12634277 3357589.54980469 12.74501038 188 176 162
246151.15405273 3357585.37854004 12.82235813 99 85 72
246159.86083984 3357585.03900146 13.09809589 175 163 147
246164.96643066 3357588.20880127 12.76596260 70 75 81
246162.80932617 3357593.98657227 12.67884827 73 85 35
246152.48718262 3357585.82659912 13.79555893 20 22 21
246156.89282227 3357583.21929932 13.08570957 83 80 75
246156.38195801 3357589.85375977 12.76451492 107 116 69
246162.36059570 3357583.99603271 13.63964081 125 126 128
246162.26831055 3357584.11999512 13.43848133 153 153 153
246154.56677246 3357586.52874756 12.90694237 55 54 50
246161.14746094 3357586.04223633 12.93715096 76 75 73
246162.36035156 3357590.82037354 12.76728821 20 25 29
246163.65295410 3357589.06750488 13.16001129 33 42 49
246163.75988770 3357585.61413574 13.33523178 150 154 153
246155.69519043 3357582.92883301 13.11967945 114 114 112
246162.15344238 3357591.37799072 12.87986851 35 35 43
246158.03540039 3357583.48767090 12.91465378 39 39 39
246150.19714355 3357585.65887451 12.83727455 174 161 144
246156.09387207 3357586.34844971 14.36275196 141 144 149
246154.99389648 3357586.39013672 12.75277805 50 50 48
246159.83117676 3357584.28979492 12.80504322 96 93 88
246158.01379395 3357588.40747070 13.29054451 89 88 86
246161.38195801 3357589.57476807 13.90517139 21 22 24
246163.98937988 3357586.28002930 12.79173279 77 82 86
246163.74401855 3357588.07745361 12.83761120 41 50 59
246153.21569824 3357584.75341797 14.03132439 15 16 18
246164.14331055 3357585.66113281 14.12128067 74 82 84
246151.76074219 3357585.21386719 13.27132797 82 82 80
246156.71972656 3357586.26300049 14.15823174 115 125 127
246157.05725098 3357583.51043701 12.95144463 22 21 19
246166.04309082 3357585.03833008 13.84950447 91 98 104
246159.84082031 3357591.12878418 13.01655674 101 104 97
246153.24365234 3357586.15808105 13.68049240 32 32 32
246156.17260742 3357585.77099609 13.72677708 128 123 119
246160.81726074 3357591.94329834 13.20628929 71 77 73
246155.78869629 3357584.46075439 12.92826748 83 79 76
246156.48669434 3357585.81842041 13.92327404 152 151 147
246163.65002441 3357585.49761963 13.80732441 89 95 95
246162.01489258 3357584.48962402 13.40355873 68 68 70
246161.58361816 3357591.80548096 13.09683990 120 120 118
246160.33227539 3357588.27160645 13.29162312 142 143 147
246164.39916992 3357588.87261963 12.90003586 55 55 63
246159.22631836 3357588.69091797 13.32987404 43 42 38
246162.47412109 3357590.46600342 13.25580311 91 96 102
246155.20666504 3357584.08374023 13.38355350 51 51 51
246162.67639160 3357583.45593262 13.53176403 121 121 121
246154.47155762 3357585.04693604 13.74285221 107 111 112
246157.20739746 3357588.18505859 13.51403904 52 60 62
246155.15051270 3357588.68603516 12.82780457 154 145 128
246153.33020020 3357583.02886963 13.61921692 159 125 123
246164.32690430 3357584.48248291 14.32499886 123 130 136
246159.88989258 3357585.09484863 13.13451958 137 131 119
246153.68103027 3357581.39294434 12.93573093 89 88 84
246160.38769531 3357585.58728027 12.97200012 174 155 140
246160.07495117 3357588.32678223 13.44668961 87 83 82
246162.66125488 3357588.19329834 13.45565128 141 151 160
246162.25183105 3357594.38879395 12.77503395 116 119 64
246156.91784668 3357586.97229004 14.42378902 43 47 48
246159.78466797 3357590.27795410 12.79185772 182 170 154
246166.77026367 3357586.75201416 13.00229168 15 27 41
246163.69750977 3357589.99896240 13.07189751 43 44 48
246154.02758789 3357583.21710205 13.65456390 35 37 36
246157.36145020 3357585.16571045 14.08195400 60 55 52
246154.30603027 3357588.35668945 12.78477764 191 176 153
246157.51293945 3357584.42883301 13.08357334 56 42 41
246151.87145996 3357580.72412109 13.77187061 219 219 219
246156.13354492 3357586.08929443 14.05197525 127 126 124
246161.36462402 3357593.89752197 12.76156616 151 163 101
246156.59106445 3357588.76812744 13.05516911 36 37 39
246162.06665039 3357589.55108643 13.86188126 29 33 36
246152.92297363 3357581.09179688 13.50583649 190 186 187
246150.55358887 3357582.29943848 13.87644482 49 57 60
246155.53234863 3357584.71826172 13.02857971 77 73 70
246162.56774902 3357588.66760254 13.66422081 37 48 52
246162.42504883 3357592.47570801 12.53885937 165 161 160
246166.34716797 3357587.35974121 12.64008522 62 69 75
246165.37145996 3357584.88989258 14.15849590 80 91 97
246153.93432617 3357586.40014648 13.41842365 45 46 41
246154.53796387 3357582.52197266 13.39105225 189 197 199
246151.75073242 3357581.84991455 13.89855003 56 65 64
246160.45581055 3357586.71441650 13.49216080 75 74 82
246162.11401367 3357587.03411865 12.74879265 89 97 100
246164.59130859 3357584.62274170 14.30350399 127 134 144
246162.41308594 3357586.89489746 12.62171650 67 76 85
246162.34802246 3357584.06903076 13.80533218 130 128 131
246158.75927734 3357588.99218750 12.80574894 82 69 60
246164.11340332 3357584.66595459 14.23950958 90 93 98
246158.28198242 3357583.79718018 12.94178867 55 56 51
246153.29638672 3357587.67321777 12.78772449 155 139 124
246164.72192383 3357587.37103271 12.63741779 71 80 87
246159.25366211 3357586.40307617 14.15013313 44 45 50
246165.28674316 3357586.57006836 13.47589493 70 77 83
246163.96105957 3357590.31359863 13.24189854 41 40 45
246159.02880859 3357589.45776367 13.15108204 63 58 55
246155.01708984 3357588.24328613 13.28727531 140 129 123
246161.73352051 3357589.59497070 13.92875957 36 37 41
246157.75830078 3357590.01519775 12.74892902 116 106 81
246154.82092285 3357583.38952637 13.52022266 37 36 34
246162.40197754 3357590.79223633 12.71775055 26 30 33
246165.58984375 3357586.80529785 13.34699249 73 78 82
246161.71667480 3357586.67071533 13.69139004 133 138 141
246153.32922363 3357586.47088623 13.26517773 7 6 4
246164.52563477 3357585.77410889 14.20272064 132 143 145
246162.57385254 3357584.39245605 13.88906193 25 27 24
246164.88903809 3357588.10491943 12.69874954 73 78 84
246153.13916016 3357583.44812012 13.86963940 150 146 147
246164.42932129 3357587.32299805 12.59351349 84 89 95
246153.77575684 3357586.46954346 13.56315422 29 31 28
246160.05834961 3357592.33270264 12.66347027 105 126 57
246162.08361816 3357590.55609131 13.84244537 95 98 103
246158.18188477 3357588.55065918 13.04705811 137 138 133
246153.54492188 3357582.97979736 13.80149269 38 19 15
246158.63757324 3357590.67694092 12.67014980 132 121 93
246155.91406250 3357584.26818848 12.91327095 87 84 79
246150.76013184 3357582.17657471 14.23122025 201 193 190
246158.63891602 3357590.47320557 12.62025833 196 184 160
246161.06506348 3357588.40093994 13.27143288 234 234 234
246157.49218750 3357585.43682861 14.09756756 40 46 46
246161.28210449 3357593.31945801 12.72278976 126 128 79
246160.29492188 3357585.51959229 13.72075462 41 42 46
246153.52319336 3357584.41680908 14.13159561 9 10 12
246155.39050293 3357583.51525879 13.33953667 52 52 54
246151.96594238 3357584.61120605 13.15311146 20 24 25
246161.34252930 3357587.27380371 13.00535297 45 54 61
246163.85412598 3357585.28088379 14.22434711 161 171 173
246157.55346680 3357590.12365723 12.71868610 96 97 63
246164.09582520 3357586.95446777 12.60224342 82 87 93
246151.95617676 3357585.87921143 13.88789177 20 20 18
246153.58447266 3357584.47930908 14.12931728 14 16 15
246153.41540527 3357581.63659668 13.28557968 44 45 49
246155.90039063 3357583.29785156 12.90319633 131 126 123
246163.00634766 3357587.62426758 13.34061527 70 79 86
246162.64404297 3357585.19458008 13.27470970 86 92 92
246155.33496094 3357588.32958984 13.76512241 122 113 104
246158.41748047 3357584.92883301 13.70927048 48 47 45
246165.16662598 3357584.52978516 13.33563995 73 80 86
246155.64648438 3357586.07727051 13.80043221 93 93 93
246161.69702148 3357588.20104980 13.48830032 172 176 175
246158.04467773 3357584.84771729 13.46792316 39 38 43
246163.60021973 3357584.76623535 14.06083775 12 14 13
246164.05700684 3357589.93865967 13.29713535 47 48 52
246157.29064941 3357584.85137939 13.78215694 127 117 108
246156.04150391 3357583.04791260 12.94185352 90 87 82
246158.95227051 3357584.46392822 13.24463654 91 86 82
246156.23657227 3357588.19006348 13.58701992 48 50 49
246163.74792480 3357585.56463623 13.61358452 111 115 116
246166.34875488 3357586.98876953 13.24908066 49 59 69
246155.91125488 3357588.15142822 13.86961174 85 82 75
246153.54699707 3357582.69055176 13.62111568 233 189 186
246165.08032227 3357584.47216797 13.20836639 72 79 85
246161.11352539 3357592.37780762 12.73598194 212 193 178
246151.51196289 3357585.83062744 13.72625160 253 191 212
246152.20947266 3357580.35534668 13.10052967 66 66 66
246164.16796875 3357584.97290039 14.24100304 154 161 167
246154.37841797 3357587.68023682 13.04359245 87 82 76
246166.30932617 3357585.48712158 13.68573856 136 153 163
246157.64855957 3357586.63220215 14.08395958 112 113 115
246158.23767090 3357587.91827393 14.03962994 76 79 86
246162.31665039 3357593.48754883 12.72100830 113 109 84
246151.30859375 3357580.93304443 13.43993282 207 182 175
246159.49560547 3357584.51593018 13.30558491 69 69 67
246153.50805664 3357583.75329590 13.68986988 33 37 40
246162.61560059 3357592.64398193 12.60081673 119 117 118
246154.17993164 3357584.34613037 13.60726738 14 19 25
246164.58020020 3357584.58221436 14.30203533 115 122 132
246152.25708008 3357586.61621094 13.36078072 39 32 24
246152.89343262 3357586.24792480 13.65624619 60 60 60
246157.73913574 3357584.62036133 13.32203293 58 60 59
246164.78161621 3357584.47387695 13.98430443 55 59 62
246161.55322266 3357594.55944824 12.76483631 24 36 12
246164.28234863 3357588.13146973 12.67415524 64 71 77
246151.74633789 3357583.70947266 13.77357483 50 51 53
246151.98388672 3357585.52990723 13.94729519 15 15 23
246162.23315430 3357587.38409424 13.14756203 71 75 78
246160.10058594 3357591.53906250 13.05294037 36 37 31
246158.52709961 3357591.13146973 12.67457104 79 81 57
246163.30004883 3357585.24432373 13.88372135 41 45 48
246152.61267090 3357583.30194092 13.43512535 120 132 132
246153.33605957 3357585.08148193 13.93732643 6 8 7
246151.66601563 3357585.48565674 13.40911102 92 81 77
246164.38562012 3357586.40484619 12.99807930 125 129 132
246152.08032227 3357586.51934814 13.36805439 31 28 23
246161.27319336 3357586.45867920 12.97692108 43 45 44
246163.47253418 3357585.42309570 13.36163807 57 62 66
246163.10144043 3357592.39410400 12.84875774 110 106 107
246151.23937988 3357584.69537354 13.16799164 37 39 36
246155.83020020 3357588.19396973 13.93659878 83 76 68
246161.27478027 3357587.69244385 12.93431568 135 131 130
246160.18518066 3357586.82238770 13.64849472 78 77 75
246160.83447266 3357590.69598389 13.75867558 222 222 220
246161.88989258 3357586.12982178 13.03579903 176 180 183
246166.26391602 3357587.41174316 12.65877438 61 70 77
246154.04052734 3357587.89227295 12.79999733 181 162 145
246159.43261719 3357589.02929688 12.91726875 95 92 85
246159.70043945 3357589.45410156 12.87758923 31 31 31
246157.61804199 3357585.37420654 14.15719891 59 59 59
246156.47790527 3357588.96527100 12.79249191 42 41 37
246152.11938477 3357584.68450928 13.66438389 159 160 162
246161.87597656 3357588.42327881 13.60291386 147 150 155
246158.52111816 3357585.20599365 13.66969776 49 48 44
246160.96484375 3357593.98114014 12.79151249 93 115 43
246156.08593750 3357588.33947754 13.55942535 47 49 48
246162.58593750 3357593.23022461 12.72363091 215 207 186
246160.51977539 3357590.84075928 13.61564445 214 213 208
246160.68652344 3357592.80438232 12.73542213 130 141 73
246162.56665039 3357585.39111328 13.10148335 179 181 180
246152.40136719 3357585.87158203 13.79113865 17 17 19
246165.34960938 3357586.79895020 13.10794926 59 64 70
246162.07507324 3357588.71679688 13.53737926 33 41 44
246155.89184570 3357586.49829102 14.38484192 29 29 29
246164.94714355 3357587.59155273 12.62340069 78 85 91
246155.92919922 3357586.73211670 14.33073997 29 29 29
246159.45349121 3357587.28961182 13.82958031 51 52 56
246160.46862793 3357590.67230225 13.57015991 193 193 191
246166.02539063 3357586.73260498 13.63584900 97 104 112
246158.40820313 3357582.59619141 12.92029572 111 107 96
246160.96020508 3357594.23535156 12.80819988 49 64 31
246152.19799805 3357580.34545898 13.02950764 117 117 117
246159.61682129 3357585.60760498 13.81216049 59 62 67
246153.31042480 3357583.60058594 13.91324902 37 35 36
246158.81726074 3357588.09033203 13.82066536 55 56 58
246152.83520508 3357583.67364502 13.72993755 35 33 34
246155.71594238 3357588.56408691 13.51127815 46 36 27
246158.07299805 3357583.61413574 12.90271854 77 78 80
246162.55029297 3357590.35156250 13.22229290 84 87 96
246162.29211426 3357595.30773926 12.75520229 10 20 12
246150.99621582 3357586.00109863 12.77975464 171 155 139
246153.66406250 3357582.54022217 13.63854599 188 166 168
246155.59484863 3357586.33575439 14.09796238 18 19 21
246160.83679199 3357590.06872559 13.75374126 28 32 35
246161.50500488 3357586.66845703 13.43549728 92 91 86
246164.83911133 3357589.28192139 13.42711258 51 52 57
246155.33398438 3357582.58508301 12.98802280 77 73 70
246158.10656738 3357583.80639648 12.90070820 73 72 68
246153.02844238 3357582.77374268 13.28787231 30 32 29
246161.62817383 3357591.31298828 13.81395531 91 90 95
246151.48217773 3357586.04907227 13.30317211 26 22 13
246150.22192383 3357585.78863525 12.83430672 174 161 144
246151.68212891 3357586.25006104 13.40870762 33 21 21
246156.77258301 3357586.93481445 14.36794758 64 68 69
246151.25122070 3357581.01171875 13.38973331 206 193 187
246165.06640625 3357588.80828857 13.20914745 43 44 49
246157.20117188 3357591.28631592 12.78934860 99 115 53
246156.47241211 3357585.90112305 14.10268688 140 144 143
246152.21569824 3357584.99517822 13.94010735 94 102 105
246166.32617188 3357585.10125732 13.28024197 35 40 44
246164.52746582 3357584.32049561 13.95887661 45 50 54
246162.79028320 3357590.64324951 12.75997353 33 39 39
246152.59606934 3357581.39520264 13.68176556 224 224 222
246156.67370605 3357587.35083008 14.49279404 226 228 227
246153.20227051 3357580.84265137 13.23112488 80 79 77
246165.75280762 3357588.08856201 12.67462921 71 78 84
246163.56201172 3357591.25292969 13.01492786 36 37 39
246163.96533203 3357583.71533203 13.63766956 68 68 70
246160.70617676 3357584.23895264 12.53378105 131 123 110
246154.74255371 3357584.61016846 13.69990253 74 81 87
246161.76391602 3357589.99163818 14.00667953 25 30 33
246160.78747559 3357586.75378418 13.05618286 45 50 53
246158.55908203 3357588.12585449 13.87887764 51 52 57
246164.89843750 3357584.34179688 13.40683746 75 82 88
246158.31250000 3357588.40844727 13.56573486 110 112 111
246161.49645996 3357586.60974121 13.36329937 54 54 52
246165.86437988 3357587.97247314 12.65266895 75 82 88
246152.07080078 3357582.82659912 13.90580463 116 121 117
246152.76232910 3357583.57812500 13.61963940 231 229 234
246159.95764160 3357585.26666260 13.48759079 78 76 77
246154.46105957 3357587.69714355 13.35181904 92 87 81
246155.96716309 3357588.69244385 12.98160172 29 30 25
246155.10595703 3357586.73699951 12.91005230 103 100 95
246151.97302246 3357584.44342041 13.27247906 25 29 32
246151.56286621 3357581.01849365 13.79225731 241 241 241
246152.17382813 3357584.92205811 13.85587883 129 133 134
246163.85400391 3357589.46533203 13.08977699 39 43 44
246152.46960449 3357586.12329102 13.74688148 17 17 19
246158.96801758 3357584.33343506 12.95938206 80 77 70
246160.77124023 3357585.41046143 12.93975639 81 76 72
246164.04736328 3357587.72369385 12.62727261 71 79 82
246154.80664063 3357586.16857910 12.93190670 63 62 60
246163.55322266 3357592.43914795 12.82439899 255 247 226
246157.79272461 3357582.96472168 12.94296932 148 135 126
246152.72692871 3357585.54449463 13.73953533 65 65 65
246151.02954102 3357581.81207275 14.13572311 254 255 255
246162.18493652 3357586.18646240 13.01092529 104 109 113
246153.90698242 3357585.60937500 13.79457951 35 35 35
246159.81982422 3357585.88061523 13.72007656 103 108 114
246162.35021973 3357584.89880371 13.48007202 23 25 24
246162.45043945 3357591.75695801 12.75620651 51 53 52
246163.59423828 3357588.77655029 13.33799458 67 79 93
246164.72314453 3357588.28033447 12.73852921 73 76 83
246161.77416992 3357588.04248047 13.45492458 76 80 79
246153.52807617 3357586.98217773 13.59150410 255 254 252
246155.21228027 3357586.65148926 13.37196159 65 65 65
246156.18359375 3357586.82336426 14.28331757 51 52 54
246159.67346191 3357586.77508545 14.03578091 60 61 63
246151.90881348 3357586.38903809 13.61009312 80 80 80
246151.57202148 3357586.09368896 13.59142017 58 36 39
246153.88269043 3357584.36010742 13.92311478 14 15 19
246154.31677246 3357585.16949463 13.76239204 94 94 96
246159.34252930 3357585.98553467 13.92670918 30 39 48
246151.51208496 3357579.56677246 13.53351021 93 90 85
246161.12329102 3357593.69519043 12.74374104 122 132 79
246152.98022461 3357585.16912842 13.82805347 10 11 15
246159.00329590 3357583.75183105 12.77507877 128 112 99
246151.03808594 3357581.29980469 13.04089546 131 112 98
246164.25561523 3357588.79962158 12.84190655 44 49 52
246156.20581055 3357586.06866455 14.03131866 137 137 135
246156.20996094 3357589.61480713 12.75165176 144 143 115
246150.15319824 3357584.37945557 13.76356792 160 161 163
246163.05273438 3357583.47564697 13.93532562 34 33 29
246161.74853516 3357585.23785400 12.99749565 105 105 103
246159.86584473 3357584.96826172 13.00019836 191 176 155
246163.27526855 3357591.11364746 13.00621319 37 39 38
246149.86804199 3357585.25384521 12.82981491 157 141 128
246159.78125000 3357592.59875488 12.69923687 93 116 48
246158.26733398 3357583.54406738 12.91570377 60 61 56
246160.84301758 3357590.13500977 13.76846218 66 71 74
246152.42736816 3357587.32836914 12.82743073 167 150 132
246152.27941895 3357585.65423584 13.85318661 21 22 24
246154.21252441 3357587.64837646 12.94412327 66 58 45
246154.70178223 3357585.24841309 13.52335358 80 74 74
246162.24511719 3357586.58605957 12.88231850 96 105 114
246159.76135254 3357590.52050781 13.14337921 164 159 153
246160.11669922 3357586.21362305 13.82615852 38 39 41
246150.97668457 3357586.27758789 12.81842041 168 153 134
246157.62573242 3357585.35620117 14.16142273 92 88 89
246153.32373047 3357586.71063232 13.07261276 38 38 36
246154.98107910 3357588.19433594 13.54639053 132 123 114
246164.13366699 3357584.71929932 14.25302982 103 106 111
246164.05590820 3357584.58349609 14.19493866 56 55 60
246152.45385742 3357585.05529785 14.04870319 55 56 61
246151.09191895 3357584.41241455 13.66529846 33 33 33
246164.62756348 3357589.32635498 13.38786602 46 49 54
246152.79846191 3357587.41088867 12.81222248 143 126 110
246165.81347656 3357584.71173096 13.54902458 53 56 61
246166.31958008 3357585.99841309 13.45930672 113 122 139
246151.83190918 3357586.06237793 13.86044693 42 33 36
246159.42053223 3357585.78967285 13.81602383 57 65 68
246150.14245605 3357583.61474609 14.01900291 32 40 42
246163.77917480 3357588.47491455 13.04160976 68 77 94
246155.61474609 3357585.99914551 12.81484032 154 150 147
246156.46569824 3357588.54467773 13.17035961 39 43 44
246152.59887695 3357586.73785400 13.41859150 22 13 14
246153.67639160 3357586.70672607 13.69099522 254 254 252
246159.20227051 3357587.59832764 13.69645500 52 53 57
246159.07263184 3357587.61761475 13.85815430 40 41 46
246152.09912109 3357581.86352539 13.77412415 61 71 70
246151.50573730 3357580.68481445 13.26965618 89 70 63
246152.55554199 3357584.31549072 13.91239643 0 0 0
246163.74523926 3357588.13256836 13.14188194 79 91 103
246152.77062988 3357583.20404053 13.40810966 114 124 125
246165.73681641 3357587.73870850 12.67588615 75 82 92
246161.89514160 3357589.70526123 13.91865826 30 34 37
246161.33032227 3357589.66101074 13.93891811 33 33 35
246159.35705566 3357584.82092285 13.69023514 85 84 79
246162.47570801 3357590.50329590 13.02344036 74 75 80
246155.68554688 3357582.77154541 13.02566719 52 51 49
246154.98742676 3357586.79901123 12.97496796 155 156 150
246163.67968750 3357583.51617432 13.58342838 47 48 50
246155.71240234 3357585.73620605 13.02021313 139 130 125
246153.61987305 3357584.90728760 14.02602959 9 11 8
246153.32336426 3357583.65765381 13.91395283 29 27 28
246150.84912109 3357582.08227539 14.20903206 229 219 218
246165.71582031 3357587.30261230 12.79814434 65 72 80
246157.40686035 3357586.16564941 14.03390217 57 67 76
246161.53942871 3357587.09423828 13.11037827 88 89 94
246161.65197754 3357584.95300293 12.95051098 76 76 74
246151.79174805 3357579.80993652 13.23082542 140 140 140
246152.89892578 3357587.86419678 12.80051708 148 132 117
246166.23291016 3357585.05889893 13.50841045 55 63 66
246160.47937012 3357593.71606445 12.72943592 78 100 28
246161.20153809 3357590.39587402 13.99849415 74 82 93
246159.17089844 3357586.04492188 14.19567299 46 49 54
246157.85046387 3357588.93041992 12.84840584 59 59 57
246163.60839844 3357586.75915527 12.58893681 85 90 94
246164.70336914 3357587.08746338 12.73398399 77 84 90
246160.51965332 3357584.39904785 12.61468506 188 164 136
246153.19885254 3357583.95727539 14.14376831 18 20 19
246154.04223633 3357584.52178955 13.96397877 20 23 28
246152.19421387 3357587.02465820 12.82429600 159 142 126
246156.99401855 3357586.41253662 14.13654804 51 58 64
246161.28808594 3357590.58544922 13.99756145 39 46 56
246161.50683594 3357588.53424072 13.58916092 204 206 205
246150.41027832 3357584.65264893 12.89931297 119 115 106
246153.38867188 3357583.28430176 13.77623081 65 64 69
246164.45300293 3357586.36401367 13.11135292 136 140 141
246152.30163574 3357582.63458252 13.91916180 26 26 24
246151.32836914 3357580.68627930 12.92197704 67 69 68
246150.83215332 3357586.08892822 12.82992363 183 168 149
246152.92175293 3357580.59832764 13.07798004 72 73 68
246164.95178223 3357587.22308350 12.71497822 77 84 90
246163.62268066 3357585.55273438 13.25357533 45 49 52
246151.32177734 3357580.90899658 13.29945850 64 42 28
246152.19812012 3357582.51025391 14.00663471 157 159 158
246160.64575195 3357586.18743896 13.59035206 216 218 217
246163.08557129 3357590.56640625 12.83739567 40 41 45
246150.89172363 3357584.09606934 13.89411545 47 51 54
246158.57043457 3357589.59020996 12.86773586 182 175 157
246153.58056641 3357582.65911865 13.64538574 162 111 108
246162.52941895 3357584.27270508 13.86873531 27 27 25
246158.60034180 3357589.34655762 13.01883221 74 75 70
246162.26147461 3357592.92041016 12.69131851 140 133 125
246153.51257324 3357585.60321045 13.85999680 23 23 23
246160.18579102 3357591.32104492 13.39606285 172 165 149
246159.61584473 3357590.43988037 13.01968384 168 155 139
246162.47180176 3357590.74786377 12.68819714 32 33 37
246159.06494141 3357589.37249756 13.00362301 54 53 48
246151.28735352 3357586.10607910 12.84433460 161 146 127
246157.74499512 3357591.28350830 12.74519920 82 97 40
246154.46374512 3357584.90228271 13.80318546 83 88 92
246159.40539551 3357585.04772949 13.80021763 128 128 126
246163.23059082 3357588.84460449 13.53953838 128 136 147
246163.09582520 3357593.28759766 13.06927967 221 218 203
246151.47241211 3357582.75201416 14.21731091 230 230 228
246158.58581543 3357589.05523682 12.88811493 121 113 110
246155.94616699 3357585.30743408 13.60390186 96 91 85
246151.56250000 3357582.88165283 14.19156456 234 234 232
246152.12878418 3357583.79510498 13.53982639 136 144 147
246162.17102051 3357585.10742188 13.23219204 27 27 25
246154.65795898 3357584.00622559 13.46723461 12 13 17
246165.26318359 3357584.60614014 13.63381481 86 90 99
246155.22827148 3357589.61383057 12.74575996 188 176 160
246155.31701660 3357585.03881836 13.12475491 85 84 80
246164.02905273 3357591.66461182 13.03185177 124 126 125
246163.96350098 3357585.41284180 14.20341396 156 166 168
246156.40344238 3357584.40051270 12.90321445 175 167 146
246160.84692383 3357587.12890625 12.91345596 57 58 62
246163.72119141 3357588.36309814 13.31136513 37 49 65
246163.05163574 3357589.73583984 12.96685886 68 72 81
246159.34020996 3357583.84020996 12.69575405 201 182 165
246163.23742676 3357590.39904785 12.89620590 39 40 44
246161.69458008 3357587.04602051 13.19768810 94 95 97
246154.10034180 3357585.97338867 13.47971249 39 39 39
246165.39538574 3357587.65020752 12.67755508 72 81 88
246163.68688965 3357590.26098633 13.11285591 42 43 47
246160.71215820 3357587.97119141 13.14379597 83 83 81
246165.83972168 3357586.89849854 13.31949234 34 39 45
246155.18859863 3357586.54229736 13.62255287 47 47 47
246153.38598633 3357585.43438721 13.87043476 4 5 7
246166.15063477 3357585.09014893 13.69825268 49 59 61
246151.89074707 3357584.42712402 13.22997379 49 50 52
246158.55871582 3357589.47045898 12.94943333 95 93 81
246164.19812012 3357588.98211670 12.90448952 47 48 52
246161.50891113 3357586.43420410 12.89475441 22 23 25
246163.59130859 3357589.23321533 13.08403301 29 34 38
246157.34863281 3357582.85314941 13.02151299 143 129 118
246163.78442383 3357588.15814209 12.85598755 77 86 95
246163.70788574 3357586.42572021 12.65969467 91 98 104
246157.21081543 3357588.16424561 13.58775043 55 61 61
246161.79504395 3357587.63287354 13.24433899 57 58 62
246153.91381836 3357583.91058350 13.24682617 81 86 90
246154.12011719 3357583.20489502 13.64677334 44 46 45
246154.72497559 3357584.31793213 13.29484367 80 93 101
246154.47375488 3357585.25830078 13.63640308 80 76 75
246163.09729004 3357588.03143311 13.42910004 126 136 145
246163.27111816 3357585.79614258 12.99548817 119 123 126
246166.25231934 3357585.71051025 13.60404778 125 139 148
246157.84313965 3357589.38684082 12.71296501 183 166 150
246161.71716309 3357586.24554443 12.90040112 61 65 66
246165.59313965 3357586.84197998 13.23606110 51 54 59
246163.76354980 3357583.74407959 13.94568920 51 49 52
246163.78283691 3357584.85205078 14.16719818 47 48 50
246160.65661621 3357585.70166016 13.00019741 88 84 81
246153.02856445 3357581.33996582 13.53028774 151 151 151
246158.83508301 3357588.85955811 12.82859612 215 198 180
246153.19018555 3357582.87622070 13.27613163 50 54 55
246158.89855957 3357588.42016602 13.76059055 60 60 60
246157.58630371 3357589.84991455 12.75057411 148 135 118
246158.41345215 3357587.95458984 14.01107216 67 70 77
246165.26965332 3357588.93200684 13.27772617 87 91 100
246156.56628418 3357589.69940186 12.72958279 118 127 82
246164.25097656 3357589.24108887 13.09872246 45 48 53
246159.67810059 3357584.66210938 13.22256660 201 189 175
246160.50585938 3357589.52667236 13.25028515 159 164 158
246154.16406250 3357586.60162354 13.59480762 52 54 53
246156.00451660 3357589.29724121 12.72365189 148 140 121
246164.07946777 3357585.62188721 14.12382126 54 62 64
246156.62561035 3357586.45709229 14.21700573 10 18 21
246161.97583008 3357593.48052979 12.69942665 44 51 10
246158.07226563 3357587.57006836 14.20767879 57 60 65
246165.71618652 3357588.16802979 12.69038200 73 80 86
246160.09106445 3357590.50195313 12.93235207 111 110 105
246158.42919922 3357586.86138916 13.97055244 32 35 40
246161.95593262 3357584.53417969 13.31379700 36 35 40
246160.82971191 3357585.01922607 12.88156986 80 77 72
246157.54174805 3357586.13189697 13.99765587 56 69 75
246163.93103027 3357588.30755615 12.70799828 47 54 62
246165.33166504 3357588.61584473 13.03308105 71 76 82
246155.09716797 3357586.77954102 14.30466938 11 13 12
246162.03527832 3357586.29705811 13.83800602 106 110 113
246166.00488281 3357584.93121338 13.22235394 53 58 62
246158.19116211 3357584.66479492 13.28674793 50 54 55
246154.17919922 3357585.89923096 13.47965622 36 36 34
246152.09704590 3357581.94189453 13.78055954 57 72 69
246163.87402344 3357587.36376953 12.62426949 88 96 99
246161.02490234 3357584.33697510 12.65996933 129 121 108
246158.03417969 3357585.29693604 13.85526371 44 42 43
246161.74060059 3357591.41949463 13.60214710 34 34 36
246162.59667969 3357586.28637695 12.62819195 50 51 55
246163.42492676 3357588.25006104 13.41594887 117 127 139
246154.57275391 3357584.89880371 13.75629234 70 73 78
246165.39953613 3357584.66955566 13.57481289 38 43 47
246162.92517090 3357589.96423340 12.89752865 50 53 60
246160.73425293 3357586.99517822 13.03651810 42 46 47
246156.23657227 3357586.02331543 13.83556080 127 120 112
246149.92968750 3357585.49194336 12.84412670 173 160 143
246158.31469727 3357584.21466064 13.21824455 184 169 150
246154.60229492 3357584.45574951 13.78178120 60 71 77
246157.72534180 3357589.89550781 12.76120758 158 143 124
246165.21752930 3357587.06085205 12.86461544 73 77 86
246156.31750488 3357586.81567383 14.23943520 66 67 69
246159.70056152 3357584.89208984 13.49010944 51 52 54
246159.52722168 3357583.76013184 12.61484051 205 189 173
246152.21362305 3357582.64056396 13.96360493 17 19 18
246157.23950195 3357587.63659668 14.33089733 142 143 145
246155.64282227 3357583.84606934 13.11555958 57 57 57
246154.55041504 3357584.09051514 13.27373791 62 69 75
246154.53710938 3357586.77740479 13.07895374 81 82 77
246154.32177734 3357587.53955078 13.67979622 51 41 39
246162.48242188 3357584.87500000 13.64563274 36 36 34
246166.30322266 3357585.26037598 13.72343826 72 81 90
246154.47387695 3357584.94567871 13.78202152 94 99 103
246152.24499512 3357582.33038330 13.89741421 149 150 152
246164.12084961 3357590.14569092 13.31569099 43 44 46
246161.22180176 3357592.27935791 12.65169334 188 170 150
246156.41796875 3357585.73046875 13.78921127 122 117 113
246157.67041016 3357585.40490723 14.15513706 96 96 96
246158.57373047 3357590.70953369 12.67707539 141 134 106
246159.31213379 3357592.11346436 12.68847466 125 141 76
246153.56945801 3357586.61199951 13.46395397 255 254 252
246153.06372070 3357587.20806885 12.82915783 170 154 138
246154.63684082 3357587.97973633 12.89462280 80 73 63
246157.93103027 3357585.54705811 13.80412960 28 29 31
246162.01965332 3357590.86260986 13.62742710 11 15 16
246160.41308594 3357589.37823486 13.19432354 41 41 43
246165.20922852 3357586.58123779 13.33176231 86 91 95
246162.64758301 3357587.05920410 12.65456104 74 77 84
246163.08361816 3357591.92346191 12.85042000 42 43 45
246153.43969727 3357581.00756836 13.07388878 85 81 80
246154.86401367 3357588.43707275 12.83982372 154 145 130
246154.65148926 3357589.06597900 12.79029942 167 153 140
246151.67199707 3357582.45800781 14.18367004 226 226 224
246165.60620117 3357584.77502441 13.76375580 85 90 96
246154.95629883 3357588.72296143 12.77328873 166 154 138
246151.70349121 3357584.28698730 13.37032890 10 10 8
246151.81433105 3357585.32720947 13.78024197 174 140 131
246162.01159668 3357591.18273926 13.26938725 113 114 118
246159.79370117 3357592.03454590 12.62504864 129 138 81
246161.61694336 3357589.72680664 13.97866726 46 52 52
246157.19555664 3357584.92694092 13.86385727 115 105 96
246162.53039551 3357586.31317139 12.64022446 23 26 31
246155.71960449 3357588.74957275 12.77704239 134 124 112
246157.82299805 3357584.32873535 12.93286324 197 179 157
246158.22058105 3357583.13354492 12.91988087 126 102 90
246164.67590332 3357586.04095459 13.88040161 53 56 63
246153.78295898 3357586.76995850 14.06634045 230 232 231
246162.42419434 3357588.72015381 13.63860798 50 62 62
246151.99487305 3357584.59741211 13.31704712 20 26 26
246154.89196777 3357586.41851807 12.80068684 51 50 48
246161.87036133 3357588.54827881 13.58481884 163 172 179
246164.00622559 3357591.79718018 12.94479561 104 105 107
246152.93420410 3357581.24102783 13.54119301 188 190 189
246152.67053223 3357584.24700928 13.99369526 139 150 154
246155.19799805 3357586.50024414 13.64551830 29 29 27
246161.90209961 3357591.49249268 13.23147678 89 87 90
246157.69970703 3357588.52832031 13.10370827 57 57 57
246165.47106934 3357585.53155518 14.05636311 17 35 35
246152.16345215 3357584.21313477 13.63573265 178 187 194
246164.24902344 3357585.71661377 14.12275028 88 97 96
246156.76733398 3357588.27294922 13.35124207 62 66 69
246162.06420898 3357592.04083252 12.63652992 51 55 58
246153.02465820 3357585.80609131 13.59024811 91 93 90
246153.25305176 3357582.75646973 13.24536324 46 48 47
246154.88793945 3357588.14135742 13.21138287 120 111 106
246150.07788086 3357584.68493652 12.79368114 138 130 119
246161.93444824 3357584.13983154 13.00240612 116 116 116
246160.39221191 3357585.57446289 12.97070885 180 161 144
246160.86303711 3357589.38427734 13.61079502 145 156 152
246155.31457520 3357585.49047852 12.96836662 67 66 62
246159.87854004 3357590.76239014 13.41745758 215 210 206
246160.25012207 3357588.48889160 13.43663406 239 230 221
246162.10778809 3357585.63873291 12.89411545 170 170 170
246162.88537598 3357585.54876709 13.06551075 134 138 141
246151.02893066 3357584.97119141 12.82372284 150 143 137
246163.06005859 3357588.03961182 13.44211102 129 139 148
246164.58398438 3357584.92785645 14.32041359 150 159 166
246154.88220215 3357586.21679688 12.87080860 56 56 54
246166.39843750 3357587.86810303 12.65219688 74 81 87
246160.33312988 3357592.10064697 12.71890831 130 135 94
246160.48474121 3357590.80261230 13.60888958 217 216 212
246162.04980469 3357589.67639160 13.88556099 28 33 37
246162.82312012 3357583.69683838 13.93365574 24 23 21
246159.51489258 3357587.03363037 14.06856823 59 63 64
246162.48181152 3357587.07220459 12.69797993 76 79 86
246155.84729004 3357590.11364746 12.75376034 152 152 116
246165.25549316 3357586.00836182 14.02402782 24 37 45
246160.61804199 3357591.60272217 13.72190666 127 137 136
246157.94555664 3357585.28594971 13.98704910 112 103 104
246161.61804199 3357593.55957031 12.69976807 125 111 82
246158.35546875 3357588.19274902 13.87821674 104 108 111
246161.77490234 3357593.95745850 12.77755260 125 135 72
