245565.10833740 3357631.50054932 19.05346107 10 15 18
245566.08404541 3357630.31317139 18.08847046 20 21 25
245564.47082520 3357631.43621826 19.29648972 27 32 28
245565.24511719 3357629.97644043 18.50380898 15 17 16
245564.90509033 3357629.96685791 18.99184799 0 5 3
245564.93084717 3357630.04315186 18.99798203 3 5 4
245565.66217041 3357633.54815674 19.24493790 25 26 28
245565.99371338 3357633.54394531 19.35455513 22 23 27
245567.54138184 3357633.31872559 18.60918808 19 18 24
245565.45989990 3357631.67193604 18.91869736 19 20 24
245565.32806396 3357631.12231445 19.01556206 88 91 96
245565.62304688 3357629.86614990 18.04222488 34 33 39
245566.78350830 3357630.44915771 18.62390518 11 12 17
245565.36651611 3357633.47155762 19.18238258 34 35 39
245566.89080811 3357631.36700439 18.74566841 37 40 45
245565.53265381 3357632.36944580 18.75018120 32 36 39
245565.02600098 3357633.29815674 19.13324165 12 18 18
245567.69866943 3357633.70208740 18.84893608 20 18 23
245567.90570068 3357635.09313965 18.02614021 20 22 19
245566.23602295 3357631.79595947 18.66505051 11 15 18
245566.81842041 3357632.86511230 18.11221123 27 31 32
245565.54937744 3357633.44940186 18.99791908 9 10 12
245566.16699219 3357630.69561768 19.05714607 42 41 39
245565.44085693 3357633.48364258 19.09964180 13 14 18
245564.79620361 3357630.26458740 18.97928047 19 25 23
245568.17578125 3357634.09057617 18.32747078 19 26 32
245567.17565918 3357633.38543701 18.92439842 22 23 25
245564.75805664 3357631.91778564 19.37471199 77 77 75
245568.64178467 3357633.18365479 18.45158768 26 21 25
245564.64398193 3357630.46551514 18.97428131 10 16 14
245564.35083008 3357630.56030273 19.53554916 39 39 37
245566.98797607 3357630.94238281 18.85234642 18 23 29
245567.76904297 3357635.13763428 18.24261093 22 24 21
245564.75744629 3357630.48431396 18.93532562 5 11 11
245567.82885742 3357633.23590088 18.39862633 36 40 51
245565.93310547 3357634.00030518 19.35966682 9 15 15
245566.49401855 3357630.57617188 18.87246132 34 36 35
245564.35546875 3357630.77032471 19.49732780 34 39 35
245565.39526367 3357630.49133301 18.87598610 11 12 16
245568.67480469 3357633.47326660 18.48884392 58 55 64
245565.44183350 3357631.68511963 18.92292023 20 19 24
245566.88214111 3357631.11413574 18.80426407 32 37 41
245564.94348145 3357631.25054932 20.24186897 26 24 12
245568.52929688 3357633.05322266 18.57052994 35 28 35
245568.38909912 3357632.88696289 18.25804901 10 10 12
245567.18841553 3357633.86981201 19.37211418 34 37 44
245565.57897949 3357632.52581787 18.67627716 24 28 31
245564.37982178 3357631.19793701 19.41050911 24 29 25
245565.89526367 3357632.66082764 18.47571373 26 27 29
245565.42547607 3357632.82122803 18.67327690 8 12 15
245568.31127930 3357632.92462158 18.42825699 9 10 15
245567.46685791 3357634.30352783 19.08023262 11 14 19
245567.20141602 3357632.78680420 18.05618858 32 33 35
245565.91552734 3357630.98968506 18.99185562 23 24 26
245565.38189697 3357631.21661377 19.00007629 31 32 36
245565.12835693 3357630.13885498 18.80808830 9 10 14
245567.07330322 3357634.05694580 19.33357620 34 33 38
245566.52722168 3357630.22479248 17.94528198 25 29 32
245564.67413330 3357630.92053223 19.07982635 10 11 13
245565.26245117 3357633.42095947 19.34469223 16 20 21
245564.78515625 3357632.74908447 18.91986465 64 68 71
245565.31048584 3357633.54302979 19.80959129 11 13 12
245568.68292236 3357633.32208252 18.38461494 47 47 57
245565.36254883 3357632.85943604 18.67432022 3 6 11
245565.96862793 3357630.42755127 18.25343323 12 13 17
245567.11315918 3357633.14044189 18.81180382 9 10 14
245565.62829590 3357632.58422852 18.63270950 24 28 31
245565.60284424 3357631.12738037 19.01923561 27 28 32
245566.74572754 3357632.16790771 18.32595634 25 28 33
245565.67303467 3357633.29400635 18.84925842 48 49 53
245565.07904053 3357632.85546875 18.67821884 17 21 24
245566.79211426 3357633.98260498 19.40928650 12 25 34
245564.78057861 3357631.46496582 19.11706734 17 21 22
245564.70410156 3357629.75604248 18.96738434 13 17 16
245565.06665039 3357631.31323242 20.38942146 124 121 104
245564.75329590 3357633.02221680 19.03875542 57 59 58
245565.91601563 3357632.32257080 18.60296249 43 47 50
245567.02386475 3357630.79357910 18.87308121 18 23 27
245564.88555908 3357632.50585938 18.92950630 35 39 40
245565.61627197 3357630.25732422 18.48026657 12 13 17
245565.75903320 3357630.51800537 18.86805153 10 11 16
245566.59161377 3357633.01025391 18.46164513 8 12 15
245567.53961182 3357633.61511230 18.86775780 45 44 49
245565.83984375 3357633.55194092 19.35115433 27 28 32
245565.05328369 3357633.25726318 18.81818390 11 15 18
245566.63848877 3357631.53472900 18.71051216 18 23 29
245566.29827881 3357633.19738770 18.91703987 21 25 26
245568.05969238 3357633.13427734 18.46545601 43 52 67
245565.41748047 3357631.85125732 18.90783119 13 14 18
245566.70379639 3357631.97222900 18.46955872 16 19 24
245565.56958008 3357632.65814209 18.63792610 13 17 20
245567.51806641 3357633.85839844 19.07481384 29 30 34
245565.71209717 3357631.02923584 19.03148079 26 27 31
245566.15460205 3357633.74029541 19.44250488 17 18 22
245564.57269287 3357631.52301025 19.56576538 81 83 82
245565.46801758 3357630.25347900 18.65587234 11 10 16
245565.48760986 3357631.19635010 19.00489235 26 27 31
245566.53161621 3357630.66479492 18.94029427 47 47 47
245565.27197266 3357632.52795410 18.73551750 17 18 23
245564.99114990 3357631.51568604 19.09879303 12 16 19
245566.89849854 3357633.05944824 18.32754135 7 8 12
245565.39117432 3357634.24804688 19.21938705 12 16 17
245564.80126953 3357631.10540771 20.09169388 57 58 52
245564.53619385 3357629.79229736 19.02293205 14 19 15
245565.93585205 3357632.57684326 18.48478317 34 35 39
245565.10076904 3357633.16107178 18.73870850 5 6 11
245565.31579590 3357630.50433350 18.90861893 5 9 12
245566.08166504 3357632.58190918 18.43449974 37 39 38
245567.82037354 3357634.21490479 18.72390747 16 19 26
245567.24932861 3357633.21301270 18.75204849 12 13 18
245565.48937988 3357632.88055420 18.66240501 3 6 11
245567.93414307 3357632.86932373 18.03169060 74 73 78
245565.62170410 3357631.26989746 18.98858643 26 27 31
245565.31542969 3357630.33801270 18.80394363 9 13 16
245566.91522217 3357630.44787598 18.12153435 21 22 26
245568.68731689 3357633.21343994 18.35439491 30 29 34
245565.54595947 3357634.12670898 19.27259064 11 12 14
245567.25396729 3357632.91442871 18.07945251 25 26 28
245565.70526123 3357633.21142578 18.80044746 21 22 24
245565.49127197 3357632.16015625 18.83768082 22 23 27
245566.16876221 3357633.50744629 19.28422165 22 23 25
245564.86322021 3357630.73797607 19.00376511 4 12 14
245566.83843994 3357630.67572021 18.92351151 43 47 50
245566.66802979 3357631.04193115 18.85208511 62 65 70
245564.93505859 3357631.67047119 19.15641975 24 28 31
245566.73901367 3357632.99291992 18.21083260 4 8 11
245567.04254150 3357633.11499023 18.22647095 42 45 50
245567.60296631 3357633.79797363 18.95557022 25 29 32
245567.02825928 3357631.22113037 18.77506256 22 30 33
245568.38720703 3357633.96276855 18.34498405 23 31 42
245567.61975098 3357633.61676025 18.82190895 39 36 43
245568.34191895 3357632.88635254 18.24845505 6 6 8
245566.01263428 3357630.30737305 18.08625031 18 19 23
245567.08514404 3357633.07617188 18.57847977 7 7 15
245565.24005127 3357634.14953613 19.52280235 27 27 25
245566.14086914 3357630.14379883 17.91211891 37 38 40
245566.55743408 3357632.25183105 18.39847374 7 10 15
245566.47717285 3357630.09503174 17.87144279 38 38 40
245565.02551270 3357633.26275635 18.87951851 22 26 29
245564.67700195 3357630.50366211 18.95249939 10 16 16
245568.20001221 3357633.20263672 18.57725525 34 41 57
245566.75433350 3357630.45465088 18.63622475 10 11 16
245565.99237061 3357630.49200439 18.77963257 18 23 26
245566.80340576 3357632.08148193 18.33059883 21 24 29
245564.33099365 3357630.88555908 19.21365356 24 33 28
245567.83911133 3357634.85400391 18.21804428 13 17 20
245564.65509033 3357629.88323975 19.03845978 22 28 24
245565.82452393 3357631.73925781 18.82282829 17 18 22
245567.47985840 3357633.72277832 19.09133530 30 31 33
245564.55578613 3357630.84857178 19.82861900 44 46 41
245567.77893066 3357634.28820801 18.75352287 11 12 16
245567.80737305 3357633.90393066 18.81015015 12 11 17
245565.24694824 3357629.97503662 18.49877548 15 17 16
245568.14202881 3357634.43084717 18.15865517 29 32 39
245564.53613281 3357629.88739014 19.07138443 30 37 30
245567.06671143 3357631.32958984 18.71736526 18 26 28
245564.82751465 3357629.71166992 18.89431190 11 13 12
245565.59246826 3357629.85546875 18.04934502 34 33 39
245565.63342285 3357632.06762695 18.78803062 15 16 20
245566.65533447 3357633.98504639 19.42617035 21 35 46
245566.10473633 3357631.17718506 18.89074707 27 27 27
245565.99285889 3357633.30554199 18.95856476 10 14 15
245564.81231689 3357631.21289063 20.07646370 54 54 46
245565.81634521 3357631.97662354 18.73994064 11 12 16
245565.35192871 3357630.81958008 19.04268837 27 31 34
245568.40844727 3357632.90979004 18.41880035 6 6 8
245566.17303467 3357634.24731445 19.42544365 8 13 17
245564.60009766 3357631.63555908 19.50361633 104 106 103
245565.73828125 3357633.82061768 19.39542580 12 13 17
245568.68554688 3357633.24023438 18.37700844 39 38 44
245565.93054199 3357631.90295410 18.72756004 4 8 9
245566.26446533 3357633.05432129 18.69806290 10 9 14
245567.13952637 3357634.53759766 19.14577484 26 33 39
245566.45318604 3357630.56622314 18.83738708 35 37 36
245565.56866455 3357631.21600342 19.00093269 27 28 32
245565.30834961 3357632.28613281 18.86399078 37 38 42
245567.17626953 3357633.50317383 19.10739517 21 23 22
245566.64428711 3357632.66784668 18.16679382 35 36 40
245566.99072266 3357631.74194336 18.47218513 6 14 17
245567.08197021 3357630.12023926 17.90111160 43 43 45
245565.20520020 3357632.08703613 19.04344177 24 25 29
245566.27087402 3357632.85888672 18.28267479 27 31 34
245567.53997803 3357633.55804443 18.81862068 19 17 22
245567.40087891 3357632.73980713 18.01616478 40 38 41
245565.43243408 3357632.31701660 18.78854370 41 42 46
245566.57110596 3357630.48095703 18.63762665 19 18 23
245566.66912842 3357630.37908936 18.29657745 18 19 24
245566.90936279 3357630.46014404 18.64182091 14 15 19
245567.00244141 3357629.98736572 17.90045929 40 41 43
245565.67327881 3357631.48571777 18.91935539 24 25 29
245566.68328857 3357630.50708008 18.73438835 14 15 19
245567.21575928 3357634.37194824 19.22891235 17 31 42
245566.11492920 3357630.49542236 18.71105766 15 19 20
245565.10754395 3357630.02893066 18.80689430 10 11 15
245566.71301270 3357630.45635986 18.62645149 11 12 17
245566.04119873 3357630.47851563 18.67532539 14 18 19
245567.37054443 3357633.69055176 19.21453667 37 38 42
245567.67565918 3357633.35327148 18.57336426 19 16 23
245566.89300537 3357633.03881836 18.58679581 8 8 16
245566.78686523 3357633.01849365 18.29329491 8 9 13
245568.24029541 3357633.09698486 18.63885307 38 41 56
245566.18194580 3357632.79553223 18.33251953 26 30 33
245566.77722168 3357631.37976074 18.74641228 27 30 37
245566.74914551 3357633.01397705 18.57083321 7 8 12
245566.02648926 3357631.05987549 18.95127869 26 27 29
245567.41802979 3357634.27111816 19.14087677 12 17 20
245566.31481934 3357631.60699463 18.69857025 21 22 24
245565.43621826 3357631.54376221 18.95113945 20 20 22
245566.68798828 3357632.72521973 18.13695145 35 36 38
245564.37268066 3357629.89355469 19.15491867 37 44 36
245567.14501953 3357634.53662109 19.14254379 26 33 39
245566.52899170 3357630.61010742 18.91502571 38 38 38
245566.40979004 3357630.48016357 18.59763336 17 16 21
245565.95471191 3357630.40142822 18.22905731 13 14 18
245566.32574463 3357631.34979248 18.76250839 25 24 29
245566.79925537 3357631.30206299 18.76101494 36 39 44
245565.67071533 3357630.31445313 18.53771782 11 15 18
245567.86468506 3357632.88397217 18.02032852 36 35 41
245565.09539795 3357633.22595215 19.50061989 28 33 36
245566.87426758 3357633.03631592 18.59068108 8 8 16
245567.31243896 3357633.41992188 18.85442352 24 25 29
245566.86352539 3357631.73071289 18.61402893 41 48 56
245567.92657471 3357633.62298584 18.52522278 8 11 20
245565.26916504 3357634.16088867 19.28786850 15 17 16
245565.68212891 3357630.46789551 18.82034874 20 19 24
245564.83557129 3357630.66650391 18.98426247 2 7 10
245564.47845459 3357631.37335205 19.21800232 13 19 17
245567.96502686 3357634.48114014 18.32639503 56 63 73
245564.66693115 3357631.46887207 19.15683365 62 66 67
245565.01257324 3357631.53240967 19.09595871 9 13 16
245564.71850586 3357631.76263428 19.67723083 46 49 40
245566.79650879 3357632.52551270 18.16006470 37 38 42
245564.64556885 3357631.76062012 19.48395348 109 111 108
245566.79449463 3357633.07379150 18.86998940 27 28 32
245564.92926025 3357629.81597900 18.90674210 10 16 14
245566.89581299 3357632.66644287 18.09813309 35 38 43
245567.70263672 3357633.19616699 18.36839294 14 17 24
245564.83062744 3357629.94586182 19.02768898 4 10 6
245564.31298828 3357630.77484131 19.31510353 23 29 25
245567.91503906 3357634.64770508 18.13988686 17 18 23
245564.99523926 3357632.60217285 18.75751686 26 27 31
245568.16119385 3357632.94940186 18.38839149 8 8 16
245566.59094238 3357634.18109131 19.37939453 11 20 27
245568.29595947 3357633.97589111 18.34369469 23 31 42
245566.49603271 3357633.10913086 18.82484245 8 9 11
245564.53442383 3357630.16375732 19.06289673 23 35 25
245567.99401855 3357633.57928467 18.45814896 30 34 45
245565.80395508 3357634.28533936 19.28347206 5 9 10
245564.81408691 3357631.33605957 20.04438400 36 33 24
245568.00030518 3357634.49096680 18.24880981 26 29 36
245566.25988770 3357631.66680908 18.70203972 21 20 25
245565.57318115 3357632.92297363 18.63348007 6 9 14
245568.26513672 3357632.99426270 18.54928017 61 61 69
245566.58398438 3357631.81567383 18.59092903 20 25 31
245564.31164551 3357630.18072510 19.33133507 56 64 53
245565.44293213 3357630.04656982 18.30081367 23 22 28
245565.79724121 3357632.29443359 18.66144371 38 39 43
245565.40545654 3357632.42242432 18.75532722 35 36 40
245566.78118896 3357633.61096191 19.42156601 18 19 23
245567.65447998 3357632.82489014 17.94807243 42 41 46
245564.54559326 3357629.72424316 18.91984177 12 16 15
245565.42974854 3357631.87341309 18.89963722 12 13 17
245564.34338379 3357630.31420898 19.23058510 44 55 41
245565.31890869 3357633.27880859 19.84634590 21 25 26
245568.36907959 3357633.56408691 18.47466850 29 35 47
245566.93969727 3357630.48046875 18.29243279 18 17 23
245568.66021729 3357633.29730225 18.43557549 62 62 70
245567.47778320 3357634.08874512 19.10280037 8 12 15
245565.08563232 3357633.30456543 18.90149689 26 31 34
245568.34326172 3357633.51354980 18.48744583 28 36 47
245565.20989990 3357633.33160400 18.83700752 15 19 22
245566.40795898 3357632.65844727 18.26858330 47 48 50
245566.17553711 3357632.21643066 18.54792023 20 21 23
245566.77764893 3357630.30206299 17.99674034 31 32 37
245564.51330566 3357630.41680908 19.04955482 10 20 12
245566.71051025 3357633.45520020 19.30280685 15 19 20
245566.01751709 3357634.26776123 19.37935829 8 11 16
245566.40771484 3357630.44329834 18.48851204 16 17 21
245567.54327393 3357634.74688721 18.76396179 15 15 17
245564.65734863 3357630.83087158 19.05355453 38 44 44
245567.65277100 3357634.18670654 18.89189529 11 12 17
245566.81311035 3357631.01049805 18.84405136 40 47 55
245566.61511230 3357630.54840088 18.81214523 41 42 46
245565.46722412 3357633.48223877 19.08912849 14 15 17
245566.33062744 3357633.47705078 19.27494049 27 28 30
245566.66259766 3357634.21209717 19.33425903 10 19 26
245566.47875977 3357632.67010498 18.22710609 46 48 47
245566.85534668 3357630.44671631 18.56102943 7 8 12
245564.98364258 3357630.78851318 19.03133202 11 15 18
245565.89794922 3357632.22473145 18.63315582 30 31 35
245566.69982910 3357633.01098633 18.34086227 14 15 19
245566.30078125 3357630.53009033 18.72073364 28 32 33
245567.01300049 3357633.46679688 19.20499420 17 18 20
245564.61511230 3357629.56311035 18.73168945 33 35 34
245564.37219238 3357630.51580811 19.59222221 43 43 41
245565.90344238 3357634.15112305 19.30355263 6 10 13
245566.73455811 3357630.74725342 18.94936180 48 53 57
245566.38043213 3357633.29547119 19.07262039 6 7 9
245565.51379395 3357631.85119629 18.86797905 19 20 24
245564.80364990 3357630.46478271 18.93963432 0 3 6
245567.11083984 3357630.74346924 18.78983116 46 47 49
245567.42779541 3357634.50506592 18.92660332 13 16 21
245566.43981934 3357630.22302246 17.96094513 38 39 43
245564.71502686 3357629.85675049 19.01867676 17 23 19
245567.72235107 3357633.55047607 18.71895409 65 58 65
245566.41448975 3357632.99279785 18.42113113 10 14 17
245565.11901855 3357632.23260498 19.01115799 44 45 49
245565.53045654 3357632.50372314 18.70762062 28 29 33
245565.26806641 3357633.48876953 19.41891861 12 16 17
245565.97766113 3357631.15899658 18.94266510 24 25 27
245566.69897461 3357631.23901367 18.77234840 26 29 36
245565.64538574 3357631.13055420 19.01905441 27 28 32
245567.53967285 3357634.81494141 18.72975159 12 12 12
245565.19458008 3357630.84600830 19.03723145 22 21 26
245566.35906982 3357629.98187256 17.86465836 39 39 41
245567.42376709 3357632.97583008 18.11711121 14 15 20
245564.60968018 3357630.59967041 18.98649025 8 13 16
245564.93182373 3357630.82556152 19.03147888 19 23 26
245567.13665771 3357631.42779541 18.50962448 81 96 101
245564.85803223 3357632.61602783 18.82010460 28 32 33
245568.45336914 3357633.15374756 18.64803505 133 117 118
245567.73205566 3357634.17303467 18.83183861 13 14 19
245564.55834961 3357631.12127686 19.76157761 23 25 20
245566.48358154 3357633.86834717 19.47149467 8 14 14
245566.19848633 3357631.73327637 18.69832420 17 18 22
245567.03210449 3357633.62518311 19.42118263 19 20 24
245565.77099609 3357631.87768555 18.79049301 17 18 20
245565.43090820 3357633.87237549 19.31188011 17 18 22
245565.41046143 3357632.95965576 18.67795563 3 7 10
245566.11187744 3357633.14990234 18.81120682 1 1 3
245566.79254150 3357634.19757080 19.29947472 15 24 33
245568.41125488 3357633.27581787 18.60680580 48 39 44
245567.23779297 3357633.94970703 19.31685448 25 30 34
245564.96398926 3357630.86871338 19.04522514 13 17 20
245564.94824219 3357631.54492188 20.16588211 124 126 113
245565.11907959 3357633.18829346 18.74621964 5 8 13
245567.07342529 3357631.02478027 18.81246185 5 10 14
245567.41699219 3357632.98040771 18.11915779 14 15 20
245566.58898926 3357631.02111816 18.85946655 49 52 57
245565.00469971 3357629.69006348 18.58546066 30 30 32
245565.11309814 3357633.33709717 19.05039597 13 18 21
245565.27185059 3357633.31695557 18.77953339 36 37 39
245565.26599121 3357633.72619629 19.54592323 18 19 21
245566.23126221 3357632.13684082 18.55614090 12 16 19
245564.71789551 3357631.70806885 19.74273300 43 45 32
245564.46813965 3357629.91070557 19.09300041 31 38 31
245567.36224365 3357634.73712158 18.85960770 10 12 11
245566.97973633 3357633.36633301 19.10970306 8 9 11
245565.38391113 3357632.53918457 18.72210503 13 14 18
245566.53472900 3357629.92321777 17.88611984 35 36 40
245567.80187988 3357633.00054932 18.21250534 27 28 33
245568.19201660 3357633.85168457 18.40420914 21 25 34
245567.70190430 3357634.85491943 18.55353546 9 9 7
245566.15368652 3357632.97137451 18.46381569 4 8 11
245565.82458496 3357630.08142090 18.03833389 24 25 29
245566.98797607 3357631.79101563 18.38033485 7 15 17
245564.78771973 3357632.90844727 18.84720993 14 18 21
245564.40447998 3357630.93139648 19.15453720 18 27 22
245566.65722656 3357633.07629395 18.81492996 11 12 14
245564.57495117 3357631.26989746 19.74220467 16 17 12
245566.83013916 3357634.35406494 19.21648216 5 12 18
245566.68994141 3357630.48980713 18.69646645 12 13 17
245566.91387939 3357632.65985107 18.09626579 40 41 45
245565.54040527 3357633.72509766 19.32286263 42 43 47
245564.57446289 3357629.50872803 18.57256508 68 68 66
245565.06738281 3357631.33117676 20.38539696 124 121 104
245566.04644775 3357631.14147949 18.92269707 29 29 29
245566.82952881 3357633.03381348 18.40409470 10 11 16
245565.31353760 3357633.29711914 19.82229805 20 24 25
245566.11730957 3357630.73034668 19.05549049 45 43 44
245567.14874268 3357633.63574219 19.41836739 31 34 39
245566.53930664 3357630.68670654 18.94934654 47 47 47
245566.54803467 3357631.35095215 18.74276924 18 19 24
245567.36517334 3357634.42401123 19.11800194 8 13 19
245565.23193359 3357633.39941406 19.29374695 21 25 28
245566.10278320 3357632.89160156 18.34245682 24 28 31
245564.42779541 3357631.34893799 19.25327873 17 21 20
245565.50524902 3357633.50396729 19.12905693 23 24 26
245565.86175537 3357632.85357666 18.46658325 24 23 28
245567.89526367 3357633.75915527 18.68136024 12 15 22
245564.89135742 3357630.64514160 18.99061203 3 8 11
245566.81903076 3357634.01226807 19.39306450 14 24 34
245567.82226563 3357633.41784668 18.52125168 14 17 24
245565.27508545 3357633.63519287 19.48192978 11 15 16
245565.47845459 3357630.17901611 18.47983742 13 12 17
245565.79748535 3357631.49847412 18.89800453 20 21 23
245565.72485352 3357633.58599854 19.34115410 69 70 74
245566.63940430 3357633.29290771 19.21918678 5 9 10
245566.79949951 3357633.90350342 19.43195534 18 26 37
245566.75909424 3357632.28326416 18.28035736 31 32 36
245564.90466309 3357631.05480957 19.06672287 42 46 49
245567.22918701 3357634.02441406 19.29857445 24 29 32
245567.27917480 3357633.97808838 19.27557755 22 27 30
245565.49285889 3357631.48583984 18.94098473 23 22 27
245566.92279053 3357634.02917480 19.37045288 23 30 38
245564.33551025 3357630.79205322 19.17960167 13 23 15
245564.71850586 3357629.58941650 18.78528786 26 27 29
245566.47662354 3357634.07623291 19.43126106 14 23 30
245566.27954102 3357633.94195557 19.44677544 4 10 10
245567.02197266 3357629.94818115 17.90342522 42 42 44
245566.94134521 3357633.66894531 19.44182777 16 17 21
245565.83654785 3357630.74102783 19.03413582 23 27 28
245564.53039551 3357629.91259766 19.07677269 30 37 30
245564.85803223 3357631.33782959 20.10285950 30 28 16
245566.45947266 3357630.25909424 17.99451828 44 45 50
245568.54553223 3357633.39166260 18.54581451 66 57 60
245565.67553711 3357630.00805664 18.09684372 22 23 27
245566.29620361 3357630.14746094 17.87345314 46 47 49
245565.55493164 3357631.86999512 18.84833717 19 20 24
245566.60968018 3357633.01232910 18.49364471 7 11 14
245564.41906738 3357631.33062744 19.26902390 20 22 19
245565.21240234 3357630.38287354 18.86899185 9 14 18
245567.53784180 3357633.88928223 19.04616356 25 26 30
245565.47979736 3357631.61572266 18.92175102 20 21 23
245565.24981689 3357633.39575195 19.61558533 13 19 19
245564.71978760 3357631.47320557 19.87962914 56 53 46
245566.86871338 3357633.29724121 19.13695145 7 9 8
245565.57421875 3357630.21136475 18.42075157 11 10 15
245565.78009033 3357634.08117676 19.30328560 9 13 16
245564.78277588 3357632.73034668 18.93651009 27 31 34
245565.41461182 3357633.55322266 19.21145439 40 41 45
245564.32037354 3357630.48956299 19.22503853 31 41 32
245565.35150146 3357634.09625244 19.25382996 21 22 24
245567.96173096 3357633.91180420 18.56487846 21 26 32
245566.62231445 3357630.07452393 17.89426613 38 37 42
245565.62335205 3357630.97387695 19.04430771 21 22 26
245566.04840088 3357632.15783691 18.60699654 8 12 15
245565.00469971 3357629.75091553 18.74432564 16 17 21
245567.80761719 3357634.42291260 18.70091820 21 22 24
245565.52893066 3357633.27764893 18.77995300 32 33 37
245567.08728027 3357630.73016357 18.80667114 46 47 49
245566.72332764 3357631.83319092 18.57725716 31 36 42
245566.69232178 3357630.99731445 18.87048912 62 65 70
245566.69482422 3357630.67572021 18.95098877 36 40 43
245566.35394287 3357630.02508545 17.86030388 37 37 39
245564.66522217 3357631.74127197 19.40694237 5 7 2
245565.11254883 3357631.57501221 19.07287025 15 19 22
245566.50671387 3357633.63397217 19.42647743 17 21 22
245564.67425537 3357629.51074219 18.62505341 56 56 56
245566.04168701 3357633.33227539 19.00972366 6 7 9
245566.85247803 3357630.40704346 18.15475273 15 14 20
245566.10937500 3357632.55175781 18.43916512 54 56 55
245568.35021973 3357633.07977295 18.65827942 76 73 80
245566.18591309 3357631.73077393 18.70360756 12 13 17
245565.41088867 3357630.00817871 18.28886223 26 25 31
245566.69061279 3357631.94006348 18.50747490 14 17 22
245564.90277100 3357630.97259521 19.06861877 27 28 32
245565.94909668 3357633.17596436 18.79433441 12 11 16
245565.29345703 3357630.48272705 18.90286636 5 9 12
245565.28955078 3357630.83093262 19.04040718 28 29 33
245564.58575439 3357631.23834229 19.11510277 71 75 78
245565.13958740 3357633.31945801 19.37237930 8 13 16
245567.16162109 3357630.80792236 18.36778259 16 15 20
245565.58245850 3357634.01525879 19.30691528 13 14 18
245567.61755371 3357633.26544189 18.48258400 11 10 16
245566.54229736 3357632.34136963 18.36559105 32 33 37
245567.92034912 3357634.49835205 18.38820267 24 28 37
245567.40283203 3357634.67785645 18.85299683 13 17 18
245566.52203369 3357632.50213623 18.29414749 39 40 42
245566.64752197 3357631.40130615 18.73776054 22 25 30
245566.50152588 3357633.07720947 18.76738358 7 8 10
245567.23901367 3357634.39154053 19.22138405 21 33 47
245564.43273926 3357630.23388672 19.09989166 37 47 38
245566.22930908 3357631.59967041 18.73410988 17 18 22
245564.32617188 3357629.81805420 19.25497246 30 37 29
245564.51409912 3357630.17980957 19.07262230 32 42 34
245565.55371094 3357633.41381836 18.92676353 6 7 9
245567.30407715 3357633.13067627 18.23620987 20 21 26
245566.45520020 3357632.99389648 18.40788078 9 12 17
245568.01910400 3357634.35308838 18.32751846 51 59 70
245565.90539551 3357631.92022705 18.72995377 4 8 9
245566.35998535 3357630.37390137 18.26486588 22 23 27
245566.97167969 3357631.70983887 18.57034492 35 44 53
245568.34869385 3357632.90875244 18.40534210 10 9 14
245565.77832031 3357630.60992432 18.95125198 15 16 20
245566.83618164 3357630.32128906 18.01403999 32 32 34
245566.27282715 3357631.42950439 18.76119614 23 24 28
245566.34875488 3357631.22570801 18.78671646 27 26 31
245566.65905762 3357633.57318115 19.39409637 31 35 36
245565.45141602 3357630.50384521 18.87431526 9 10 14
245564.78155518 3357631.28326416 20.01551056 52 52 44
245565.20379639 3357633.39685059 19.18903160 30 33 38
245567.01861572 3357633.07421875 18.76528168 6 7 11
245566.21466064 3357632.94116211 18.38619995 6 9 14
245565.47509766 3357632.96685791 18.68211365 4 8 11
245566.11291504 3357630.80944824 19.03907776 44 43 41
245567.72479248 3357633.44067383 18.63451195 26 21 28
245567.34106445 3357632.81640625 18.04610062 32 32 32
245565.27795410 3357633.37561035 19.69556618 11 17 17
245565.63366699 3357630.14654541 18.24238014 23 24 29
245566.11206055 3357631.71746826 18.73405457 10 14 15
245567.62622070 3357634.61486816 18.75572014 14 14 16
245564.77526855 3357630.96350098 19.08300781 27 28 30
245564.92944336 3357629.77569580 18.86688995 12 18 18
245567.17590332 3357633.43408203 18.98246193 10 11 13
245566.59863281 3357633.73260498 19.48059082 21 30 37
245566.27673340 3357630.57318115 18.91147614 32 32 32
245565.28619385 3357629.88360596 18.28810692 31 30 35
245565.46618652 3357630.09893799 18.35462570 11 10 15
245567.28405762 3357634.54876709 19.00620651 6 11 17
245567.79968262 3357633.48901367 18.60498238 21 18 25
245564.34027100 3357629.31121826 19.15662956 29 35 31
245565.03961182 3357631.38336182 19.05736160 20 24 27
245567.69097900 3357633.61145020 18.79010773 40 35 41
245564.69836426 3357631.68280029 19.71925354 48 51 40
245565.78912354 3357630.26721191 18.29355621 17 18 23
245565.93231201 3357632.50903320 18.51566315 30 34 35
245565.78210449 3357631.65325928 18.85484314 20 21 25
245566.54034424 3357633.79150391 19.47755051 9 13 14
245566.84826660 3357633.31475830 19.16181564 6 8 7
245566.49865723 3357633.34436035 19.19838524 4 8 9
245567.22369385 3357633.15374756 18.57684135 8 9 14
245567.53906250 3357633.85089111 19.03897095 32 33 37
245566.16748047 3357630.27575684 18.03425026 24 25 29
245567.16528320 3357631.35113525 18.59585762 102 116 117
245565.69964600 3357634.00067139 19.32434082 8 12 13
245566.42004395 3357630.47747803 18.59357071 18 18 20
245566.92639160 3357632.78991699 18.09437943 38 39 41
245564.84265137 3357630.86047363 19.04405975 12 16 19
245567.78173828 3357634.16394043 18.78620148 9 10 15
245566.42547607 3357632.45404053 18.37071800 37 38 40
245564.72137451 3357630.78918457 19.03406715 21 27 27
245564.89343262 3357631.18499756 20.19302368 31 31 21
245565.78759766 3357630.46618652 18.79896736 30 33 38
245568.10369873 3357634.46783447 18.14836884 33 34 39
245565.09399414 3357630.72167969 19.02191162 9 10 12
245566.80621338 3357630.58831787 18.86223221 26 30 31
245566.87164307 3357633.32861328 19.16252518 6 8 7
245566.80316162 3357633.07000732 18.86240959 27 28 32
245565.39569092 3357633.67846680 19.32532310 17 18 20
245566.80596924 3357633.30419922 19.17306900 5 9 10
245567.97210693 3357634.02191162 18.49988747 0 5 17
245564.48156738 3357630.55566406 19.04668617 9 18 15
245566.43585205 3357630.45397949 18.53152657 17 17 19
245565.22344971 3357631.14129639 19.01082230 43 46 51
245567.08673096 3357633.94952393 19.36580276 22 27 33
245566.02246094 3357630.16894531 17.95941734 31 32 37
245566.97259521 3357629.96374512 17.90417480 41 42 46
245567.46319580 3357634.66259766 18.82629013 19 23 26
245564.74859619 3357629.84667969 19.00908661 18 24 20
245565.02960205 3357633.27099609 18.92397308 29 33 36
245564.36560059 3357630.76110840 19.52079964 34 39 35
245568.04254150 3357634.45617676 18.21324730 14 19 25
245566.07940674 3357632.61419678 18.41963768 34 36 35
245567.89587402 3357634.42333984 18.54603386 7 12 18
245565.91998291 3357634.02203369 19.34920120 9 15 15
245564.96923828 3357629.69244385 18.71836662 24 25 27
245566.37982178 3357633.04919434 18.68656540 7 8 12
245566.11016846 3357630.49475098 18.71178818 10 14 15
245567.43316650 3357634.63616943 18.84742928 23 27 30
245566.24755859 3357632.62530518 18.35699272 58 59 61
245566.88214111 3357631.97869873 18.30525017 20 21 25
245564.88427734 3357633.17102051 18.90462494 14 23 22
245564.81207275 3357633.06475830 18.90254974 9 10 12
245565.15704346 3357633.28875732 18.79060364 19 22 29
245564.64904785 3357631.14398193 19.87682152 23 25 20
245566.72912598 3357630.32562256 18.04961586 20 21 26
245566.47985840 3357634.01922607 19.45214462 18 28 37
245564.39855957 3357630.74737549 19.09756088 29 38 33
245567.19854736 3357630.83221436 18.57080269 16 17 22
245566.64495850 3357633.63555908 19.43713379 12 16 17
245566.35363770 3357633.46691895 19.26837540 20 21 23
245564.99798584 3357633.02465820 18.70076752 8 11 16
245568.57885742 3357633.46618652 18.53278732 63 54 59
245567.73193359 3357634.74993896 18.59829140 12 12 12
245567.66174316 3357633.65728760 18.83786964 21 20 25
245566.70947266 3357633.18414307 19.07677841 11 15 16
245566.53234863 3357632.45751953 18.31325340 41 42 44
245565.58636475 3357632.35717773 18.72743607 31 32 36
245567.13897705 3357633.18115234 18.85563278 9 10 14
245565.51995850 3357630.56079102 18.90649605 13 12 17
245567.37713623 3357634.25079346 19.19075203 11 16 20
245564.34362793 3357630.67700195 19.14255142 19 28 23
245564.41540527 3357631.35870361 19.40465736 30 35 31
245565.80297852 3357632.05090332 18.72000504 12 11 16
245566.19348145 3357633.31781006 19.04002571 4 8 11
245567.71215820 3357634.95770264 18.43350792 23 25 22
245566.96899414 3357633.04534912 18.71981430 6 7 12
245564.92431641 3357630.57830811 18.98575211 2 7 10
245568.19165039 3357632.88214111 18.20336914 12 13 18
245565.85198975 3357631.48052979 18.89469910 17 21 24
245567.87951660 3357634.45721436 18.55845451 6 11 17
245567.76721191 3357633.54852295 18.67875290 51 45 49
245564.41577148 3357629.52911377 18.98120117 46 51 45
245565.41809082 3357632.34045410 18.78310966 42 43 47
245566.14544678 3357633.54693604 19.33366013 18 19 21
245567.17065430 3357632.65875244 18.05588341 36 36 38
245564.66772461 3357630.01892090 19.05377197 20 30 22
245566.69488525 3357631.35070801 18.74965096 22 22 30
245566.48028564 3357631.02856445 18.84874344 38 39 43
245566.47912598 3357633.40173340 19.22768402 7 13 13
245566.60577393 3357631.97180176 18.49823380 16 19 24
245565.82971191 3357632.78314209 18.49434090 20 21 25
245566.51922607 3357630.35113525 18.23418808 25 26 30
245566.99749756 3357633.77551270 19.43613434 28 33 39
245565.03106689 3357629.81463623 18.77261353 9 10 12
245564.30908203 3357629.34234619 19.23073769 30 36 34
245564.53381348 3357630.98175049 19.11309624 40 46 44
245568.12304688 3357633.17681885 18.54582596 26 38 52
245567.55645752 3357633.56365967 18.81369781 32 30 35
245566.71783447 3357632.35437012 18.26931000 37 38 40
245565.07495117 3357632.36383057 18.93711281 35 36 40
245566.65753174 3357630.30285645 18.02516747 26 27 31
245567.07324219 3357630.63848877 18.34640884 23 22 27
245564.31103516 3357630.88043213 19.30814171 42 48 44
245567.82983398 3357634.51080322 18.64349747 15 17 16
245566.50494385 3357632.72973633 18.20661163 32 36 37
245566.72045898 3357632.07611084 18.38399315 20 23 28
245566.90039063 3357630.32238770 17.97375870 31 32 34
245564.33996582 3357630.89813232 19.19060326 14 23 18
245566.78991699 3357630.13140869 17.94076157 36 35 41
245566.83532715 3357630.26647949 17.98328400 35 34 39
245564.73999023 3357631.80285645 19.30808640 3 3 1
245565.33551025 3357629.96282959 18.34353828 26 27 31
245564.88067627 3357633.12988281 18.77472496 5 9 12
245567.73260498 3357634.21563721 18.81166840 12 13 17
245567.90039063 3357634.34497070 18.56270981 17 24 32
245568.11279297 3357634.22161865 18.32112694 9 13 22
245567.20971680 3357633.15478516 18.37841415 17 18 23
245565.35052490 3357630.52752686 18.91105080 8 9 13
245566.49871826 3357632.91638184 18.21907425 28 32 33
245566.67468262 3357630.87817383 18.92550659 52 57 61
245567.62994385 3357634.57244873 18.77179527 17 17 19
245568.24200439 3357632.89318848 18.28569984 9 10 14
245565.20404053 3357630.78381348 19.03556633 22 21 26
245566.36523438 3357630.86785889 18.97889519 77 72 68
245566.05462646 3357633.12384033 18.76584625 4 4 6
245567.19665527 3357633.13616943 18.53485870 8 9 14
245566.18963623 3357633.23712158 18.93229294 19 23 26
245564.98388672 3357632.95306396 18.68371773 12 16 19
245564.68200684 3357629.70068359 18.91348648 8 12 11
245564.31176758 3357630.88720703 19.30221939 42 48 44
245568.12799072 3357634.07464600 18.35351181 6 13 21
245567.18707275 3357633.78436279 19.39861679 43 46 53
245566.03356934 3357631.46215820 18.84657669 17 21 22
245566.64697266 3357634.20587158 19.34386635 11 20 27
245567.34851074 3357633.62573242 19.13154030 10 11 13
245566.60858154 3357633.17645264 19.01430702 17 18 20
245565.35198975 3357633.36193848 19.89869308 19 20 22
245567.34759521 3357634.22808838 19.21781540 15 20 24
245566.96697998 3357632.46911621 18.11749840 36 35 40
245565.34143066 3357631.41857910 18.98740005 19 20 24
245565.68255615 3357630.95697021 19.04268456 24 25 29
245565.82232666 3357634.02362061 19.33226585 10 14 17
245565.31274414 3357634.10729980 19.26991463 17 21 22
245564.44036865 3357630.88244629 19.11725044 27 37 29
245566.91754150 3357632.54302979 18.12301636 37 38 42
245564.71984863 3357631.43542480 19.11338425 21 25 26
245565.10144043 3357629.87884521 18.71665573 14 15 17
245564.31634521 3357630.10437012 19.30316925 54 62 49
245567.31182861 3357633.89038086 19.26246452 24 27 32
245566.75640869 3357631.92596436 18.49051666 13 16 21
245565.15313721 3357631.08856201 19.02373695 8 12 15
245565.17962646 3357633.37792969 19.22832680 17 18 22
245565.79211426 3357632.43682861 18.60151863 32 33 37
245565.00506592 3357629.83221436 18.82388115 11 15 16
245565.67822266 3357632.82714844 18.56591034 12 13 17
245566.06640625 3357633.27722168 18.94507599 20 24 25
245566.00219727 3357631.70227051 18.77760506 9 10 14
245567.10144043 3357630.67944336 18.35927582 27 26 31
245564.62109375 3357631.54742432 19.67075729 106 108 103
245565.91998291 3357629.99145508 17.95504189 33 34 39
245565.98663330 3357634.01965332 19.36127090 7 13 13
245567.16503906 3357634.06231689 19.31022644 28 32 33
245567.66442871 3357634.78051758 18.64409828 9 9 9
245565.07476807 3357633.30340576 19.26691818 21 26 29
245567.03485107 3357630.25695801 17.92413902 45 47 46
245565.95129395 3357632.85913086 18.40471458 29 30 34
245566.18414307 3357634.15039063 19.42251968 6 11 15
245564.63793945 3357631.60223389 19.65012932 102 105 98
245566.11431885 3357632.22479248 18.56447411 17 18 22
245567.15509033 3357634.47723389 19.17867470 33 42 51
245566.95104980 3357631.87365723 18.29931450 14 19 23
245567.78906250 3357634.17004395 18.77603531 9 12 17
245567.10430908 3357630.62628174 18.11344147 19 18 23
245565.22424316 3357630.78741455 19.03667831 22 21 26
245566.51867676 3357630.34863281 18.22614670 25 26 30
245565.84960938 3357630.01885986 17.99711227 31 32 37
245565.54992676 3357631.12225342 19.01967239 21 22 26
245564.32720947 3357629.28979492 19.16931725 33 38 34
245565.40069580 3357630.51287842 18.88978577 11 12 16
245565.51416016 3357629.79833984 18.05342293 33 34 38
245564.57104492 3357631.49243164 19.23604012 15 19 18
245566.69451904 3357630.37115479 18.18859863 20 21 25
245567.22277832 3357633.13659668 18.27053452 18 22 25
245567.98333740 3357633.77508545 18.48374176 12 15 22
245566.70062256 3357630.52520752 18.78230667 31 32 36
245565.53668213 3357633.86517334 19.33188057 15 16 20
245565.58898926 3357633.24249268 18.77667809 19 20 24
245564.67163086 3357631.09161377 19.92174339 27 28 22
245566.94171143 3357630.48272705 18.31170464 17 16 21
245566.86767578 3357632.52276611 18.14172173 38 39 43
245566.76733398 3357634.38043213 19.24310875 9 14 18
245565.85681152 3357632.95928955 18.55161858 7 11 12
245566.24975586 3357633.49890137 19.28331947 28 29 31
245565.30310059 3357632.87670898 18.67507362 3 7 10
245567.28466797 3357632.75000000 18.03841019 41 41 41
245566.67510986 3357633.12475586 18.92846680 14 15 17
245566.59729004 3357633.87902832 19.47635651 23 33 42
245564.32818604 3357630.94067383 19.24805450 20 29 24
245566.55438232 3357630.40051270 18.39238167 19 20 24
245568.00958252 3357634.22406006 18.39411163 48 56 69
245565.15667725 3357630.82604980 19.04202271 17 18 22
245567.15631104 3357630.75531006 18.14231491 19 18 24
245565.46856689 3357632.85809326 18.67319298 6 9 14
245566.06427002 3357630.41442871 18.23192596 16 17 22
245564.65612793 3357631.03869629 19.11102486 31 32 34
245564.75073242 3357631.73937988 19.79562569 36 38 25
245565.75982666 3357632.25183105 18.69099998 31 32 36
245567.14312744 3357633.72265625 19.41413879 35 38 43
245564.53393555 3357631.36614990 19.65098763 17 18 13
245565.22674561 3357633.41650391 19.51694298 18 24 24
245567.87207031 3357634.31127930 18.64932823 4 7 14
245567.53338623 3357633.40759277 18.69354630 16 13 20
245568.17449951 3357633.13647461 18.60161972 35 42 58
245567.06536865 3357630.20819092 17.90892410 48 49 51
245564.57934570 3357630.66674805 19.01050186 6 12 12
245565.61828613 3357633.60668945 19.31331253 81 82 86
245564.40588379 3357630.56994629 19.06813812 20 29 24
245565.44549561 3357630.96063232 19.04620552 17 18 22
245567.26196289 3357633.40734863 18.88719559 24 25 27
245567.20465088 3357631.03186035 18.65644836 102 113 115
245564.32141113 3357630.48803711 19.41012383 44 46 41
245565.38262939 3357634.09057617 19.25960350 21 22 24
245566.76641846 3357630.08605957 17.92489815 35 36 41
245565.14764404 3357629.88177490 18.56601524 14 16 15
245566.80187988 3357631.85302734 18.53806877 20 25 31
245567.84375000 3357634.94476318 18.20383072 16 22 22
245567.00823975 3357633.04699707 18.64271164 9 9 17
245565.15740967 3357631.78552246 19.07467461 17 18 22
245565.57904053 3357630.23663330 18.47221375 11 12 16
245567.83935547 3357634.53222656 18.59692955 12 13 15
245567.86718750 3357634.46405029 18.58790016 8 12 15
245566.07928467 3357631.48229980 18.82333565 19 23 24
245566.58459473 3357634.18084717 19.38239098 11 20 27
245565.09411621 3357633.29266357 19.38219070 23 27 30
245566.24157715 3357630.43927002 18.43248940 13 14 19
245566.73931885 3357630.52618408 18.79741287 25 26 30
245567.40643311 3357634.47448730 18.99632263 9 12 17
245567.27905273 3357633.43426514 18.90336800 23 24 26
245567.70831299 3357633.33978271 18.53800964 17 16 22
245564.68859863 3357631.73229980 19.63122749 67 70 63
245566.47454834 3357631.56970215 18.69762993 24 25 29
245567.32025146 3357633.85729980 19.26240158 20 24 27
245566.26831055 3357632.05572510 18.57073402 10 15 18
245565.30889893 3357631.10314941 19.01517296 88 91 96
245567.18145752 3357630.96295166 18.30865669 19 18 24
245565.12243652 3357632.71826172 18.69626999 20 24 27
245565.32659912 3357633.59466553 19.88045883 18 20 19
245566.64282227 3357631.47772217 18.72217369 20 25 31
245565.59246826 3357632.39703369 18.71143913 31 32 36
245567.26513672 3357633.22827148 18.76500511 10 11 16
245566.74011230 3357633.20379639 19.10288048 6 10 11
245565.69622803 3357633.87493896 19.36639977 13 14 18
245565.83685303 3357630.43878174 18.62742805 3 7 10
245565.70117188 3357633.30541992 18.86916542 46 47 49
245564.47320557 3357630.91125488 19.69739532 49 51 46
245565.36987305 3357631.35528564 18.97759819 21 25 28
245564.67156982 3357631.78399658 19.43395615 77 78 73
245567.90844727 3357634.18316650 18.60523605 73 79 93
245565.25860596 3357633.87298584 19.46439552 9 10 12
245566.62603760 3357633.01263428 18.51265335 7 11 12
245565.52923584 3357630.06292725 18.22723007 27 26 32
245565.80108643 3357630.97833252 19.02026749 27 26 31
245566.61791992 3357631.13787842 18.79357147 59 62 67
245567.83386230 3357634.75628662 18.30597305 15 14 20
245567.92126465 3357633.73834229 18.61862183 11 14 21
245564.60253906 3357631.42620850 19.73548126 71 71 69
245565.23168945 3357633.39648438 19.09085655 10 13 18
245565.50256348 3357632.57019043 18.69989777 16 17 21
245564.55584717 3357631.20770264 19.73402786 20 21 16
245565.94183350 3357632.56433105 18.48793602 34 35 39
245567.45031738 3357633.71649170 19.14264297 12 13 15
245566.60620117 3357633.16986084 18.99809837 20 21 23
245567.66668701 3357632.96667480 18.10991859 69 67 72
245568.30322266 3357632.88806152 18.25641060 6 7 11
245564.98858643 3357630.80706787 19.03476334 17 18 22
245566.77093506 3357632.70745850 18.11902809 32 36 39
245565.85662842 3357630.00061035 17.99012375 31 32 37
245566.73260498 3357630.02001953 17.90187073 36 40 43
245564.45397949 3357629.52441406 18.79110336 40 42 41
245565.36767578 3357629.77453613 18.07910156 40 39 45
245567.10632324 3357631.47186279 18.60553932 73 84 86
245565.04388428 3357631.19415283 19.03807259 9 13 16
245566.43737793 3357630.42535400 18.44161415 19 20 24
245564.70623779 3357629.81433105 18.99756813 17 23 19
245564.94256592 3357631.71136475 19.15648651 33 37 40
245564.45391846 3357631.22058105 19.59363556 30 32 27
245565.48852539 3357630.47723389 18.84921265 11 12 16
245564.88299561 3357629.62481689 18.74258041 27 28 30
245564.48236084 3357631.48651123 19.41762352 25 27 22
245564.73663330 3357631.77282715 19.71516037 39 42 31
245565.63299561 3357631.22229004 18.99981689 28 29 33
245566.41223145 3357631.21557617 18.76569366 29 30 34
245566.92456055 3357631.04754639 18.82293129 23 28 34
245564.65411377 3357631.03015137 19.91543007 23 24 18
245566.20080566 3357630.42980957 18.37570953 11 12 16
245566.71887207 3357633.56988525 19.39836884 29 33 36
245568.18127441 3357634.32519531 18.22026253 31 34 41
245564.63781738 3357631.13629150 19.86387444 24 25 19
245566.47753906 3357630.56298828 18.83158112 37 38 40
245565.76013184 3357632.80236816 18.52538872 12 13 17
245566.77325439 3357631.64746094 18.69255066 44 51 59
245565.79010010 3357630.78558350 19.05330086 32 33 35
245566.79467773 3357630.27630615 17.97792053 33 33 35
245567.00610352 3357633.10565186 18.38476563 11 12 17
245566.91442871 3357633.15222168 18.97748756 20 21 25
245567.11419678 3357631.46496582 18.36000633 30 45 50
245568.55334473 3357633.02532959 18.47810555 55 49 53
245567.03088379 3357631.25946045 18.76328659 23 31 34
245567.62402344 3357632.95410156 18.09653664 81 80 85
245567.95898438 3357634.04797363 18.56009102 11 17 31
245565.60760498 3357633.68701172 19.33675766 63 64 68
245567.41729736 3357633.71875000 19.19555664 6 7 9
245564.70538330 3357631.65783691 19.76977539 43 45 32
245565.79510498 3357633.99774170 19.33755875 8 12 15
245565.21813965 3357630.09722900 18.68250465 12 13 17
245566.35803223 3357630.36761475 18.24690437 22 23 27
245567.62744141 3357634.25726318 18.91072845 7 8 13
245564.84216309 3357631.39111328 20.06668091 36 34 22
245567.81604004 3357633.58123779 18.65892601 40 34 38
245565.34637451 3357631.45959473 18.98759842 17 18 22
245564.75396729 3357631.08990479 20.03262711 40 42 37
245565.40332031 3357630.60284424 18.95332336 12 13 17
245565.15979004 3357631.49291992 19.03605843 15 19 22
245565.26269531 3357633.41882324 19.15548325 36 37 41
245565.11499023 3357630.61358643 19.00306320 3 7 10
245566.86212158 3357633.03247070 18.61817360 6 7 12
245565.63098145 3357634.01007080 19.31496429 12 13 17
245564.60601807 3357631.07373047 19.11923218 74 78 79
245565.30316162 3357633.55316162 19.79129791 11 13 12
245565.94744873 3357632.60284424 18.46898460 32 33 35
245566.52557373 3357630.56439209 18.84281921 38 39 41
245568.46661377 3357633.60955811 18.48437309 37 40 49
245565.21875000 3357633.00268555 18.68454170 4 8 11
245565.94549561 3357632.88677979 18.41998291 18 19 23
245567.21026611 3357631.13690186 18.63287163 99 115 114
245565.43890381 3357630.01025391 18.24903107 29 28 34
245565.58831787 3357631.23168945 18.99760246 26 27 31
245565.08361816 3357631.53015137 19.07041550 11 16 19
245566.97692871 3357630.77575684 18.88830948 38 42 45
245566.08642578 3357631.26153564 18.87643242 24 26 25
245567.28466797 3357633.63433838 19.24152946 63 64 66
245568.15844727 3357634.16693115 18.31495857 16 21 27
245564.41082764 3357631.18164063 19.21323395 18 22 21
245568.08587646 3357632.86627197 18.11232758 27 28 33
245566.33532715 3357632.57281494 18.35238838 39 41 40
245565.13903809 3357632.81048584 18.67719841 8 12 15
245568.25585938 3357634.04742432 18.30409241 22 29 39
245566.76208496 3357634.05804443 19.37770081 15 27 39
245564.65618896 3357631.11529541 19.10783386 86 90 93
245564.97631836 3357632.63293457 18.74717903 26 27 31
245566.95629883 3357631.82006836 18.40308380 7 15 18
245566.83764648 3357633.01708984 18.75071335 5 6 10
245566.61132813 3357632.67926025 18.17377663 36 37 41
245565.53155518 3357633.29974365 18.79632187 46 47 49
245566.17767334 3357631.02758789 18.92222404 42 41 39
245567.16052246 3357632.80871582 18.06572533 33 34 36
245565.86065674 3357633.22790527 18.82750320 34 35 37
