245971.08911133 3357595.41229248 14.61598492 198 202 203
245974.15441895 3357595.30828857 14.10162640 129 120 113
245972.72241211 3357596.91735840 14.36057377 74 81 87
245971.76672363 3357597.16290283 14.20021343 16 17 19
245970.50433350 3357596.25012207 14.19580364 197 196 191
245971.67608643 3357597.14080811 14.22305965 19 25 25
245975.16003418 3357597.11096191 14.08757401 55 61 61
245973.61749268 3357596.91906738 14.27297020 33 47 48
245973.51934814 3357596.35852051 14.39346123 39 46 54
245972.17767334 3357595.40759277 14.86306286 225 225 223
245973.94592285 3357595.72021484 14.81879902 30 40 42
245975.39392090 3357597.04266357 14.05182648 60 63 68
245974.04016113 3357595.98541260 14.51960468 27 36 43
245972.67797852 3357596.63610840 14.34796810 31 47 63
245971.88476563 3357596.28399658 14.85190582 93 129 145
245971.01562500 3357595.90332031 14.51706409 27 44 62
245974.20092773 3357596.96533203 14.19526863 53 53 53
245975.45965576 3357597.53015137 14.09322548 69 72 61
245972.35113525 3357596.71014404 14.38290501 74 106 121
245972.01629639 3357595.74676514 14.38794327 175 182 141
245971.81665039 3357597.03594971 14.33174133 17 22 25
245970.27697754 3357596.99731445 14.00602436 213 205 194
245974.75848389 3357595.60638428 14.36671734 30 32 31
245972.20690918 3357595.59436035 14.54430485 183 187 160
245974.39886475 3357596.90026855 14.19787121 52 58 54
245975.03558350 3357595.98309326 14.23946667 30 34 35
245974.49639893 3357595.53466797 14.59477520 36 37 42
245972.19396973 3357597.45007324 14.10737896 32 33 37
245970.56561279 3357596.18865967 14.33864117 234 239 233
245972.03753662 3357595.53936768 14.87838745 115 130 137
245975.15191650 3357597.60644531 14.15914631 50 66 29
245973.64508057 3357596.75732422 14.33458424 54 63 68
245974.10845947 3357595.76306152 14.97210979 45 54 61
245973.89031982 3357595.79052734 14.73463535 21 30 35
245974.03839111 3357595.54705811 14.86307049 84 87 92
245973.74908447 3357596.50726318 14.35975075 81 82 87
245973.80920410 3357596.44335938 14.35945988 79 83 86
245973.90209961 3357596.96704102 14.23249149 63 69 65
245971.80139160 3357595.25299072 14.10643005 169 163 149
245971.96173096 3357597.17980957 14.15899372 34 40 40
245973.86169434 3357595.86486816 14.49950504 25 32 42
245971.09869385 3357596.46868896 14.37517166 93 104 108
245973.10595703 3357595.68621826 14.39550495 70 75 81
245971.07678223 3357595.41607666 14.60353851 254 255 255
245972.09600830 3357596.17523193 14.52771473 153 157 122
245971.93878174 3357595.85675049 14.86454582 99 141 157
245970.82995605 3357597.13610840 14.07491016 197 188 173
245973.87268066 3357595.95727539 14.47569752 28 35 45
245972.68286133 3357595.80419922 14.90036201 88 107 114
245975.08392334 3357596.71752930 14.25666618 34 36 35
245975.05700684 3357596.19610596 14.79170513 39 45 45
245973.49224854 3357596.45782471 14.37895393 39 48 55
245975.53320313 3357597.18359375 14.03763676 79 85 85
245975.48913574 3357596.27752686 14.08722591 69 74 77
245974.69531250 3357596.05511475 14.32263947 129 128 124
245970.83270264 3357597.28088379 14.05028057 207 198 183
245972.69757080 3357596.10925293 14.73650169 91 107 107
245970.90795898 3357596.55755615 14.42714787 69 79 89
245972.63366699 3357595.33154297 14.16768169 161 154 144
245974.45397949 3357597.38226318 14.06223202 50 55 51
245971.36279297 3357595.92944336 14.68394279 21 33 45
245971.64666748 3357596.49792480 14.54023266 162 163 158
245971.43103027 3357596.98754883 14.35940456 11 16 22
245972.19744873 3357595.64379883 14.51035309 168 173 143
245972.39599609 3357595.31188965 14.07782936 185 177 164
245972.73504639 3357595.44537354 14.30601501 81 81 83
245973.58856201 3357596.03131104 14.44135189 23 32 41
245971.74700928 3357595.32293701 14.60116959 78 78 80
245974.75921631 3357596.14642334 14.32648659 46 47 49
245971.96466064 3357596.04290771 14.23064327 191 190 186
245970.56091309 3357596.03601074 14.25364780 191 188 181
245975.59454346 3357596.20440674 14.02699471 75 79 82
245972.00976563 3357597.35418701 14.05500507 16 22 20
245973.33258057 3357596.62969971 14.35404301 32 43 49
245973.31463623 3357596.58801270 14.35998726 36 46 55
245971.61749268 3357597.04937744 14.30577469 20 24 27
245971.35101318 3357596.97015381 14.35035992 15 24 29
245972.86041260 3357595.71002197 14.75502968 126 134 110
245974.69537354 3357595.95605469 14.97556877 28 38 48
245974.90631104 3357596.16162109 14.72049999 142 141 139
245973.50781250 3357595.93939209 14.43408680 20 29 36
245970.35705566 3357596.58996582 14.06851482 213 206 196
245972.57220459 3357595.66723633 14.69405174 79 85 71
245973.02545166 3357595.78204346 14.38819695 26 33 39
245971.79254150 3357596.13745117 14.34926033 187 184 167
245971.97460938 3357596.37115479 14.87232208 106 126 133
245974.58959961 3357595.62554932 14.75093746 61 66 72
245971.82080078 3357596.88000488 14.45767212 42 47 50
245972.51971436 3357596.56500244 14.35450172 47 66 81
245971.56958008 3357595.56903076 14.83442402 15 22 30
245974.09808350 3357596.44519043 14.32485008 101 102 104
245974.58892822 3357595.72998047 15.01223660 19 28 33
245973.68469238 3357596.23352051 14.41259861 33 40 48
245973.65515137 3357597.17877197 14.16719627 75 77 74
245971.98925781 3357595.53186035 14.41237545 118 120 107
245973.41534424 3357596.09124756 14.43160725 27 38 44
245973.91381836 3357596.36157227 14.35336685 79 84 87
245972.35198975 3357596.28796387 14.66274357 152 156 119
245970.40380859 3357596.36962891 14.13257217 211 204 194
245972.65875244 3357595.70507813 14.41110802 30 34 35
245974.33551025 3357595.69622803 15.08375263 51 54 59
245970.95678711 3357595.44921875 14.47291470 24 25 27
245972.76159668 3357595.64038086 14.40032482 161 161 169
245974.17034912 3357596.01226807 14.84652710 40 49 58
245972.31060791 3357596.02349854 14.83897018 98 121 127
245973.15399170 3357595.78900146 14.39781189 29 34 38
245974.42926025 3357596.16961670 14.35837460 144 140 139
245973.06420898 3357595.74255371 14.39193726 27 30 35
245971.31011963 3357595.33514404 14.56243992 52 59 65
245970.29437256 3357596.77099609 14.02245903 216 207 198
245974.72143555 3357595.97717285 14.31620789 126 125 121
245970.88580322 3357596.52087402 14.38493729 27 36 43
245974.80584717 3357595.75396729 14.30619144 50 52 49
245971.88122559 3357595.38476563 14.78155422 38 39 43
245970.84985352 3357596.41894531 14.41712189 32 44 56
245971.36010742 3357595.33013916 14.55067730 54 61 67
245972.41876221 3357596.17010498 14.64573288 152 156 121
245975.08361816 3357595.81146240 14.16966724 32 36 39
245974.21508789 3357596.08862305 14.41959000 126 125 123
245973.13201904 3357595.37902832 14.24458599 95 91 82
245971.71728516 3357596.25378418 14.39673805 186 187 173
245971.73913574 3357595.61480713 14.86093044 20 30 39
245971.59326172 3357597.34057617 14.08125687 79 79 69
245974.52655029 3357597.31860352 14.06643486 69 73 74
245973.33203125 3357596.36376953 14.39215755 39 49 58
245975.72711182 3357595.64935303 13.99314594 212 202 192
245973.12554932 3357597.16705322 14.18831444 89 93 94
245972.46746826 3357597.31567383 14.16706371 46 51 54
245974.08837891 3357595.40460205 14.33842373 73 72 68
245972.27258301 3357595.89434814 14.24574471 176 176 178
245972.47125244 3357596.05596924 14.30952644 84 103 118
245970.71319580 3357596.21282959 14.44713497 73 82 89
245974.81994629 3357596.10864258 14.31082726 51 57 55
245972.45843506 3357596.47912598 14.35722256 49 72 88
245971.76391602 3357595.34472656 14.30050182 96 95 90
245973.87921143 3357596.01800537 14.44553185 30 37 47
245972.07891846 3357595.93261719 14.49290848 171 178 137
245971.61102295 3357597.18194580 14.18225670 43 45 44
245971.36151123 3357596.00970459 14.66708279 25 37 49
245973.50628662 3357596.19500732 14.41710663 31 40 47
245975.45971680 3357596.00750732 14.04189301 74 79 83
245973.78955078 3357595.45562744 14.32406044 50 52 49
245972.81732178 3357595.57696533 14.39056110 168 171 180
245971.15057373 3357597.17150879 14.17438698 110 99 93
245972.87554932 3357595.82592773 14.36115742 12 20 23
245973.45806885 3357596.45233154 14.37968445 38 45 55
245974.32989502 3357597.43078613 14.08812523 48 54 52
245970.69665527 3357596.08013916 14.42163086 96 107 109
245971.29260254 3357595.67596436 14.74225235 22 39 49
245971.30822754 3357595.39031982 14.67915058 60 70 80
245973.41375732 3357597.01269531 14.24475384 46 55 52
245971.37615967 3357595.76330566 14.74288177 15 33 43
245974.43634033 3357597.45733643 14.09329033 39 43 46
245972.04699707 3357595.35198975 14.76747227 87 85 86
245974.72271729 3357596.29138184 14.88090038 170 167 160
245974.80316162 3357597.19958496 14.08545589 48 54 52
245973.37646484 3357595.43695068 14.28040409 65 57 54
245973.06781006 3357596.50195313 14.35895920 27 40 49
245972.06781006 3357595.66149902 14.43272400 171 178 145
245974.53393555 3357596.03601074 14.37899494 179 170 165
245974.87786865 3357595.85729980 14.25119686 56 58 55
245971.92431641 3357596.55285645 14.84061432 81 109 121
245972.39666748 3357595.53198242 14.26172447 64 63 68
245972.21209717 3357596.04888916 14.84295177 203 222 226
245973.59533691 3357596.71966553 14.34160423 40 49 54
245973.94354248 3357596.22308350 14.39406109 77 81 84
245974.93243408 3357597.19219971 14.07774639 53 57 58
245971.18750000 3357595.34252930 14.50393295 23 27 30
245975.42279053 3357596.53955078 14.13262939 62 67 70
245971.69427490 3357596.12542725 14.80755043 74 97 111
245975.34545898 3357596.44598389 14.19439793 56 57 59
245972.31121826 3357596.19464111 14.61450863 152 156 121
245975.15722656 3357596.92767334 14.12909126 46 52 52
245971.79003906 3357595.70623779 14.85794640 109 127 137
245973.65637207 3357597.26763916 14.13126945 72 74 73
245972.69555664 3357595.93444824 14.81550980 102 120 122
245973.29315186 3357596.45910645 14.37842751 33 42 51
245971.27276611 3357596.78204346 14.41405010 94 101 109
245973.83502197 3357596.90447998 14.26210213 53 63 62
245973.85864258 3357596.60437012 14.32925797 93 96 101
245973.56958008 3357595.62182617 14.36867714 28 33 36
245974.53454590 3357597.16723633 14.11789894 33 33 35
245971.71929932 3357595.54846191 14.84596443 24 34 43
245972.14202881 3357596.17364502 14.29592609 92 114 128
245972.93145752 3357595.70391846 14.38278961 44 47 56
245974.49676514 3357596.57135010 14.29190826 85 87 86
245972.37017822 3357595.62066650 14.61350250 144 146 124
245971.85900879 3357595.39196777 14.38093567 145 145 137
245972.34185791 3357596.36541748 14.36378574 146 171 191
245973.99542236 3357596.31500244 14.35989189 109 111 110
245973.46685791 3357596.83953857 14.31324196 24 35 41
245972.56048584 3357596.38159180 14.34652710 59 77 97
245972.03350830 3357596.06286621 14.24016190 178 182 185
245974.45117188 3357596.99719238 14.16842747 42 44 41
245972.92974854 3357596.51739502 14.33968067 32 44 56
245975.23974609 3357597.59796143 14.14693260 55 73 31
245973.33972168 3357596.26153564 14.40682316 40 49 56
245971.04315186 3357597.15820313 14.10921860 209 192 182
245972.37377930 3357596.20538330 14.34685802 88 115 136
245970.25445557 3357597.43762207 13.97398663 223 215 202
245971.30957031 3357596.32055664 14.57812881 57 67 76
245971.66375732 3357596.28302002 14.39772129 188 185 176
245972.91235352 3357595.97204590 14.36007404 71 84 93
245971.82110596 3357595.60375977 14.87748718 135 148 157
245974.39099121 3357597.54864502 14.12545872 45 55 47
245975.09423828 3357595.40936279 14.05232716 212 202 192
245973.93927002 3357595.97326660 14.48970127 24 30 42
245974.17840576 3357595.76953125 15.03456688 30 39 46
245973.18133545 3357596.18267822 14.40001106 34 43 52
245972.35498047 3357597.05218506 14.32798958 102 113 119
245973.51599121 3357596.10430908 14.43032455 26 37 43
245973.01495361 3357595.67871094 14.38876057 148 155 165
245973.92034912 3357595.89617920 14.51858044 16 25 34
245974.61035156 3357596.14080811 14.71891785 165 164 159
245972.33563232 3357595.59515381 14.85110188 106 119 128
245970.33483887 3357597.13848877 13.99535179 218 208 198
245972.41882324 3357595.86560059 14.29304028 79 86 92
245975.42242432 3357595.82995605 14.03363609 79 80 84
245974.46136475 3357595.36364746 14.26046753 111 108 103
245974.07659912 3357596.97106934 14.20907021 54 56 55
245974.84539795 3357596.81170654 14.24969769 17 17 15
245974.46527100 3357595.58239746 14.69670200 57 66 73
245971.97448730 3357595.72869873 14.19248962 81 89 91
245972.17724609 3357596.33923340 14.88963032 166 179 185
245972.07409668 3357596.50616455 14.63697529 147 152 111
245970.27319336 3357596.39105225 14.05035305 214 205 196
245972.27905273 3357596.36334229 14.36881828 89 117 131
245971.10968018 3357595.74688721 14.65508938 19 35 50
245974.31195068 3357595.99102783 14.97524834 30 42 56
245975.14593506 3357595.43835449 14.05133152 209 199 189
245974.96118164 3357596.57940674 14.35634518 111 111 109
245971.23095703 3357596.33398438 14.54056835 46 56 65
245973.81127930 3357595.67858887 14.59594059 25 36 42
245974.27539063 3357595.35546875 14.21093750 95 91 88
245971.18609619 3357596.61694336 14.35049343 203 206 211
245970.54364014 3357595.95324707 14.18519974 201 196 190
245973.96087646 3357597.40893555 14.09467793 51 62 58
245972.17230225 3357596.14508057 14.29053974 106 129 145
245971.30407715 3357597.03265381 14.29659557 23 26 31
245973.68292236 3357595.55548096 14.38843250 27 29 28
245970.88134766 3357595.88317871 14.48392963 47 64 74
245970.69732666 3357596.79284668 14.17526436 169 162 154
245971.61791992 3357596.45831299 14.74371624 15 29 40
245971.00573730 3357596.14416504 14.49278259 39 51 73
245970.67169189 3357595.77087402 14.28570652 52 53 48
245972.72100830 3357596.02130127 14.74639225 97 111 112
245974.55859375 3357595.47003174 14.47302151 35 35 35
245971.58258057 3357595.84674072 14.79983997 22 34 46
245971.65795898 3357595.28790283 14.26087284 127 128 122
245973.80816650 3357596.21081543 14.40386486 24 33 42
245972.49835205 3357597.41137695 14.17061138 24 30 26
245971.98492432 3357595.46728516 14.18500042 103 103 95
245973.56103516 3357596.49700928 14.37362385 46 53 61
245972.21026611 3357595.93682861 14.84703922 194 219 224
245974.28741455 3357597.29479980 14.08765984 80 84 87
245974.96575928 3357596.01635742 14.68659878 62 71 68
245974.54162598 3357596.18731689 14.35520267 129 125 124
245973.20953369 3357595.22088623 14.17281342 195 187 174
245974.63995361 3357595.89129639 15.00050259 22 28 42
245972.66345215 3357596.15728760 14.77689266 89 108 115
245974.75860596 3357597.29779053 14.05616665 64 70 70
245974.79974365 3357595.41357422 14.13106155 146 139 131
245974.74713135 3357596.03692627 14.96570492 26 39 47
245974.95739746 3357595.94329834 14.89315128 24 38 41
245972.06872559 3357596.58026123 14.66126347 147 152 112
245974.39172363 3357595.59094238 14.91328621 55 64 73
245972.91619873 3357597.04071045 14.28923798 38 42 45
245974.02825928 3357595.30993652 14.12354946 173 165 154
245970.73846436 3357596.48004150 14.43514919 49 56 64
245974.26416016 3357597.17340088 14.12504387 51 51 49
245972.61596680 3357596.21478271 14.74469090 141 160 164
245970.81451416 3357595.30950928 14.08440590 205 198 192
245972.24926758 3357595.87567139 14.85179424 158 186 197
245971.98004150 3357596.10766602 14.83761978 96 137 157
245971.36029053 3357595.40246582 14.71332645 47 59 75
245975.49377441 3357595.66992188 14.00312138 210 203 197
245973.70098877 3357595.87231445 14.44201374 17 22 28
245972.99615479 3357596.20721436 14.36614704 35 45 57
245971.03881836 3357596.70001221 14.51375675 87 98 104
245971.29156494 3357595.42913818 14.73195934 101 110 119
245974.65991211 3357597.13409424 14.12129498 23 27 28
245971.43170166 3357596.31420898 14.65131855 53 62 69
245972.46685791 3357596.01574707 14.60884094 159 160 126
245974.42822266 3357597.48846436 14.10508728 46 51 55
245973.66473389 3357596.34643555 14.39609623 43 50 58
245973.91583252 3357597.29107666 14.11586666 69 73 72
245973.14508057 3357595.59448242 14.36152935 72 75 80
245970.86291504 3357595.97869873 14.46522236 46 63 71
245971.72027588 3357595.44067383 14.80928898 48 52 61
245974.75799561 3357595.59692383 14.36710358 30 32 31
245973.70642090 3357595.89801025 14.44273186 17 22 28
245972.37799072 3357596.05444336 14.83714104 83 111 125
245970.91375732 3357596.12982178 14.47142124 35 48 65
245974.63854980 3357595.34613037 14.08881664 203 195 184
245971.20092773 3357596.09899902 14.57690144 31 45 58
245972.66345215 3357596.07946777 14.69907951 149 154 131
245973.61987305 3357596.99530029 14.24211979 46 58 56
245971.45062256 3357596.30041504 14.66501141 46 55 64
245973.99224854 3357596.49554443 14.32755375 105 109 112
245970.76824951 3357595.62756348 14.39187622 32 38 36
245974.79754639 3357596.02984619 14.94960499 32 42 51
245971.58209229 3357596.50854492 14.35080433 86 84 87
245971.48870850 3357595.86260986 14.75446415 23 35 47
245974.26544189 3357595.88824463 15.02201939 19 33 46
245972.54925537 3357596.23449707 14.85740471 99 120 141
245974.29644775 3357596.08172607 14.66538715 153 152 147
245971.04516602 3357595.36059570 14.35487461 28 30 29
245971.70080566 3357595.31134033 14.34073734 109 110 105
245971.34960938 3357597.14843750 14.23119068 45 45 45
245972.68933105 3357596.05291748 14.70852089 145 157 153
245974.52960205 3357595.38940430 14.31316090 128 127 123
245973.39569092 3357596.42144775 14.38399982 40 49 58
245975.11358643 3357595.84027100 14.16693878 30 34 37
245973.97308350 3357596.95513916 14.22752380 63 69 69
245971.18493652 3357595.76727295 14.66664028 25 41 56
245971.60314941 3357597.22808838 14.14350414 59 60 62
245972.46252441 3357595.59515381 14.81513786 68 76 79
245973.83819580 3357595.98718262 14.45031071 23 30 38
245974.71124268 3357596.13751221 14.33310413 114 114 114
245970.25701904 3357596.98278809 14.00721073 213 205 194
245973.90771484 3357596.77679443 14.29602337 71 75 84
245972.23895264 3357596.00781250 14.84053421 201 220 224
245972.51623535 3357595.62005615 14.79269886 94 103 110
245971.94793701 3357595.54968262 14.20370197 93 94 88
245971.59777832 3357596.56317139 14.37271118 78 79 81
245970.27874756 3357596.37396240 14.05157089 214 205 196
245971.21783447 3357595.18762207 14.10482216 210 207 198
245972.32440186 3357596.28479004 14.84978962 114 136 147
245975.50976563 3357596.10974121 14.03906345 71 75 78
245972.93768311 3357596.65277100 14.32848454 27 39 51
245972.63928223 3357596.10192871 14.33273220 70 86 102
245974.94635010 3357596.25933838 14.79119110 192 188 179
245972.97985840 3357597.31427002 14.14957905 49 59 58
245974.78192139 3357596.54119873 14.35138988 99 98 96
245973.08056641 3357596.25274658 14.37915516 33 43 52
245974.03149414 3357595.70129395 14.90610790 47 56 61
245974.46459961 3357595.75921631 15.07651043 17 28 34
245974.69366455 3357596.25280762 14.83495426 160 159 154
245974.54510498 3357597.53289795 14.12462711 42 53 37
245974.45434570 3357596.16180420 14.89322472 22 32 42
245971.03094482 3357595.37335205 14.39028263 28 29 31
245975.39294434 3357596.15887451 14.11648369 54 58 61
245972.41790771 3357595.32177734 14.09004307 185 177 164
245972.28033447 3357595.53417969 14.85500050 70 78 89
245972.90185547 3357597.22576904 14.21406746 44 48 49
245973.90698242 3357596.05529785 14.43768597 37 44 52
245975.10913086 3357596.72363281 14.24017429 34 36 35
245971.15020752 3357595.49884033 14.76647663 239 247 249
245974.09277344 3357596.93237305 14.22007561 60 61 63
245971.98083496 3357595.70996094 14.35914135 177 182 150
245973.64489746 3357596.56439209 14.36435223 59 64 70
245971.92022705 3357595.44342041 14.25461483 107 104 95
245972.76428223 3357595.56121826 14.39092159 192 195 204
245971.71295166 3357596.39379883 14.50218487 166 169 162
245974.62347412 3357596.02642822 14.54158688 205 196 189
245972.27105713 3357596.07110596 14.28072453 108 130 144
245971.87921143 3357595.34942627 14.63963127 104 102 103
245971.89636230 3357597.43505859 14.07538986 85 84 82
245970.33825684 3357596.34667969 14.09096050 213 204 195
245970.50805664 3357597.03582764 14.01409817 222 212 203
245974.03967285 3357595.31835938 14.12582111 173 165 154
245971.89739990 3357596.99053955 14.38088322 24 33 32
245975.40551758 3357596.11926270 14.09590149 52 57 60
245971.54364014 3357596.32934570 14.71842670 31 44 53
245972.00860596 3357595.69409180 14.38286495 178 184 150
245972.78259277 3357595.77008057 14.68141174 166 167 136
245972.66320801 3357596.68231201 14.35455704 32 45 62
245972.33587646 3357596.36108398 14.68270493 152 154 117
245972.10540771 3357595.65148926 14.45810795 169 176 145
245974.74395752 3357597.56402588 14.13561821 44 57 31
245970.87689209 3357597.20776367 14.05213833 203 191 175
245970.35119629 3357596.79028320 14.04215431 216 207 198
245972.48382568 3357595.67736816 14.35468864 62 62 70
245971.47729492 3357597.18676758 14.20196438 57 58 60
245974.61968994 3357595.85968018 15.00955486 23 33 43
245972.70520020 3357596.15136719 14.32954121 58 74 89
245970.14007568 3357597.00280762 14.00646210 210 202 191
245973.36541748 3357597.40856934 14.10818672 21 30 27
245974.04321289 3357595.91247559 14.76772976 41 45 56
245972.75238037 3357595.85839844 14.77759457 127 139 127
245971.81005859 3357595.61694336 14.87341595 155 169 178
245972.71594238 3357595.85418701 14.37152004 21 26 30
245971.29681396 3357596.51867676 14.53816795 72 81 88
245972.28283691 3357595.62170410 14.85679722 82 102 113
245971.98791504 3357596.65087891 14.80274773 75 103 117
245973.10131836 3357595.91558838 14.39728642 32 41 50
245975.35809326 3357596.75445557 14.13372707 52 57 61
245971.48797607 3357596.36651611 14.67855549 45 55 64
245970.36950684 3357596.64440918 14.06910706 214 207 199
245972.20001221 3357595.89331055 14.54997921 170 176 138
245974.61822510 3357595.97967529 14.48540878 208 199 194
245973.80291748 3357595.69226074 14.48062801 39 46 54
245973.21942139 3357595.90826416 14.41011715 27 36 43
245972.81976318 3357596.01232910 14.34079647 73 86 102
245971.38806152 3357596.55352783 14.49764252 170 172 161
245970.66638184 3357596.59265137 14.33508110 78 77 75
245975.12518311 3357596.33099365 14.36716557 22 28 28
245971.64550781 3357596.41979980 14.49736786 169 172 165
245973.15307617 3357595.32470703 14.21457100 123 115 104
245975.77893066 3357595.44641113 14.00683308 222 212 202
245973.05157471 3357596.46942139 14.35978699 29 42 51
245973.60144043 3357595.79644775 14.43249607 43 48 52
245971.97149658 3357595.69335938 14.19240475 94 103 108
245974.10211182 3357596.60040283 14.30215168 86 90 93
245970.09600830 3357596.99682617 14.00716972 208 200 189
245973.24707031 3357595.62347412 14.36725235 162 167 173
245974.43115234 3357596.77502441 14.23342609 66 71 67
245972.91284180 3357597.10516357 14.26237679 103 104 108
245970.59698486 3357595.93151855 14.35902214 96 105 102
245971.29461670 3357596.20959473 14.59509277 39 49 59
245971.42047119 3357595.83349609 14.72779846 17 31 42
245972.03198242 3357595.50769043 14.87826920 114 123 128
245972.32324219 3357596.39025879 14.68837547 152 154 117
245971.62506104 3357596.05194092 14.79756641 62 78 91
245974.33514404 3357597.38836670 14.07334423 63 69 69
245974.47790527 3357596.50195313 14.29994297 89 91 90
245970.89739990 3357597.27087402 14.04513931 205 196 179
245975.23779297 3357595.54296875 14.04144573 199 192 182
245973.94073486 3357596.70916748 14.30701447 79 84 90
245974.78979492 3357596.21685791 14.35745907 126 126 124
245971.94531250 3357595.46411133 14.22821903 104 104 92
245972.44653320 3357595.74694824 14.32071781 37 40 45
245972.71789551 3357595.71014404 14.67908287 90 93 50
245972.96838379 3357597.20477295 14.19561768 37 41 44
245975.14123535 3357597.03887939 14.10656357 53 59 59
245970.51940918 3357597.37878418 13.99681854 202 194 181
245971.91284180 3357596.57489014 14.42864609 81 99 103
245972.81542969 3357596.16711426 14.33388233 46 63 73
245974.77752686 3357595.61444092 14.30284214 33 33 33
245973.73211670 3357596.82501221 14.30193901 54 65 69
245974.60327148 3357597.55419922 14.13069630 31 42 25
245974.09179688 3357595.99169922 14.62336254 54 57 64
245970.82812500 3357596.60064697 14.42501926 50 59 68
245970.92657471 3357595.79644775 14.54358292 33 47 56
245974.78576660 3357595.65802002 14.44581413 28 32 33
245971.94213867 3357595.67120361 14.26649570 121 128 121
245974.59399414 3357595.78527832 15.02019882 21 30 37
245972.45251465 3357596.03521729 14.61043262 158 159 125
245973.76837158 3357596.67932129 14.33023930 82 86 89
245971.97149658 3357595.94274902 14.85417843 97 138 156
245974.95648193 3357596.02008057 14.68493843 63 72 69
245971.61108398 3357596.81561279 14.43269920 23 31 33
245973.47753906 3357596.19213867 14.41734219 30 39 46
245971.36383057 3357597.21160889 14.19275475 66 65 61
245975.19879150 3357595.63677979 14.07757664 70 69 67
245975.46527100 3357596.63507080 14.10089588 75 80 83
245972.39910889 3357595.50115967 14.22478485 56 54 55
245975.77014160 3357595.53027344 14.00124264 218 208 198
245973.34234619 3357597.13562012 14.19800949 119 124 120
245974.39251709 3357597.28094482 14.08640480 68 72 75
245971.82910156 3357595.90997314 14.85217953 96 135 150
245971.04547119 3357597.10192871 14.13839149 142 129 121
245973.76104736 3357596.74255371 14.32326031 78 85 91
245972.84338379 3357595.70855713 14.75547218 102 111 84
245971.93927002 3357597.13989258 14.20376301 28 34 34
245975.00939941 3357596.09466553 14.88489628 32 41 48
245974.63781738 3357596.72509766 14.26618195 63 63 61
245973.45831299 3357597.52148438 14.13699818 35 46 30
245973.59130859 3357597.25347900 14.13850880 60 66 64
245971.83099365 3357595.40612793 14.80773449 29 32 41
245971.05639648 3357596.70562744 14.51472759 160 162 159
245971.71948242 3357595.31933594 14.29522610 101 100 95
245975.11804199 3357596.01000977 14.21216106 23 27 30
245972.79296875 3357595.87799072 14.68106556 163 164 132
245972.35858154 3357596.03576660 14.28593731 98 117 131
245971.85986328 3357596.22143555 14.84163189 92 130 149
245972.09735107 3357596.14825439 14.51866055 156 157 123
245970.73419189 3357596.72412109 14.37224102 61 62 57
245972.19708252 3357596.42535400 14.65398502 152 154 117
245971.57769775 3357596.33636475 14.29900646 199 198 193
245975.04626465 3357597.12084961 14.09465122 52 56 57
245972.85900879 3357595.74804688 14.73817539 176 181 158
245971.43005371 3357596.30120850 14.65218544 48 58 67
245975.01159668 3357596.31201172 14.85756302 135 137 136
245974.18432617 3357595.43060303 14.55080891 45 46 48
245973.05474854 3357595.72564697 14.39144611 27 30 35
245974.59338379 3357595.64892578 14.87787247 17 24 32
245970.94769287 3357596.73840332 14.33023643 179 188 195
245971.39129639 3357595.26220703 14.15967369 83 79 76
245974.81793213 3357597.11743164 14.11248779 37 41 40
245970.10717773 3357597.22076416 13.99073601 210 200 188
245974.48858643 3357596.46307373 14.30929852 93 95 94
245973.74877930 3357595.29534912 14.14543629 191 185 171
245974.89038086 3357595.74591064 14.59713078 44 53 52
245972.63897705 3357595.91180420 14.90640831 84 103 117
245971.92333984 3357595.99371338 14.21596909 210 206 197
245974.99694824 3357596.67218018 14.30964756 24 28 29
245970.60125732 3357595.92346191 14.41170406 109 118 117
245975.45477295 3357596.71905518 14.09487534 60 64 67
245970.91986084 3357595.64916992 14.65674019 187 200 206
245973.32049561 3357596.09161377 14.42856979 33 43 52
245974.43426514 3357595.61608887 15.03089619 212 217 223
245973.11938477 3357597.15783691 14.19294930 89 93 94
245971.82012939 3357596.13317871 14.38956070 183 183 159
245970.18975830 3357596.74621582 14.02490807 219 210 201
245974.90399170 3357597.42132568 14.04930973 43 48 42
245972.48596191 3357596.29980469 14.83092308 130 152 166
245971.88757324 3357596.24218750 14.47408772 153 157 122
245974.10327148 3357597.39178467 14.08452415 55 66 62
245971.59179688 3357596.59130859 14.71045113 28 38 47
245974.93811035 3357595.61737061 14.16977978 43 43 43
245971.54412842 3357595.19818115 14.13463020 175 172 165
245974.39154053 3357595.60284424 15.01622200 226 231 237
245973.05352783 3357596.67047119 14.34188747 22 32 42
245975.54296875 3357595.49530029 13.99668407 216 206 196
245975.13360596 3357596.64251709 14.26898193 40 42 41
245970.62860107 3357595.80609131 14.21850872 188 184 181
245972.45306396 3357596.40203857 14.78103161 127 154 165
245972.29864502 3357595.99731445 14.57117081 163 167 130
245974.17846680 3357595.59436035 14.94252110 171 174 181
245975.24639893 3357595.82727051 14.11255455 48 49 53
245975.15313721 3357597.51153564 14.09917164 41 45 44
245974.17791748 3357597.11883545 14.14641190 150 149 145
245973.42449951 3357596.91699219 14.28362846 18 30 30
245970.66009521 3357596.03472900 14.38746738 161 165 166
245973.19128418 3357595.91156006 14.40794086 33 40 48
245970.39129639 3357597.18035889 14.00011349 214 206 195
245970.80206299 3357595.62145996 14.46699047 26 32 32
245973.37902832 3357595.39721680 14.24583912 79 70 65
245971.51013184 3357596.45330811 14.32289982 110 106 107
245971.17272949 3357597.05505371 14.25027561 33 31 32
245971.90734863 3357597.18206787 14.14604187 19 25 25
245972.22381592 3357596.34918213 14.37296391 139 165 180
245972.29510498 3357596.16900635 14.84179974 193 211 221
245971.01025391 3357596.83233643 14.32438374 196 201 205
245972.24530029 3357595.28088379 14.05297375 207 197 185
245974.98956299 3357597.55249023 14.12849045 41 53 31
245970.92150879 3357596.78851318 14.32081032 122 129 135
245971.74926758 3357596.61450195 14.76359653 51 70 87
245971.87554932 3357595.58764648 14.87873650 156 166 175
245972.10516357 3357596.88037109 14.43721771 50 57 65
245970.98559570 3357595.62225342 14.69449615 96 105 110
245974.62402344 3357595.42877197 14.33899689 37 36 34
245970.54998779 3357595.89617920 14.19526005 212 209 202
245973.63385010 3357597.37567139 14.11231804 58 64 62
245971.91510010 3357596.38842773 14.86781120 90 122 133
245972.66821289 3357596.08489990 14.79538250 93 108 115
245972.78668213 3357595.72033691 14.77694511 145 156 139
245975.01202393 3357596.17211914 14.88841629 42 49 57
245971.38897705 3357595.27685547 14.17616177 81 77 74
245974.59875488 3357596.98565674 14.17006302 40 44 45
245972.36901855 3357597.19750977 14.23209000 28 38 40
245970.16888428 3357596.71099854 14.02761269 214 207 197
245971.87231445 3357597.10028076 14.26764393 9 14 17
245974.37512207 3357597.49066162 14.10338116 34 42 44
245974.95367432 3357595.60266113 14.16062260 46 46 44
245972.87609863 3357595.93395996 14.35431385 79 89 98
245970.61572266 3357595.89599609 14.35777473 43 49 47
245972.28411865 3357596.53607178 14.38313961 68 97 111
245972.99688721 3357595.27416992 14.14833641 205 199 185
245974.62200928 3357595.62115479 14.72689152 57 61 70
245971.29949951 3357596.48327637 14.40751934 180 181 173
245972.08612061 3357597.30529785 14.08037376 3 12 11
245970.58819580 3357595.93634033 14.32341290 114 118 117
245970.77374268 3357596.91961670 14.13686371 166 158 147
245974.67926025 3357595.94226074 14.45745564 99 101 90
245972.46875000 3357595.93304443 14.30930042 133 147 158
245973.57647705 3357596.46820068 14.37789059 47 54 62
245971.62689209 3357596.14819336 14.79198933 56 70 83
245971.56610107 3357595.38006592 14.74616337 44 55 61
245973.30450439 3357597.00842285 14.25255394 54 60 58
245974.86553955 3357597.55572510 14.12324238 52 61 40
245974.64434814 3357597.26171875 14.07772923 40 44 47
245972.20062256 3357596.83886719 14.42131424 64 73 80
245975.30957031 3357596.00592041 14.11129189 50 54 57
245971.24670410 3357597.01300049 14.29491425 21 25 28
245971.62744141 3357595.30303955 14.58755779 61 65 66
245973.47717285 3357596.29290771 14.40272045 36 45 54
245972.07922363 3357595.97772217 14.50957870 170 177 136
245974.57452393 3357596.03540039 14.53894424 206 197 190
245971.58032227 3357596.42639160 14.48258114 174 175 167
245972.27258301 3357596.22253418 14.85195923 191 211 218
245971.56097412 3357597.21997070 14.15834427 61 62 64
245970.95971680 3357595.38177490 14.29738808 35 33 36
245971.62176514 3357595.30065918 14.49278736 107 109 106
245971.24121094 3357595.41107178 14.69722080 161 168 174
245972.11364746 3357596.26745605 14.56698990 152 156 121
245973.67993164 3357597.04742432 14.21966553 66 76 68
245974.75201416 3357596.10083008 14.96828365 34 44 53
245974.83831787 3357596.32092285 14.92656803 85 90 94
245975.39764404 3357596.03448486 14.07008171 55 60 63
245972.33581543 3357596.47711182 14.71713829 145 151 123
245971.51959229 3357596.48040771 14.68172073 41 52 58
245970.46325684 3357596.32910156 14.16772270 206 199 191
245973.26110840 3357595.56842041 14.34188843 21 22 24
245974.98107910 3357595.99743652 14.26175308 40 44 43
245972.70153809 3357596.37438965 14.33498478 39 56 72
245972.28222656 3357596.65655518 14.75729656 98 122 124
245973.86431885 3357596.43908691 14.34902382 84 89 92
245973.62426758 3357595.51269531 14.33659363 34 36 35
245972.69415283 3357596.31347656 14.33417606 47 64 80
245972.63201904 3357596.89031982 14.37207413 34 45 51
245971.63275146 3357596.31884766 14.43610477 189 186 177
245972.58697510 3357595.77703857 14.85434628 113 133 144
245974.22814941 3357596.86181641 14.22678757 62 63 67
245972.49749756 3357595.61773682 14.79984951 94 103 110
245971.25445557 3357597.38165283 14.12529945 200 191 176
245975.02697754 3357596.26263428 14.79760742 127 128 123
245972.67510986 3357596.85583496 14.36903477 30 43 51
245974.37500000 3357596.94317627 14.18658543 55 61 57
245974.99127197 3357596.92254639 14.17052269 24 26 25
245974.94439697 3357597.53942871 14.11980629 51 57 43
245971.62115479 3357596.31225586 14.76731968 19 35 48
245971.56048584 3357596.53240967 14.35745049 77 75 78
245973.34161377 3357596.06640625 14.43339252 33 43 52
245974.93713379 3357596.27093506 14.80325985 192 188 179
245974.39166260 3357595.59936523 14.98581696 190 197 205
245972.42596436 3357596.22912598 14.83247566 90 116 131
245973.71643066 3357596.15124512 14.42473030 25 32 40
245974.91717529 3357595.55694580 14.14962196 50 49 47
245972.90130615 3357596.41040039 14.34063721 35 49 60
245974.35675049 3357595.34466553 14.23121738 112 111 107
245974.76135254 3357595.67474365 14.36073875 31 33 32
245970.92163086 3357596.61383057 14.35727310 108 115 123
245970.58868408 3357595.98553467 14.41551113 163 163 161
245974.35205078 3357595.33453369 14.15614033 129 128 123
245971.15179443 3357596.57324219 14.35269356 116 121 127
245974.00958252 3357595.43591309 14.50800419 41 42 44
245972.83349609 3357596.82653809 14.34235096 12 20 23
245975.30999756 3357595.81683350 14.07871723 64 65 69
245971.43859863 3357596.77270508 14.42633438 94 107 115
245973.45953369 3357596.16900635 14.42059135 29 38 45
245970.70068359 3357597.22827148 14.01679993 218 212 198
245974.49902344 3357595.35589600 14.22454643 129 126 121
245972.25006104 3357596.15069580 14.30872154 102 125 143
245975.56335449 3357595.59240723 13.99157429 219 209 197
245970.87487793 3357596.47479248 14.39686775 50 60 70
245972.36938477 3357597.23956299 14.20142937 25 35 37
245971.15777588 3357595.33111572 14.29180717 58 58 56
245973.94110107 3357595.78778076 14.80729389 25 33 36
245972.21710205 3357595.40881348 14.11460209 127 121 109
245972.15411377 3357595.38983154 14.86294937 222 222 220
245971.95520020 3357595.97406006 14.21170425 203 202 197
245971.60803223 3357597.39178467 14.08681297 78 79 63
245972.72991943 3357596.54479980 14.33673477 37 50 66
245973.32257080 3357597.36212158 14.11840534 34 43 38
245974.85955811 3357596.07617188 14.29952431 49 53 52
245971.77355957 3357596.47949219 14.36377335 90 99 104
245972.20483398 3357597.43353271 14.10414886 32 33 37
245974.50140381 3357596.77514648 14.23284435 66 71 67
245971.41351318 3357595.18743896 14.13450718 189 186 179
245972.10821533 3357595.40222168 14.12739754 119 115 103
245974.27728271 3357597.24450684 14.10318375 68 74 74
245973.29431152 3357596.13446045 14.42148972 31 41 50
245972.23144531 3357596.67199707 14.78904724 161 182 185
245972.33142090 3357596.25677490 14.64405060 152 156 119
245973.58551025 3357596.71893311 14.34169674 35 44 51
245973.87591553 3357595.41284180 14.26734161 61 58 53
245974.48718262 3357595.32073975 14.10910320 171 164 156
245973.52270508 3357595.89764404 14.43184853 16 25 30
245973.53271484 3357596.68304443 14.34674168 33 42 51
245974.48693848 3357595.89318848 15.06688976 33 46 55
245973.68444824 3357595.62567139 14.40591431 7 11 14
245971.68542480 3357595.34088135 14.69664955 37 41 44
245972.10345459 3357595.64569092 14.87417984 127 159 170
245971.18377686 3357595.77081299 14.66316795 25 41 56
245974.24322510 3357595.90417480 14.99526215 27 39 53
245970.71466064 3357596.35906982 14.45938587 40 51 57
245972.18359375 3357596.32104492 14.88346863 217 232 235
245971.80450439 3357596.11193848 14.33727169 184 182 161
245970.17834473 3357597.11419678 13.99808598 210 202 191
245973.61340332 3357597.20013428 14.15953922 44 49 45
245974.57965088 3357597.44335938 14.07730865 29 31 28
245972.75543213 3357595.71173096 14.68119621 160 161 130
245974.71258545 3357596.31121826 14.35631657 116 117 112
