245784.38433838 3357651.53222656 18.42045212 30 57 48
245784.28765869 3357658.41082764 16.29669189 50 56 56
245783.68371582 3357653.31750488 16.56572914 36 45 50
245784.73687744 3357657.57409668 16.20358086 28 39 45
245784.79315186 3357651.07116699 17.57741547 107 117 127
245784.36773682 3357652.36999512 16.32694244 115 129 142
245783.84167480 3357655.10607910 17.13982964 16 25 32
245784.71215820 3357657.57080078 16.54139328 3 20 28
245784.55383301 3357658.09106445 16.44828224 119 128 133
245784.29901123 3357657.78472900 16.61569595 87 110 124
245783.84228516 3357656.57989502 16.72510147 72 89 107
245783.93731689 3357658.68975830 16.06094360 43 48 51
245784.10986328 3357657.46032715 16.64180946 37 49 47
245784.50775146 3357651.06329346 17.17932701 90 97 103
245784.18109131 3357654.67828369 16.18485260 28 33 37
245783.18420410 3357658.10888672 16.44147682 5 10 14
245784.11859131 3357655.02307129 16.57929802 31 38 44
245784.25482178 3357651.56842041 18.34943390 38 63 60
245784.30163574 3357657.95013428 16.46215820 82 109 126
245783.25366211 3357657.06280518 16.65462875 40 51 53
245784.26354980 3357654.21905518 15.86455536 40 44 47
245784.31811523 3357651.51538086 18.34724808 32 59 54
245782.48614502 3357657.09283447 15.84761906 57 63 61
245782.87188721 3357657.20996094 16.24691963 21 22 26
245784.58050537 3357656.83825684 16.72767258 20 28 31
245784.16448975 3357654.62756348 16.17489433 29 34 38
245782.68115234 3357656.89599609 16.19575882 31 38 31
245783.58758545 3357658.08874512 16.31942749 92 117 124
245784.94250488 3357650.95672607 17.68444824 78 87 96
245784.24621582 3357656.87432861 16.94538307 63 95 118
245782.79315186 3357657.06640625 16.14478874 32 36 37
245784.22729492 3357655.45812988 16.80765724 11 22 26
245784.75842285 3357656.85925293 16.22125435 14 25 31
245783.39422607 3357657.61328125 16.61528587 15 23 26
245782.41870117 3357657.77020264 15.86079216 64 71 64
245783.55487061 3357657.69940186 16.61569595 34 47 55
245783.76239014 3357654.17285156 16.77234650 32 41 46
245782.99267578 3357658.35028076 15.76150703 46 47 49
245784.32611084 3357657.44799805 16.64929199 17 31 32
245783.89288330 3357654.74060059 16.75916100 10 19 24
245783.98693848 3357654.55017090 16.49695396 16 21 27
245784.71997070 3357657.56756592 16.51298904 2 17 22
245784.32952881 3357651.39599609 16.77305984 129 137 150
245784.67163086 3357652.01385498 16.54781914 45 47 59
245783.04138184 3357657.58630371 16.06239891 15 21 21
245784.77319336 3357656.96411133 16.28194237 14 23 28
245784.29980469 3357656.06353760 16.92732048 6 13 21
245784.13323975 3357657.65325928 16.68600655 38 52 61
245782.32257080 3357657.77954102 15.88570595 37 48 32
245783.78729248 3357653.89074707 17.00385094 28 38 39
245783.70593262 3357656.28363037 16.75503159 26 43 51
245784.04113770 3357655.22235107 16.77189827 18 29 33
245784.70587158 3357657.73193359 16.50695801 5 18 27
245782.89739990 3357657.22985840 16.36956024 25 29 28
245783.97406006 3357656.10925293 16.97003937 26 46 55
245784.21429443 3357651.44384766 16.90592957 15 18 27
245783.68029785 3357656.37622070 16.64410782 33 50 57
245784.83081055 3357650.85314941 17.00856781 45 54 61
245783.38305664 3357656.87316895 16.57462692 68 98 106
245783.92926025 3357656.85375977 16.74388123 53 81 105
245783.11267090 3357657.71960449 15.93148422 37 43 41
245783.64965820 3357653.05828857 16.44466972 33 44 46
245783.73352051 3357653.56402588 16.52094841 44 54 56
245783.56030273 3357657.62603760 16.62455559 25 29 32
245783.91424561 3357654.26934814 16.26894379 28 37 42
245784.15411377 3357656.18774414 16.95708656 50 64 73
245784.21954346 3357654.38922119 15.93658257 35 38 43
245782.58398438 3357657.32812500 15.80243969 39 43 44
245784.20776367 3357656.70111084 17.05447388 52 70 90
245784.37408447 3357655.10931396 16.05911636 78 90 104
245782.83050537 3357657.86071777 15.72923374 48 50 49
245783.86346436 3357654.15496826 17.08563805 22 32 34
245782.43969727 3357658.18109131 15.86290169 75 80 76
245783.29168701 3357658.44799805 16.08040047 69 75 75
245783.84161377 3357653.57513428 16.34119797 83 97 106
245784.16430664 3357654.50439453 16.07383537 34 39 43
245784.03967285 3357652.35217285 16.65778160 32 32 40
245784.63549805 3357658.38116455 16.03417969 48 49 54
245784.09820557 3357654.54858398 16.24754715 22 30 32
245784.67645264 3357657.54492188 16.58312416 23 45 58
245784.47821045 3357651.80010986 18.81858253 6 24 24
245783.17480469 3357658.12298584 16.07910728 17 20 25
245784.09869385 3357656.15679932 16.94298172 50 64 75
245782.78448486 3357657.04534912 16.13990021 32 38 36
245782.35058594 3357657.65588379 15.87669468 37 45 34
245784.45776367 3357651.37402344 17.73738289 88 101 109
245784.32952881 3357656.81274414 16.92455864 20 43 59
245784.22149658 3357654.14410400 15.88192749 46 49 56
245783.48345947 3357656.64233398 16.57023239 22 39 46
245783.30676270 3357658.08343506 16.55167389 127 141 154
245782.98449707 3357657.51837158 15.97698593 22 26 27
245784.44549561 3357658.18072510 16.39405823 74 77 82
245783.19519043 3357658.29907227 15.97853661 24 29 33
245784.83416748 3357651.04113770 17.95700836 4 10 10
245784.14123535 3357656.53875732 16.96313477 59 75 90
245783.96075439 3357652.48864746 16.59065628 50 54 57
245783.84771729 3357657.04638672 16.43543434 76 95 102
245783.88598633 3357654.45849609 17.06341553 18 27 32
245784.82556152 3357651.02850342 17.54352379 104 116 128
245783.86462402 3357654.35241699 17.01037407 17 26 31
245784.73620605 3357657.36218262 16.39121437 24 33 38
245784.14367676 3357655.42486572 16.85725975 18 28 30
245783.68066406 3357652.80993652 16.43668747 84 89 93
245784.72033691 3357657.20721436 16.49210930 11 20 27
245783.73791504 3357656.17260742 16.88747597 48 65 73
245784.16552734 3357654.68096924 16.22042656 28 33 37
245783.19012451 3357658.29589844 15.94606495 33 38 41
245784.19561768 3357651.81890869 16.87041855 9 19 29
245783.80950928 3357652.75317383 16.40339851 161 170 185
245784.28521729 3357655.26580811 16.50072289 47 57 66
245783.82751465 3357654.46844482 16.85014534 30 41 45
245783.79638672 3357652.96618652 16.31149101 107 110 125
245783.68109131 3357652.70855713 16.52877235 121 126 129
245783.19342041 3357657.87353516 16.46351433 30 37 45
245784.51226807 3357651.58605957 16.69153214 118 128 137
245782.51477051 3357658.31622314 15.83982849 83 87 86
245784.13269043 3357655.93280029 17.00113297 47 64 72
245784.04528809 3357651.75433350 17.33891296 144 156 170
245784.06542969 3357655.46624756 16.94411659 27 36 41
245784.72521973 3357656.85754395 16.64886665 16 23 29
245784.74798584 3357650.99737549 17.29581642 96 113 121
245783.87493896 3357653.34698486 16.31782722 68 77 86
245784.59979248 3357656.44891357 16.58567810 23 33 35
245782.92816162 3357657.36163330 16.10950089 21 27 27
245784.20617676 3357657.32141113 16.61656189 128 143 140
245784.76977539 3357657.03369141 16.60689735 13 22 27
245783.87878418 3357654.15515137 16.19471359 28 35 41
245784.55596924 3357655.91131592 16.18891907 48 57 66
245784.67694092 3357657.92224121 16.49130249 197 204 210
245784.22271729 3357655.98626709 16.95937347 6 16 25
245783.75738525 3357658.50793457 16.29239655 30 33 38
245784.31860352 3357655.49279785 16.65627098 38 49 53
245783.74749756 3357658.24780273 16.27544403 93 100 106
245784.16931152 3357651.33728027 17.23451996 109 123 134
245784.20330811 3357651.72698975 16.85587883 12 17 23
245783.18090820 3357658.10028076 16.40326881 2 7 10
245783.70086670 3357652.68121338 16.54411697 112 120 122
245783.82476807 3357657.75421143 16.63193703 90 109 116
245784.45794678 3357652.31298828 16.31638908 91 104 113
245782.61364746 3357656.83154297 16.08040810 26 30 29
245784.08752441 3357651.77508545 17.15879250 100 114 125
245784.82513428 3357651.04516602 17.58267593 105 115 125
245784.34753418 3357658.05090332 16.40836716 77 96 110
245783.91839600 3357655.84478760 17.15057564 22 35 44
245784.77758789 3357651.39031982 16.72528648 25 32 38
245782.83935547 3357657.78497314 15.74918365 40 42 41
245784.19354248 3357652.75305176 16.30991745 135 151 166
245783.76959229 3357654.03137207 16.88703728 23 33 34
245783.81958008 3357654.29876709 16.89530945 26 35 40
245784.73406982 3357657.24371338 16.35657120 7 14 22
245782.32519531 3357658.18353271 15.87549305 42 52 41
245784.18334961 3357652.13403320 16.72654533 87 100 116
245783.72106934 3357653.96405029 16.72074699 30 41 43
245784.42181396 3357658.36804199 16.30044937 144 152 154
245784.17346191 3357658.19671631 16.28992844 94 105 109
245783.07562256 3357657.62701416 16.23345184 7 16 15
245783.20349121 3357658.22082520 16.11518478 12 15 20
245783.49182129 3357657.71002197 16.60944748 43 60 67
245783.35308838 3357656.48992920 16.61673737 28 38 40
245782.61962891 3357656.88940430 15.89146519 22 28 26
245783.16088867 3357657.93835449 16.23194313 10 15 18
245783.80706787 3357652.93041992 16.31601715 117 123 139
245783.47961426 3357657.07324219 16.49615860 35 56 59
245784.05096436 3357654.82757568 16.56074905 23 30 36
245784.72613525 3357657.30389404 16.40707397 22 29 35
245783.87725830 3357656.96038818 16.53641891 56 83 100
245784.03283691 3357655.12133789 16.71833420 17 26 31
245783.91455078 3357653.75207520 16.17683601 0 4 4
245784.44165039 3357656.66912842 16.82053757 6 16 18
245783.55590820 3357657.93652344 16.37737465 98 124 141
245782.81042480 3357658.04455566 15.73338413 66 67 69
245784.51373291 3357651.33239746 16.83169174 115 127 143
245784.80578613 3357651.08789063 17.80947113 27 28 32
245784.38360596 3357652.70849609 16.30583763 31 44 53
245783.86145020 3357657.25775146 16.49305725 125 137 135
245784.66278076 3357657.93481445 16.49487877 197 204 210
245783.30535889 3357657.84130859 16.54512215 99 122 130
245783.04766846 3357658.27197266 15.80089951 48 52 53
245784.75372314 3357658.01843262 16.37424469 49 63 74
245784.44610596 3357652.13891602 16.48498726 122 136 149
245784.39056396 3357655.66186523 16.61361313 36 47 53
245784.00543213 3357654.05902100 15.93261433 37 42 48
245784.75109863 3357656.54241943 16.25537682 17 30 39
245783.75744629 3357653.95349121 16.35421181 31 41 43
245784.20446777 3357652.37268066 16.48200798 84 97 113
245784.71624756 3357657.35296631 16.44595528 52 61 66
245783.77453613 3357654.24279785 16.75048828 31 40 45
245784.47314453 3357651.27203369 17.98875618 39 53 54
245784.80926514 3357650.88952637 17.06962204 24 33 40
245783.30932617 3357657.64880371 16.60825539 73 80 86
245782.72039795 3357658.23193359 15.76790619 73 74 76
245784.22900391 3357651.29681396 17.02174568 13 18 24
245783.91369629 3357654.42022705 16.48544693 12 19 25
245783.77368164 3357657.27862549 16.48803139 69 81 79
245784.53692627 3357658.19860840 16.39573288 193 207 210
245784.11914063 3357654.58996582 16.24761963 24 29 32
245782.34075928 3357657.90429688 15.88288593 44 52 39
245784.82574463 3357650.86383057 17.03419685 21 30 37
245784.26287842 3357653.32818604 16.10599709 120 134 145
245784.07397461 3357651.66253662 18.05479240 96 108 120
245784.55889893 3357658.40594482 16.05167580 58 59 64
245783.36480713 3357656.55120850 16.60806274 24 35 37
245784.23254395 3357652.59167480 16.35746765 147 163 179
245784.28131104 3357657.08593750 16.66578484 54 74 85
245783.92773438 3357654.56622314 16.61126137 14 21 27
245783.65850830 3357657.00732422 16.41864395 50 73 81
245783.75311279 3357656.19360352 16.83712196 35 52 62
245782.80505371 3357657.19281006 15.90150070 21 25 26
245783.95953369 3357656.11395264 16.96195412 28 48 57
245782.59088135 3357657.80480957 15.81745243 53 57 56
245784.68780518 3357651.91821289 16.56431389 32 34 46
245783.88031006 3357654.91802979 17.16574669 11 22 24
245784.10906982 3357651.59741211 17.97579575 89 99 108
245784.19793701 3357654.96667480 16.38662910 34 43 50
245784.69488525 3357651.18988037 17.75329208 3 4 6
245784.75036621 3357657.95666504 16.43325424 84 94 104
245783.08001709 3357657.80096436 15.85572529 27 33 33
245783.90588379 3357655.04241943 16.81982613 15 24 29
245784.62481689 3357651.25622559 17.73818970 4 10 10
245784.76214600 3357656.40173340 16.24552536 29 42 51
245783.49426270 3357658.56176758 16.06862831 60 68 71
245784.59692383 3357657.54956055 16.61083984 80 106 121
245783.95788574 3357658.51177979 16.28720856 97 96 92
245784.22650146 3357651.43127441 17.57533264 87 102 107
245784.40423584 3357651.45501709 16.74162865 125 135 147
245784.28784180 3357652.91528320 16.23387337 135 149 160
245783.25494385 3357658.39257813 16.13637924 32 37 40
245783.07464600 3357658.17517090 15.83535004 45 51 51
245784.20544434 3357656.78454590 17.01085281 62 84 105
245783.79400635 3357656.38610840 16.69900131 32 49 57
245783.99090576 3357658.68566895 16.04102898 40 45 48
245783.60052490 3357657.93334961 16.36529541 97 126 140
245783.90307617 3357654.26300049 17.14243126 24 34 35
245784.39575195 3357657.72210693 16.65233421 52 75 89
245783.82849121 3357654.45910645 16.82396507 30 41 45
245784.43511963 3357651.26641846 18.15056038 59 75 72
245782.55316162 3357657.89062500 15.82956791 50 54 55
245783.41644287 3357656.86810303 16.56682587 57 91 101
245784.61596680 3357651.63415527 18.70669746 18 44 35
245784.27972412 3357655.57379150 16.78159904 15 26 32
245783.94787598 3357654.02795410 15.94935226 35 40 46
245782.65246582 3357656.89318848 15.93807125 21 25 24
245784.39697266 3357653.06445313 16.06948471 26 31 37
245784.74145508 3357651.33905029 16.77137947 21 30 35
245783.26507568 3357658.29534912 16.46022797 132 142 144
245783.60253906 3357657.38934326 16.53534508 29 43 43
245783.94592285 3357655.17938232 16.80955887 8 19 23
245784.29174805 3357656.74761963 16.98303413 129 152 166
245784.58190918 3357657.93823242 16.52597809 169 176 182
245784.47747803 3357655.70330811 16.16353226 45 55 64
245783.84808350 3357655.32720947 17.17562294 0 4 10
245784.22473145 3357655.38391113 16.74737358 26 40 41
245784.50604248 3357658.27203369 16.35080910 191 202 204
245783.83715820 3357654.12481689 17.02785301 20 30 32
245784.18811035 3357655.31768799 16.71144104 27 38 40
245784.70892334 3357656.47241211 16.41331673 22 31 38
245784.10296631 3357651.83453369 17.12747765 104 117 126
245784.17480469 3357656.86578369 16.94302750 61 91 117
245783.83807373 3357658.01672363 16.27120399 90 116 133
245784.18731689 3357651.34069824 17.32613945 138 152 163
245783.81085205 3357654.14129639 16.94740105 22 32 34
245782.35809326 3357657.79510498 15.87653160 35 43 32
245784.07684326 3357652.76574707 16.31190300 147 163 179
245784.68377686 3357656.65588379 16.52446175 17 26 31
245784.07904053 3357656.23626709 16.92248535 32 49 57
245783.99456787 3357654.52294922 16.47003746 13 18 24
245784.26684570 3357658.07659912 16.35152626 78 100 113
245784.33746338 3357655.96496582 16.87377357 7 14 20
245783.73297119 3357654.01434326 16.74436378 29 40 42
245784.44793701 3357656.23034668 16.79300880 4 15 21
245783.36877441 3357658.01586914 16.49510765 57 83 96
245783.99401855 3357652.64123535 16.42898941 180 188 207
245784.11169434 3357657.30450439 16.58739281 128 142 142
245783.47924805 3357657.73431396 16.57758141 86 109 117
245784.16571045 3357653.98101807 15.87444210 45 50 56
245783.57409668 3357657.68182373 16.61924744 16 23 29
245784.21801758 3357655.39801025 16.76703644 25 35 36
245784.78509521 3357650.89337158 17.02384377 26 37 43
245783.19366455 3357658.20111084 16.37819672 6 11 14
245784.31988525 3357651.19183350 16.91044807 35 35 43
245784.15716553 3357654.96191406 16.45511627 39 46 52
245784.49261475 3357652.02740479 16.51631165 120 128 141
245784.08929443 3357653.54425049 16.15979004 137 157 168
245784.04144287 3357654.88000488 16.60622978 28 35 41
245784.75524902 3357651.12554932 17.69265556 42 43 48
245784.72149658 3357657.66027832 16.53087044 2 17 24
245784.01837158 3357654.42889404 16.28736115 11 14 19
245784.27551270 3357652.17657471 16.63012886 127 138 158
245783.92761230 3357656.72149658 16.86691284 25 50 70
245783.13177490 3357658.28015137 15.86727428 49 50 52
245783.70294189 3357653.06420898 16.38451576 37 46 53
245783.87060547 3357655.73968506 17.19281006 19 29 38
245784.59301758 3357658.36199951 16.18196106 25 34 41
245783.33038330 3357658.33233643 16.45181084 166 180 181
245784.14239502 3357654.75469971 16.32140160 23 31 34
245783.89453125 3357654.82427979 16.89027596 9 18 23
245784.45959473 3357652.06213379 16.52884102 118 130 142
245784.57122803 3357651.22143555 16.85630417 105 121 136
245784.70379639 3357657.54235840 16.54331970 3 20 28
245782.30328369 3357657.43395996 15.89151478 41 49 36
245783.86853027 3357656.65960693 16.78628731 59 80 101
245783.62908936 3357658.58007813 16.09841156 36 41 47
245784.56604004 3357651.64538574 18.68637276 18 41 35
245782.46557617 3357657.43157959 15.83994389 65 71 67
245784.19128418 3357651.61401367 16.87849998 16 21 27
245784.21423340 3357651.63122559 18.38594627 42 62 60
245783.23931885 3357657.56286621 16.63731194 13 21 23
245782.82415771 3357657.13281250 16.08633614 29 30 34
245784.69897461 3357658.22528076 16.21791458 3 20 36
245783.79742432 3357654.05895996 16.95036697 19 29 31
245784.44879150 3357655.56494141 16.06013107 39 52 61
245783.93371582 3357656.61737061 16.82618141 75 93 113
245783.60565186 3357658.35668945 16.41089439 45 55 56
245784.50378418 3357651.42810059 16.77200890 110 124 137
245784.27349854 3357655.30035400 16.54351425 46 55 64
245783.91271973 3357657.07867432 16.46158409 41 59 63
245783.74945068 3357657.49145508 16.59997559 52 62 61
245783.81829834 3357654.22186279 16.45595551 32 41 46
245784.17248535 3357651.89477539 16.86939621 66 78 92
245783.97741699 3357654.75152588 16.62217712 17 24 30
245782.74530029 3357657.30731201 15.82041264 43 43 45
245784.07263184 3357658.52124023 16.26500511 71 75 76
245783.58221436 3357657.28692627 16.50530052 59 71 71
245784.17462158 3357651.51287842 18.11161995 61 72 74
245783.52447510 3357658.06542969 16.34355736 91 115 127
245784.30249023 3357657.10540771 16.65881348 54 74 85
245784.44287109 3357652.88806152 16.21203041 47 54 62
245783.62182617 3357657.58068848 16.62141418 66 67 69
245784.05694580 3357657.16174316 16.52367401 63 72 71
245784.24481201 3357652.39739990 16.41840744 142 158 173
245783.52246094 3357657.85913086 16.44064140 100 129 147
245784.40051270 3357651.24041748 16.84961700 121 131 143
245784.27648926 3357651.19219971 17.07766151 21 22 26
245783.54705811 3357656.59149170 16.56967163 57 74 82
245782.87677002 3357658.24920654 15.75921917 55 56 60
245784.19268799 3357653.05377197 16.17019081 113 122 131
245784.10003662 3357658.62561035 16.06791306 31 36 39
245783.82855225 3357657.44238281 16.58627892 21 36 33
245784.18695068 3357652.82183838 16.28016663 137 154 164
245784.47009277 3357657.43420410 16.63968468 21 38 48
245783.85516357 3357655.08862305 16.90099335 9 20 26
245784.10083008 3357651.93780518 17.09698105 48 57 62
245784.87512207 3357650.87951660 17.28223419 71 84 93
245784.31848145 3357656.91583252 16.88658905 39 67 88
245784.22564697 3357656.96575928 16.81425476 44 74 100
245783.34478760 3357658.44744873 16.33201408 16 24 26
245784.52239990 3357657.68139648 16.61993217 52 71 86
245783.55206299 3357656.89483643 16.49768257 57 88 108
245782.53717041 3357656.81896973 15.97909641 35 40 36
245784.30023193 3357657.70568848 16.66656685 96 118 129
245783.04010010 3357658.40850830 15.78418064 54 58 59
245783.95385742 3357653.29663086 16.25547409 82 90 101
245784.57397461 3357656.97521973 16.72545242 4 12 15
245783.55151367 3357656.76940918 16.54977798 75 103 117
245784.20782471 3357657.24713135 16.59080505 136 148 144
245783.84057617 3357655.06127930 16.94411659 4 15 21
245784.69622803 3357651.03826904 17.31574821 111 125 136
245784.33892822 3357651.12878418 17.09463310 19 20 24
245784.16522217 3357651.41607666 17.05571175 27 40 48
245784.30358887 3357655.87390137 16.87216759 7 17 19
245783.75006104 3357656.83966064 16.59920311 63 90 111
245782.73065186 3357656.94982910 15.93624687 55 59 58
245784.45794678 3357652.21868896 16.40310669 96 108 120
245784.15698242 3357651.45941162 17.02055359 19 29 38
245783.82354736 3357654.19683838 16.40818596 33 42 47
245784.61840820 3357651.22473145 17.61141777 11 12 14
245784.55541992 3357657.87457275 16.55696869 83 95 109
245783.86718750 3357654.59796143 16.78682327 14 23 28
245783.90911865 3357656.62902832 16.80619240 87 105 125
245783.89123535 3357655.22729492 16.87325287 7 16 21
245783.90698242 3357654.70416260 17.11292648 18 27 32
245783.82946777 3357655.07513428 17.04995155 7 18 22
245784.72949219 3357658.12567139 16.29789543 55 75 84
245783.11834717 3357657.74621582 16.12223816 58 63 66
245782.70922852 3357657.68176270 15.78359222 66 70 69
245784.33911133 3357657.19964600 16.60063553 88 105 112
245783.03881836 3357657.65130615 15.89459610 30 34 35
245783.80236816 3357656.19439697 16.85155106 25 43 53
245784.54638672 3357651.32550049 17.81043243 52 66 69
245784.48779297 3357655.98529053 16.63816643 28 39 43
245784.25244141 3357655.35217285 16.63414764 32 43 49
245784.22619629 3357651.46069336 17.66789055 93 108 113
245783.01562500 3357658.19989014 15.78714085 52 53 55
245783.21112061 3357657.56671143 16.63173485 14 22 24
245782.68347168 3357656.95452881 15.87779522 43 49 47
245784.10021973 3357655.21844482 16.72760201 33 40 46
245783.83288574 3357655.28613281 16.95515060 0 9 14
245784.21130371 3357651.46807861 17.96906090 64 77 83
245783.74328613 3357654.07836914 16.55251694 31 41 43
245782.71044922 3357657.04345703 15.84188175 43 47 46
245784.41162109 3357651.56469727 18.47964287 22 48 39
245784.73382568 3357657.24121094 16.34154701 8 15 23
245783.48669434 3357658.18066406 16.44312096 41 65 77
245783.70989990 3357653.94677734 16.54778290 33 43 45
245784.75140381 3357656.95922852 16.67547607 14 21 27
245784.57653809 3357657.56060791 16.61698723 80 106 121
245783.60986328 3357653.06994629 16.58329964 27 35 38
245783.77813721 3357654.22326660 16.64628792 32 42 44
245784.26147461 3357658.06060791 16.36051941 79 102 116
245784.30255127 3357651.41772461 17.82657242 65 80 83
245783.93981934 3357654.06372070 15.98240376 31 38 44
245783.97595215 3357657.90264893 16.45051384 86 118 133
245784.43670654 3357655.60845947 16.20926666 39 49 59
245783.76605225 3357658.21990967 16.26292992 97 104 112
245783.12377930 3357657.76007080 16.10320663 56 61 64
245782.37805176 3357658.20916748 15.87236309 43 50 42
245784.09619141 3357653.33221436 16.19014931 99 113 126
245784.05938721 3357651.60327148 17.15675545 77 93 109
245783.96270752 3357654.60949707 17.28273964 30 40 41
245784.61181641 3357656.04187012 16.17491341 41 52 56
245784.47717285 3357658.19445801 16.39448357 154 155 160
245783.19018555 3357657.47644043 16.66471100 19 27 29
245784.87927246 3357650.99877930 17.58573914 91 104 112
245784.34234619 3357657.93035889 16.49613571 85 111 128
245783.51525879 3357658.13159180 16.38732529 76 98 109
245784.17114258 3357657.69342041 16.67120171 93 110 120
245784.14477539 3357655.61828613 16.97693825 29 39 48
245784.59783936 3357656.21899414 16.58044815 18 29 33
245784.68493652 3357657.27447510 16.56215096 5 18 26
245783.93957520 3357656.09466553 16.97844696 30 50 61
245784.03356934 3357653.27490234 16.21853256 34 43 52
245783.16345215 3357658.13873291 15.97282314 16 17 22
245782.61865234 3357657.40997314 15.79739189 50 54 55
245783.90979004 3357654.52490234 17.12628937 26 36 38
245784.30603027 3357651.41558838 17.83278275 65 80 83
245784.01361084 3357653.69262695 16.12607574 5 6 10
245783.43652344 3357658.04040527 16.44215584 70 96 111
245784.17083740 3357651.35955811 17.11353302 18 29 35
245782.87072754 3357657.22637939 16.17929268 21 22 24
245784.51391602 3357657.07788086 16.69753647 18 30 42
245783.29437256 3357657.15411377 16.63020325 118 128 129
245784.08630371 3357651.53002930 17.45810890 143 155 169
245784.78363037 3357657.03149414 16.50846100 15 24 29
245783.69628906 3357652.86480713 16.41089439 85 86 91
245784.12994385 3357654.02691650 15.88894081 46 51 57
245783.71563721 3357653.83135986 16.80705833 31 41 43
245784.16314697 3357655.18475342 16.61858177 38 45 53
245783.79425049 3357657.91119385 16.39645576 90 122 135
245784.76214600 3357657.76684570 16.38913727 10 19 26
245784.67987061 3357651.62243652 16.67766190 51 58 64
245782.48126221 3357658.11578369 15.85294724 88 92 91
245784.18579102 3357654.39819336 15.98720360 33 36 41
245784.07708740 3357656.93896484 16.79667664 52 84 107
245783.74261475 3357652.78857422 16.40158844 128 134 146
245784.12384033 3357652.01251221 16.86288261 135 151 164
245783.83551025 3357652.45410156 16.69559288 27 33 33
245784.19335938 3357651.40319824 17.47954178 79 96 104
245782.43688965 3357658.35699463 15.86996174 69 78 73
245784.52575684 3357656.59832764 16.72135735 12 21 26
245783.88775635 3357654.76123047 16.91175461 8 17 22
245784.01135254 3357652.48413086 16.57392120 42 43 47
245784.54943848 3357656.47161865 16.67513466 25 34 39
245783.99896240 3357653.28717041 16.23670769 54 62 73
245784.15075684 3357653.98455811 15.87811279 42 47 53
245783.77331543 3357654.05438232 16.88614655 24 34 36
245784.36328125 3357655.20776367 16.21068764 6 15 22
245784.47589111 3357651.36254883 17.67364502 36 47 51
245784.73400879 3357657.32733154 16.34176826 21 28 34
245784.02618408 3357655.78137207 17.05877304 21 38 48
245783.26971436 3357656.99102783 16.63988495 63 77 80
245784.42053223 3357655.59527588 16.32892418 39 49 58
245784.65130615 3357658.04431152 16.45838928 205 214 219
245784.65667725 3357657.00170898 16.70446587 76 84 87
245782.37182617 3357657.78674316 15.87285137 35 43 32
245783.86358643 3357654.58325195 16.81456947 19 28 33
245784.69720459 3357658.17816162 16.29253006 52 80 91
245784.49468994 3357651.59002686 16.68766022 118 128 137
245784.36126709 3357656.95294189 16.82252693 30 51 70
245784.04992676 3357651.58374023 17.24094009 85 97 109
245783.16516113 3357657.98950195 16.31471825 0 4 5
245783.05786133 3357657.56280518 16.27716827 17 27 26
245784.58618164 3357657.00781250 16.71331406 3 10 16
245784.49432373 3357652.73608398 16.31525803 19 30 34
245784.11132813 3357656.86370850 16.92097664 42 72 98
245783.59149170 3357658.17108154 16.32610321 79 96 104
245783.81793213 3357652.97314453 16.29758835 110 118 131
245784.23681641 3357656.97424316 16.80279541 44 74 100
245782.90985107 3357657.30419922 16.19801903 25 29 32
245784.11730957 3357653.40454102 16.18419266 100 118 130
245783.69024658 3357653.59552002 16.62645912 39 49 51
245784.70202637 3357656.54235840 16.45967102 21 30 37
245784.15612793 3357651.58270264 18.21907806 60 72 72
245784.33386230 3357653.14599609 16.09817696 70 74 83
245784.18597412 3357654.25726318 15.90149403 40 45 49
245784.32720947 3357652.09570313 16.66171837 138 150 172
245782.93127441 3357658.46105957 15.73668957 51 57 57
245784.32592773 3357658.00250244 16.43443680 78 101 117
245783.55609131 3357657.52185059 16.60577965 86 91 94
245784.37835693 3357652.57495117 16.32075882 101 114 123
245784.11364746 3357651.60546875 18.11410713 83 94 100
245784.54400635 3357657.17504883 16.64374161 19 32 41
245782.91046143 3357657.76257324 15.76823616 43 44 46
245783.96093750 3357656.85162354 16.77536774 69 99 123
245783.68347168 3357657.01129150 16.41687584 64 84 93
245783.61859131 3357656.38250732 16.59970665 35 52 60
245784.56774902 3357651.61560059 16.68795204 107 116 125
245782.70727539 3357657.72149658 15.77404213 60 64 65
245784.51293945 3357656.69458008 16.73967552 9 19 21
245784.35351563 3357657.79321289 16.60673714 57 80 96
245784.58148193 3357656.31103516 16.61237335 22 31 38
245784.26922607 3357655.69427490 16.84967804 8 21 27
245783.85266113 3357654.58502197 16.90498734 18 27 32
245784.73547363 3357657.52233887 16.26633644 18 29 31
245782.53582764 3357657.00445557 15.84822750 22 28 26
245784.77069092 3357657.87512207 16.33669090 8 18 28
245783.93402100 3357655.21844482 16.83933449 7 16 21
245784.14392090 3357651.74383545 16.96706581 60 80 89
245783.82653809 3357652.99176025 16.29106903 99 107 120
245784.30438232 3357651.39898682 17.90409851 62 80 82
245783.73669434 3357653.93041992 16.84002495 27 37 38
245784.05749512 3357652.95416260 16.23867607 129 138 153
245783.89654541 3357655.99737549 17.12519455 26 43 51
245783.08111572 3357657.36877441 16.64630508 19 28 27
245782.74127197 3357657.00787354 15.89297485 48 52 51
245783.58654785 3357658.11407471 16.31955338 90 113 121
245783.06884766 3357657.58526611 16.38050270 43 53 52
245784.31835938 3357652.27380371 16.47854805 139 147 166
245782.63458252 3357657.21893311 15.78603363 44 50 48
245784.37908936 3357651.23266602 16.85716820 126 134 147
245782.36419678 3357657.40264893 15.87211704 36 44 33
245783.17340088 3357657.74304199 16.54828453 33 38 42
245783.90893555 3357657.34020996 16.56269646 51 63 61
245783.91131592 3357653.79235840 16.14533806 15 23 26
245784.76715088 3357651.10949707 17.64570236 106 113 121
245783.66766357 3357653.37322998 16.65522575 37 47 48
245784.40087891 3357656.71038818 16.86865234 2 13 17
245784.79943848 3357656.96301270 16.60661507 14 23 28
245782.46716309 3357657.54364014 15.83969402 56 62 58
245784.01794434 3357654.59698486 16.46979904 12 17 23
245782.36169434 3357657.79974365 15.87585926 35 43 32
245784.13671875 3357651.78424072 16.97952271 88 106 116
245782.87225342 3357657.85363770 15.73923779 46 48 47
245783.87145996 3357652.70184326 16.42322350 184 192 211
245784.24053955 3357655.03466797 16.37193680 37 47 56
245783.22949219 3357658.48541260 15.90860748 40 49 48
245783.04766846 3357658.19525146 15.80864716 50 54 55
245784.61022949 3357656.90496826 16.72563362 16 24 27
245784.06762695 3357652.67999268 16.36190605 167 180 199
245784.57452393 3357656.10333252 16.48791695 27 38 42
245783.44433594 3357657.18041992 16.52953339 129 143 143
245784.60394287 3357656.80798340 16.71580315 25 32 38
245782.64038086 3357657.88537598 15.77820969 65 67 66
245783.70355225 3357653.88287354 16.69235229 31 42 44
245784.61663818 3357656.12487793 16.33197212 36 45 50
245784.62329102 3357658.38732910 16.02268982 48 49 54
245784.15643311 3357656.50360107 16.95797348 59 75 90
245782.29425049 3357657.90795898 15.88915539 42 50 39
245783.30932617 3357657.23669434 16.62577248 38 49 45
245783.27648926 3357656.58081055 16.64462280 27 37 38
245782.75885010 3357657.32446289 15.82487392 44 44 46
245784.80895996 3357650.99786377 17.41956329 100 112 124
245784.76763916 3357651.23455811 16.74971771 12 20 23
245784.08374023 3357657.92938232 16.43635750 85 114 132
245784.53521729 3357657.93579102 16.54192543 79 93 104
245784.29736328 3357651.24957275 16.85952187 46 49 58
245784.46295166 3357651.37109375 17.66580009 75 88 94
245782.36859131 3357657.61450195 15.87092304 36 44 33
245784.22003174 3357657.39392090 16.64210510 67 79 75
245784.73522949 3357657.40863037 16.35951996 11 21 23
245783.67651367 3357658.44104004 16.37180519 49 57 59
245783.99066162 3357658.53881836 16.25329971 30 34 35
245784.21008301 3357652.72082520 16.32107735 132 148 163
245783.60455322 3357657.89251709 16.39894867 98 127 141
245782.96276855 3357657.38787842 16.22161865 23 29 29
245784.52313232 3357651.82733154 18.88340950 7 23 22
245783.72546387 3357656.67474365 16.67335892 37 58 77
245784.41583252 3357655.40466309 16.06596184 54 68 81
245784.67376709 3357651.07177734 16.85212517 105 125 132
245784.77130127 3357657.88391113 16.34852219 1 13 25
245784.34436035 3357657.06555176 16.68809891 53 72 86
245783.29797363 3357657.82019043 16.54967499 88 107 114
245784.70330811 3357656.51080322 16.44330978 22 31 38
245784.41693115 3357651.34613037 17.87327957 51 66 69
245784.26165771 3357654.64361572 16.02091026 27 32 35
245783.90930176 3357654.00805664 16.07456970 44 51 57
245783.84808350 3357654.95721436 17.04944801 11 22 26
245784.14666748 3357651.65234375 18.29904747 57 72 75
245784.38574219 3357655.46240234 16.35990524 51 61 71
245784.74884033 3357657.69787598 16.27983475 20 29 36
245784.77960205 3357656.97637939 16.31501579 13 22 27
245783.27319336 3357658.38140869 16.36476326 28 33 36
245782.96856689 3357657.87719727 15.76863575 43 47 48
245783.91375732 3357655.50439453 17.09564400 13 24 30
245783.07513428 3357657.62719727 16.16427422 10 15 18
245783.14190674 3357657.80944824 16.07788467 46 51 54
245783.76446533 3357653.33874512 16.41946602 56 65 70
245784.57153320 3357656.94824219 16.73350334 5 13 16
245784.24310303 3357651.26544189 16.99867821 15 18 23
245783.49884033 3357656.28753662 16.78836441 52 63 67
245783.95373535 3357654.46954346 17.25956726 26 36 37
245783.21777344 3357656.70037842 16.69504929 17 25 27
245782.57214355 3357657.61938477 15.81731701 36 40 41
245782.60479736 3357657.25988770 15.79553699 36 40 41
245783.72662354 3357656.34716797 16.71257591 21 38 46
245784.55670166 3357657.03698730 16.70717239 8 17 24
245784.52905273 3357656.55114746 16.71522331 15 24 29
245783.84277344 3357655.22332764 16.91802979 26 37 41
245784.17559814 3357655.44714355 16.84612083 16 25 30
245784.72882080 3357658.09289551 16.33766365 91 109 119
245783.40991211 3357657.81622314 16.51353264 101 130 144
