246144.30322266 3357453.84143066 15.03401089 16 19 24
246140.07824707 3357452.61102295 13.83001328 41 45 44
246140.67407227 3357452.93978882 14.02479458 40 44 45
246145.00659180 3357454.46218872 14.78610039 52 43 46
246147.19958496 3357455.55667114 14.03920269 71 71 71
246151.06115723 3357456.99389648 15.15721321 7 27 51
246142.30139160 3357453.36083984 14.99042320 53 54 56
246144.39697266 3357453.96661377 15.01140499 14 23 30
246140.54687500 3357452.57244873 15.54109764 47 60 51
246140.31726074 3357452.40902710 14.77942657 46 53 45
246140.24230957 3357452.45364380 15.18490982 44 53 50
246143.77551270 3357454.05419922 14.90895653 5 15 17
246142.10986328 3357452.70968628 14.67672825 43 49 47
246148.62536621 3357455.52981567 14.94672394 23 31 34
246148.51135254 3357456.01843262 15.01244259 23 28 32
246140.04492188 3357452.47213745 14.46972752 48 54 52
246148.91650391 3357456.43920898 14.88688374 19 29 30
246149.14038086 3357455.56625366 15.16358662 193 206 215
246147.64135742 3357454.84625244 14.62735271 183 190 198
246144.61083984 3357454.64916992 14.41367531 18 25 33
246145.60681152 3357454.62634277 14.80504799 90 95 98
246150.30847168 3357457.13812256 14.91756630 10 15 18
246140.71276855 3357452.52371216 14.52793217 83 85 72
246140.12036133 3357452.48400879 14.91080666 48 57 52
246140.71875000 3357452.54803467 15.48696232 50 66 56
246143.93835449 3357453.70074463 14.89914417 16 23 29
246150.93237305 3357455.89419556 15.26951504 32 33 35
246148.16552734 3357456.20504761 14.51671314 160 162 174
246139.83959961 3357452.53280640 14.69129467 41 50 49
246142.81005859 3357452.44653320 14.61375332 52 56 57
246144.63830566 3357454.80645752 13.96170235 26 34 36
246148.17260742 3357454.92111206 14.82819653 185 197 209
246142.11767578 3357452.23669434 14.79751587 27 32 35
246142.09155273 3357453.78762817 14.08567238 41 45 48
246144.96545410 3357453.64495850 15.08783913 17 18 20
246147.18945313 3357454.46322632 15.07280827 45 47 46
246140.71044922 3357452.56744385 14.49163818 77 81 67
246145.27966309 3357453.98757935 15.06515789 150 161 163
246145.55432129 3357454.61022949 14.01482964 63 63 61
246145.36560059 3357453.55725098 15.01104641 108 116 119
246146.89099121 3357455.55895996 13.70824814 85 83 70
246149.97509766 3357457.19421387 14.38718319 16 20 23
246139.97827148 3357452.59585571 15.40688705 49 60 54
246148.64331055 3357456.48529053 14.65587330 177 184 192
246145.74645996 3357454.42813110 14.74942589 20 25 28
246139.75537109 3357452.66610718 15.53900051 43 53 52
246141.76672363 3357452.16680908 14.91067696 97 103 91
246140.84973145 3357452.38073730 14.65399647 90 93 84
246144.40222168 3357454.02307129 15.00153542 16 26 36
246143.50915527 3357453.27850342 14.64319611 20 25 29
246150.39025879 3357457.32269287 14.61886120 193 201 212
246150.26623535 3357456.27969360 15.26751041 15 23 26
246147.50451660 3357454.92587280 14.56695080 186 190 201
246141.69885254 3357453.56146240 14.29722214 31 32 34
246144.67785645 3357454.75659180 14.12996674 34 39 43
246151.03784180 3357457.46392822 14.52661324 183 196 205
246145.97778320 3357453.71133423 14.75351143 35 36 38
246150.89501953 3357456.15682983 15.21063328 185 197 219
246147.11291504 3357454.51199341 14.77645302 63 64 66
246149.49560547 3357456.73190308 14.88616943 10 11 13
246141.69567871 3357452.95004272 14.82385254 15 19 22
246147.95043945 3357455.30920410 14.74845791 191 203 217
246140.10266113 3357452.56799316 14.26160812 42 47 50
246141.05810547 3357452.89410400 14.69181633 62 65 58
246144.36389160 3357453.81759644 15.03566360 20 24 25
246140.64282227 3357452.79577637 14.27444363 31 34 39
246148.43505859 3357454.62149048 14.96652126 163 168 171
246144.66870117 3357454.78079224 13.95313358 28 36 38
246140.48437500 3357452.52713013 14.08008194 46 47 39
246141.26416016 3357453.38208008 14.26535797 42 43 47
246143.42834473 3357452.86441040 14.66311550 32 33 35
246146.51818848 3357454.21224976 14.73699951 112 117 121
246151.31982422 3357456.11920166 15.15273380 24 27 32
246142.98937988 3357454.20928955 14.08200455 25 35 36
246145.83605957 3357454.41149902 14.71535206 25 26 28
246145.98278809 3357455.16561890 13.71400261 76 76 68
246147.56665039 3357455.86068726 14.51611137 186 189 196
246146.95422363 3357455.10211182 14.17673016 57 57 59
246141.23791504 3357452.62722778 14.74106121 132 135 124
246144.50280762 3357453.56546021 15.03522682 13 21 24
246147.87756348 3357456.10675049 14.42922020 23 26 31
246143.90478516 3357454.62252808 14.18008995 23 26 31
246149.26660156 3357455.58609009 15.20693588 147 163 176
246142.01269531 3357453.67370605 14.34549141 14 17 24
246143.63562012 3357452.70687866 14.76559067 42 43 45
246147.03491211 3357455.74420166 13.67481995 137 135 114
246147.40832520 3357454.53472900 15.16109371 52 54 51
246141.43505859 3357453.01104736 14.80174637 84 82 83
246142.36279297 3357453.49230957 14.96902943 91 89 94
246146.06872559 3357454.63626099 14.54683018 171 176 179
246144.38220215 3357453.74325562 15.03887177 16 20 21
246145.59594727 3357453.55801392 14.94182873 43 48 51
246141.00488281 3357452.83413696 14.64142323 93 100 84
246140.65405273 3357452.30670166 15.20546436 52 62 54
246142.30004883 3357452.32058716 14.96991730 31 36 39
246142.66882324 3357452.78256226 14.69296551 88 92 91
246141.48107910 3357452.41860962 15.27940083 35 42 35
246146.12963867 3357455.25570679 13.70991611 82 81 76
246150.21594238 3357456.15356445 15.26265144 19 27 30
246142.80456543 3357452.48370361 15.00724983 25 33 35
246145.03405762 3357454.59146118 14.63138485 20 27 35
246145.10314941 3357454.54217529 14.78404999 35 29 31
246148.48547363 3357455.96011353 15.00053978 29 34 38
246150.54516602 3357457.40365601 14.58269882 191 197 209
246145.54431152 3357453.83477783 14.96360111 34 42 44
246148.92846680 3357455.85906982 15.20838070 203 210 220
246149.89440918 3357457.10699463 14.07769680 26 27 31
246142.73413086 3357454.09484863 14.15393734 21 26 30
246149.15588379 3357455.62936401 15.18795490 200 214 223
246151.30212402 3357457.22830200 14.66566372 136 151 174
246141.57250977 3357453.01248169 14.82744217 59 58 63
246144.24206543 3357454.11318970 14.97830296 199 208 225
246142.52111816 3357453.09445190 14.84378147 76 80 79
246145.73034668 3357454.73229980 14.46072197 199 204 200
246150.66931152 3357457.44799805 14.27392197 177 180 187
246149.74291992 3357457.02499390 13.87300396 52 56 59
246143.97448730 3357453.55194092 14.83154488 9 12 19
246148.35791016 3357456.07531738 14.89595509 111 115 126
246148.05761719 3357455.56106567 14.76900196 194 208 221
246144.00195313 3357454.67883301 14.16062069 47 50 55
246148.89892578 3357456.28649902 15.12123775 100 103 110
246150.15356445 3357455.89437866 15.26554775 9 14 17
246144.73083496 3357454.49615479 14.59404850 0 2 5
246150.02954102 3357457.01199341 14.89185715 18 23 27
246142.18273926 3357453.51296997 14.90478039 10 13 18
246146.81713867 3357455.59039307 13.69401264 88 85 68
246147.57580566 3357455.92868042 13.79505920 62 62 64
246141.84118652 3357453.60940552 14.10830498 32 33 38
246147.64111328 3357454.82077026 14.62117386 183 192 199
246144.62438965 3357454.76223755 14.20446301 35 43 46
246147.66455078 3357455.97491455 14.30828667 27 31 34
246144.68493652 3357453.97451782 15.01575947 17 25 28
246147.39941406 3357455.71508789 14.46543121 206 207 212
246149.77819824 3357457.06942749 14.39729691 149 156 164
246145.59008789 3357454.36599731 14.85034275 24 35 39
246146.82531738 3357455.66525269 13.68448257 153 148 119
246148.79467773 3357454.85018921 14.75560474 29 42 48
246143.20520020 3357454.10195923 14.65434265 8 11 18
246148.87792969 3357454.88293457 14.82759380 40 51 53
246144.36303711 3357454.89721680 14.16988468 25 29 32
246140.82360840 3357452.29022217 15.21647263 43 53 45
246148.44067383 3357455.59381104 14.90269947 24 37 43
246147.92187500 3357455.03866577 14.78894901 188 198 210
246146.31530762 3357454.70559692 14.31328964 57 57 57
246149.39392090 3357456.61157227 14.97928619 20 24 27
246140.04296875 3357452.46035767 14.54508209 56 62 58
246141.94860840 3357452.50021362 14.65464973 53 58 61
246146.60449219 3357454.31231689 14.71788406 67 75 77
246140.45092773 3357452.39736938 15.02667332 44 54 46
246148.40393066 3357454.88436890 14.81130981 181 193 205
246141.56921387 3357453.50003052 14.00208759 30 31 33
246150.09313965 3357457.19552612 13.94097424 37 38 42
246141.08691406 3357452.32440186 15.23698330 45 54 49
246143.82397461 3357453.51318359 14.72934437 26 31 34
246143.75195313 3357453.22433472 14.58500767 18 23 27
246148.78894043 3357455.45449829 15.00100708 22 30 32
246148.20629883 3357455.25238037 14.77820396 193 209 222
246146.90441895 3357454.32702637 15.30234718 46 48 43
246147.17114258 3357454.76101685 14.61370182 54 55 57
246148.84997559 3357456.64102173 14.05511761 36 37 41
246144.33911133 3357454.06335449 14.99679852 62 75 91
246149.01196289 3357456.25576782 15.20475388 192 194 206
246143.97436523 3357453.58285522 14.85059929 6 11 17
246142.41577148 3357453.01657104 14.81949234 57 62 58
246145.38476563 3357454.38320923 14.92735004 12 27 30
246150.46179199 3357456.20993042 15.25504684 50 59 64
246149.17614746 3357456.53533936 14.91863823 10 19 18
246149.46777344 3357455.83148193 15.25868511 29 34 38
246149.45349121 3357456.89492798 14.39355183 138 147 154
246147.26794434 3357455.62164307 14.13873959 108 109 111
246142.39624023 3357452.84732056 14.70622730 74 81 74
246145.27319336 3357454.60891724 14.83494949 122 123 128
246144.15173340 3357452.98541260 14.94991875 22 26 25
246145.92810059 3357454.67300415 14.07284641 43 43 43
246143.32897949 3357453.11920166 14.69893360 2 7 10
246142.31237793 3357452.31924438 14.92888927 31 36 39
246148.11108398 3357455.06838989 14.80064011 182 191 206
246147.34887695 3357455.67727661 14.37324238 196 195 201
246146.07702637 3357453.61904907 14.92862129 56 57 52
246149.53405762 3357455.78472900 15.25568199 10 15 18
246141.09692383 3357453.25173950 14.56118965 25 31 31
246146.87268066 3357455.21347046 13.92712116 71 69 70
246145.70812988 3357454.23248291 14.81029606 18 23 29
246141.18530273 3357452.29498291 14.81610298 106 112 98
246140.88598633 3357452.17312622 15.04654312 35 40 34
246141.15112305 3357452.60919189 14.73398399 89 92 83
246150.74853516 3357456.99127197 15.23254490 201 217 233
246142.27294922 3357452.30636597 14.77454853 30 35 38
246151.60668945 3357456.87231445 14.23080063 29 38 47
246148.61791992 3357454.63690186 14.79599190 168 177 186
246145.32751465 3357454.94186401 13.78839207 50 55 48
246151.41613770 3357456.36059570 15.05742836 17 26 33
246141.99645996 3357452.17993164 14.89891529 23 31 33
246146.21923828 3357454.25485229 14.72808552 104 108 111
246146.49755859 3357454.87530518 13.84712505 40 44 43
246140.41223145 3357452.49667358 13.94081593 88 89 73
246149.34716797 3357456.69482422 14.83113480 166 167 172
246151.45446777 3357456.14035034 15.02876759 37 38 40
246143.31640625 3357452.57315063 14.78082848 39 40 42
246143.14648438 3357453.59616089 14.78034782 1 6 10
246148.90051270 3357455.93499756 15.21056843 204 211 221
246142.49694824 3357452.66729736 14.58256245 93 98 94
246144.45812988 3357453.60592651 15.03562737 15 23 25
246144.96813965 3357454.52258301 14.68391800 9 13 14
246143.53320313 3357452.61688232 14.76978111 42 46 47
246142.76147461 3357453.19653320 14.85254097 74 78 81
246142.91125488 3357452.77697754 14.70121861 97 98 103
246151.47778320 3357456.88058472 14.77274418 184 190 202
246142.96789551 3357453.11535645 14.80001831 97 98 103
246141.75292969 3357453.45437622 14.76268482 100 99 104
246147.31274414 3357455.75473022 13.77095318 71 72 74
246149.38110352 3357456.17358398 15.29285336 1 6 10
246143.51403809 3357453.84976196 14.79031754 49 60 64
246142.15747070 3357453.16693115 14.92415333 44 45 49
246149.65893555 3357456.76321411 14.97282410 16 22 20
246147.51123047 3357455.00543213 14.57319927 192 196 207
246141.58679199 3357453.53280640 14.57602596 36 37 41
246147.87207031 3357455.80175781 14.67208767 203 213 223
246149.77868652 3357455.83389282 15.25830936 19 24 28
246142.82360840 3357452.50775146 14.57325363 106 113 121
246141.27038574 3357452.42453003 15.30167103 44 53 48
246143.50866699 3357453.13577271 14.60890961 8 13 16
246143.26940918 3357454.09463501 14.68529701 32 36 47
246144.67944336 3357454.02246094 15.00556087 13 23 25
246150.90539551 3357457.48822021 13.88788700 52 51 57
246151.14001465 3357456.78378296 15.19589996 196 214 234
246143.46032715 3357452.59503174 14.75891113 41 42 44
246140.31201172 3357452.41955566 14.17344189 37 39 36
246140.25585938 3357452.40011597 14.38806629 42 46 49
246142.98254395 3357452.44671631 14.73810482 33 37 36
246142.99426270 3357453.80099487 14.82115459 87 94 100
246146.29479980 3357453.73406982 14.76448536 119 120 124
246141.36523438 3357453.43878174 14.24115753 68 72 73
246140.97595215 3357452.29968262 14.72100258 100 108 95
246140.41931152 3357452.41119385 15.12706947 44 57 50
246146.44787598 3357454.15991211 14.75038433 112 117 120
246149.82922363 3357456.56518555 15.23932552 184 190 202
246143.66259766 3357454.51010132 14.15453148 23 31 34
246146.98828125 3357454.33197021 14.99025822 30 32 31
246142.19287109 3357453.37692261 14.97554016 101 100 105
246148.39013672 3357455.43008423 14.84076118 8 23 30
246141.52978516 3357453.47943115 14.65167713 90 89 94
246144.65515137 3357454.74951172 14.19616127 36 44 47
246150.64465332 3357457.39111328 14.74225903 170 179 194
246140.14880371 3357452.58309937 13.80748940 39 40 34
246149.38000488 3357455.27005005 15.20918941 190 198 211
246141.12414551 3357452.47918701 15.36445808 49 59 51
246147.07824707 3357454.43743896 15.35570049 45 47 42
246149.15100098 3357456.75006104 14.37895679 137 140 147
246145.31213379 3357454.43856812 14.92695332 53 64 70
246149.30041504 3357456.71029663 14.78709126 202 202 210
246141.99621582 3357453.66296387 14.34588623 13 16 21
246145.51818848 3357453.63461304 14.96638012 80 85 89
246139.75048828 3357452.64495850 14.23992538 39 44 48
246147.42504883 3357455.80618286 13.80945778 61 63 62
246143.10107422 3357454.12435913 14.59866714 34 37 44
246142.08068848 3357452.34375000 14.57357216 30 34 37
246149.02221680 3357455.29055786 15.06765079 10 18 20
246141.58666992 3357452.34329224 15.19871712 45 50 46
246143.68957520 3357453.45349121 14.65918541 22 27 30
246151.41418457 3357456.43200684 15.00763512 19 26 32
246147.01635742 3357455.35784912 13.98715687 70 68 69
246144.74707031 3357453.56512451 15.07659340 18 22 23
246140.64941406 3357452.28329468 14.82194519 112 116 101
246143.50036621 3357453.79260254 14.77768230 81 92 96
246145.33007813 3357454.35192871 14.93974876 46 59 67
246150.84619141 3357456.09301758 15.21129704 174 185 205
246143.96118164 3357454.56698608 14.40646744 25 29 38
246140.21240234 3357452.49371338 14.28649807 39 43 44
246148.40039063 3357456.09552002 14.91521263 169 173 184
246145.66455078 3357454.65109253 14.21615410 67 67 65
246148.67016602 3357454.55685425 14.91335106 38 42 43
246149.02978516 3357455.16842651 15.03553200 18 28 30
246140.91833496 3357452.63162231 14.62425423 50 51 43
246143.91821289 3357452.96420288 14.62800789 55 61 61
246141.96582031 3357453.67633057 14.19657135 29 34 38
246144.13281250 3357453.56594849 14.95430088 138 138 146
246143.32360840 3357454.40206909 14.13983536 25 33 36
246143.07873535 3357452.67980957 14.64576626 105 108 113
246149.09960938 3357455.50848389 15.13853073 197 203 215
246147.35705566 3357454.97372437 14.52672577 175 182 190
246145.39526367 3357454.61145020 14.86894512 171 178 186
246141.00988770 3357452.47094727 14.69802189 68 73 67
246147.47985840 3357455.16952515 14.58579636 191 200 207
246142.50073242 3357452.96936035 14.79456425 91 93 92
246141.88610840 3357452.41360474 14.66915607 38 46 49
246149.18798828 3357455.26470947 15.12892914 151 160 169
246146.80285645 3357454.73159790 14.41222668 41 45 46
246147.29016113 3357455.00665283 14.50967503 39 43 44
246141.99279785 3357452.23330688 14.69408798 30 35 38
246145.19348145 3357454.65206909 14.32910347 101 102 106
246140.27978516 3357452.43045044 14.98777962 49 58 53
246140.00671387 3357452.47451782 14.55906010 55 59 58
246151.49865723 3357456.58087158 14.84892178 48 53 56
246144.67407227 3357453.55490112 15.06489849 17 25 27
246147.88342285 3357454.77648926 14.80084896 179 188 195
246141.75219727 3357452.36654663 14.71245003 37 46 45
246142.34631348 3357452.66156006 14.58007431 55 57 54
246144.21093750 3357454.40063477 14.69031620 0 0 2
246141.73632813 3357452.22940063 15.01450062 119 125 111
246148.13464355 3357455.26815796 14.77788925 186 200 213
246141.74230957 3357452.21414185 14.98275661 122 128 114
246149.82092285 3357456.72213745 15.16049957 168 171 178
246148.56579590 3357455.66311646 14.96354389 12 21 26
246142.46435547 3357453.59542847 14.93553352 14 18 27
246142.98962402 3357452.81384277 14.70305347 100 101 105
246145.86730957 3357453.80819702 14.74013805 23 26 31
246140.75903320 3357452.44332886 14.60728168 70 72 58
246151.11437988 3357457.44757080 14.35928059 132 149 156
246145.37084961 3357454.73559570 14.53010178 162 166 167
246151.30541992 3357456.05331421 15.17833805 36 37 39
246146.74060059 3357455.03231812 13.91452980 53 55 52
246144.53308105 3357454.49328613 14.58028221 14 21 31
246149.15771484 3357456.46316528 15.05510712 14 23 22
246150.58093262 3357456.39916992 15.25874138 195 206 224
246150.82202148 3357456.19348145 15.21949577 184 199 222
246144.12927246 3357453.55639648 14.94739342 145 145 153
246148.68188477 3357454.80258179 14.73878860 21 34 42
246146.59460449 3357453.90823364 14.92753506 53 55 50
246148.54870605 3357456.43392944 14.68595695 178 182 191
246146.57958984 3357455.28732300 13.77589226 82 84 83
246145.81909180 3357454.63516235 13.98759270 42 42 40
246142.44616699 3357453.43988037 15.00720310 49 50 55
246142.04003906 3357453.62475586 14.54304695 13 14 18
246142.81542969 3357454.03579712 14.52860165 12 17 21
246150.90454102 3357456.70703125 15.23928833 195 212 230
246141.37036133 3357452.29052734 15.10430431 52 57 53
246146.73107910 3357454.31967163 14.73112202 48 54 54
246143.37670898 3357454.15762329 14.70169067 33 40 46
246140.76452637 3357452.99826050 14.17433357 31 35 36
246143.81958008 3357452.79055786 14.85700989 46 50 49
246147.64514160 3357455.72271729 14.62048626 198 205 215
246139.95031738 3357452.64779663 14.11071301 43 48 51
246141.30517578 3357453.41268921 14.13872242 79 83 84
246142.51660156 3357452.38372803 14.82647133 29 35 35
246147.89648438 3357455.18545532 14.75249004 187 199 213
246142.79553223 3357452.55877686 14.59183884 97 102 106
246143.83752441 3357452.86550903 14.64635277 19 28 25
246144.04089355 3357453.58175659 14.89526463 53 56 65
246142.17431641 3357452.26220703 14.77868843 29 34 37
246141.60266113 3357453.53842163 14.32360458 35 39 42
246144.61657715 3357454.74169922 14.29355335 42 50 53
246144.12695313 3357454.26824951 14.85724735 5 0 1
246142.90881348 3357452.50579834 14.62152481 103 108 111
246147.54760742 3357455.85317993 14.04516411 27 27 29
246145.78344727 3357454.10293579 14.77034378 29 34 37
246142.70568848 3357452.56246948 14.57703114 94 100 100
246150.06823730 3357456.17990112 15.26446342 30 37 43
246146.56420898 3357454.64614868 14.53123283 96 101 105
246148.87231445 3357455.02746582 14.86727333 13 28 31
246148.71740723 3357456.38980103 14.84789181 134 135 140
246145.97668457 3357454.29635620 14.72289276 29 30 32
246148.78063965 3357454.87396240 14.75506783 29 42 48
246148.99291992 3357455.76306152 15.19429684 197 203 215
246147.64672852 3357454.93371582 14.65081120 186 195 204
246149.68798828 3357457.01577759 14.52049160 148 157 162
246140.27612305 3357452.47332764 15.25868607 47 56 53
246143.06445313 3357454.24368286 14.22537613 21 29 32
246149.52758789 3357456.76684570 14.87318134 12 13 15
246143.51892090 3357452.61148071 14.79903126 44 48 49
246149.99597168 3357456.35256958 15.26579475 18 27 32
246145.43981934 3357454.68426514 14.81523514 158 161 166
246150.45080566 3357457.36718750 14.55788517 196 202 214
246145.90808105 3357454.69018555 14.14411831 39 37 38
246142.43664551 3357452.33035278 14.62134647 34 39 43
246149.35852051 3357456.53506470 15.09634113 8 13 16
246140.07995605 3357452.59686279 14.03262329 38 43 46
246142.19616699 3357453.76263428 14.40415382 13 18 22
246143.17517090 3357453.53436279 14.76718330 11 16 20
246142.82617188 3357453.38891602 14.87321568 67 70 75
246150.37426758 3357457.12451172 14.98948669 12 18 18
246145.33190918 3357454.64675903 14.18950748 91 92 94
246143.10327148 3357453.89782715 14.75203323 43 47 50
246149.76196289 3357456.51220703 15.23688507 199 205 217
246151.17272949 3357457.04840088 14.99590683 11 21 33
246146.98803711 3357455.26470947 14.05528164 71 71 71
246149.23132324 3357455.73199463 15.23386669 97 115 125
246142.26672363 3357453.84231567 14.35820484 25 30 33
246144.16772461 3357453.40762329 14.91168213 142 143 148
246149.08105469 3357456.71817017 14.35207081 151 152 157
246150.62695313 3357456.82687378 15.27476311 195 214 231
246142.37622070 3357453.57870483 14.91220093 3 8 14
246141.92651367 3357453.19180298 14.92831802 62 62 64
246147.81091309 3357454.63232422 15.30582333 40 45 41
246147.66516113 3357455.35263062 14.64545631 190 204 215
246141.99401855 3357452.52233887 14.64065170 52 58 58
246146.46557617 3357454.33584595 14.73038292 105 113 115
246150.85009766 3357457.34768677 14.95157051 197 218 237
246141.76257324 3357453.40841675 14.81079388 7 11 14
246150.73327637 3357457.05429077 15.21003723 201 216 235
246148.55017090 3357456.45230103 14.08725643 44 45 47
246147.51208496 3357455.07015991 14.58286572 190 199 208
246144.50988770 3357454.56472778 14.50048447 83 93 105
246149.42138672 3357455.59448242 15.22924709 27 41 52
246149.97265625 3357457.06771851 14.75871944 195 202 212
246148.56835938 3357454.80581665 14.76061058 143 159 174
246150.73999023 3357457.45883179 14.42474365 180 179 187
246149.95458984 3357456.52288818 15.26827431 7 12 18
246149.59716797 3357456.98291016 14.18312263 158 159 163
246140.06909180 3357452.58062744 15.43959045 51 60 55
246151.46923828 3357456.55999756 14.89024830 57 62 65
246141.40856934 3357452.99127197 14.78907681 120 120 120
246141.67065430 3357453.57385254 14.41095066 28 32 33
246150.81164551 3357455.91784668 15.20598507 160 167 177
246142.92468262 3357453.89971924 14.74525928 19 22 29
246150.67114258 3357456.59429932 15.25975609 191 208 228
246140.76562500 3357453.05999756 14.01936054 40 42 41
246148.33532715 3357456.35366821 13.97721863 52 51 56
246144.43896484 3357453.76837158 15.03850365 14 20 20
246147.76452637 3357455.33056641 14.68130016 188 204 217
246149.91137695 3357455.94821167 15.26454353 36 41 45
246147.55114746 3357454.55477905 15.18756771 48 52 51
246140.40332031 3357452.52426147 15.41854286 48 57 52
246144.12792969 3357453.84124756 15.02071667 141 145 154
246142.36035156 3357452.33605957 14.75647163 30 35 38
246143.86889648 3357453.16397095 14.58156395 33 43 42
246147.92822266 3357456.08514404 14.52649879 184 188 199
246146.72778320 3357454.09912109 15.11904049 54 55 50
246145.22546387 3357454.63537598 14.24205112 98 99 101
246150.36267090 3357457.12191772 14.98414993 12 18 18
246139.77050781 3357452.56237793 14.69126129 44 53 52
246143.13256836 3357452.60485840 14.63592625 142 146 147
246141.41125488 3357453.42218018 14.61111164 10 14 17
246147.88281250 3357456.06283569 13.96566868 44 43 48
246142.01977539 3357452.21282959 14.71986103 34 40 40
246143.38488770 3357453.52017212 14.72946644 73 80 88
246140.13513184 3357452.41448975 14.57538891 52 62 54
246143.00903320 3357453.97128296 14.68067837 7 10 15
246150.40637207 3357457.34701538 14.05262852 18 22 25
246150.35668945 3357457.21112061 14.84914398 196 203 211
246140.07580566 3357452.59970093 15.49725056 51 62 56
246147.25427246 3357454.74383545 14.62122059 52 53 55
246148.04443359 3357455.81072998 14.74547958 202 215 231
246147.05065918 3357454.37042236 15.07210732 32 36 35
246147.17895508 3357454.89398193 14.51717281 47 49 48
246150.62792969 3357457.34078979 14.86001778 197 207 219
246142.32812500 3357453.56488037 14.90934563 4 9 15
246146.34545898 3357454.70278931 14.40857029 52 56 59
246141.42407227 3357453.47241211 14.43117142 13 14 18
246142.56933594 3357453.36123657 14.96028996 50 56 56
246150.27233887 3357457.26849365 13.85762882 36 40 43
246151.07739258 3357457.44345093 14.66868591 47 64 72
246142.18457031 3357452.28118896 14.69293785 28 34 34
246142.27429199 3357453.79257202 14.50092220 13 16 21
246147.21240234 3357454.68417358 14.67520618 50 51 53
246143.30419922 3357452.64849854 14.65763092 143 144 146
246140.76318359 3357453.11166382 13.88813877 57 57 57
246139.91625977 3357452.66766357 14.02734947 40 48 51
246146.86486816 3357454.26718140 15.13031197 57 59 58
246147.25366211 3357455.62423706 14.02164841 77 79 78
246151.15258789 3357456.60061646 15.19834805 194 212 232
246151.25231934 3357456.88555908 15.05622768 21 34 42
246148.95397949 3357455.27999878 15.00901890 10 18 20
246150.31945801 3357457.01980591 15.10925388 77 82 85
246141.00036621 3357452.18688965 14.79342937 117 124 108
246145.40136719 3357454.74404907 14.60801506 147 148 152
246145.15722656 3357454.67330933 14.60431862 120 133 150
246148.81433105 3357455.30276489 14.94964314 21 31 33
246142.31469727 3357452.76266479 14.65403366 41 47 43
246151.49353027 3357456.52847290 14.87486649 26 31 34
246149.41882324 3357455.12487793 15.23569775 96 101 107
246142.34875488 3357453.91500854 14.42220402 22 26 29
246148.60742188 3357455.45223999 14.91937160 20 30 32
246143.34277344 3357454.35708618 14.41046619 16 24 27
246139.67834473 3357452.59793091 14.52028751 36 42 42
246151.19592285 3357456.82669067 15.14694405 10 31 48
246146.33728027 3357453.69699097 14.85368252 34 34 32
246141.98583984 3357453.72341919 14.03765011 43 46 51
246144.56201172 3357454.81405640 14.12818146 19 24 27
246150.35998535 3357455.91714478 15.24729824 9 15 15
246149.11083984 3357455.91583252 15.25704765 160 174 187
246141.08898926 3357452.28457642 14.77109623 92 97 90
246146.37109375 3357455.09814453 13.73167610 64 65 67
246144.91235352 3357453.83221436 15.07065773 20 24 27
246145.92248535 3357454.00848389 14.71244144 34 38 41
246149.60046387 3357456.94729614 14.61933041 177 184 192
246141.48156738 3357453.49707031 13.96638298 40 40 42
246147.14819336 3357455.46719360 14.11351109 60 60 62
246149.63525391 3357456.99325562 14.40400791 139 146 152
246146.27197266 3357454.23431396 14.73323059 104 108 111
246148.86254883 3357456.61727905 14.31534958 181 184 191
246144.92443848 3357453.73010254 15.08257580 21 22 26
246148.08166504 3357454.63534546 14.99812889 76 76 76
246147.42346191 3357454.67489624 14.66789341 58 60 59
246149.71179199 3357456.07080078 15.25853157 15 24 29
246148.60485840 3357456.22332764 14.97932339 64 69 75
246143.80053711 3357454.04748535 14.91778088 5 15 17
246142.98547363 3357453.75692749 14.84175205 81 88 94
246140.81494141 3357452.25003052 14.73787785 145 150 130
246139.90405273 3357452.59204102 15.21240139 48 59 53
246139.76770020 3357452.65209961 15.39090252 42 52 51
246141.90795898 3357452.20333862 15.06240368 50 60 52
246144.97497559 3357454.66018677 14.31479931 55 58 63
246149.07031250 3357456.71231079 14.38700771 134 137 142
246143.04260254 3357452.59664917 14.62624645 133 138 142
246142.20178223 3357452.34207153 14.54064178 27 31 34
246140.55798340 3357452.72271729 14.12737560 40 40 42
246147.31604004 3357454.88308716 14.53320408 38 42 45
246143.92175293 3357454.26043701 14.81631184 7 4 11
246146.41088867 3357455.20712280 13.74162388 73 75 74
246141.89013672 3357452.40676880 14.66916084 38 46 49
246142.64526367 3357452.94760132 14.78201771 83 84 86
246144.92602539 3357454.11651611 15.01687336 68 77 86
246141.90588379 3357452.14782715 14.91317558 28 37 34
246149.00109863 3357454.82122803 14.96856117 40 46 46
246142.46643066 3357452.94726563 14.78284073 83 88 84
246143.16735840 3357453.96035767 14.73255920 20 25 29
246150.88000488 3357457.04156494 15.20548248 199 217 241
246142.71350098 3357453.40005493 14.93654442 58 59 63
246149.29406738 3357456.58248901 14.93336487 19 23 24
246149.35693359 3357456.86923218 14.06467628 40 41 45
246146.29028320 3357454.53219604 14.67712593 126 135 134
246149.28417969 3357456.61416626 14.88792801 11 15 18
246142.21728516 3357453.07101440 14.87003040 37 41 40
246147.12145996 3357455.70529175 13.70674706 75 75 67
246143.70300293 3357453.67782593 14.75329399 17 25 27
246147.66577148 3357454.61477661 15.40745640 41 43 40
246141.02282715 3357453.22152710 14.34105301 26 32 32
246149.41027832 3357455.74588013 15.25885105 13 24 28
246142.70141602 3357452.39633179 14.68127346 29 33 34
246143.01403809 3357452.80221558 14.69582558 99 98 104
246149.29479980 3357455.56506348 15.21478653 129 145 158
246146.77075195 3357455.23248291 13.83764267 74 73 71
246141.08862305 3357452.85516357 14.71002960 44 47 40
246146.68359375 3357454.11737061 14.80192947 75 76 78
246146.00646973 3357454.67227173 13.83789063 75 79 80
246143.42199707 3357453.88958740 14.75979233 21 31 33
246150.98339844 3357457.49487305 14.31790447 144 149 155
246149.87927246 3357456.19403076 15.26389217 7 15 18
246151.45886230 3357457.20788574 14.29446793 18 31 40
246148.13745117 3357454.68820190 15.30924797 50 52 51
246143.24230957 3357454.34500122 14.16888905 25 33 36
246145.02502441 3357454.69445801 14.16206264 45 48 57
246151.34497070 3357456.71060181 14.98596001 20 29 36
246143.47973633 3357453.95541382 14.78300762 20 31 33
246143.21582031 3357454.21386719 14.61888409 19 22 27
246148.76538086 3357456.22918701 15.08976078 107 112 118
246150.63293457 3357457.40191650 14.69824219 148 157 172
246142.95642090 3357453.97097778 14.66055775 19 20 25
246149.12170410 3357456.72848511 14.62025928 176 179 188
246147.56774902 3357455.38165283 14.62812996 194 202 213
246150.41540527 3357455.73693848 15.24749565 178 178 186
246141.46875000 3357452.33166504 15.02745342 74 79 72
246148.88562012 3357456.64559937 14.09348679 41 42 46
246147.14709473 3357454.46594238 15.28683472 49 51 46
246143.03869629 3357452.53646851 14.64750671 89 93 94
246148.24865723 3357454.94519043 14.81399536 184 196 208
246146.17285156 3357454.72171021 14.15441132 112 116 117
246142.71960449 3357454.08154297 14.36346531 21 29 32
246144.31433105 3357454.85391235 14.22647572 19 20 24
246147.25756836 3357455.67828369 13.85559368 69 73 72
246151.13159180 3357456.73150635 15.20651245 202 220 240
246144.06921387 3357454.07827759 14.96362782 190 191 211
246142.34472656 3357453.44638062 14.98392200 107 105 108
246149.05895996 3357456.70639038 14.41153049 129 132 137
246148.08227539 3357454.62683105 15.08238029 56 56 54
246142.60168457 3357454.01715088 14.41347313 14 19 23
246147.36718750 3357454.52902222 15.05125237 46 51 47
246148.05432129 3357456.27554321 13.80083656 76 77 79
246149.97814941 3357455.68466187 15.26400948 31 34 41
246150.39880371 3357457.37680054 14.26799965 11 19 22
246141.89624023 3357452.35049438 14.67158985 29 37 39
246149.33422852 3357455.75506592 15.25497246 5 20 25
246146.09936523 3357454.64819336 14.52930832 172 177 180
246148.62414551 3357454.78164673 14.75113297 160 174 187
246150.89636230 3357457.44274902 14.76907921 216 224 235
246144.40917969 3357454.42340088 14.66644001 0 0 0
246150.93322754 3357456.02822876 15.19804096 175 181 197
246143.79772949 3357454.53039551 14.34718609 15 18 23
246147.75744629 3357454.97583008 14.70464897 186 196 208
246148.69067383 3357456.03152466 15.10841084 17 25 28
246140.69848633 3357452.22250366 14.86613369 47 50 43
246147.12084961 3357454.77517700 14.59358692 44 45 47
246145.11120605 3357454.66027832 14.47449589 104 110 122
246145.35449219 3357454.63427734 14.33019161 116 118 115
246141.39099121 3357452.73510742 14.73594570 29 35 35
246146.96105957 3357455.59100342 13.71897888 74 72 60
246142.34692383 3357453.78881836 14.60646534 19 20 22
246140.92712402 3357452.96166992 14.59910297 59 68 51
246144.10363770 3357454.18173218 14.92454815 166 154 176
246139.81738281 3357452.67706299 14.07097530 37 43 43
246144.73144531 3357454.74404907 14.07293987 26 31 35
246144.90759277 3357454.60665894 14.48634148 92 99 117
246143.56018066 3357454.43771362 14.37412167 18 26 29
246148.72656250 3357454.67959595 14.75960255 175 186 192
246140.50537109 3357452.53637695 14.17753506 58 59 53
246147.52319336 3357455.75711060 14.56749344 196 199 208
246148.67102051 3357454.55743408 14.80731964 102 106 109
246145.87841797 3357454.64620972 13.98209190 59 59 57
246144.24096680 3357453.84924316 15.03298569 65 68 73
246145.59399414 3357454.61068726 14.12493992 69 69 67
246143.43859863 3357453.33374023 14.67501545 42 49 57
246139.66833496 3357452.67837524 15.41779041 40 50 49
246150.17053223 3357456.32846069 15.26807785 16 24 27
246149.11718750 3357456.81030273 13.91521168 78 79 81
246147.28137207 3357454.52471924 15.06408024 49 54 50
246143.96826172 3357453.63223267 14.87707710 7 15 18
246144.09655762 3357454.01757813 14.99845314 192 199 217
246140.36071777 3357452.42779541 14.00942802 87 90 73
246146.61474609 3357454.85070801 13.93958378 38 40 39
246142.18066406 3357453.79800415 14.29305935 24 29 33
246143.21667480 3357453.79415894 14.77948952 0 6 8
246144.08544922 3357454.72457886 14.24551964 38 41 46
246148.01135254 3357454.63040161 14.96653271 95 97 96
246145.29174805 3357454.24105835 14.98275661 122 135 141
246150.56274414 3357455.74670410 15.26495457 37 38 42
246150.30297852 3357456.10162354 15.25593376 31 41 43
246143.56530762 3357453.46960449 14.66922855 19 27 30
246139.83312988 3357452.66687012 14.09292984 38 44 42
246140.67907715 3357452.87854004 14.18923664 29 35 35
246149.14489746 3357456.60119629 14.82337666 176 179 186
246145.34375000 3357454.18927002 14.99130726 113 126 132
246148.46789551 3357456.37957764 14.37531376 121 122 127
246150.65673828 3357456.33090210 15.24621391 192 204 226
246143.23510742 3357452.89318848 14.69657326 108 109 113
246144.87744141 3357454.61352539 14.45698738 89 96 112
246141.59716797 3357452.77618408 14.72778893 40 46 46
246146.06457520 3357454.73641968 14.24162483 41 43 42
246142.75134277 3357454.10314941 14.02192211 39 47 50
246141.54028320 3357452.45828247 14.75313377 31 37 35
246148.16577148 3357456.20574951 14.52832699 150 154 166
246145.90112305 3357455.05535889 13.72500134 61 62 56
246149.51428223 3357456.92968750 14.32550240 172 179 187
246149.22778320 3357456.61380005 14.85604000 56 60 63
246150.86242676 3357456.60815430 15.24255371 126 141 162
246141.01403809 3357453.20056152 14.43656254 25 29 28
246147.67211914 3357455.61801147 14.63168240 198 206 217
246148.82360840 3357456.59671021 14.32512760 177 180 187
246146.83789063 3357455.35409546 13.80171490 74 75 70
246145.41345215 3357454.92150879 13.80649471 47 52 48
246141.04187012 3357452.94116211 14.68594933 73 76 67
246148.88232422 3357455.45562744 15.04902554 7 16 13
246151.03662109 3357456.36575317 15.21639442 182 199 219
246151.06188965 3357456.69683838 15.22083569 195 210 231
246148.85217285 3357456.34381104 14.98240852 13 23 24
246142.45178223 3357452.35781860 14.76493549 28 34 34
246143.72131348 3357453.07687378 14.53979015 19 29 30
246143.26794434 3357454.18542480 14.65004063 66 69 76
246141.81982422 3357452.42755127 14.67429829 44 52 55
246146.09204102 3357453.84634399 14.69733620 27 31 34
246150.00585938 3357456.36059570 15.26613617 18 27 32
246143.70727539 3357454.17617798 14.83410454 51 60 69
246143.00085449 3357452.75775146 14.68260765 95 94 100
246142.87377930 3357453.91497803 14.71379948 12 13 17
246148.29321289 3357455.48995972 14.82428169 23 37 46
246151.39807129 3357457.27233887 14.27411747 16 27 33
246147.65307617 3357454.81121826 14.62671089 185 194 201
246147.60485840 3357455.38232422 14.63544655 193 203 215
246148.54821777 3357456.35833740 14.84057045 137 139 151
246140.89941406 3357453.20565796 13.88750839 54 54 56
246151.66296387 3357456.46878052 14.65927982 94 101 111
246141.48803711 3357453.39526367 14.70364380 22 23 27
246145.93847656 3357455.06549072 13.72362137 47 49 44
246149.23596191 3357456.81246948 14.07079983 39 40 44
246141.44165039 3357452.39743042 14.85350704 120 126 116
246146.22875977 3357454.36392212 14.72858238 115 121 119
246141.10998535 3357453.10379028 14.75059414 127 127 125
246140.67309570 3357452.27581787 14.78144932 140 148 127
246146.83435059 3357454.92465210 14.15909290 43 47 48
246149.89379883 3357457.03366089 14.74613571 198 205 215
246147.38842773 3357455.65304565 14.48694134 157 162 165
246145.86572266 3357454.95925903 13.73741627 56 57 51
246150.66296387 3357457.07986450 15.17154694 204 220 236
246151.29528809 3357457.06945801 14.87631035 7 14 20
246145.83959961 3357454.74246216 14.46765614 214 218 219
246143.10217285 3357454.26727295 14.23836899 17 25 28
246148.90637207 3357455.02160645 14.89178276 14 28 31
246149.91699219 3357456.16253662 15.26422405 5 12 18
246150.03576660 3357457.22485352 14.23975372 29 33 34
246144.52868652 3357453.80279541 15.03505993 10 18 20
246146.00427246 3357454.74374390 13.79371548 61 62 64
246149.46997070 3357455.56994629 15.23714161 17 30 38
246145.50134277 3357454.78851318 14.54735661 178 179 174
246143.03723145 3357454.23187256 14.13522434 25 35 36
246141.19396973 3357453.33944702 14.31543159 27 31 34
246146.86462402 3357455.08554077 14.03803730 50 54 53
246151.37121582 3357456.28570557 15.08559227 65 72 82
246146.93505859 3357454.71649170 14.52678204 35 39 38
246145.52539063 3357454.04156494 14.93951607 16 24 27
246148.52429199 3357455.68081665 14.95454788 14 23 28
246140.73071289 3357452.52722168 15.45864487 56 69 59
246149.52233887 3357456.89700317 14.66611671 176 185 192
246142.34997559 3357452.52194214 14.48845482 45 47 42
246140.83203125 3357452.97747803 14.44808292 39 43 42
246147.80187988 3357454.64151001 15.34925175 40 45 41
246151.40136719 3357456.90844727 14.85962868 24 29 35
246140.97839355 3357452.16769409 15.04361725 28 33 27
246147.15795898 3357455.13540649 14.41506100 59 60 62
246144.58703613 3357454.50967407 14.55697441 53 61 72
246147.36926270 3357454.93057251 14.53362560 162 166 175
246146.49841309 3357454.43469238 14.70499325 86 94 97
246148.01879883 3357454.63629150 15.16709614 52 52 50
246142.79040527 3357452.82971191 14.72785950 97 98 102
246144.96276855 3357454.69656372 14.14721298 42 47 53
246142.33752441 3357453.32299805 14.98195267 40 42 39
246146.50329590 3357454.69735718 14.40363884 58 62 65
246145.54516602 3357454.67495728 14.80829430 179 184 188
246146.56689453 3357454.77667236 13.96737862 35 39 40
246139.66552734 3357452.62356567 14.96175289 41 50 45
246151.19177246 3357456.59396362 15.18183041 198 216 238
246140.33801270 3357452.55950928 15.49134731 46 55 52
246142.42919922 3357452.33941650 14.46702003 21 25 28
246144.11987305 3357453.45639038 14.89594746 68 73 76
246141.50451660 3357453.35894775 14.74201870 75 73 78
246142.39270020 3357453.96527100 14.37375546 23 27 30
246140.00207520 3357452.68041992 15.69399548 46 57 51
246146.49597168 3357453.80078125 14.94808674 40 40 38
246141.83056641 3357453.48126221 14.75681782 93 92 97
246143.16040039 3357452.94763184 14.72396946 118 121 126
246143.01525879 3357453.98059082 14.67634869 7 10 15
246142.72729492 3357453.23495483 14.86814213 76 77 81
246145.75549316 3357454.65185547 14.68917656 119 125 125
246148.46008301 3357456.34982300 14.84086800 210 214 225
246148.47595215 3357454.64862061 14.88563824 168 179 185
246141.30651855 3357453.35321045 14.61583138 19 20 24
246151.54541016 3357456.10800171 14.93810844 38 38 38
246146.60717773 3357454.78408813 14.00381374 42 44 43
246140.51428223 3357452.63613892 14.04087448 40 40 38
246141.13024902 3357452.44387817 15.33168316 46 56 48
246140.19812012 3357452.38937378 14.56285191 55 65 56
246140.87072754 3357452.50405884 15.41728687 52 63 55
246140.78820801 3357452.94317627 14.38871574 31 36 39
246140.54516602 3357452.31585693 15.08181000 50 61 53
246151.32727051 3357456.59292603 15.05352116 35 52 62
246142.00451660 3357453.68588257 14.28142452 23 26 31
246151.37292480 3357456.81286621 14.93141174 11 19 22
246142.98901367 3357453.73489380 14.84056091 96 101 107
246144.70727539 3357454.33233643 14.78139973 108 100 113
246140.09594727 3357452.44528198 14.66754913 53 63 54
246149.73132324 3357456.82739258 14.92960453 17 18 20
246143.63720703 3357452.91711426 14.57790661 26 30 31
246146.39758301 3357454.03701782 14.74039173 104 109 113
246141.08630371 3357452.71505737 14.69937420 55 57 52
246148.06860352 3357456.25463867 13.82191944 68 69 71
246139.69982910 3357452.58981323 14.56600475 39 45 45
246149.69921875 3357457.01461792 14.01794052 21 27 25
246151.06286621 3357456.35812378 15.20814610 186 203 221
246151.37231445 3357456.45437622 15.05555916 12 23 29
246148.22802734 3357455.81491089 14.82679939 18 28 37
246147.37231445 3357455.78533936 13.80298615 71 71 73
246146.76403809 3357455.22848511 13.83580112 74 73 71
246150.64892578 3357457.15078735 15.10444260 200 214 227
246141.34167480 3357452.53619385 15.41485596 44 54 46
246143.35632324 3357454.38421631 14.31429005 19 27 30
246143.50561523 3357454.43133545 14.31634426 22 30 33
246140.15197754 3357452.48587036 15.20050430 43 52 47
246147.06420898 3357454.59378052 14.66563797 49 53 56
246145.36279297 3357454.64801025 14.83604717 145 148 155
246150.31384277 3357457.29449463 14.59390545 198 206 217
246143.68432617 3357454.24273682 14.75253487 23 30 36
246141.27465820 3357452.53411865 15.42282581 44 54 46
246141.41064453 3357452.31246948 14.93359852 75 78 71
246148.29833984 3357456.27209473 14.69463825 164 171 179
246145.83728027 3357453.67330933 14.81372738 21 25 26
246147.17993164 3357455.22799683 14.40397072 78 82 83
246145.24865723 3357454.72967529 14.01942253 31 35 34
246143.49401855 3357453.03155518 14.61022186 37 40 45
246151.21069336 3357457.42056274 14.27165413 66 85 92
246141.03051758 3357453.11264038 14.67146301 57 59 56
246142.41162109 3357453.14535522 14.87137890 56 56 54
246142.95056152 3357452.45776367 14.81316757 35 40 43
246141.89819336 3357453.62774658 14.34513760 22 25 30
246150.07104492 3357455.83959961 15.26705074 5 14 13
246143.62878418 3357454.18472290 14.79740906 27 34 44
246147.39416504 3357455.62689209 14.49980927 95 100 104
246148.53381348 3357456.42330933 14.18327808 152 151 159
246151.49804688 3357456.52804565 14.86991692 16 19 24
246150.06774902 3357455.61380005 15.28153706 188 191 200
246148.77612305 3357455.12231445 14.84750748 20 34 35
246140.87866211 3357452.22326660 14.74308109 141 149 128
246143.58679199 3357454.29116821 14.64384365 23 31 34
246146.06384277 3357454.56027222 14.60012436 130 135 139
246149.76196289 3357457.01651001 13.97765541 23 29 29
246146.96301270 3357455.35751343 13.87679482 72 70 71
246143.20129395 3357453.99331665 14.71969414 19 24 30
246146.30297852 3357454.03390503 14.72454071 111 116 120
246145.73791504 3357453.90069580 14.81973171 25 29 32
246139.91760254 3357452.51229858 14.74299812 42 51 50
246149.97021484 3357455.96783447 15.26583099 32 35 42
246148.80273438 3357456.58029175 14.43473911 127 130 137
246147.47570801 3357454.63009644 14.70380211 63 63 63
246141.90124512 3357452.15225220 14.99441147 40 49 46
246150.32043457 3357456.06579590 15.25316238 7 17 19
246142.93957520 3357453.78356934 14.84406948 66 75 80
246147.29309082 3357455.83892822 13.72696304 92 91 89
246147.44262695 3357454.65081787 14.68785000 64 64 64
246146.14367676 3357454.93856812 13.73948574 26 30 29
246142.30493164 3357452.31741333 14.85516834 32 37 40
246145.13964844 3357454.58441162 14.77437019 18 14 15
246150.37768555 3357457.28237915 14.71457386 189 199 209
246144.41284180 3357454.73190308 14.39957428 50 59 68
246150.01513672 3357457.20776367 14.20831203 32 33 35
246142.78198242 3357452.84561157 14.73503876 100 101 105
246148.13684082 3357456.18731689 14.57634735 155 159 171
246140.66870117 3357452.42181396 14.57520103 76 76 68
246140.46289063 3357452.58865356 13.94591045 41 41 33
246149.73962402 3357456.84869385 14.90533829 13 14 18
246149.71569824 3357456.87014771 14.86034393 90 95 99
246145.66503906 3357454.79147339 14.60607910 174 180 180
246147.88415527 3357455.36511230 14.71994019 189 201 213
246145.46997070 3357454.90426636 13.81682396 43 44 46
246150.46459961 3357456.30239868 15.26010323 114 123 132
246149.64245605 3357455.95181274 15.25547886 11 19 21
246144.71850586 3357454.23843384 14.87835121 179 189 214
246143.71801758 3357454.51947021 14.22607613 21 26 30
246151.30993652 3357457.06161499 14.86951160 13 18 24
246145.16564941 3357454.49478149 14.85598469 159 155 170
246143.21923828 3357453.14743042 14.73099232 124 127 134
246143.82092285 3357452.82192993 14.77172756 29 33 32
246150.27709961 3357457.28762817 14.04641628 30 33 40
246145.71826172 3357454.59146118 14.73677063 33 39 39
246145.76403809 3357453.85382080 14.80793285 20 25 28
246145.83068848 3357454.74017334 14.41462231 204 210 208
246142.09985352 3357452.42700195 14.57069397 49 54 58
246144.31872559 3357453.39291382 14.99327946 140 141 146
246140.83581543 3357452.89819336 14.52154350 54 60 50
246147.79931641 3357454.74691772 14.71972179 185 194 201
246140.85266113 3357453.03530884 14.37303066 31 37 37
246151.39428711 3357456.40008545 15.06388855 13 24 30
246142.31286621 3357453.34194946 14.99253845 44 46 45
246140.62866211 3357452.27066040 14.91205978 36 38 33
246144.68469238 3357454.78234863 13.91176891 28 33 36
246142.63024902 3357454.02194214 14.42168522 14 22 25
246142.09545898 3357453.76876831 14.18994141 28 33 37
246148.74670410 3357455.89074707 15.12505436 12 17 23
246149.51000977 3357456.87265015 14.72665501 175 184 191
246150.82177734 3357457.03164673 15.21816540 190 207 227
246147.13317871 3357454.43728638 15.18325710 51 53 52
246150.14843750 3357456.85769653 15.20243740 214 223 232
246146.81555176 3357454.55831909 14.57664299 62 67 70
246147.28393555 3357454.53732300 15.39494419 49 54 48
246146.90979004 3357455.22317505 13.95150661 72 71 69
246140.89392090 3357452.69955444 14.59496403 43 52 25
246144.46850586 3357454.49154663 14.57868481 43 51 62
246149.01416016 3357456.74649048 13.96531296 56 55 60
246142.58972168 3357452.78225708 14.69209766 87 91 92
246141.73388672 3357453.13592529 14.89406490 83 83 85
246149.04113770 3357456.70138550 14.27818203 187 188 193
246147.13073730 3357455.39620972 14.16514206 61 61 63
246144.22790527 3357454.50570679 14.57548141 57 65 78
246145.64147949 3357454.90740967 13.77240086 44 45 40
246145.28991699 3357454.71060181 14.47294903 126 127 132
246139.85266113 3357452.63458252 15.49384689 44 55 51
246141.95800781 3357453.11578369 14.92501640 32 34 33
246143.92895508 3357454.24978638 14.83268356 6 1 7
246143.42163086 3357454.25283813 14.63216305 25 32 38
246148.50085449 3357456.28988647 14.90168667 58 61 70
246141.69470215 3357453.16656494 14.89247894 57 55 58
246145.98168945 3357454.35522461 14.71704769 31 32 34
246141.86730957 3357453.65698242 13.96104908 55 56 61
246149.87145996 3357457.09133911 14.57872105 179 188 195
246141.13073730 3357452.19238281 14.88798046 91 94 83
246150.62963867 3357457.43121338 14.03965569 30 31 35
246149.34729004 3357456.90625000 13.90889454 74 75 77
246150.52343750 3357455.69546509 15.29818916 29 30 32
246151.29016113 3357457.33551025 14.41198444 128 148 155
246150.44714355 3357456.07373047 15.24806023 10 18 20
246142.12316895 3357452.98068237 14.83989620 45 50 46
246140.21484375 3357452.38354492 14.54400253 50 60 52
246142.86450195 3357452.47915649 14.94925022 29 38 37
246147.71557617 3357455.96865845 14.08630562 34 35 39
246143.99792480 3357452.95687866 14.82424164 15 19 20
246144.53051758 3357454.65426636 14.43127251 30 36 48
246145.52954102 3357454.31243896 14.89872932 15 24 31
246140.46276855 3357452.80508423 13.86674881 48 52 51
246145.61950684 3357454.83276367 13.80777931 50 52 51
246150.00952148 3357455.46664429 15.31639481 77 80 85
246150.32055664 3357457.29260254 13.96068573 36 39 46
246150.87524414 3357457.48107910 14.54750156 137 134 143
246140.95166016 3357452.26104736 15.19126987 43 53 45
246146.38769531 3357455.49252319 13.73772812 136 129 110
246141.96777344 3357453.15423584 14.92846870 44 44 46
246151.15307617 3357456.92419434 15.11460304 8 26 40
246141.30004883 3357453.25564575 14.74577713 48 48 48
246151.72900391 3357456.35638428 14.54685402 132 140 142
246149.66101074 3357457.01718140 14.22556782 170 174 177
