245566.90368652 3357483.17349243 19.85035706 125 131 145
245563.58233643 3357483.99838257 20.66750336 132 139 147
245565.29656982 3357483.09362793 19.58397865 89 97 99
245564.98754883 3357484.95803833 19.78143311 63 68 71
245566.16094971 3357484.14547729 20.00120926 60 81 100
245566.65710449 3357483.90234375 20.12904358 171 180 195
245566.71423340 3357484.48858643 20.03138733 180 193 209
245564.09149170 3357483.05151367 19.28579712 18 19 23
245565.03320313 3357483.13082886 20.07486725 135 140 146
245563.32397461 3357483.23767090 20.08298683 18 18 16
245565.55615234 3357483.29501343 20.37820244 76 80 89
245567.33392334 3357484.55392456 19.66002274 127 126 132
245565.22076416 3357483.72012329 20.58441544 10 9 17
245567.46557617 3357483.56399536 19.58052826 126 127 132
245563.11657715 3357482.99395752 20.08526993 43 48 41
245565.67742920 3357483.47839355 20.38365173 46 52 64
245567.04754639 3357484.87210083 19.67666435 81 82 87
245563.45050049 3357483.74649048 20.76817703 93 94 98
245564.53509521 3357483.40353394 20.48134041 38 43 47
245565.01794434 3357483.07754517 19.33791161 13 19 19
245563.74822998 3357483.72335815 20.58594894 135 144 151
245564.44012451 3357484.77407837 20.48178291 4 8 11
245565.28448486 3357483.51284790 20.55058479 171 174 189
245565.58984375 3357484.36596680 20.40483284 28 43 62
245567.28857422 3357484.03457642 19.90493774 186 203 221
245565.85186768 3357483.33737183 20.25397682 74 83 88
245565.44891357 3357484.80990601 20.26574326 12 13 17
245563.69921875 3357483.11065674 19.86938477 52 60 62
245566.50909424 3357483.45318604 20.07582855 161 164 181
245565.38189697 3357484.67483521 20.50654030 166 168 181
245564.98223877 3357483.13916016 20.09990692 140 144 153
245567.17529297 3357483.24459839 19.86382103 143 147 158
245565.56243896 3357484.94799805 19.86771965 73 78 82
245566.88348389 3357484.91656494 19.69507408 15 16 20
245565.67907715 3357483.05166626 19.45964813 43 44 46
245564.22332764 3357485.04159546 19.73492622 28 30 29
245563.67187500 3357483.40643311 20.34098053 45 53 56
245564.59631348 3357483.09695435 19.76044273 63 70 76
245565.80529785 3357483.27984619 20.29141998 139 146 154
245565.84155273 3357485.15112305 19.40021706 21 24 29
245567.27862549 3357485.00354004 19.27524567 30 31 33
245567.02099609 3357483.36743164 19.93584251 176 184 207
245565.70971680 3357485.11392212 19.45255470 9 12 17
245567.23449707 3357484.88235474 19.32682228 16 17 21
245567.34112549 3357485.09704590 19.24164391 40 41 43
245565.76599121 3357483.50561523 20.22754478 59 66 74
245566.19415283 3357483.19818115 19.82715797 149 154 160
245567.51470947 3357484.15167236 19.65866089 126 130 139
245566.07592773 3357483.19729614 19.88642883 156 156 166
245563.95062256 3357483.10806274 19.91426659 96 101 107
245566.26000977 3357485.15618896 19.30330086 29 33 36
245566.91314697 3357485.02947998 19.24748993 18 22 25
245564.17077637 3357483.57537842 20.61182594 143 147 159
245564.03100586 3357483.07369995 19.43514824 20 23 28
245567.61163330 3357483.92987061 19.53089333 42 43 47
245565.26379395 3357483.56521606 20.57948685 115 117 130
245564.09130859 3357484.41143799 20.62791634 145 158 164
245566.13568115 3357483.49145508 20.04437065 72 76 79
245566.53717041 3357484.95874023 19.53611565 18 19 21
245564.26678467 3357483.10687256 19.48031998 26 27 32
245565.85418701 3357484.94952393 20.00501060 71 72 77
245566.77374268 3357484.56622314 19.99198914 182 195 211
245565.34246826 3357484.71997070 20.45281219 26 26 34
245563.83056641 3357483.13217163 20.03311539 92 99 105
245563.36737061 3357483.38510132 20.16730499 88 92 95
245567.45520020 3357483.93109131 19.81570816 146 153 169
245566.18292236 3357484.03942871 19.99615288 66 87 114
245564.80688477 3357484.06924438 20.54226112 12 20 23
245567.37365723 3357485.00891113 19.22876549 39 40 42
245564.10443115 3357484.85879517 20.19403648 78 88 90
245564.66851807 3357484.99444580 19.79156685 62 66 69
245563.85339355 3357484.28131104 20.61417389 145 154 161
245565.47027588 3357484.95016479 19.76327705 62 65 70
245563.78448486 3357483.51004028 20.50701141 125 134 141
245564.68481445 3357484.76779175 20.41552544 6 7 9
245565.22979736 3357483.10293579 19.96331978 109 114 120
245566.54541016 3357485.00692749 19.26496696 15 19 20
245564.24346924 3357483.11502075 19.80956078 81 86 92
245566.63720703 3357483.92318726 20.14142799 171 181 193
245567.44958496 3357483.86276245 19.77880669 99 107 120
245564.24151611 3357484.93060303 19.97833633 102 107 111
245566.39453125 3357484.11288452 20.19265747 47 49 64
245563.99926758 3357483.31811523 20.32023621 9 11 10
245566.20935059 3357483.22390747 19.94332886 133 135 147
245566.01702881 3357484.92736816 19.67518997 59 62 67
245565.20599365 3357484.16473389 20.55509758 12 17 21
245565.71630859 3357485.11123657 19.44671440 13 17 20
245566.42004395 3357483.24966431 19.80912781 145 151 165
245567.35705566 3357484.03082275 19.87625694 176 191 212
245565.82696533 3357484.95205688 19.78304672 69 72 77
245567.42175293 3357483.58309937 19.68931007 42 43 48
245563.56854248 3357483.58874512 20.43227005 135 144 153
245564.31823730 3357484.65191650 20.56263924 137 142 146
245566.77874756 3357484.62176514 19.97538185 179 191 207
245564.38305664 3357484.15823364 20.59613037 17 25 28
245564.55895996 3357484.04568481 20.54596901 8 13 19
245563.86376953 3357484.35256958 20.59766388 144 153 160
245565.50701904 3357484.84774780 20.15871620 6 10 13
245567.43945313 3357483.29782104 19.44868088 107 107 109
245565.77160645 3357483.17758179 20.26378250 6 7 11
245566.74163818 3357484.40469360 20.04582214 181 194 210
245567.66815186 3357483.97879028 19.42704964 44 45 47
245565.66119385 3357484.44656372 20.20857048 19 28 43
245563.35968018 3357483.29412842 20.11614609 87 87 87
245565.91143799 3357483.14685059 19.90909767 141 144 149
245565.40246582 3357485.00622559 19.56085587 46 50 53
245563.76934814 3357484.23870850 20.60300064 132 139 147
245564.46789551 3357483.15921021 20.09863853 126 130 139
245564.78961182 3357483.72933960 20.58812332 4 11 19
245567.37103271 3357483.35873413 19.64022827 140 138 149
245563.54125977 3357483.44042969 20.29741859 83 88 92
245567.44873047 3357483.95492554 19.82576942 170 179 194
245566.03265381 3357483.06784058 19.38957596 28 29 33
245565.91833496 3357484.67639160 20.17093468 69 70 74
245565.26354980 3357483.23449707 20.30447578 10 11 15
245565.77893066 3357484.47509766 20.08121681 22 26 35
245565.53857422 3357484.53744507 20.46158981 157 163 175
245565.80651855 3357484.95996094 19.43805504 27 30 35
245566.14862061 3357484.53787231 20.04298401 56 59 68
245567.36071777 3357483.09353638 19.22877502 33 32 37
245563.31579590 3357483.61767578 20.54646111 81 82 86
245564.77252197 3357484.79602051 20.25479507 7 11 14
245565.05261230 3357484.06423950 20.54092216 13 18 22
245566.19207764 3357484.23806763 20.02948189 56 69 85
245564.61523438 3357484.46853638 20.58563995 67 70 77
245564.99774170 3357484.79440308 20.29123306 13 17 20
245564.46337891 3357484.95980835 19.94653130 82 87 90
245567.00598145 3357483.51843262 19.96496391 185 192 218
245565.86651611 3357483.25283813 20.24493790 129 136 142
245564.90612793 3357483.18704224 20.20889091 37 40 45
245565.65075684 3357483.81329346 20.43567657 48 65 81
245566.12298584 3357483.15353394 19.64770317 132 135 142
245563.11737061 3357483.14175415 20.20248795 44 50 40
245563.73699951 3357483.30221558 20.24546432 13 19 19
245563.66839600 3357483.22677612 20.13522911 115 119 122
245567.12438965 3357483.06301880 19.58373451 109 109 119
245563.51434326 3357483.29965210 20.16282463 105 108 113
245565.61206055 3357483.75314331 20.53248405 111 129 143
245563.77667236 3357483.53869629 20.51851654 100 109 116
245564.79223633 3357483.10507202 19.53248596 64 69 75
245563.84930420 3357483.07955933 19.78067589 12 15 20
245567.34246826 3357483.19131470 19.45785713 38 37 42
245563.97808838 3357483.86825562 20.67511368 130 139 146
245563.73510742 3357484.24978638 20.59634972 133 137 146
245564.79754639 3357483.08535767 19.72986984 65 72 78
245564.94091797 3357483.59381104 20.60689735 88 91 98
245566.32153320 3357483.07580566 19.35476875 15 16 18
245567.12542725 3357484.90969849 19.39217758 28 29 33
245564.81304932 3357483.08251953 19.74752045 65 72 78
245564.54541016 3357484.90936279 20.07734108 141 146 150
245567.65649414 3357483.97024536 19.44119644 43 44 46
245564.61352539 3357483.26559448 20.30546761 10 14 13
245564.27734375 3357483.88641357 20.65163040 2 13 17
245566.45202637 3357484.50674438 20.11378860 209 216 226
245564.57458496 3357483.10864258 19.50090218 46 54 57
245566.15618896 3357483.21109009 19.90843964 155 158 167
245566.92718506 3357484.46429443 19.96564865 180 193 209
245565.51318359 3357484.15481567 20.60373688 184 193 210
245565.85650635 3357484.27392578 20.06358337 67 69 82
245564.76898193 3357483.11434937 19.45485306 34 39 43
245567.09783936 3357484.52105713 19.88578796 186 198 212
245564.05004883 3357484.39221191 20.62453270 142 153 159
245566.72698975 3357484.75659180 19.95162582 165 172 188
245567.27386475 3357484.18704224 19.87444687 188 203 222
245565.13201904 3357483.15460205 20.15599060 69 72 77
245565.48498535 3357483.28137207 20.37034607 10 15 19
245566.63439941 3357483.05694580 19.43637657 25 26 28
245564.66052246 3357484.61926270 20.58054352 126 129 134
245564.61291504 3357485.02786255 19.70357513 39 40 44
245565.69335938 3357483.17297363 20.26628304 10 11 13
245563.39807129 3357483.18066406 19.99855995 59 61 58
245567.61016846 3357483.97888184 19.54382896 37 38 42
245567.03509521 3357484.91497803 19.61073112 40 39 45
245563.71795654 3357483.50509644 20.46544266 135 142 148
245563.52166748 3357483.97479248 20.75341225 131 134 139
245566.78887939 3357484.54660034 19.99348068 181 194 210
245566.08306885 3357484.71932983 20.12631798 77 77 85
245564.63214111 3357483.26879883 20.31216621 10 14 13
245564.21502686 3357483.33395386 20.35311127 13 17 18
245564.27868652 3357484.83966064 20.24589157 9 15 15
245566.49957275 3357484.67538452 20.03128624 184 194 204
245564.07983398 3357483.58993530 20.61670494 137 145 158
245565.01507568 3357483.47247314 20.54055786 111 115 124
245564.36535645 3357483.11495972 19.74764252 73 78 84
245564.45709229 3357485.15768433 19.64735413 31 33 32
245566.07110596 3357483.18853760 19.84063530 158 161 168
245566.65551758 3357484.95928955 19.34060097 14 18 19
245564.44433594 3357483.08679199 19.36395073 11 15 18
245565.34191895 3357484.69927979 20.48386002 84 84 94
245565.57275391 3357484.73858643 20.41699028 94 95 100
245566.09289551 3357484.39608765 20.00538445 66 65 70
245566.46893311 3357483.31558228 19.91050148 158 165 181
245564.81085205 3357484.81115723 20.19510841 7 11 12
245564.68896484 3357484.10150146 20.54554749 37 44 50
245566.03155518 3357484.69439697 20.15095139 67 69 68
245564.04046631 3357483.24154663 20.14921570 130 130 138
245567.42602539 3357483.36358643 19.51019478 50 50 52
245565.46362305 3357484.03845215 20.62672424 179 181 196
245566.98211670 3357484.89810181 19.68553734 76 75 81
245566.75476074 3357483.76699829 20.06674576 173 181 200
245563.54071045 3357484.01910400 20.71484184 132 137 143
245565.80670166 3357484.18331909 20.11351204 48 56 75
245565.75872803 3357483.41705322 20.32282257 34 38 49
245565.00671387 3357483.31948853 20.38955688 11 15 16
245564.60369873 3357483.10784912 19.89325142 79 88 93
245565.47607422 3357483.23550415 20.32965279 7 11 10
245567.33050537 3357483.31369019 19.70033073 167 165 176
245565.88732910 3357484.88671875 20.10342598 171 170 176
245565.65338135 3357483.66281128 20.43762207 74 84 96
245566.12255859 3357483.45449829 20.05327225 77 80 85
245563.16857910 3357483.24539185 20.16835213 31 33 28
245566.61737061 3357484.20861816 20.14227676 189 197 210
245567.47161865 3357484.03649902 19.82309532 128 137 154
245567.05633545 3357483.43798828 19.94616890 173 181 204
245564.82171631 3357483.08251953 19.79852486 66 75 80
245563.57495117 3357483.70703125 20.52905655 127 134 144
245564.17480469 3357484.20025635 20.67922974 135 155 164
245567.43017578 3357484.36550903 19.64686012 31 34 41
245564.99542236 3357484.39923096 20.57076263 14 19 22
245565.46166992 3357484.95260620 19.72467613 55 58 63
245563.75787354 3357483.07293701 19.60707474 15 19 22
245563.79510498 3357483.06732178 19.54734612 14 17 22
245564.31280518 3357485.14801025 19.68088150 32 34 31
245566.37817383 3357484.62524414 20.08841324 199 203 212
245566.72998047 3357484.10012817 20.09104347 170 178 197
245566.30883789 3357484.69329834 20.07462692 185 189 198
245565.97357178 3357484.34344482 20.01879883 73 66 73
245564.16070557 3357484.93045044 19.97777748 103 106 111
245567.31866455 3357484.67755127 19.53747940 69 70 74
245566.74285889 3357484.05923462 20.08670616 169 177 196
245563.51757813 3357483.12011719 19.76839066 53 62 61
245564.51403809 3357483.22567749 20.21872139 23 25 24
245567.32464600 3357483.16213989 19.43048096 62 63 67
245564.43029785 3357484.09573364 20.58117867 20 27 33
245565.95556641 3357483.54321289 19.99413681 40 51 57
245565.99114990 3357484.34536743 20.01849556 72 67 73
245565.25671387 3357483.22598267 20.29284859 10 11 15
245567.51593018 3357483.46923828 19.43201256 39 39 39
245564.16400146 3357483.31512451 20.32021523 11 15 16
245564.45068359 3357484.83242798 20.26939583 7 16 15
245567.21228027 3357483.17727661 19.76144981 84 84 94
245563.49230957 3357483.46328735 20.28970909 98 103 107
245565.64166260 3357484.12799072 20.45261383 17 43 66
245565.32611084 3357484.94049072 19.83525276 75 80 84
245565.65423584 3357483.13046265 19.98809433 134 137 144
245567.51849365 3357484.28341675 19.54698372 63 64 68
245566.07879639 3357484.11328125 19.96627045 61 79 99
245566.19158936 3357484.22482300 20.02742958 56 69 85
245567.25024414 3357483.20578003 19.74179459 169 169 179
245567.23937988 3357483.12960815 19.58292389 39 38 46
245563.60748291 3357483.98449707 20.65667152 130 137 145
245565.73559570 3357483.10577393 20.18157768 114 117 122
245566.72473145 3357484.87936401 19.84219170 127 131 140
245564.83996582 3357484.70675659 20.46948624 4 5 7
245566.68371582 3357483.75973511 20.10731125 170 179 194
245565.90319824 3357484.65670776 20.14329529 54 55 60
245567.23693848 3357484.80609131 19.58370018 125 126 131
245565.50262451 3357484.82788086 20.21250534 7 8 10
245567.32666016 3357483.17782593 19.46650887 38 37 42
245564.10351563 3357484.74752808 20.43806648 3 4 6
245565.72106934 3357484.05291748 20.27449989 19 39 63
245566.61914063 3357484.53314209 20.05186653 184 195 213
245563.72149658 3357483.64636230 20.55169678 137 144 152
245567.66296387 3357484.04016113 19.44093132 43 44 46
245565.40161133 3357484.23992920 20.61306953 121 121 131
245567.36663818 3357483.25793457 19.54602814 14 13 19
245565.34283447 3357484.92956543 19.92248154 85 90 94
245566.19927979 3357484.89514160 19.86070633 76 83 89
245565.83374023 3357484.95568848 19.91191292 64 69 73
245565.86492920 3357484.24237061 20.05368805 67 69 82
245565.58343506 3357484.55691528 20.39912415 40 48 59
245566.73785400 3357484.50674438 20.01794434 181 194 210
245566.64508057 3357483.26281738 19.78153801 146 153 169
245563.80957031 3357484.86865234 20.49073219 34 36 31
245564.88397217 3357485.16537476 19.58022308 20 26 26
245566.18963623 3357484.89678955 19.85126877 76 83 89
245566.50231934 3357483.04736328 19.37264252 21 21 23
245566.24847412 3357483.28692627 20.04581642 166 166 178
245566.22869873 3357484.91336060 19.41182137 26 31 34
245564.39794922 3357484.17904663 20.58684540 15 23 26
245566.58282471 3357484.13888550 20.16504097 173 181 194
245565.77221680 3357484.78961182 20.33243561 66 67 71
245567.21759033 3357484.38964844 19.84909248 183 194 212
245564.73413086 3357484.37759399 20.56892967 5 10 13
245567.45721436 3357483.28421021 19.39806557 97 96 102
245565.35058594 3357484.87500000 20.06911278 92 97 101
245566.31787109 3357484.76309204 20.01715660 170 174 183
245565.63043213 3357484.34512329 20.29637146 42 56 82
245565.88623047 3357485.02270508 19.34546661 14 18 21
245565.26428223 3357484.25701904 20.59522629 7 8 13
245564.19958496 3357484.20294189 20.67115402 108 127 134
245563.40856934 3357483.70462036 20.63265800 135 138 147
245564.10113525 3357484.33117676 20.65433311 139 152 160
245564.76873779 3357483.11572266 19.44104576 34 39 43
245566.27679443 3357484.64611816 20.10197639 44 45 49
245566.30297852 3357484.95812988 19.35443687 9 14 17
245567.42901611 3357484.09518433 19.82767868 141 153 167
245565.25402832 3357483.86160278 20.59994507 9 8 13
245564.57342529 3357484.80020142 20.38383102 12 14 13
245563.35345459 3357483.64447021 20.50828743 127 132 136
245564.57055664 3357484.34829712 20.57071114 8 16 19
245564.00817871 3357484.23715210 20.66199684 133 146 154
245563.31945801 3357483.48370361 20.28643036 17 19 18
245566.42456055 3357483.40335083 20.08052444 161 163 178
245565.33074951 3357483.07345581 19.44495201 19 24 27
245566.67449951 3357484.13046265 20.11636734 173 182 199
245566.50366211 3357485.14776611 19.26357651 28 32 33
245563.74346924 3357483.11877441 19.94379807 86 95 100
245564.12060547 3357484.31884766 20.65846443 139 152 161
245564.71667480 3357484.92831421 19.97195625 89 97 99
245564.37707520 3357484.92565918 20.02556610 122 127 131
245567.08038330 3357484.37655640 19.90775299 179 195 210
245565.10278320 3357483.89916992 20.57024384 12 15 22
245565.83758545 3357484.89526367 20.11354065 186 185 191
245565.11657715 3357483.07510376 19.69456673 76 81 85
245566.99816895 3357484.92562866 19.47764397 11 10 15
245564.47967529 3357484.44885254 20.58774948 45 50 54
245565.41790771 3357483.35040283 20.43490028 109 117 130
245565.83160400 3357484.81149292 20.27098846 45 44 49
245565.75476074 3357483.05596924 19.44690704 48 49 53
245563.61590576 3357483.14126587 19.94320297 81 90 89
245566.68560791 3357484.58822632 20.01286125 185 197 213
245564.93365479 3357483.09570313 19.88665771 91 96 102
245567.58306885 3357483.67282104 19.45410347 40 41 45
245566.07604980 3357483.05032349 19.31929588 30 31 35
245563.82653809 3357484.57107544 20.54904938 93 98 102
245563.76379395 3357483.68386841 20.57741547 139 150 156
245565.02685547 3357483.58197021 20.59861565 114 117 126
245567.16680908 3357483.27389526 19.88409615 174 178 190
245565.64526367 3357483.82339478 20.47728157 22 43 60
245566.72930908 3357483.83480835 20.08445549 172 180 199
245564.29559326 3357483.73513794 20.63619614 3 11 14
245566.72137451 3357484.07025146 20.09855461 166 177 195
245564.51275635 3357483.38888550 20.45668793 38 43 47
245565.45037842 3357483.38122559 20.45938301 164 171 187
245565.64300537 3357484.84411621 20.18494797 1 5 6
245564.48370361 3357483.10137939 19.79877853 66 73 79
245565.58734131 3357483.15740967 19.80602837 97 100 105
245565.02722168 3357484.97714233 19.68332672 61 67 67
245564.52221680 3357484.87423706 20.16491127 80 88 91
245564.91308594 3357483.52774048 20.57447624 122 127 133
245564.08416748 3357483.44720459 20.58548737 127 134 142
245563.84747314 3357484.06671143 20.65014267 130 139 146
245566.40789795 3357483.86077881 20.22348213 30 32 45
245565.29602051 3357483.11651611 20.04019737 132 137 143
245565.12225342 3357484.71765137 20.45484543 11 15 18
245564.86529541 3357484.81445313 20.20231247 9 13 14
245566.97308350 3357484.96624756 19.36068726 17 18 20
245563.86370850 3357484.85681152 20.38882065 59 63 62
245567.61315918 3357484.10363770 19.50462914 26 27 29
245567.09069824 3357485.13110352 19.28456306 35 36 38
245564.92260742 3357484.72473145 20.44319344 4 10 10
245563.27038574 3357483.55865479 20.51377106 45 47 46
245565.01208496 3357484.34432983 20.56155396 9 18 17
245563.64080811 3357483.32742310 20.25655746 48 53 56
245565.78753662 3357484.95706177 19.92241096 60 64 67
245566.17144775 3357483.23730469 20.00970650 142 142 154
245567.46960449 3357483.46228027 19.49796486 70 70 72
245566.28436279 3357484.52267456 20.08645630 31 31 39
245567.41632080 3357484.58581543 19.35226822 86 86 88
245565.72961426 3357483.52062988 20.27961349 50 54 63
245563.86364746 3357483.04748535 19.42937279 15 19 22
245567.52166748 3357483.48666382 19.43336487 34 34 36
245566.22338867 3357484.94937134 19.36195183 18 23 26
245566.25262451 3357483.10076904 19.39190292 14 15 19
245563.19091797 3357483.34967041 20.17986679 113 113 113
245563.54339600 3357483.27340698 20.15660667 105 108 113
245563.93365479 3357483.29043579 20.26775932 14 15 17
245564.94708252 3357484.74902344 20.41035652 5 11 11
245565.66455078 3357483.42730713 20.39286995 35 42 52
245563.94348145 3357483.90353394 20.66890144 131 138 148
245565.88378906 3357484.93453979 19.54720497 59 63 66
245564.19140625 3357484.89410400 20.07716560 116 124 127
245566.79724121 3357484.90817261 19.75788689 43 44 49
245564.21783447 3357483.11022949 19.66288567 39 42 47
245565.28558350 3357483.60687256 20.58071136 59 59 69
245566.49517822 3357484.73385620 20.00150299 188 198 208
245565.43634033 3357483.14086914 19.92399979 101 102 107
245564.77044678 3357483.65408325 20.60132599 10 13 18
245565.24810791 3357483.96020508 20.58612442 9 8 16
245565.81011963 3357484.94949341 19.62527466 55 58 63
245563.44323730 3357483.57034302 20.35701180 134 138 147
245563.94561768 3357483.07901001 19.73741722 8 12 15
245563.98718262 3357483.34912109 20.38882828 7 11 12
245564.28332520 3357485.12274170 19.69879341 33 35 32
245565.36523438 3357483.12536621 20.05289078 130 135 141
245566.15698242 3357483.73583984 19.95870781 21 31 40
245565.63909912 3357483.11178589 19.63852501 78 79 83
245566.02789307 3357484.18698120 19.97509956 55 59 71
245564.76910400 3357483.08782959 19.72558403 64 71 77
245564.34918213 3357484.97500610 19.87454605 77 78 83
245564.37219238 3357484.78372192 20.45301056 3 9 9
245564.13616943 3357483.34594727 20.37279701 7 11 10
245565.52539063 3357484.35714722 20.56344414 176 190 203
245564.48657227 3357483.60848999 20.60200691 32 32 40
245566.04034424 3357483.90136719 19.91200066 80 114 142
245564.15875244 3357484.91690063 20.01718903 116 121 125
245564.46667480 3357483.98489380 20.57669258 5 12 18
245564.84259033 3357484.09713745 20.54258537 7 12 16
245564.08728027 3357483.38348389 20.46638489 34 40 40
245565.31494141 3357483.09133911 19.51091003 61 70 69
245564.92553711 3357483.37985229 20.46421432 24 29 32
245564.71728516 3357483.07800293 19.28755188 19 24 27
245563.07751465 3357482.95867920 20.33167458 42 47 41
245564.20422363 3357484.41015625 20.61552238 68 82 85
245565.64831543 3357483.80450439 20.45603943 22 43 60
245565.97888184 3357484.58242798 20.02185631 59 60 65
245565.42187500 3357484.95223999 19.69648933 54 57 62
245565.86413574 3357483.12921143 20.05970764 125 125 135
245566.32568359 3357483.67572021 20.15176582 15 14 19
245565.82470703 3357483.87280273 20.06672859 55 77 100
245565.43640137 3357484.91848755 19.96679497 128 131 136
245565.40258789 3357483.05313110 19.44003296 22 27 31
245564.11651611 3357483.12606812 19.90457535 87 92 98
245565.87622070 3357483.37969971 20.19967270 39 47 50
245567.14996338 3357484.11749268 19.92820740 179 194 213
245566.84948730 3357484.90325928 19.74199295 23 24 29
245566.68499756 3357483.50399780 20.03114510 165 176 198
245563.11187744 3357483.20758057 20.30817986 42 49 41
245564.87878418 3357483.76196289 20.58774948 21 30 37
245565.92541504 3357483.21679688 20.20927238 121 126 132
245563.65020752 3357484.15307617 20.63294029 129 136 144
245567.09582520 3357483.13845825 19.84260941 89 92 101
245564.13385010 3357483.27096558 20.24774551 5 9 10
245564.02026367 3357484.89230347 20.11664009 107 115 118
245566.96893311 3357483.99356079 19.97146797 178 193 214
245564.52960205 3357484.68594360 20.56082344 109 112 117
245564.38806152 3357483.95825195 20.61266136 7 14 20
245565.66394043 3357484.53506470 20.20381165 51 59 70
245565.93859863 3357484.94692993 19.37383652 15 19 22
245567.36273193 3357484.31402588 19.77569962 171 181 193
245565.40911865 3357483.11544800 19.65855789 88 91 96
245563.07727051 3357482.93942261 20.24003029 34 39 33
245564.92541504 3357484.52416992 20.56841850 151 155 158
245564.14270020 3357484.80706787 20.31464005 10 14 15
245563.83337402 3357484.97415161 20.41330910 33 35 30
245563.54162598 3357483.76449585 20.56990814 127 134 144
245566.64202881 3357484.94973755 19.62232018 16 20 19
245565.61669922 3357484.03491211 20.54482651 142 164 185
245564.71398926 3357483.12155151 19.98449707 80 91 95
245566.33093262 3357483.19979858 19.70990372 118 125 135
245563.90612793 3357484.85656738 20.32818794 51 55 58
245563.62884521 3357483.73284912 20.56083298 130 140 149
245564.79034424 3357485.00228882 19.71799278 52 56 59
245565.72229004 3357484.60266113 20.22133446 46 53 63
245564.69628906 3357484.57690430 20.58650589 116 117 122
245563.98388672 3357483.49420166 20.57568741 101 110 119
245564.59545898 3357484.72943115 20.54507256 50 53 58
245564.06030273 3357483.05590820 19.32633781 15 16 21
245566.37274170 3357484.03594971 20.21396637 26 34 47
245564.74584961 3357484.80142212 20.25388527 9 13 16
245563.89453125 3357483.06994629 19.65023041 19 22 27
245566.34106445 3357483.60101318 20.14826012 31 26 33
245563.47851563 3357483.68963623 20.48948860 125 134 143
245563.89343262 3357484.42483521 20.59749985 144 151 157
245565.53350830 3357484.87500000 20.08787155 106 107 111
245565.06054688 3357485.00964355 19.59951973 63 67 68
245563.15228271 3357483.02142334 19.99748230 43 49 39
245564.62884521 3357483.93484497 20.54081154 28 32 41
245565.33551025 3357483.33758545 20.42781830 12 17 23
245565.34497070 3357483.91625977 20.61954308 37 37 49
245567.44104004 3357484.18817139 19.76647758 109 117 128
245563.80981445 3357483.09005737 19.82174301 16 21 25
245565.72125244 3357485.04638672 19.44390678 5 10 14
245567.32885742 3357483.20773315 19.53940773 15 14 20
245565.71557617 3357484.51504517 20.10696983 67 75 86
245564.59259033 3357484.56393433 20.59338951 134 137 144
245567.29754639 3357484.62103271 19.66627121 148 149 154
245563.19799805 3357483.35766602 20.56222534 42 52 44
245565.60040283 3357484.95245361 19.84213829 71 74 81
245564.64807129 3357483.10061646 19.68470192 62 71 76
245565.56524658 3357483.33630371 20.41305542 134 141 151
245564.41711426 3357484.78005981 20.47062683 5 9 10
245563.44732666 3357483.71740723 20.57050514 130 134 143
245564.43218994 3357483.11474609 19.67099571 71 76 82
245563.99572754 3357483.26535034 20.21155548 59 58 64
245564.36663818 3357484.39147949 20.60448837 6 14 17
245567.24121094 3357483.10433960 19.36423492 41 40 46
245567.34613037 3357483.80880737 19.83582306 194 203 218
245564.60607910 3357483.26513672 20.30244637 10 14 13
245566.81115723 3357484.93594360 19.53982925 22 23 27
245566.78405762 3357483.29382324 19.88942909 181 188 206
245563.34375000 3357483.40829468 20.17387390 98 102 105
245563.14178467 3357482.96630859 19.95744514 45 50 44
245567.29327393 3357484.17114258 19.86990738 188 203 222
245563.49743652 3357483.46200562 20.29147720 98 103 107
245566.06506348 3357483.07388306 19.39403915 32 33 37
245567.12335205 3357484.20666504 19.91701508 182 195 214
245564.10412598 3357483.35366821 20.39014053 9 13 12
245564.43890381 3357484.09759521 20.57697678 23 31 34
245566.01135254 3357484.48245239 20.00708008 73 67 71
245564.61621094 3357484.50570679 20.58966064 110 113 120
245566.01531982 3357483.25189209 20.12064552 137 141 150
245565.31066895 3357483.17248535 20.21266174 1 5 6
245565.47015381 3357483.13894653 19.98899269 131 134 141
245564.53643799 3357484.21868896 20.55417633 15 23 26
245564.63085938 3357484.91546631 20.02458763 124 129 132
245567.30529785 3357484.31265259 19.81927299 195 206 224
245565.71362305 3357483.13055420 19.68663788 92 93 97
245566.12542725 3357483.43948364 20.06570244 62 63 68
245564.63269043 3357484.43096924 20.57985878 26 27 32
245563.67254639 3357483.76110840 20.57899475 130 137 145
245567.05438232 3357484.58074951 19.89815903 186 198 212
245564.59228516 3357484.78378296 20.42967796 10 11 13
245566.38580322 3357484.90463257 19.81798172 99 110 114
245563.21405029 3357483.02764893 19.72518539 71 73 70
245565.70599365 3357484.03417969 20.31847572 19 41 64
245563.99511719 3357483.31781006 20.32055855 9 9 9
245564.68768311 3357484.73037720 20.49994659 32 35 40
245565.73291016 3357484.95880127 19.83433533 66 69 74
245564.30310059 3357484.84368896 20.23649788 10 16 16
245564.64208984 3357483.65524292 20.59092140 25 28 35
245565.77984619 3357483.42349243 20.30376244 34 38 49
245567.50115967 3357484.51205444 19.32663727 28 28 30
245567.31658936 3357483.05468750 19.22373199 29 30 34
245565.75299072 3357484.63790894 20.24439049 57 64 72
245563.57403564 3357483.15164185 19.95705223 80 85 88
245566.23754883 3357484.84930420 19.95102882 102 107 113
245566.16705322 3357483.26657104 20.06620407 153 153 163
245564.34698486 3357485.13296509 19.65958214 33 35 32
245564.54089355 3357483.10086060 19.43927002 19 24 28
245564.57318115 3357483.10162354 19.72981644 63 70 76
245565.98602295 3357483.14309692 19.67269897 135 138 143
245564.41540527 3357483.46667480 20.55763054 134 139 143
245567.26574707 3357483.15322876 19.57168961 16 15 21
245566.06536865 3357484.30944824 20.00559044 67 67 75
245565.66326904 3357484.26602173 20.27340126 38 55 85
245564.79089355 3357484.77859497 20.30164146 10 11 13
245565.85467529 3357483.80493164 20.02102089 55 80 102
245564.55120850 3357484.82839966 20.29508209 13 17 18
245564.98822021 3357483.44161987 20.52366066 140 144 153
245563.77581787 3357483.75418091 20.60354233 130 139 146
245564.12805176 3357484.67993164 20.53796577 132 135 140
245564.41156006 3357483.28140259 20.27885628 4 8 9
245566.74456787 3357484.17279053 20.07605934 172 183 201
245566.27362061 3357484.90087891 19.84917259 90 99 106
245565.38977051 3357484.81961060 20.22458267 10 13 18
245565.76733398 3357483.54373169 20.19428635 61 68 76
245564.82507324 3357483.91839600 20.55397415 22 29 35
245565.50085449 3357484.88821411 20.05020523 133 136 141
245565.76922607 3357483.11694336 20.09707260 160 163 172
245565.34014893 3357483.77819824 20.60317993 59 59 69
245567.47882080 3357484.14193726 19.73046303 21 28 36
245566.54241943 3357483.27297974 19.71547318 151 157 171
245564.30096436 3357483.10385132 19.47075653 39 40 45
245563.63684082 3357483.44000244 20.35518074 100 107 113
245564.98297119 3357484.65335083 20.54075050 127 130 135
245564.45306396 3357484.59106445 20.59389687 131 136 142
245564.08074951 3357483.24542236 20.17633629 86 87 92
245566.68041992 3357485.00079346 19.24157524 11 15 18
245566.74108887 3357483.84164429 20.07796097 172 180 199
245563.39501953 3357483.64697266 20.75349426 65 66 68
245565.67810059 3357483.64447021 20.32453346 43 45 57
245567.14025879 3357483.72912598 19.91155243 182 190 213
245564.57055664 3357484.79721069 20.39750481 12 14 13
245567.41046143 3357483.41357422 19.58999252 107 106 111
245564.69073486 3357483.23355103 20.26796913 8 10 9
245563.18444824 3357483.08367920 19.92590141 43 45 40
245565.86712646 3357484.93905640 19.62035942 56 59 66
245567.08496094 3357483.70718384 19.93074226 180 187 213
245566.23126221 3357483.13943481 19.55751228 24 31 37
245564.60375977 3357484.94512939 19.97128868 75 80 83
245564.26342773 3357484.98556519 19.82295609 70 71 75
245565.74591064 3357484.95828247 19.49555588 50 53 58
245564.91137695 3357483.58691406 20.60622787 92 92 100
245566.51605225 3357484.96044922 19.40287971 15 16 20
245567.09667969 3357483.06082153 19.60847282 94 94 104
245567.48437500 3357484.08364868 19.76598740 31 39 50
245565.99078369 3357483.86914063 19.91839027 70 104 132
