245982.34088135 3357477.68960571 15.15429783 88 101 110
245970.05334473 3357478.47854614 16.52982903 242 248 246
245984.90704346 3357479.11764526 15.32044506 99 104 110
245969.90319824 3357478.23519897 16.52121162 244 245 247
245981.94134521 3357478.26974487 16.13400459 171 167 166
245972.28356934 3357479.12005615 15.91339397 184 195 199
245971.45861816 3357477.07803345 15.26243305 92 100 89
245981.70556641 3357477.41152954 15.16453743 114 113 108
245982.83959961 3357479.08050537 16.39847183 105 110 113
245982.93280029 3357477.65777588 15.07007980 83 88 91
245984.00610352 3357478.00958252 15.57354069 171 180 175
245972.05993652 3357477.28991699 15.44822121 42 49 42
245983.62445068 3357477.68447876 15.06217575 98 99 94
245971.40832520 3357478.49734497 16.65519142 51 66 85
245969.96112061 3357477.67080688 16.42795181 220 229 228
245972.54278564 3357477.30334473 15.54557133 68 74 72
245985.05187988 3357477.94598389 14.99168491 249 213 127
245969.60626221 3357477.58508301 16.42425537 92 80 84
245973.55126953 3357478.51852417 15.90900326 191 214 228
245981.78686523 3357479.31884766 15.96323586 193 204 208
245973.49389648 3357477.12561035 15.13894844 107 107 105
245973.78826904 3357478.27682495 15.33105183 53 64 70
245971.54608154 3357478.23242188 16.64897537 53 66 72
245982.64300537 3357479.12866211 16.28285027 147 152 156
245982.57788086 3357479.06289673 16.35789680 81 86 90
245982.81250000 3357478.85165405 16.48073769 235 239 238
245973.64434814 3357477.56201172 15.44846725 101 121 132
245984.26837158 3357478.49221802 16.06681061 85 116 137
245973.00030518 3357477.91448975 16.13999367 226 241 246
245969.24230957 3357477.71484375 15.50109482 183 177 165
245984.92187500 3357479.21899414 15.12790966 105 103 91
245970.67144775 3357478.90051270 16.31137466 38 41 46
245979.84265137 3357478.88955688 15.01824665 246 232 143
245969.71264648 3357478.75759888 16.41863441 123 132 137
245982.09606934 3357478.13607788 15.77203369 187 202 195
245983.16497803 3357477.66394043 15.05002117 101 100 98
245980.92633057 3357478.04135132 15.79030514 176 176 186
245983.65997314 3357479.31240845 15.99546814 209 226 234
245969.23748779 3357478.18295288 15.64163780 124 124 116
245972.37823486 3357479.09951782 15.85628033 160 174 177
245970.96289063 3357477.30123901 16.11194038 189 194 190
245981.33300781 3357479.06399536 15.98239136 237 237 237
245982.48077393 3357478.09634399 15.51405430 162 171 168
245970.00665283 3357477.25350952 15.89845276 150 163 153
245972.90783691 3357477.32223511 15.73827553 30 49 47
245971.20861816 3357477.51739502 16.55533600 53 79 80
245984.41760254 3357478.03295898 15.71675110 182 196 197
245983.54217529 3357477.46078491 15.09257126 82 83 78
245969.28295898 3357478.07424927 15.77615070 254 255 250
245984.71405029 3357478.84240723 15.84112644 188 198 207
245970.10986328 3357477.40264893 16.31403732 107 103 104
245982.05548096 3357479.11544800 16.22446442 34 39 42
245980.93603516 3357477.18981934 15.15967941 152 150 135
245981.03149414 3357477.82534790 15.57015610 161 154 135
245982.39074707 3357479.09826660 16.20058632 41 49 51
245970.22039795 3357478.81207275 16.40522194 32 51 66
245972.10369873 3357479.09432983 16.22717476 223 234 240
245973.31683350 3357479.04168701 15.82336807 143 162 177
245982.55834961 3357477.50891113 15.12248611 106 106 106
245983.29431152 3357479.22534180 16.23910332 26 36 37
245982.03527832 3357478.13562012 15.52899075 140 149 146
245984.08648682 3357479.39639282 15.70858574 79 84 90
245971.57299805 3357477.49429321 16.51193428 8 32 32
245981.12457275 3357477.36001587 15.17056465 142 139 130
245981.03344727 3357478.91195679 15.80761051 228 231 238
245971.61407471 3357479.00469971 16.11327744 190 197 207
245971.70648193 3357478.00958252 16.64719200 222 235 244
245971.84741211 3357478.05361938 16.61617088 196 219 235
245971.90771484 3357478.68963623 16.52389145 28 45 61
245985.13677979 3357477.88336182 14.96601772 250 218 133
245972.16314697 3357478.40396118 16.24482346 76 95 112
245970.71997070 3357478.43005371 16.66720772 56 75 90
245969.41967773 3357477.24041748 15.26097107 135 135 123
245973.33026123 3357477.74450684 16.04175949 205 230 237
245969.60375977 3357478.73535156 16.41616440 86 97 103
245971.31066895 3357477.24890137 15.45070648 40 46 44
245984.68780518 3357478.62329102 15.87276459 163 174 180
245972.41302490 3357478.17303467 16.22167587 61 86 108
245982.10168457 3357478.14221191 15.87965679 214 223 218
245972.92407227 3357478.16519165 16.17116356 208 221 229
245970.89404297 3357477.94607544 16.59972954 61 69 80
245984.68737793 3357479.22500610 15.52514172 48 56 59
245969.37548828 3357478.72030640 16.05618095 202 188 188
245983.42279053 3357478.03652954 15.22157383 145 150 144
245981.58990479 3357477.92047119 15.74871922 170 164 150
245973.74969482 3357478.15982056 15.64269638 123 144 165
245971.15258789 3357478.70281982 16.65250587 208 226 236
245969.77471924 3357479.00076294 15.97849560 189 198 197
245971.27380371 3357479.07550049 15.73607922 140 150 159
245973.06237793 3357477.83450317 16.12582207 225 240 245
245984.29071045 3357479.30053711 15.84284210 173 185 197
245970.90155029 3357477.48104858 16.50039482 12 32 33
245983.78997803 3357477.94531250 15.77507973 203 207 208
245980.59466553 3357477.03344727 15.14353752 94 109 76
245983.66345215 3357477.65176392 15.06021214 105 106 101
245972.19573975 3357479.11801147 16.09614372 196 207 213
245983.78668213 3357477.96310425 15.73835087 202 208 206
245981.29766846 3357478.40112305 15.82614708 255 255 255
245971.86041260 3357477.75424194 16.58870697 156 188 213
245972.56701660 3357479.02993774 16.01754951 162 192 194
245969.56048584 3357477.42230225 16.28627205 255 252 254
245984.65502930 3357478.72735596 15.94967270 87 98 104
245971.82855225 3357477.61743164 16.59116745 176 209 224
245985.04370117 3357478.08734131 15.37926292 163 173 165
245971.47424316 3357478.70956421 16.63515663 200 222 235
245983.94848633 3357479.39074707 15.44438171 84 89 85
245984.68505859 3357477.61679077 14.98562813 133 130 121
245982.37341309 3357479.35638428 15.90029716 159 167 170
245983.98602295 3357478.08883667 16.04129982 42 49 55
245972.46295166 3357477.30560303 15.59807301 122 132 124
245971.36511230 3357479.08630371 15.87863636 147 157 166
245982.46215820 3357478.13101196 15.90687752 208 212 211
245981.83776855 3357478.10092163 15.77698708 204 214 206
245981.63385010 3357477.65969849 15.08352947 147 144 137
245983.41687012 3357478.06384277 15.43097019 166 171 167
245970.37915039 3357478.77951050 16.53841782 185 206 209
245984.90539551 3357478.93750000 15.38922787 105 115 117
245970.98486328 3357478.09509277 16.62354279 49 63 74
245982.05969238 3357478.08935547 15.16880226 145 146 141
245983.63824463 3357478.96655273 16.35464668 155 170 177
245973.27600098 3357478.28094482 16.06168365 220 235 242
245969.82196045 3357478.63128662 16.47535133 245 248 253
245983.42901611 3357478.18887329 16.07110786 22 28 28
245984.20983887 3357477.83578491 15.02600956 99 102 95
245984.73089600 3357477.80416870 15.00945473 122 123 117
245969.60906982 3357477.28234863 15.52762699 94 87 77
245983.98107910 3357477.43270874 15.01771832 114 111 106
245972.42022705 3357477.31253052 15.73738194 115 128 121
245984.46020508 3357478.99432373 16.02482414 41 51 61
245982.57415771 3357478.65405273 16.48254395 191 211 222
245983.26489258 3357478.20172119 16.13401794 22 28 28
245973.70123291 3357478.61413574 15.70745659 157 170 187
245973.18426514 3357479.09744263 15.60684872 15 26 28
245971.46960449 3357477.22412109 15.40243053 53 58 52
245973.35980225 3357479.08047485 15.30605793 31 36 40
245971.26391602 3357477.27728271 15.52901936 80 89 86
245980.90441895 3357477.50451660 15.19060707 142 138 129
245978.96636963 3357478.84359741 15.04101658 167 159 148
245972.66430664 3357477.55792236 16.18255424 217 227 239
245969.47521973 3357477.35229492 16.01029396 248 217 212
245984.39190674 3357477.99914551 15.54420662 88 102 102
245969.99694824 3357477.25912476 15.65147972 27 38 34
245984.64868164 3357478.39288330 15.82259941 203 216 222
245971.61163330 3357478.48980713 16.66724586 84 94 104
245971.50134277 3357477.49295044 16.49851227 6 26 25
245982.27484131 3357477.98071289 15.18108463 108 109 104
245980.98260498 3357478.85888672 15.78013706 214 221 227
245972.62304688 3357477.65270996 16.18754196 92 102 112
245984.12902832 3357478.01248169 15.70014191 179 185 183
245980.31304932 3357477.78927612 15.32030678 142 138 127
245972.79742432 3357477.64099121 16.15233040 216 234 238
245970.20245361 3357478.38232422 16.60543823 240 246 246
245971.76544189 3357479.10037231 15.87660122 158 169 175
245981.82275391 3357478.74826050 16.17151260 254 252 253
245982.36956787 3357478.16387939 15.95103645 211 213 210
245969.33709717 3357478.71405029 15.82655048 254 253 251
245969.66363525 3357478.96328735 16.01737022 186 185 183
245982.55511475 3357477.35714722 15.08512974 160 156 144
245970.73907471 3357477.28561401 15.92018318 139 152 145
245973.65490723 3357478.56335449 15.84163857 156 179 197
245972.35876465 3357477.94241333 16.19665527 46 80 105
245983.31359863 3357478.06219482 15.28951263 179 184 180
245982.60961914 3357478.97775269 16.44232368 252 252 252
245981.37579346 3357479.11181641 15.99648285 204 202 203
245969.98388672 3357478.99700928 16.07240868 172 187 194
245972.10443115 3357478.20440674 16.39396858 43 65 86
245984.56732178 3357478.11703491 15.79231548 192 211 209
245984.56213379 3357479.27511597 15.29683113 57 59 58
245972.54479980 3357478.07366943 16.18910789 49 68 82
245969.78851318 3357477.24389648 15.74303818 113 124 108
245982.21105957 3357479.25363159 16.11350822 165 173 176
245971.95886230 3357477.62332153 16.51564217 91 119 143
245971.45330811 3357477.21713257 15.39515114 53 58 52
245969.94116211 3357477.26293945 15.61312294 22 31 26
245973.39990234 3357477.63833618 16.00630760 200 227 238
245983.47814941 3357478.01785278 15.67637825 183 188 184
245973.34777832 3357477.35641479 15.75010490 124 146 144
245981.96020508 3357478.26498413 16.12614441 140 134 134
245985.05682373 3357478.71679688 15.22402668 177 166 121
245971.21264648 3357477.51153564 16.54357529 53 79 80
245981.35662842 3357478.80694580 15.97457123 244 236 234
245969.40032959 3357478.52349854 16.33042717 161 174 182
245973.70275879 3357477.74938965 15.58760929 150 171 192
245972.91491699 3357479.10867310 15.79439545 42 60 72
245982.26184082 3357478.10769653 15.46235466 151 163 161
245982.14801025 3357478.04205322 15.16377831 80 81 76
245970.65057373 3357477.55404663 16.62619400 183 205 202
245973.64801025 3357478.47686768 15.85225773 177 200 218
245982.77899170 3357478.02590942 15.19723320 103 108 111
245973.29443359 3357479.08425903 15.58830166 107 121 130
245971.35583496 3357477.89840698 16.61895943 61 68 78
245969.27880859 3357478.08474731 15.99932384 253 252 247
245970.07092285 3357477.90606689 16.46433449 227 232 235
245984.76873779 3357478.29870605 15.63131237 182 200 202
245980.35748291 3357478.14874268 15.32093811 213 216 209
245971.37603760 3357477.22817993 15.38306427 62 69 62
245973.44171143 3357478.07046509 15.98304558 212 233 238
245970.82104492 3357477.18701172 15.35109138 71 76 70
245971.36901855 3357478.88705444 16.28516006 32 31 36
245980.17572021 3357478.84271240 15.22409725 105 105 97
245982.12036133 3357477.39639282 15.15075493 67 64 57
245984.14801025 3357477.48016357 15.02434444 115 112 107
245972.84051514 3357479.10626221 15.63011932 60 65 69
245973.71838379 3357477.92852783 15.75286102 63 93 117
245969.29180908 3357477.54626465 15.61006737 117 118 110
245970.19036865 3357478.35903931 16.60283279 239 245 245
245970.59033203 3357477.73504639 16.65155792 201 200 205
245982.50518799 3357477.26757813 15.05480003 220 214 198
245984.98760986 3357478.13000488 15.57304478 184 197 203
245970.32263184 3357477.25570679 15.44240475 162 161 157
245973.56341553 3357478.97677612 15.28532791 49 60 66
245982.89465332 3357478.64538574 16.48209000 147 164 172
245971.29681396 3357478.74285889 16.63321495 188 216 228
245984.85400391 3357478.62170410 15.49786091 162 173 175
245982.02886963 3357478.11935425 15.39898777 119 125 123
245970.75671387 3357478.49490356 16.66733932 61 84 98
245983.58288574 3357478.04498291 15.85849953 209 209 207
245984.97186279 3357479.16058350 15.17201138 131 123 120
245971.63690186 3357478.30355835 16.65717697 121 130 135
245980.52191162 3357478.48358154 15.49833202 200 214 225
245983.27062988 3357478.43255615 16.38970566 234 248 248
245970.14953613 3357477.25350952 15.72767735 27 39 35
245969.90008545 3357478.85656738 16.29233742 185 196 202
245972.67858887 3357477.15850830 15.20276070 91 99 88
245981.32940674 3357478.54922485 15.92175007 255 255 255
245972.02532959 3357477.93478394 16.46599960 56 76 103
245982.69958496 3357479.07144165 16.38815117 109 117 120
245970.06323242 3357477.14907837 15.27634621 74 76 71
245969.87298584 3357477.19085693 15.28126144 100 97 88
245983.92938232 3357479.14755249 16.12569618 181 201 212
245972.90972900 3357477.06207275 15.17025471 88 99 85
245971.71551514 3357478.68786621 16.60461235 199 221 234
245983.59429932 3357478.00048828 15.69488525 193 195 192
245971.67761230 3357478.90362549 16.30205917 35 44 43
245970.50457764 3357478.90863037 16.29663849 56 59 68
245982.20434570 3357479.17141724 16.14285278 62 70 73
245969.32336426 3357477.40930176 15.36417198 165 159 147
245985.09948730 3357478.22619629 15.42980099 182 198 197
245972.09942627 3357478.55789185 16.35945511 60 77 95
245969.64990234 3357478.94281006 16.05399895 97 91 95
245981.71423340 3357479.04446411 16.24191666 209 214 218
245969.23089600 3357478.13937378 15.60430145 128 128 120
245971.93743896 3357477.97128296 16.54854202 26 47 74
245971.73217773 3357478.91592407 16.24459457 38 36 39
245970.41644287 3357479.05032349 15.78909111 74 86 84
245970.11096191 3357477.69229126 16.44338799 216 224 226
245981.10101318 3357478.06900024 15.81135368 144 146 158
245983.97967529 3357478.46383667 16.16189957 80 104 128
245970.34594727 3357476.97009277 15.26027966 78 90 66
245983.49530029 3357479.23895264 16.18723869 139 149 151
245983.23162842 3357478.41262817 16.38749504 212 226 227
245985.06262207 3357478.45129395 15.41899204 135 134 116
245980.94354248 3357477.77767944 15.69884777 204 198 182
245982.58453369 3357477.39880371 15.09900951 90 86 74
245981.48718262 3357478.03936768 15.73463726 167 181 181
245972.19299316 3357477.28726196 15.40443707 45 50 44
245972.69726563 3357477.38922119 16.06717300 151 171 172
245971.48443604 3357477.50033569 16.53172112 12 33 36
245973.03662109 3357477.99276733 16.14272499 227 242 245
245983.06896973 3357479.31860352 15.92715454 185 196 202
245980.20068359 3357477.96823120 15.22084427 186 175 157
245973.39318848 3357478.96975708 15.86370277 118 146 167
245973.30120850 3357478.30618286 16.04751587 221 236 243
245973.43426514 3357477.16116333 15.13107586 125 126 121
245970.44702148 3357479.06881714 15.97205162 164 177 183
245984.75061035 3357478.55673218 15.58972073 186 200 203
245984.76617432 3357479.32235718 15.01630497 221 209 149
245984.42077637 3357477.65197754 15.03694439 85 83 84
245971.68945313 3357478.84072876 16.52852821 75 115 125
245981.48876953 3357479.25131226 15.97260189 212 213 217
245972.71502686 3357479.05761719 15.95520306 169 196 205
245972.45568848 3357477.31881714 15.89487267 117 132 129
245981.62786865 3357478.24423218 15.99312687 91 59 60
245978.62695313 3357478.87258911 15.08852863 192 184 171
245980.55010986 3357477.20941162 15.08033466 152 149 142
245973.74279785 3357478.31231689 15.69168949 133 149 165
245972.99511719 3357479.09072876 15.62024403 32 37 43
245969.62036133 3357477.07052612 15.25017262 132 136 119
245982.36004639 3357477.97613525 15.16444492 104 108 107
245983.51959229 3357478.45635986 16.37449074 233 248 255
245972.50341797 3357478.80017090 16.19830322 64 63 71
245970.14868164 3357477.46774292 16.41336632 14 29 32
245972.20452881 3357479.12918091 16.05070496 198 208 217
245969.66253662 3357478.00985718 16.49915886 245 245 243
245971.99584961 3357477.90914917 16.50036621 70 91 118
245969.29705811 3357477.95776367 15.99084663 248 250 245
245971.65057373 3357477.28735352 15.56489658 108 119 113
245969.30651855 3357477.89608765 15.95023251 249 254 248
245969.98748779 3357477.28686523 16.06596756 174 184 175
245969.16027832 3357477.90151978 15.37411594 191 181 169
245981.53039551 3357478.65011597 16.03117561 111 104 96
245970.48175049 3357478.91918945 16.28651428 116 118 130
245983.73974609 3357478.09246826 16.01326370 185 183 186
245981.05664063 3357477.88140869 15.28793335 159 153 141
245983.86114502 3357478.23602295 16.21588707 198 212 221
245973.71728516 3357478.07357788 15.78296757 94 120 145
245982.99700928 3357479.27075195 16.09886932 229 233 236
245982.01538086 3357478.88781738 16.28426933 240 244 247
245973.39013672 3357479.06295776 15.51435852 148 165 173
245973.49487305 3357477.40228271 15.53240585 102 123 126
245971.66760254 3357477.15631104 15.28882313 79 81 76
245971.50598145 3357477.27786255 15.63459492 114 123 118
245983.17059326 3357478.86239624 16.45765877 241 245 246
245980.99353027 3357477.56900024 15.14964390 144 140 131
245983.35833740 3357479.04919434 16.39291191 207 211 214
245981.00140381 3357478.93148804 15.78884220 222 227 233
245983.22583008 3357477.92764282 15.11719322 114 113 108
245981.07891846 3357478.29147339 15.79018021 163 168 171
245983.04656982 3357478.06738281 15.36159134 198 203 199
245972.01879883 3357478.88079834 16.38374710 157 171 180
245970.15771484 3357479.05419922 15.93143463 138 153 156
245980.93054199 3357478.69073486 15.75512505 201 210 217
245969.40191650 3357478.14837646 16.39043808 158 164 164
245971.06097412 3357477.55056763 16.62783623 148 177 175
245971.12530518 3357477.11538696 15.24934292 97 100 93
245981.65979004 3357478.44619751 16.08074570 244 198 211
245970.36212158 3357478.44192505 16.66436195 230 248 250
245972.12396240 3357479.14065552 16.17256737 189 198 205
245969.98931885 3357478.85699463 16.32058334 111 124 140
245984.43554688 3357478.81890869 16.06782532 121 144 160
245972.51306152 3357477.19326782 15.21763325 91 92 86
245969.55017090 3357477.54699707 16.35606194 88 76 80
245972.19110107 3357477.62994385 16.30498695 54 72 94
245982.87744141 3357478.05407715 15.24902916 131 135 136
245970.00579834 3357476.96075439 15.28816986 77 92 71
245969.30755615 3357477.73239136 15.72678661 242 242 234
245984.96887207 3357478.40640259 15.53079605 146 162 162
245970.07720947 3357478.90924072 16.26878357 195 203 214
245973.73944092 3357478.55087280 15.52115536 100 108 129
245980.19195557 3357477.54077148 15.10491085 154 144 134
245983.36254883 3357477.46963501 15.07763290 85 84 79
245981.80621338 3357477.87261963 15.02240562 137 134 129
245973.03405762 3357478.54528809 16.13358688 189 195 207
245972.09558105 3357477.24978638 15.35700130 63 66 59
245969.29144287 3357478.34078979 16.25566101 237 231 231
245984.00317383 3357479.36749268 15.30000114 25 30 26
245970.02410889 3357477.24768066 15.38334179 94 93 89
245981.92224121 3357479.29907227 16.06899834 29 36 44
245971.56195068 3357477.98883057 16.64030075 45 55 65
245981.76934814 3357478.77908325 16.16260147 253 255 252
245970.58880615 3357477.60519409 16.65171814 207 218 214
245971.43695068 3357477.26724243 15.53699207 72 81 76
245970.88555908 3357479.07873535 15.74920940 142 153 155
245970.22698975 3357477.26525879 15.61814404 49 54 50
245983.93359375 3357479.13339233 16.14208031 80 99 106
245982.38061523 3357477.58255005 15.15955830 80 89 94
245972.47741699 3357478.09988403 16.19887924 51 78 97
245985.08325195 3357478.57147217 15.27838135 198 193 138
245970.55096436 3357478.17242432 16.66514587 59 73 84
245971.34838867 3357478.40072632 16.63963890 50 66 79
245984.64062500 3357478.74566650 15.95820522 87 98 104
245981.99987793 3357477.47235107 15.18490505 182 178 175
245982.11395264 3357477.23980713 15.08276272 218 208 196
245983.42102051 3357478.47702026 16.38906288 230 246 246
245984.36181641 3357479.29437256 15.17670631 64 61 28
245970.35192871 3357478.99356079 16.18087196 218 225 233
245980.48089600 3357478.97705078 15.59305763 251 255 255
245981.26995850 3357477.44958496 15.14095116 138 138 130
245972.41015625 3357479.11682129 15.55183792 108 127 131
245972.26947021 3357477.32208252 15.51785946 100 107 100
245970.34631348 3357478.64862061 16.63586998 210 223 229
245981.74053955 3357477.41094971 15.17005348 91 92 86
245984.87066650 3357477.99813843 15.17937565 131 133 128
245980.99963379 3357479.16311646 15.74216843 213 222 227
245982.25842285 3357478.12814331 15.80453300 196 205 204
245980.62445068 3357477.25073242 15.11838531 142 139 130
245983.37774658 3357479.35852051 15.62894630 182 192 194
245970.80828857 3357477.23083496 15.43218517 29 40 34
245971.08557129 3357477.28125000 15.58960438 107 117 109
245971.43383789 3357477.55020142 16.59737968 116 144 148
245971.39996338 3357477.71713257 16.63848877 238 248 250
245983.52978516 3357478.22729492 16.20754623 20 42 39
245971.59954834 3357477.32885742 16.11106682 180 186 186
245981.44476318 3357479.19833374 15.98974037 209 209 209
245972.79779053 3357477.45571899 16.08483696 174 195 198
245971.93737793 3357477.84701538 16.54473877 47 74 101
245970.80187988 3357478.12478638 16.62679672 56 68 82
245970.37426758 3357477.25213623 15.71843338 30 36 34
245982.43664551 3357478.66567993 16.45282364 173 190 200
245970.78240967 3357479.07312012 15.77468395 146 157 159
245980.82922363 3357479.14666748 15.66442966 176 194 206
245984.78851318 3357478.77081299 15.59269905 121 130 135
245982.16479492 3357478.81567383 16.34597969 235 239 242
245971.56646729 3357478.49890137 16.66546822 56 69 78
245980.70684814 3357479.01046753 15.70064259 193 203 212
245980.48126221 3357477.83615112 15.54303169 171 171 171
245970.48553467 3357477.25469971 15.49206924 13 22 19
245984.05114746 3357479.12963867 16.09846878 189 207 219
245970.22088623 3357477.97436523 16.53146935 233 239 239
245985.12182617 3357479.36798096 15.06301880 232 234 197
245971.39215088 3357477.34558105 16.14806747 189 190 192
245980.31921387 3357478.45535278 15.35716343 215 219 231
245972.44696045 3357479.08197021 15.86556530 166 184 188
245984.91284180 3357478.99667358 15.35871887 103 108 111
245984.19506836 3357478.23095703 16.08292198 105 121 136
245980.10180664 3357478.91815186 15.15709877 206 200 178
245973.64825439 3357478.77609253 15.52700615 136 147 167
245984.46679688 3357477.89279175 15.03500175 116 118 115
245970.27954102 3357477.27160645 15.52807617 99 100 95
245972.22241211 3357478.32647705 16.23306465 54 73 90
245971.55029297 3357479.08200073 15.64681911 143 156 162
245981.44036865 3357477.84564209 15.06231499 143 140 131
245982.82275391 3357477.90789795 15.09030914 119 120 115
245981.63446045 3357477.97702026 15.15001106 148 145 138
245983.10528564 3357478.72448730 16.46337891 117 125 136
245982.87884521 3357478.13397217 15.91926003 217 216 214
245971.17382813 3357477.28900146 16.04657173 146 158 154
245984.53039551 3357478.02975464 15.66275120 183 198 201
245982.08319092 3357478.12899780 15.49721336 121 130 127
245981.53491211 3357477.46685791 15.14307022 142 139 130
245969.36132813 3357478.75875854 15.87631989 247 241 243
245973.21240234 3357477.55755615 16.04728127 210 234 236
245969.88427734 3357477.24551392 15.35020638 43 42 37
245981.90545654 3357477.69296265 15.10411835 152 147 141
245982.04559326 3357479.10302734 16.24560547 31 37 37
245973.63763428 3357477.61080933 15.67838478 137 164 183
245980.97540283 3357477.88104248 15.40718651 154 147 131
245971.66766357 3357479.08770752 15.66842747 142 155 161
245983.27014160 3357479.16763306 16.30301857 38 48 49
245972.24615479 3357477.32415771 15.75541019 113 124 120
245971.38598633 3357478.04782104 16.62562943 53 63 75
245982.32977295 3357479.10028076 16.18687439 38 48 50
245980.59887695 3357478.70870972 15.64488411 191 201 210
245972.52136230 3357478.56600952 16.21450043 91 105 118
245983.73614502 3357477.54455566 15.06365871 92 92 90
245982.41186523 3357477.67117310 15.14124393 99 109 118
245972.56072998 3357477.06646729 15.22200489 89 101 87
245980.50097656 3357477.82354736 15.37548733 158 155 140
245983.84979248 3357478.70318604 16.25046539 81 103 124
245971.16320801 3357477.74630737 16.63973808 210 211 215
245969.26458740 3357478.52465820 15.63810444 141 140 135
245970.53344727 3357479.06271362 15.84223080 159 174 177
245970.12854004 3357478.36926270 16.58206940 239 245 243
245984.36840820 3357479.29629517 15.19011211 54 52 27
245981.50671387 3357477.50790405 15.13025570 138 138 130
245970.85595703 3357478.49011230 16.67630768 54 75 92
245969.27697754 3357478.21487427 16.04542351 231 227 228
245983.49969482 3357479.24246216 16.17461586 204 211 217
245981.20404053 3357478.93051147 15.89967537 253 253 253
245970.06958008 3357478.33462524 16.56482887 243 245 244
245971.06542969 3357478.01739502 16.60832024 51 65 76
245983.86877441 3357478.04492188 15.27297211 176 181 175
245969.59381104 3357477.33776855 16.16046715 91 32 28
245971.85205078 3357477.29043579 15.96616173 133 145 141
245981.23443604 3357477.77014160 15.11071682 157 153 142
245971.41650391 3357479.08081055 15.96000576 165 175 187
245972.21075439 3357478.19757080 16.26903343 59 80 99
245972.54724121 3357479.03805542 15.99253082 164 192 195
245980.22833252 3357478.26327515 15.24829960 255 254 249
245971.09875488 3357479.06863403 16.00090981 162 175 184
245983.31408691 3357479.22058105 16.24389267 29 39 40
245983.55505371 3357478.01538086 15.63021278 183 185 182
245980.28228760 3357478.43005371 15.32437897 232 237 243
245971.03826904 3357478.45245361 16.68301582 48 70 84
245972.78924561 3357479.10366821 15.47435665 58 67 66
245973.57659912 3357477.84609985 15.90848160 188 222 234
245973.31420898 3357479.08001709 15.61401081 107 121 130
245971.98651123 3357479.13537598 16.07573128 183 191 204
245981.22351074 3357477.83999634 15.79103565 116 116 114
245983.19702148 3357478.12438965 15.92632961 188 184 183
245969.45782471 3357478.54617310 16.38868713 119 145 158
245969.58703613 3357477.28207397 15.60957623 79 76 59
245982.83856201 3357477.84609985 15.06216431 121 121 119
245984.15655518 3357478.02481079 15.78248310 177 183 181
245973.17797852 3357478.96585083 15.96068287 170 203 220
245970.65380859 3357477.23849487 15.45898724 23 33 25
245970.07080078 3357479.02865601 16.04147339 176 194 198
245984.34356689 3357477.98397827 15.21579361 108 107 105
245971.83508301 3357477.29867554 15.57864761 105 116 110
245984.55322266 3357479.29016113 15.53209972 213 227 230
245971.78393555 3357477.10363770 15.23772430 111 114 103
245983.40374756 3357478.02935791 15.66199303 176 181 177
245973.30126953 3357477.67092896 16.05325317 208 233 238
245981.07830811 3357477.80142212 15.72435188 184 180 171
245985.09381104 3357478.61734009 15.21737003 209 203 143
245973.73449707 3357478.54846191 15.54671955 117 128 150
245981.64385986 3357478.60006714 16.05355644 255 252 251
245970.15838623 3357478.11572266 16.58319092 233 236 241
245973.38690186 3357477.36172485 15.54918003 113 133 131
245981.03253174 3357478.72964478 15.81207275 205 209 210
245973.22137451 3357477.33923340 15.87819195 115 141 142
245981.96105957 3357478.13659668 15.52418518 127 138 134
245973.22290039 3357478.71997070 16.05761909 211 221 233
245970.38214111 3357477.93395996 16.59531021 235 240 243
245973.46319580 3357477.39111328 15.59961033 119 140 143
245973.10198975 3357478.08905029 16.14534187 226 241 246
245971.29663086 3357479.07415771 15.69572735 140 153 161
245983.46972656 3357479.16973877 16.27911758 27 42 39
245982.39556885 3357479.04376221 16.35853958 117 120 125
245982.50225830 3357477.52621460 15.13779163 100 104 107
245972.36737061 3357479.06573486 16.02547264 180 191 197
245983.89532471 3357477.43084717 15.03710938 117 114 107
245983.62335205 3357479.21774292 16.15327072 180 194 197
245970.22845459 3357477.46475220 16.41919708 9 24 27
245984.49774170 3357479.22390747 15.89916611 186 199 208
245984.44146729 3357477.63327026 15.03054714 90 88 89
245981.63146973 3357478.41345215 16.05801010 241 166 186
245981.87207031 3357477.20947266 15.10572147 168 160 149
245984.70935059 3357479.24627686 15.28416443 89 90 85
245983.89593506 3357479.15048218 16.14200592 151 169 179
245983.75903320 3357477.93472290 15.11820984 103 104 98
245972.93780518 3357478.24331665 16.17465401 201 219 223
245969.37255859 3357478.67391968 16.13965034 196 186 184
245982.54431152 3357479.25704956 16.11861420 176 186 188
245969.88275146 3357478.96670532 16.09297943 174 185 189
245971.06750488 3357478.92654419 16.27017593 40 38 43
245984.54028320 3357478.28018188 15.98648453 121 129 142
245984.33746338 3357477.86392212 15.04193497 101 103 100
245983.99670410 3357477.51116943 15.02852154 95 95 95
245971.97619629 3357478.09158325 16.52479935 26 50 74
245973.73382568 3357478.60516357 15.48856926 93 102 119
245981.68469238 3357478.77905273 16.11631775 237 241 240
245982.07513428 3357478.28070068 16.17704582 45 43 44
245973.62329102 3357477.50183105 15.32402706 52 71 77
245970.01007080 3357477.39971924 16.31367493 139 137 138
245969.84503174 3357477.21347046 15.30266953 89 86 77
245984.47918701 3357478.02984619 15.67183399 183 199 199
245973.04998779 3357477.13604736 15.18267632 94 102 91
245981.78747559 3357478.56066895 16.13643837 239 238 236
245982.81420898 3357479.28152466 16.09190941 220 228 230
245969.51989746 3357477.30557251 15.76107788 212 213 199
245984.36517334 3357477.64498901 15.04468155 82 80 81
245973.68585205 3357477.61587524 15.39533615 94 108 121
245971.04888916 3357477.84042358 16.62336731 55 64 73
245984.07385254 3357478.00714111 15.43154621 163 170 162
245972.65246582 3357478.97497559 16.10582924 194 213 219
245973.70819092 3357478.62496948 15.63426304 152 165 182
245972.94842529 3357478.89526367 16.10887337 230 240 250
245969.46862793 3357477.36535645 16.04774475 215 165 158
245973.41918945 3357477.37347412 15.34553528 62 73 75
245984.91876221 3357478.17086792 15.65320683 104 116 130
245972.74536133 3357477.13043213 15.18034744 88 99 85
245969.30090332 3357478.31213379 15.98636723 249 248 244
245984.20812988 3357479.34109497 15.12672138 67 61 45
245971.90643311 3357477.52465820 16.51116371 134 154 165
245980.36901855 3357477.79309082 15.34335613 143 143 133
245972.17449951 3357478.38265991 16.23400116 68 86 106
245969.62854004 3357477.27764893 15.77047157 197 199 185
245984.80004883 3357479.25988770 15.10018063 162 153 110
245984.72222900 3357478.36825562 15.65976238 201 216 219
245972.68109131 3357477.45953369 16.12039375 192 213 218
245984.37890625 3357479.26943970 15.92728615 200 214 225
245983.42608643 3357478.86660767 16.43116188 243 248 252
245973.73150635 3357477.72329712 15.45134163 103 119 134
245984.59997559 3357478.95138550 15.97075558 93 102 111
245970.36102295 3357478.26028442 16.66913033 234 239 243
245982.99182129 3357479.33551025 15.80391312 167 177 186
245970.41546631 3357478.98956299 16.19112206 192 202 211
245985.07360840 3357478.35980225 15.51940060 87 101 112
245972.98114014 3357478.87344360 16.11074829 230 238 249
245970.26458740 3357477.64794922 16.52008629 221 231 232
245984.00946045 3357478.19006348 16.14368820 192 206 209
245984.51416016 3357479.19778442 15.80059814 198 208 220
245972.15820313 3357478.51611328 16.28733063 75 94 111
245983.71618652 3357479.15768433 16.22858620 0 0 0
245969.56237793 3357477.27999878 15.39933395 129 124 118
245970.85644531 3357478.38330078 16.66660690 54 71 87
245972.98010254 3357479.10073853 15.78660583 49 68 82
245970.48596191 3357477.47448730 16.47628403 13 32 36
245973.58575439 3357477.86190796 15.90249062 183 216 231
245970.87518311 3357479.08618164 15.89030075 147 156 161
245969.93963623 3357479.00317383 16.03582764 178 192 195
245972.42102051 3357477.30157471 15.43411350 59 65 61
245971.14508057 3357477.28344727 15.61336327 114 120 116
245982.70806885 3357478.97665405 16.45772552 252 252 252
245985.06616211 3357478.98837280 15.09167957 199 186 142
245981.71997070 3357479.05627441 16.23457909 214 219 225
245973.71520996 3357478.54064941 15.67424679 152 165 182
245973.05737305 3357479.09970093 15.82646561 119 145 158
245973.38482666 3357477.95285034 16.01001549 211 234 242
245982.37060547 3357478.48187256 16.45523453 232 241 246
245969.24804688 3357477.97781372 15.61008549 125 125 117
245982.67895508 3357478.54281616 16.47421074 172 183 189
245970.95404053 3357477.48513794 16.51371193 14 28 31
245981.67633057 3357477.18737793 15.10195923 181 168 160
245981.66088867 3357478.33425903 16.06418037 255 239 244
245973.69671631 3357478.08975220 15.83826160 202 227 247
245982.72235107 3357478.07623291 15.41940784 184 193 192
245970.28588867 3357477.32949829 16.18889618 201 203 198
245972.12243652 3357477.29891968 15.45303440 62 69 62
245980.73333740 3357477.30154419 15.17229748 143 139 130
245973.37011719 3357478.96243286 15.87875652 145 176 196
245973.55603027 3357477.42257690 15.34341240 57 71 72
245981.94146729 3357478.95208740 16.28386116 238 244 244
245969.80432129 3357478.43981934 16.50169373 246 246 246
245973.49560547 3357478.47296143 15.93975830 203 222 236
245970.17541504 3357479.06060791 16.00098610 163 182 186
245971.01611328 3357477.31158447 16.12758446 190 194 193
245969.43835449 3357477.44656372 16.09193420 145 75 73
245970.44042969 3357479.06143188 16.03485298 165 176 182
245980.69763184 3357478.77203369 15.67398739 150 168 180
245981.15045166 3357477.40878296 15.16561794 144 144 136
245984.68402100 3357478.72900391 15.91541576 144 155 161
245969.21612549 3357477.92150879 15.48017025 183 180 165
245983.59594727 3357478.72079468 16.39477730 133 146 162
245970.60729980 3357477.26559448 15.52756405 72 82 74
245972.23803711 3357477.44192505 16.28953362 128 142 153
245970.30560303 3357477.24734497 15.90260696 139 148 143
245973.60668945 3357477.75366211 15.89523220 174 210 224
245972.99310303 3357477.39639282 16.00209427 173 194 195
245972.79602051 3357478.14849854 16.18641472 203 214 220
245972.35839844 3357479.10055542 15.93023682 177 186 191
245969.27850342 3357478.42938232 16.20955849 237 228 229
245971.04058838 3357478.57934570 16.67702484 160 182 193
245981.74206543 3357478.10281372 15.64799881 204 211 204
245980.81317139 3357477.85678101 15.38256550 161 152 135
245969.85406494 3357478.64544678 16.47434616 236 243 249
245973.60198975 3357477.14083862 15.09297466 138 137 135
245981.59002686 3357478.32922363 16.01147461 166 76 88
245980.72943115 3357478.57327271 15.66487503 195 210 217
245970.64276123 3357477.17608643 15.29347324 71 76 69
245984.18072510 3357478.81448364 16.13366508 143 170 189
245980.50408936 3357478.46920776 15.48287010 203 213 223
245980.83990479 3357478.07293701 15.73633862 166 175 182
245984.12341309 3357479.35873413 15.34878922 38 39 41
245969.74145508 3357477.26861572 15.37005138 108 106 94
245981.45434570 3357477.28308105 15.13974285 196 187 178
245970.53271484 3357477.26910400 15.67237473 83 98 93
245984.42364502 3357479.27560425 15.81341267 206 216 228
245969.84362793 3357478.83670044 16.30460548 186 195 200
245969.64208984 3357478.52438354 16.51836014 238 247 246
245970.05810547 3357477.44665527 16.38662910 21 25 28
245984.76641846 3357478.80590820 15.62201023 189 200 206
245984.62188721 3357478.47180176 15.97894955 47 62 69
245972.30328369 3357478.32980347 16.22632408 74 93 110
245983.24218750 3357478.21994019 16.21426582 23 37 38
245969.45404053 3357477.99044800 16.41982651 139 144 147
245984.34448242 3357479.28295898 15.89245701 179 192 201
245971.82495117 3357478.12164307 16.62537384 196 218 231
245980.40258789 3357477.77529907 15.51278305 175 173 161
245981.63751221 3357479.09567261 16.14036179 173 174 178
245982.72296143 3357479.34124756 15.71040916 134 144 146
245982.88000488 3357477.49871826 15.07513905 129 128 123
245984.36102295 3357479.32559204 15.06348705 152 143 86
245982.44201660 3357477.31793213 15.08660984 220 214 200
245981.10284424 3357477.80670166 15.60715199 158 155 138
245982.48278809 3357478.61584473 16.46971130 188 209 226
245981.58654785 3357477.91381836 15.75096226 170 164 150
245970.80383301 3357477.49957275 16.54668999 47 76 74
245981.88476563 3357478.07611084 15.16047573 78 79 73
245969.42205811 3357478.62191772 16.32012749 149 164 169
245970.13470459 3357477.27252197 15.56339931 35 41 37
245980.35266113 3357477.71649170 15.27512550 131 128 121
245983.47302246 3357479.08187866 16.34884834 88 96 99
245969.94891357 3357477.24783325 15.73816967 23 34 30
245982.86804199 3357478.64489746 16.48426628 149 166 173
245972.79937744 3357477.32058716 15.57874107 30 35 31
245971.46508789 3357477.70397949 16.62281990 236 246 248
245981.63793945 3357478.02258301 15.23762226 152 147 141
245982.77233887 3357478.08660889 15.60092831 176 182 180
245973.40740967 3357478.26559448 16.00093651 216 235 242
245982.69189453 3357478.07833862 15.41976738 181 190 189
245973.73242188 3357477.85656738 15.70359421 130 158 180
245970.15002441 3357477.27871704 15.51394844 49 54 50
245973.66845703 3357478.38525391 15.85307407 151 173 194
245980.27197266 3357477.34548950 15.07866573 147 143 132
245972.53204346 3357478.53808594 16.21335220 102 116 129
245972.31964111 3357477.85366821 16.20280266 55 83 105
245973.79327393 3357478.71463013 15.21381569 61 70 65
245981.86883545 3357478.68780518 16.17958641 250 252 251
245969.22796631 3357477.58132935 15.40542793 188 179 164
245983.66894531 3357478.02023315 15.20644093 97 99 96
245981.68194580 3357478.03753662 15.74232197 235 235 223
245973.67822266 3357477.71575928 15.69848824 142 167 189
245982.27069092 3357479.34896851 15.77390099 140 149 156
245971.65881348 3357477.40823364 16.25789642 21 22 26
245981.25299072 3357478.07049561 15.76503944 168 185 193
245984.73187256 3357477.97027588 15.15623856 19 21 18
245970.21478271 3357478.81439209 16.39818764 32 51 66
245972.16552734 3357477.15563965 15.23732376 98 104 92
245983.96142578 3357478.79357910 16.18476295 129 151 172
245981.97375488 3357477.35687256 15.14037418 88 84 81
245984.07293701 3357477.80297852 15.01139069 112 113 105
245969.63757324 3357477.27389526 15.59503365 68 64 52
245969.24462891 3357478.10397339 15.64599991 131 131 123
245971.16632080 3357478.90130615 16.36728287 36 42 42
245983.89605713 3357478.67041016 16.22067261 84 109 131
245981.91455078 3357478.55944824 16.21526337 226 230 229
245970.10314941 3357479.06057739 15.96602058 152 167 170
245981.50946045 3357479.30786133 15.84654236 205 214 223
245980.37341309 3357477.94009399 15.37555695 146 143 136
245969.54479980 3357477.03659058 15.24925613 132 141 122
245972.96734619 3357478.61218262 16.14539337 192 198 210
245983.16082764 3357479.12481689 16.35319519 42 47 50
245972.16467285 3357477.25628662 15.35222054 65 70 64
245973.08666992 3357477.98318481 16.13695908 225 243 245
245980.69250488 3357478.64212036 15.65235043 203 217 226
245971.96636963 3357477.17385864 15.27868652 86 94 83
245982.87420654 3357478.26498413 16.28120804 23 43 42
245982.87261963 3357478.21728516 16.05655670 23 23 25
245971.16882324 3357478.98477173 16.16214561 186 196 208
245981.76794434 3357478.11511230 15.64306545 205 212 205
245973.58532715 3357477.45989990 15.33875370 54 69 72
245973.06414795 3357477.91357422 16.13425064 225 240 245
245980.66497803 3357478.25234985 15.55819321 191 204 213
245984.68469238 3357478.63726807 15.89168167 163 174 180
245982.33312988 3357478.10253906 15.36823368 145 155 154
245982.76293945 3357478.08291626 15.34931946 190 196 196
245973.62646484 3357478.09329224 15.90401173 204 231 240
245969.23645020 3357478.25219727 15.65262699 131 131 123
245982.78417969 3357477.52127075 15.08804131 130 131 126
245982.30249023 3357478.11444092 15.63250542 168 179 175
245970.00939941 3357478.87091064 16.30571747 124 136 148
245971.21362305 3357478.91253662 16.26163864 36 34 39
245982.48828125 3357479.23010254 16.14561462 95 106 108
245971.72485352 3357477.28784180 15.75951099 110 119 116
245971.17791748 3357478.89511108 16.39077568 31 41 43
245984.06597900 3357478.46728516 16.11952209 89 114 134
245973.40771484 3357477.37640381 15.80285072 74 99 104
245982.51562500 3357479.35281372 15.76462269 131 136 142
245971.47619629 3357478.49719238 16.65949821 49 62 78
245982.59387207 3357477.75033569 15.10128784 114 115 117
245969.38958740 3357478.89617920 15.65631294 175 186 180
245973.54498291 3357478.96322632 15.34904766 80 93 102
245971.54058838 3357478.92376709 16.21960831 48 47 52
245981.27929688 3357478.30612183 15.79647827 255 255 255
245969.27984619 3357478.08880615 16.01990700 248 248 240
245970.29608154 3357479.05346680 15.91019058 135 155 154
245971.38110352 3357479.07635498 15.68020248 135 148 156
245971.08551025 3357477.28479004 15.85553932 130 141 137
245980.95477295 3357477.87896729 15.39032650 154 145 130
245969.42913818 3357477.32321167 15.47872448 146 143 128
245969.52270508 3357478.78549194 16.30850792 190 191 196
245985.12628174 3357478.67361450 15.08910751 196 193 124
245984.14068604 3357478.01342773 15.72057629 177 183 181
245984.66967773 3357479.23962402 15.15820217 89 81 60
245972.89898682 3357478.39852905 16.18131828 127 134 142
245969.45605469 3357478.74279785 16.28226089 252 252 250
245980.46618652 3357477.12289429 15.09477997 121 122 108
245980.35632324 3357478.26922607 15.33821964 222 226 229
245972.80273438 3357477.45571899 16.08387375 174 195 198
245983.46221924 3357479.31280518 15.94749451 208 220 232
245982.68884277 3357478.77297974 16.48018265 161 172 176
245983.59240723 3357478.00576782 15.66553211 186 191 187
245980.74731445 3357477.84466553 15.42691040 157 151 129
245969.32836914 3357478.56497192 16.12495995 199 194 191
245971.89318848 3357477.05935669 15.21047688 90 98 83
245970.71624756 3357477.98663330 16.60857773 57 67 79
245970.65057373 3357479.07070923 15.84669018 152 163 165
245981.40496826 3357477.80703735 15.07113743 149 146 139
245984.42333984 3357478.01208496 15.59869003 138 152 152
245973.24523926 3357479.09725952 15.48769188 20 27 33
245973.65594482 3357477.59176636 15.49017048 118 137 152
245969.30645752 3357478.35437012 15.85616779 252 253 245
245977.33789063 3357478.90161133 15.10797405 173 173 165
245969.96282959 3357477.47744751 16.43789673 63 69 69
245982.86724854 3357478.67437744 16.48999214 147 166 173
245971.96850586 3357477.29675293 15.86196613 120 132 130
245971.35266113 3357478.03491211 16.62338257 54 62 73
245981.73126221 3357479.04910278 16.24919701 209 214 218
245982.08288574 3357478.25775146 16.13031006 60 56 55
245983.77703857 3357478.49453735 16.28660965 55 73 95
245984.46118164 3357477.95745850 15.26190948 73 75 74
245980.70385742 3357478.22323608 15.57989407 190 200 212
245983.74615479 3357479.41433716 15.47889709 64 65 67
245980.74835205 3357477.46801758 15.20063210 149 144 138
245971.13262939 3357477.32806396 16.14963341 196 196 194
245970.05737305 3357477.24252319 15.37978363 92 94 89
245983.60119629 3357479.21151733 16.17033768 180 194 197
245970.32592773 3357477.93020630 16.55758858 233 238 241
245971.97137451 3357477.85336304 16.52208138 60 87 114
245983.59796143 3357477.71502686 15.06257343 95 96 91
245972.63537598 3357478.75027466 16.18882751 237 237 249
245973.70806885 3357477.64270020 15.35910892 80 92 104
245969.40515137 3357477.54724121 16.16130066 249 233 236
245982.14855957 3357478.70178223 16.32566833 230 235 238
245969.70544434 3357478.65286255 16.48362541 235 240 243
245983.86376953 3357478.86987305 16.24730682 115 133 153
245982.29394531 3357478.38253784 16.38444138 189 199 198
245973.15612793 3357477.32507324 15.36886597 65 69 70
245981.76837158 3357477.55035400 15.16080284 141 138 131
245972.75177002 3357478.86044312 16.15318489 233 240 250
245981.02886963 3357477.17214966 15.16439533 148 142 128
245983.21490479 3357479.32818604 15.85089207 183 193 202
245982.60498047 3357479.14559937 16.23466301 142 150 153
245972.70391846 3357477.30117798 15.28773022 23 28 24
245980.81695557 3357478.96948242 15.69100189 156 166 178
245985.03295898 3357477.60519409 14.98306656 241 230 122
245983.92895508 3357477.99853516 15.82608604 189 193 192
245973.07763672 3357479.03244019 15.95984268 170 205 225
245981.76092529 3357477.57333374 15.15795994 147 144 137
245972.45050049 3357477.10372925 15.21487141 92 100 87
245981.94268799 3357477.52252197 15.19398308 133 132 128
245969.52313232 3357477.02975464 15.25269413 121 133 111
245981.72906494 3357478.04244995 15.15986633 155 152 145
245969.17626953 3357478.20623779 15.39075565 197 190 174
245980.94604492 3357477.91882324 15.81386471 175 178 185
245980.75866699 3357478.31552124 15.64013863 185 197 209
245969.28497314 3357477.92834473 15.71721172 242 242 234
245985.11956787 3357478.31051636 15.41824818 157 163 153
245971.87420654 3357477.28979492 15.96049118 133 145 141
245972.67584229 3357478.58575439 16.19917488 172 178 190
245970.48950195 3357478.97982788 16.20892525 191 201 213
245969.48736572 3357477.12152100 15.22596836 136 140 125
245970.12725830 3357478.02987671 16.52953911 230 233 238
245981.98309326 3357477.79434204 15.06271935 145 144 140
245980.21813965 3357478.55493164 15.31259155 255 251 255
245971.36340332 3357479.00155640 16.13271904 183 195 207
245984.62188721 3357479.26986694 15.45904446 53 61 64
245971.44000244 3357477.79489136 16.62452888 118 125 133
245970.11224365 3357478.98440552 16.16588020 188 201 207
245984.45343018 3357479.28796387 15.61314774 162 175 183
245982.30792236 3357478.42382813 16.43191910 238 244 244
245969.92700195 3357477.68441772 16.42863464 231 235 236
245970.64007568 3357477.26773071 15.55648899 89 99 91
245981.15478516 3357478.91546631 15.87657070 249 251 250
245985.09588623 3357478.99255371 15.04183197 186 185 141
245972.25286865 3357478.52102661 16.24917412 74 91 107
245982.78234863 3357478.43975830 16.43818283 144 155 157
245969.27191162 3357478.08004761 15.72985744 244 245 239
245972.02258301 3357477.30685425 15.57091904 105 114 109
245984.08996582 3357478.03894043 15.87624454 188 195 188
245983.25347900 3357478.04586792 15.74561977 182 191 186
245981.99114990 3357477.20977783 15.10621071 172 165 159
245984.13018799 3357479.05004883 16.12738419 4 18 27
245983.79425049 3357478.99517822 16.29107666 142 159 177
245970.65228271 3357477.27172852 15.64714050 101 114 107
245984.69360352 3357478.61618042 15.80944061 185 196 202
245981.81884766 3357479.33456421 15.82094193 173 185 197
245985.00219727 3357478.05722046 15.31084538 166 172 162
245980.41577148 3357477.95138550 15.39663410 138 138 136
245981.25891113 3357479.24987793 15.80481148 215 224 233
245982.22216797 3357478.11950684 15.63021660 171 186 183
245973.68188477 3357478.69378662 15.67631435 145 160 179
245969.59381104 3357477.28475952 15.50980377 101 95 83
245982.00244141 3357478.20828247 16.01266670 225 225 223
245970.08862305 3357479.05938721 15.94765472 148 163 166
245969.97656250 3357477.12088013 15.24808598 117 121 107
245983.69171143 3357478.58441162 16.34416771 68 86 108
245982.93286133 3357478.19824219 16.02764511 34 29 33
245972.61621094 3357479.12976074 15.65477657 29 39 41
245984.33605957 3357477.72439575 15.02720833 105 107 106
245984.49493408 3357477.97351074 15.27812481 83 88 84
245970.09539795 3357478.96383667 16.19128990 208 219 225
245973.39569092 3357478.55816650 15.98622131 211 223 237
245983.10870361 3357477.93307495 15.10405731 125 126 121
245973.11932373 3357479.05761719 15.91111183 160 200 212
245983.43603516 3357478.95169067 16.41839600 250 251 253
245972.69982910 3357478.09982300 16.18891144 98 107 112
245982.78430176 3357478.09533691 15.69501114 189 195 191
245969.55871582 3357478.96783447 15.95862770 220 219 217
245980.47088623 3357478.97766113 15.57359695 247 255 255
245982.80981445 3357477.57983398 15.08697701 84 88 91
245983.16448975 3357477.45333862 15.05409241 73 72 67
245982.87164307 3357479.26815796 16.12867546 208 218 219
245969.39044189 3357478.75088501 16.09598160 155 137 137
245983.50061035 3357479.34609985 15.88471985 210 223 231
245973.36224365 3357477.43707275 15.94100475 130 160 170
245980.96337891 3357477.73675537 15.15691471 154 147 137
245982.56567383 3357478.08666992 15.43825912 169 180 176
245984.28289795 3357478.67929077 16.07689095 119 147 168
245983.60284424 3357479.17755127 16.25270844 43 59 58
245970.16424561 3357478.45974731 16.58855247 239 245 245
245971.45007324 3357478.72964478 16.62832642 184 216 229
