246087.74243164 3357608.74261475 14.06929684 201 201 203
246088.18139648 3357610.10565186 14.32901192 55 62 68
246088.04589844 3357608.60772705 13.42516518 117 108 101
246088.05664063 3357608.70465088 14.11852646 201 199 202
246089.36010742 3357608.53869629 13.69461823 94 94 94
246086.51000977 3357609.58892822 14.31481457 38 42 43
246088.64978027 3357609.59228516 13.67866898 153 145 132
246087.52124023 3357609.82714844 14.43130207 53 56 61
246086.29040527 3357609.08325195 13.70586967 79 74 71
246086.78393555 3357609.10772705 14.56924057 46 50 49
246087.10498047 3357610.21276855 14.08237457 76 77 82
246086.20275879 3357609.50317383 13.67909431 136 141 137
246088.65063477 3357609.61743164 14.24218559 52 65 74
246088.80981445 3357609.92895508 13.46666813 101 112 116
246087.82116699 3357608.80395508 14.21931839 51 51 49
246089.41796875 3357608.55023193 13.69004917 69 69 67
246086.91760254 3357609.46093750 14.45440006 21 25 24
246087.25451660 3357609.49310303 14.59934139 51 55 54
246086.44116211 3357609.86755371 14.29133224 53 57 58
246089.60717773 3357610.40625000 13.28853703 106 108 107
246087.31823730 3357609.21063232 14.61364841 144 144 144
246088.80871582 3357609.25555420 13.99670315 142 143 135
246087.32458496 3357608.71453857 13.82602692 55 53 56
246088.09826660 3357609.36804199 14.42303848 133 141 144
246089.28100586 3357608.53485107 13.72288036 90 88 89
246087.01708984 3357608.76812744 13.67746258 172 170 171
246088.00195313 3357609.96228027 14.33045959 57 60 67
246086.76586914 3357609.27178955 14.49671745 22 31 28
246089.62377930 3357609.52935791 13.41124916 147 144 135
246087.41870117 3357608.70355225 13.66181946 81 81 83
246086.40966797 3357610.14007568 14.09642887 53 58 52
246089.60009766 3357608.60437012 13.50492096 159 149 139
246088.59411621 3357608.58978271 14.01097870 90 90 90
246088.74108887 3357609.87780762 14.24435234 37 56 70
246087.97827148 3357609.50244141 14.40659237 105 110 114
246088.25134277 3357610.02691650 14.35579681 53 60 66
246088.70886230 3357608.54144287 13.79200363 82 81 77
246087.11804199 3357609.10076904 14.62110233 17 19 18
246089.03173828 3357608.50457764 13.61012936 114 113 111
246087.10485840 3357609.39782715 14.60066414 28 28 28
246089.42028809 3357608.73797607 13.54053593 156 151 147
246087.81628418 3357609.54150391 14.42250156 118 123 126
246085.83886719 3357609.54302979 13.49662971 68 45 31
246087.81665039 3357609.03393555 14.55991459 171 172 176
246087.89550781 3357609.25653076 14.48593235 133 137 140
246086.13378906 3357610.30621338 13.68047047 64 70 58
246088.37145996 3357608.55364990 13.49446297 121 116 112
246086.99719238 3357609.77545166 14.46077061 47 56 55
246089.05139160 3357608.72332764 14.20259285 135 145 147
246088.45349121 3357608.56811523 13.82214165 81 81 81
246089.39306641 3357608.95520020 13.56785965 150 146 135
246087.20861816 3357609.71209717 14.57080364 30 39 38
246086.31713867 3357610.57592773 13.70933914 53 55 52
246086.19128418 3357609.34387207 14.08640194 71 67 68
246088.74353027 3357609.93341064 13.51465607 101 116 119
246088.57324219 3357609.78991699 13.78042603 91 97 93
246086.71789551 3357608.86676025 13.69148636 67 68 70
246088.65771484 3357609.40863037 14.23358059 45 50 54
246089.32519531 3357608.72393799 14.03011703 176 176 178
246087.08496094 3357609.26397705 14.61766720 20 20 20
246085.99755859 3357609.47906494 13.49468136 102 98 89
246086.46264648 3357609.88458252 14.28529644 54 60 60
246085.79101563 3357609.51232910 13.49699593 59 51 30
246089.22680664 3357609.24743652 13.53292084 158 151 141
246087.94738770 3357608.87414551 14.31635380 98 99 101
246089.11975098 3357609.28045654 13.54178333 154 148 136
246088.83972168 3357609.58477783 13.29115582 159 155 144
246086.21057129 3357609.56842041 13.96585178 126 124 129
246086.07800293 3357610.44116211 13.61263561 52 59 41
246089.02441406 3357609.77795410 13.23805237 130 129 127
246085.86157227 3357609.22033691 13.44394779 111 113 102
246087.88293457 3357608.64276123 13.83550644 71 71 71
246088.83837891 3357609.94036865 13.62569714 89 104 109
246089.85461426 3357608.73168945 13.34290028 201 196 193
246088.89599609 3357609.36175537 13.69062996 144 140 129
246087.14489746 3357608.74133301 13.91915798 75 75 75
246088.00256348 3357609.10705566 14.53306770 143 146 151
246087.05603027 3357608.75982666 13.75726032 107 107 109
246086.32763672 3357610.32672119 13.87552071 61 63 58
246088.64343262 3357609.64239502 14.02516937 62 72 74
246088.31518555 3357609.29522705 14.41997433 145 152 160
246087.77136230 3357609.63958740 14.41028404 110 118 120
246087.77246094 3357608.81658936 14.22329044 39 39 37
246086.71301270 3357609.42645264 14.37050056 18 22 21
246089.30383301 3357609.67529297 13.39510536 154 147 137
246085.89086914 3357609.46264648 13.49095058 62 55 39
246087.43310547 3357608.73919678 14.06180096 109 109 111
246087.81286621 3357608.74487305 14.10776997 206 204 209
246086.76550293 3357610.08581543 14.24377728 22 32 23
246085.93493652 3357609.68682861 13.51032257 205 197 186
246086.04321289 3357610.39953613 13.59528351 51 60 39
246089.63244629 3357608.83190918 13.52300835 160 152 141
246088.99914551 3357609.71917725 13.24960423 146 143 138
246086.19348145 3357609.51385498 14.05638885 116 113 120
246087.04162598 3357608.75769043 13.98152924 138 136 137
246087.14245605 3357608.69738770 13.35796165 90 85 81
246087.89355469 3357609.44146729 14.43672466 125 129 132
246088.79882813 3357608.53381348 13.79085350 94 94 92
246087.37573242 3357608.73144531 13.98279572 79 79 79
246086.33325195 3357609.81103516 14.24665833 40 46 46
246086.61706543 3357609.60815430 14.31886578 20 26 26
246086.25329590 3357610.57122803 13.64463234 49 55 43
246087.28234863 3357608.72106934 13.84091663 54 52 55
246088.66345215 3357609.43218994 14.16539669 43 51 53
246089.51318359 3357609.38470459 13.44758892 155 147 136
246087.57434082 3357608.68176270 13.49723339 129 125 122
246086.24768066 3357609.99230957 13.92025375 51 53 48
246089.10559082 3357609.24078369 13.62892246 144 137 129
246089.21057129 3357608.96673584 13.91295528 89 94 97
246089.07531738 3357609.07934570 13.89952469 105 109 108
246088.58557129 3357608.52844238 13.48444366 118 115 110
246089.37170410 3357610.28210449 13.42130661 72 81 78
246089.74304199 3357610.10906982 13.29771328 135 135 135
246089.51818848 3357608.64404297 13.52438545 159 150 143
246086.19641113 3357609.40020752 13.78246307 148 150 147
246086.23583984 3357610.69848633 13.59012699 71 76 53
246088.47546387 3357609.97540283 13.43991661 97 102 98
246087.72961426 3357608.67242432 13.87968636 64 62 63
246089.78344727 3357608.73010254 13.39694595 164 155 148
246087.56884766 3357609.64886475 14.46055508 60 61 65
246089.42980957 3357610.07202148 13.32200623 109 111 108
246087.71826172 3357609.39953613 14.47998905 120 124 125
246089.61206055 3357608.90106201 13.51918602 159 151 138
246086.18859863 3357610.56628418 13.60774994 61 68 52
246089.57763672 3357609.29888916 13.45304680 156 150 138
246088.55175781 3357609.85662842 13.45861053 133 138 131
246086.24792480 3357610.11853027 13.88049221 78 80 77
246088.55603027 3357609.53082275 14.32801533 144 153 162
246087.85339355 3357609.14630127 14.53228855 140 141 145
246086.17346191 3357609.41986084 14.04462337 102 100 103
246089.26123047 3357608.67773438 14.08170319 150 150 152
246089.63159180 3357609.48217773 13.41302109 149 145 136
246086.97460938 3357608.77606201 13.63489532 166 160 160
246089.01281738 3357608.54315186 13.89589787 78 78 76
246085.74133301 3357609.72131348 13.50279903 84 72 30
246087.53503418 3357608.59393311 13.33829403 132 124 113
246089.29675293 3357608.88238525 13.93239212 39 40 44
246086.95910645 3357610.10925293 14.22508621 162 165 154
246089.11096191 3357610.00402832 13.35225582 100 98 101
246089.39892578 3357610.47735596 13.56541252 46 50 49
246088.80395508 3357609.25671387 14.00804043 96 102 98
246089.27172852 3357609.89807129 13.31194019 115 111 110
246088.67944336 3357609.91455078 13.37015724 130 132 129
246089.05419922 3357609.17407227 13.77572727 131 128 121
246086.10827637 3357610.48559570 13.60970879 52 59 43
246089.26318359 3357608.52349854 13.60386848 79 78 76
246086.98925781 3357609.75543213 14.46568966 43 52 51
246086.21203613 3357609.15808105 13.72171307 76 72 71
246087.87695313 3357608.74267578 14.12514019 189 187 192
246089.42114258 3357609.58587646 13.43010521 158 151 141
246088.72705078 3357609.55407715 13.39870167 179 171 158
246089.34851074 3357610.03460693 13.31726170 107 107 105
246087.70275879 3357609.36956787 14.49098396 123 124 126
246089.37963867 3357610.32110596 13.68809032 38 44 44
246086.83642578 3357609.31994629 14.49215984 23 29 27
246089.87023926 3357608.89038086 13.35290813 202 197 193
246087.39746094 3357609.85266113 14.46016216 60 67 73
246088.32922363 3357609.92999268 14.38014126 66 73 79
246086.22668457 3357609.56353760 14.11490917 108 107 112
246086.16906738 3357610.54797363 13.60759354 61 68 52
246088.47644043 3357608.53814697 13.50834656 113 108 102
246088.14318848 3357608.58941650 13.50115681 123 118 112
246086.89001465 3357609.70892334 14.40323448 24 32 34
246086.32983398 3357609.12066650 14.16080379 179 102 118
246088.93115234 3357609.22424316 13.87258148 138 135 128
246087.01440430 3357609.41992188 14.53548431 23 27 26
246087.12414551 3357609.88897705 14.51282215 10 16 14
246087.67419434 3357609.86230469 14.38350773 48 55 61
246088.83081055 3357609.92773438 14.13602257 40 58 70
246089.40588379 3357608.85626221 13.73488235 160 157 152
246086.04602051 3357610.59692383 13.54732037 45 53 30
246086.37878418 3357609.19378662 14.26609898 94 78 79
246086.67602539 3357608.89575195 13.64850330 63 63 63
246089.24243164 3357610.10095215 13.44504166 79 84 88
246088.41223145 3357608.54864502 13.64461517 111 107 104
246087.47387695 3357608.72644043 14.01474667 78 78 80
246088.93920898 3357609.70874023 13.23628139 135 132 127
246086.73645020 3357608.85339355 13.71623611 67 68 70
246087.04003906 3357609.93963623 14.46501732 66 70 71
246089.45361328 3357608.68591309 13.59637070 145 141 138
246088.48901367 3357609.10003662 14.46515846 182 195 201
246089.39807129 3357610.47467041 13.56234264 46 50 49
246088.68493652 3357609.19049072 14.27606773 67 77 86
246088.61083984 3357609.82238770 13.40613937 132 138 128
246088.23486328 3357609.24322510 14.45044041 145 150 156
246089.64294434 3357608.93963623 13.47924614 162 154 141
246089.11132813 3357608.51489258 13.69314003 88 88 88
246085.97375488 3357609.35638428 13.48248386 95 95 85
246088.00085449 3357608.61083984 13.53532028 122 117 113
246088.00488281 3357610.22338867 14.30646706 25 30 36
246086.63757324 3357609.36279297 14.38543701 26 28 27
246086.87854004 3357609.03472900 14.49254513 200 201 203
246089.40502930 3357608.58276367 13.81414986 119 121 120
246089.21264648 3357609.68127441 13.35165977 159 150 141
246086.85839844 3357609.38372803 14.45288754 21 27 25
246087.94055176 3357609.66955566 14.36796474 123 128 134
246088.99877930 3357609.80975342 13.23911381 113 109 108
246087.49084473 3357609.03186035 14.52011204 251 255 255
246088.69763184 3357609.87170410 13.98455429 65 82 89
246089.71142578 3357608.64044189 13.43957233 153 143 134
246086.44213867 3357609.83746338 14.29510212 45 49 48
246089.42602539 3357610.51879883 13.47653484 52 54 53
246086.48181152 3357610.03875732 14.20072460 65 71 67
246086.24487305 3357609.61511230 13.71169281 128 129 124
246087.59741211 3357609.94519043 14.38461781 51 56 60
246086.19384766 3357609.18389893 14.02778816 166 152 151
246087.19787598 3357610.25628662 14.10090542 127 127 137
246088.68762207 3357609.94592285 13.57928753 99 113 114
246085.87329102 3357609.44073486 13.48649025 59 56 39
246086.68908691 3357608.90661621 13.55872822 66 64 65
246086.80212402 3357608.82519531 13.59198380 60 58 59
246088.65551758 3357609.87847900 13.89086056 85 99 102
246089.04663086 3357609.91571045 13.25988674 111 105 105
246089.52990723 3357609.31225586 13.46097946 158 150 139
246088.74731445 3357609.93676758 13.71650887 90 105 112
246086.37585449 3357610.26269531 13.96916580 88 90 85
246086.66394043 3357610.29858398 14.08393097 40 45 39
246086.40344238 3357610.07452393 14.14519787 41 46 42
246086.00903320 3357609.72875977 13.51952362 129 131 117
246086.30395508 3357609.32275391 14.21380138 118 108 106
246086.48693848 3357610.51708984 13.98161411 78 77 72
246087.26574707 3357609.76403809 14.54091167 50 56 56
246089.84191895 3357609.77178955 13.32798290 174 176 175
246087.43066406 3357609.40338135 14.56133270 123 124 126
246088.65148926 3357609.82653809 13.37347317 134 137 128
246086.95422363 3357609.23968506 14.59816933 29 35 33
246088.41735840 3357609.23028564 14.42211914 153 162 167
246086.19104004 3357609.12695313 13.35072899 94 91 84
246088.38134766 3357608.82086182 14.29348564 52 52 54
246087.78576660 3357608.57440186 13.36525154 143 133 121
246088.49450684 3357609.94433594 14.39275932 71 80 87
246087.10754395 3357609.96582031 14.47348881 42 47 43
246088.63525391 3357609.63549805 14.00027847 63 72 71
246087.13952637 3357609.70867920 14.55575371 10 19 18
246089.12414551 3357609.63934326 13.33674240 159 150 141
246088.74401855 3357609.91400146 13.37037373 130 132 129
246088.49401855 3357609.36645508 14.36752892 158 167 174
246088.49133301 3357608.85614014 14.34759712 160 163 168
246089.83361816 3357609.53784180 13.34139538 163 162 157
246087.73950195 3357608.66485596 13.71327400 93 93 93
246088.55883789 3357608.53503418 13.59904766 121 117 116
246088.81481934 3357609.95068359 13.69768810 82 96 105
246088.91320801 3357609.21148682 13.92086124 137 134 127
246086.25427246 3357609.85388184 13.72012329 29 30 24
246086.69226074 3357608.93402100 13.43242455 107 103 100
246089.79736328 3357609.59320068 13.34335327 144 143 139
246086.84301758 3357608.81878662 13.89556694 117 115 116
246089.42565918 3357608.60931396 13.86127472 184 184 184
246087.65454102 3357609.76641846 14.41094971 59 64 68
246088.72692871 3357609.84197998 14.13016605 50 69 83
246088.74755859 3357609.47436523 13.76293755 152 146 134
246086.78454590 3357609.00939941 14.40140915 220 218 219
246086.62219238 3357609.96380615 14.25914192 21 22 26
246089.35498047 3357609.53668213 13.44926071 166 158 147
246088.35949707 3357610.23571777 14.36436176 41 45 48
246086.62585449 3357609.74334717 14.30694008 20 24 23
246089.84899902 3357609.01446533 13.33590126 196 193 188
246089.63623047 3357609.89746094 13.34010792 137 138 132
246089.51855469 3357610.62091064 13.34857845 82 84 83
246088.05676270 3357608.62731934 13.84180164 63 62 60
246086.44018555 3357609.17950439 14.30797768 83 79 78
246087.78479004 3357610.30535889 14.28532124 30 33 38
246088.69335938 3357609.53381348 13.66837215 157 151 139
246087.86608887 3357610.12884521 14.31271935 50 57 63
246086.29101563 3357609.57562256 14.20461845 56 56 56
246087.65368652 3357610.22674561 14.30749226 39 43 44
246088.53125000 3357609.95623779 13.39395332 121 126 120
246088.30310059 3357610.06927490 14.37023354 61 68 74
246088.71240234 3357609.93859863 13.50836372 102 117 120
246085.81298828 3357610.15319824 13.54883766 39 43 26
246089.28942871 3357609.44110107 13.47723484 164 156 145
246087.20568848 3357608.73614502 13.73976421 172 170 171
246087.70104980 3357610.34472656 14.26165581 30 34 37
246087.91528320 3357609.94146729 14.33062840 52 60 63
246086.41284180 3357608.89562988 13.28803635 112 109 102
246087.81713867 3357609.66400146 14.39275169 110 118 121
246086.34289551 3357609.84338379 14.25199795 36 40 39
246087.06860352 3357609.05297852 14.54123688 184 185 187
246089.55505371 3357609.47106934 13.43286324 149 145 134
246088.38623047 3357608.89294434 14.39922714 196 204 207
246088.68273926 3357609.92779541 13.39776230 128 130 129
246088.46142578 3357610.23602295 14.38450909 38 44 44
246086.81201172 3357609.27691650 14.51415157 21 30 27
246089.27404785 3357609.87689209 13.31282234 123 119 118
246089.01525879 3357610.04693604 14.10322857 64 79 86
246089.74682617 3357608.67620850 13.41754532 159 149 140
246089.60241699 3357609.81140137 13.35298252 135 136 130
246089.43444824 3357608.62652588 13.83663940 200 200 200
246089.52380371 3357608.63262939 13.52194405 159 150 143
246086.38366699 3357610.01953125 14.17481899 34 39 35
246089.48193359 3357610.04376221 13.32386112 116 116 114
246089.33532715 3357609.40740967 13.48074627 167 159 148
246089.08813477 3357609.15393066 13.76021767 127 124 117
246086.25305176 3357609.81390381 14.04045773 54 56 53
246087.63745117 3357608.68347168 13.88029385 65 63 64
246087.94848633 3357609.49487305 14.41346931 110 115 119
246089.02832031 3357609.70202637 13.26899338 149 144 138
246086.37976074 3357609.02160645 13.90658092 104 69 76
246086.26623535 3357609.67224121 14.14846230 51 52 54
246087.65014648 3357608.66442871 13.41515446 138 129 122
246089.40722656 3357610.43676758 13.70377636 46 48 47
246086.17272949 3357609.35516357 13.87960243 134 133 129
246088.93725586 3357609.23950195 13.83526325 139 134 128
246089.18078613 3357610.10418701 13.95439529 74 87 96
246086.41149902 3357609.00811768 13.85316944 84 68 68
246088.67810059 3357609.56268311 13.60090828 158 150 139
246089.49707031 3357609.75769043 13.37053490 141 138 131
246089.26464844 3357610.13085938 13.52245998 76 81 85
246088.66564941 3357609.92254639 13.84322262 77 90 98
246086.27343750 3357609.86596680 13.78162003 74 74 72
246086.25183105 3357609.74511719 13.70980358 73 74 68
246089.56823730 3357609.38317871 13.43511963 152 145 135
246089.65710449 3357610.04339600 13.31389046 128 128 128
246086.38598633 3357609.98962402 14.19812107 39 45 41
246089.84985352 3357609.83654785 13.32625008 170 172 171
246086.77868652 3357608.95349121 14.27706432 180 180 182
246086.22180176 3357610.01519775 13.79890251 34 37 30
246086.03918457 3357610.31756592 13.61151695 50 59 40
246089.06384277 3357610.22778320 14.25446033 55 57 54
246086.84570313 3357609.69848633 14.37227726 18 27 26
246086.04882813 3357609.61474609 13.51518250 161 162 157
246087.52612305 3357608.68939209 13.81827259 83 83 83
246087.29870605 3357609.13140869 14.59341240 158 158 158
246088.54382324 3357609.44671631 14.34826279 147 156 163
246088.72949219 3357608.72375488 14.26151085 37 37 35
246089.26904297 3357608.54833984 13.82757473 99 99 99
246088.95397949 3357609.73754883 13.23301411 147 143 140
246089.67272949 3357609.57623291 13.38405609 147 143 134
246087.65808105 3357610.17718506 14.31952095 53 58 61
246089.32653809 3357609.42755127 13.47810268 167 159 148
246086.40185547 3357609.02105713 14.12549686 207 186 193
246087.64770508 3357609.94189453 14.37270451 50 55 61
246088.78979492 3357609.60571289 13.29514122 166 162 151
246087.27990723 3357608.71911621 13.47681808 67 63 60
246086.31665039 3357610.58508301 13.70346642 53 55 52
246089.09082031 3357608.55212402 13.92545128 96 98 97
246087.11523438 3357610.16418457 14.13308620 78 79 83
246089.13830566 3357609.07696533 13.82897377 120 121 116
246089.28198242 3357608.81091309 14.00878143 34 39 42
246089.52014160 3357609.58380127 13.43111610 150 148 136
246088.86108398 3357610.15344238 14.37947464 33 42 41
246089.63842773 3357608.83569336 13.51648998 160 152 141
246086.64379883 3357609.00640869 14.29903126 235 236 238
246088.58935547 3357609.98461914 13.46883202 104 113 110
246089.04650879 3357608.59051514 14.10155201 198 198 198
246088.55957031 3357609.95581055 14.38639069 73 83 92
246086.94177246 3357608.93212891 14.31299782 125 125 127
246087.22497559 3357608.73254395 13.75974751 60 58 61
246089.25512695 3357608.89483643 13.95823383 36 43 49
246086.20422363 3357609.11151123 13.99658680 108 83 86
246089.32446289 3357608.53558350 13.69698811 92 92 92
246086.72265625 3357609.78137207 14.32465744 19 23 26
246088.49279785 3357610.03289795 13.38201427 108 113 107
246089.31542969 3357608.55065918 13.79533958 94 94 94
246088.50756836 3357610.17022705 14.40455914 31 35 38
246089.52941895 3357610.58471680 13.33679390 124 128 129
246086.76916504 3357609.63256836 14.34023762 21 26 29
246086.49621582 3357608.98358154 14.10629463 121 123 122
246086.87341309 3357609.39526367 14.45094109 21 27 25
246086.46826172 3357609.45794678 14.32037926 50 56 56
246087.59472656 3357609.84252930 14.40869999 54 59 63
246086.23645020 3357610.40338135 13.72800350 43 45 40
246089.30163574 3357608.62219238 14.00077629 225 221 222
246089.69287109 3357609.08215332 13.41022015 157 148 139
246085.81555176 3357609.95849609 13.52950573 62 65 38
246086.01538086 3357609.34960938 13.49615479 116 113 106
246088.86584473 3357609.31451416 13.82887363 149 142 132
246086.57360840 3357609.76684570 14.30234146 22 26 25
246089.07568359 3357610.08013916 14.09832287 96 106 115
246087.72009277 3357608.67285156 13.86110973 64 62 63
246087.13830566 3357610.19958496 14.10385513 81 82 87
246087.00427246 3357610.13000488 14.15223885 126 124 125
246086.45104980 3357610.30352783 14.00854969 63 68 62
246088.16955566 3357609.09552002 14.51416874 151 159 162
246088.96472168 3357609.41369629 13.46926594 160 154 142
246087.82104492 3357609.41485596 14.45564938 127 131 134
246086.84313965 3357608.78283691 13.38899326 90 87 82
246086.95324707 3357608.79223633 14.00887775 116 116 114
246086.41845703 3357610.14276123 14.09989166 53 58 52
246089.40856934 3357610.37268066 13.42935371 72 78 76
246089.17395020 3357609.94140625 13.29883671 100 98 99
246087.29077148 3357609.83123779 14.51099873 46 52 52
246086.64221191 3357608.82208252 13.28022480 163 156 146
246086.25500488 3357609.83117676 13.94505310 65 67 64
246086.62231445 3357609.59362793 14.32067013 16 22 22
246089.23779297 3357609.17761230 13.55496025 152 145 137
246088.82446289 3357609.63085938 13.25071430 156 154 142
246088.36535645 3357608.72698975 14.20222282 25 25 27
246086.38171387 3357609.06896973 14.15961170 255 214 227
246089.86181641 3357608.68750000 13.33134842 201 198 193
246085.96765137 3357609.80023193 13.52389622 95 92 73
246089.49816895 3357608.87133789 13.56028271 149 144 138
246088.33093262 3357609.41326904 14.38108730 134 142 145
246088.51892090 3357608.53265381 13.43419266 122 115 109
246087.58276367 3357608.67858887 13.57943535 96 95 93
246088.31359863 3357610.16516113 14.36695671 24 32 35
246088.92419434 3357609.81085205 13.23651123 125 119 119
246086.23034668 3357609.78295898 13.67075062 26 27 21
246086.19616699 3357609.48144531 13.68117619 136 141 137
246086.57873535 3357609.96069336 14.25892544 30 34 35
246088.29724121 3357609.38287354 14.38453293 141 146 152
246089.39611816 3357610.39758301 13.78600788 46 47 49
246087.09448242 3357609.13177490 14.64674568 20 22 21
246088.49243164 3357608.61566162 14.04730511 137 138 142
246086.15563965 3357610.39379883 13.67880630 58 64 52
246087.73986816 3357608.65588379 13.44038105 142 135 129
246086.93750000 3357609.98272705 14.37503910 48 52 53
246089.38671875 3357610.37023926 13.62104797 43 47 48
246086.26733398 3357609.88977051 14.01870632 48 50 45
246085.76574707 3357609.59411621 13.49454689 46 32 3
246086.57263184 3357608.96289063 13.63338375 67 65 66
246088.87463379 3357609.93981934 13.55406284 97 110 116
246086.64282227 3357608.93817139 13.56166840 68 67 65
246086.81689453 3357609.45019531 14.38212299 20 24 25
246088.53112793 3357609.85461426 13.62406731 109 115 111
246086.50646973 3357609.68359375 14.30852890 46 47 49
246088.48632813 3357608.76226807 14.24517632 53 53 53
246089.18750000 3357610.05969238 13.60836506 65 74 81
246089.72705078 3357609.41833496 13.38680649 149 144 138
246088.15185547 3357608.91418457 14.39255619 102 103 108
246086.69531250 3357609.12408447 14.52079773 25 29 28
246088.59338379 3357609.96130371 13.66476822 98 109 111
246088.27966309 3357608.56140137 13.39093208 119 112 104
246085.73754883 3357609.93328857 13.52171898 57 61 24
246088.54077148 3357609.90026855 13.71622372 96 106 105
246086.37072754 3357610.19213867 14.02627277 87 94 87
246088.15270996 3357608.73852539 14.21223259 59 58 63
246088.42761230 3357609.27935791 14.39326096 147 156 161
246088.44555664 3357609.50433350 14.36954212 136 147 151
246087.63391113 3357608.67315674 13.54565144 128 124 121
246086.32861328 3357610.53112793 13.75132847 69 71 68
246088.67016602 3357609.71783447 14.25604630 41 53 65
246086.01135254 3357609.12493896 13.34551716 78 77 72
246086.19970703 3357609.70599365 13.61180973 28 31 24
246088.56665039 3357609.82299805 14.34971905 93 103 113
246089.19104004 3357609.37713623 13.49162674 160 151 142
246089.74084473 3357609.03399658 13.38641739 149 142 132
246089.40429688 3357610.39410400 13.48860550 56 62 60
246087.06652832 3357609.95343018 14.47135925 56 61 57
246086.40258789 3357609.07800293 13.54356003 53 51 52
246088.26257324 3357610.22381592 14.34714222 30 35 38
246088.21362305 3357609.79278564 14.35620785 80 87 93
246087.92700195 3357608.77850342 14.20711040 40 40 40
246089.84057617 3357608.76177979 13.35778332 203 198 194
246087.99353027 3357610.02795410 14.32411003 44 49 55
246088.79846191 3357609.92065430 14.03164196 36 54 64
246087.73291016 3357608.66540527 13.69433594 97 97 95
246087.67150879 3357608.92144775 14.31904602 51 51 51
246087.33593750 3357609.35723877 14.59961510 125 125 127
246085.73669434 3357610.02075195 13.53042698 35 44 13
246086.58935547 3357608.94903564 13.65760040 68 66 67
246088.05700684 3357608.89654541 14.35198212 117 120 127
246086.92053223 3357609.27838135 14.56336212 21 27 25
246086.92602539 3357608.80065918 13.99229050 136 136 136
246087.77282715 3357608.85058594 14.26117611 47 47 45
246086.40075684 3357609.30334473 14.29031944 81 81 81
246086.18176270 3357609.30853271 13.72211552 62 64 61
246087.13903809 3357610.07189941 14.39668751 71 75 74
246089.12414551 3357609.58380127 13.37105179 159 151 140
246087.17175293 3357608.74694824 13.49850273 220 214 214
246086.07641602 3357609.27197266 13.39199162 66 62 59
246088.05493164 3357609.36846924 14.42998314 138 143 147
246086.47058105 3357609.91046143 14.27524948 53 59 59
246088.13793945 3357609.95697021 14.33415890 64 71 77
246087.11560059 3357608.74304199 14.03641796 117 116 114
246088.54882813 3357610.12872314 14.41104317 26 31 35
246089.31933594 3357610.20648193 13.54239082 75 83 86
246089.59313965 3357610.16845703 13.29611206 111 111 111
246086.39807129 3357610.45416260 13.89339542 59 61 58
246088.14965820 3357609.28546143 14.44667435 142 150 153
246089.00012207 3357609.28625488 13.69015503 142 135 125
246087.93566895 3357608.62927246 13.75107574 94 93 91
246086.47509766 3357609.02478027 13.43992424 113 110 105
246087.83508301 3357608.65838623 13.87674332 59 59 59
246088.64660645 3357609.11370850 14.36696911 72 81 90
246086.03601074 3357610.37622070 13.59588242 49 58 37
246087.14428711 3357610.12261963 14.27062511 129 127 130
246086.23791504 3357609.35156250 14.16478443 109 99 97
246089.23205566 3357608.54772949 13.85692406 97 97 97
246087.24121094 3357609.49322510 14.60169125 65 69 68
246086.18798828 3357609.33685303 13.75297737 89 91 88
246089.40454102 3357608.78973389 13.56561375 126 125 121
246088.17272949 3357608.58111572 13.65025997 111 107 104
246087.27001953 3357608.94281006 14.35015488 52 54 53
246088.61206055 3357609.20379639 14.35114098 87 94 104
246086.15551758 3357609.45629883 13.59809875 87 87 85
246086.91247559 3357609.68164063 14.42220688 35 41 41
246087.11621094 3357608.76593018 14.10192394 107 107 107
246086.73815918 3357610.44903564 14.04343414 55 58 51
246088.31091309 3357608.56549072 13.43233585 123 118 112
246087.36706543 3357609.44311523 14.57123470 119 120 122
246088.68518066 3357609.94335938 13.73649025 89 102 108
246086.23388672 3357609.65075684 13.96184826 119 119 127
246089.31579590 3357608.58624268 13.90724850 178 178 178
246087.33618164 3357609.14221191 14.59248734 157 157 157
246087.84863281 3357608.64385986 13.70035458 97 97 95
