245583.73980713 3357432.71246338 20.24362183 80 85 91
245585.63647461 3357434.43600464 19.75759888 29 40 44
245586.34271240 3357433.53671265 20.61836815 194 222 236
245585.88476563 3357439.00936890 20.11204338 11 18 28
245585.58410645 3357437.90908813 20.07254410 95 117 131
245583.95672607 3357443.19534302 19.67157936 16 19 26
245586.82958984 3357443.16366577 19.91247368 140 156 179
245585.34558105 3357442.90487671 20.40162086 58 89 107
245585.42132568 3357432.63369751 20.19370842 59 68 77
245584.56347656 3357432.96868896 20.41197586 0 0 0
245584.75781250 3357442.46240234 20.77073097 2 3 5
245586.59204102 3357440.32336426 20.18834305 37 44 60
245586.08984375 3357440.60864258 20.30813408 37 54 72
245585.38751221 3357433.15423584 20.82623482 23 46 62
245586.68719482 3357439.27661133 19.79560471 45 52 58
245586.64068604 3357434.26443481 19.75498390 25 32 40
245584.23352051 3357442.99526978 20.25798416 30 31 36
245585.94628906 3357442.63519287 19.87525558 108 108 118
245585.14544678 3357441.38873291 19.74488258 26 36 45
245584.81567383 3357437.70718384 20.64090729 27 53 66
245584.91680908 3357440.21237183 20.44222641 58 93 113
245586.76544189 3357441.10806274 19.64257431 47 57 66
245586.11834717 3357440.54650879 20.28425026 35 52 70
245584.42358398 3357440.97494507 20.45260239 7 16 25
245584.45941162 3357443.09146118 20.16298103 5 9 12
245584.35314941 3357443.09411621 20.45385551 108 112 121
245584.74468994 3357437.90252686 20.74541283 22 44 67
245586.73919678 3357437.13232422 19.65647507 97 101 110
245585.64495850 3357442.47042847 20.04810715 26 40 49
245584.18981934 3357437.18841553 20.91781998 9 26 36
245586.34393311 3357432.89053345 20.60437584 193 219 234
245586.73925781 3357433.58255005 20.42817688 179 212 231
245584.00787354 3357443.06448364 20.63805962 134 143 158
245586.25140381 3357440.74713135 20.34096909 14 29 50
245585.62237549 3357441.60534668 19.73212624 44 53 60
245585.81457520 3357442.63037109 19.94270515 15 19 28
245584.85150146 3357441.75180054 19.97334290 37 47 56
245586.30041504 3357441.03329468 20.08300972 14 19 23
245586.65661621 3357434.07235718 20.40479279 124 146 169
245586.18511963 3357442.29309082 19.78066444 71 79 92
245584.69805908 3357432.97988892 20.13492966 107 116 125
245586.25036621 3357440.87918091 20.31764984 40 52 68
245584.41394043 3357441.11596680 20.37372589 25 35 45
245585.83410645 3357438.34957886 20.30889130 126 148 169
245584.90594482 3357439.41033936 20.32383537 24 35 39
245586.55773926 3357441.06454468 19.75246239 24 31 39
245584.74670410 3357441.70693970 19.99528122 33 43 52
245587.06842041 3357433.79302979 20.02009010 40 49 64
245583.79974365 3357442.74499512 20.30543137 65 78 95
245585.09014893 3357438.65579224 20.37996292 104 124 148
245584.11926270 3357438.44537354 20.52828217 0 7 21
245584.01269531 3357443.23117065 19.66041946 28 31 38
245585.73773193 3357440.59103394 20.29165649 52 69 89
245585.39514160 3357442.42773438 20.32301903 6 14 17
245584.93786621 3357437.19711304 19.78106117 75 88 104
245586.71252441 3357440.74392700 19.74836159 31 38 48
245584.13031006 3357442.95794678 19.89956474 3 8 11
245586.56280518 3357441.11178589 19.73978043 28 35 43
245584.83227539 3357438.97058105 20.24248314 57 69 81
245585.73645020 3357439.32095337 20.31771278 27 36 45
245584.29724121 3357443.27606201 19.68274307 19 20 25
245586.47991943 3357432.66058350 20.40069580 150 164 175
245585.09637451 3357432.91961670 20.93995857 52 60 73
245584.34759521 3357443.54891968 19.62335396 18 19 24
245584.53002930 3357441.66558838 20.08044624 34 44 54
245584.76123047 3357442.61022949 20.92089081 4 5 9
245586.53277588 3357439.20861816 19.90320206 35 42 48
245584.82067871 3357433.28640747 21.13411140 38 47 76
245585.31250000 3357441.93594360 19.88419342 38 46 49
245586.53680420 3357439.31454468 19.96104431 38 46 49
245585.41558838 3357438.50442505 20.41429710 155 175 199
245585.39331055 3357432.75466919 20.50524330 48 58 70
245585.05438232 3357434.24487305 20.33857346 119 137 151
245586.98162842 3357442.45660400 19.83927536 50 61 67
245585.37774658 3357437.63858032 19.94855881 97 118 139
245584.44750977 3357443.10488892 20.42027283 97 101 112
245584.44873047 3357440.78521729 20.49239731 13 31 43
245583.80975342 3357442.86016846 20.81717873 69 86 104
245586.17779541 3357433.91305542 20.65004921 202 221 238
245584.20196533 3357439.66418457 20.07193375 8 17 22
245584.72521973 3357438.03836060 20.76509857 30 56 79
245583.73907471 3357435.01000977 20.28342819 9 38 68
245585.79101563 3357432.92440796 20.74132729 30 55 77
245586.46118164 3357437.85229492 20.03010368 29 51 74
245583.99157715 3357442.61099243 21.05700493 83 88 92
245584.24133301 3357434.27337646 20.12727928 112 126 137
245584.70312500 3357432.94778442 20.76523972 16 16 24
245585.44622803 3357439.31918335 20.29436111 52 62 74
245586.90979004 3357440.61886597 19.66624641 49 56 64
245586.85412598 3357442.64718628 19.87922478 162 182 193
245585.05316162 3357443.26568604 19.85821342 80 81 86
245584.01177979 3357442.96517944 20.95127487 118 128 140
245584.87469482 3357433.63439941 21.13507843 73 85 107
245586.54638672 3357434.09185791 20.45916367 174 196 219
245584.40985107 3357434.36587524 19.85247421 12 19 25
245585.03503418 3357432.88699341 20.22486877 116 128 140
245586.45446777 3357439.63092041 20.24947166 186 197 203
245586.47894287 3357442.89218140 19.82728386 81 94 110
245586.69305420 3357441.31066895 19.66441536 44 53 60
245584.34729004 3357439.22396851 19.72782898 30 44 57
245586.31823730 3357438.62149048 19.95432281 127 135 146
245585.30926514 3357434.25668335 20.26918602 114 136 150
245584.34161377 3357439.54467773 19.97947884 19 23 32
245586.70098877 3357437.80398560 19.86280632 7 16 33
245585.46020508 3357433.62530518 20.71099091 37 64 81
245586.53668213 3357442.82678223 19.82359123 87 98 116
245586.00299072 3357442.34320068 19.79684448 58 63 69
245584.67205811 3357441.58871460 19.95050049 33 42 49
245585.76568604 3357433.35443115 20.70418167 75 119 118
245586.59643555 3357432.72402954 20.41163635 45 65 76
245583.93634033 3357442.99493408 19.76411247 10 15 21
245585.24621582 3357441.92092896 19.90393448 35 43 46
245584.90698242 3357443.10748291 20.39210320 23 36 52
245586.40161133 3357438.45874023 19.97559929 85 100 119
245586.43481445 3357443.52590942 19.84618759 90 100 110
245586.94732666 3357442.39596558 19.85462570 52 61 68
245586.87878418 3357433.17532349 20.38649940 145 167 191
245585.99951172 3357433.60708618 20.69776154 12 25 42
245585.07373047 3357437.27261353 20.28671074 122 137 156
245585.59869385 3357439.27828979 20.29222107 29 38 47
245584.11999512 3357432.90222168 20.48891068 78 87 92
245585.84460449 3357433.20800781 20.73023415 24 52 63
245585.99798584 3357440.04129028 20.16096497 53 70 88
245585.55664063 3357440.50039673 20.35522079 57 75 95
245585.38562012 3357438.49606323 20.44254875 155 175 199
245586.88690186 3357438.96932983 19.66229248 53 60 68
245584.51092529 3357441.63940430 20.08296585 34 44 54
245584.33227539 3357440.48110962 20.47620583 23 67 96
245585.42572021 3357441.07656860 20.23035049 3 8 14
245586.84649658 3357434.34277344 19.72414970 39 48 55
245585.14080811 3357434.36264038 19.84063148 18 25 33
245583.85827637 3357434.31384277 20.43348312 124 140 156
245584.05609131 3357434.25979614 20.56544685 151 167 183
245586.01770020 3357439.32452393 20.22091484 24 31 41
245585.81707764 3357437.46923828 19.75853348 75 86 104
245584.84368896 3357438.09066772 20.68253708 39 67 91
245585.09173584 3357434.28472900 19.89859581 53 60 70
245584.45269775 3357442.92059326 20.93724823 97 106 121
245584.02111816 3357443.02133179 20.54246712 109 117 128
245584.28186035 3357439.74057007 20.23055840 48 57 72
245585.29357910 3357441.04534912 20.35470963 3 7 16
245584.71838379 3357439.23876953 20.33999825 16 20 31
245585.18469238 3357434.22851563 20.53674507 157 174 190
245586.40563965 3357437.55715942 19.89235306 32 50 74
245585.26403809 3357439.75744629 20.50594711 19 27 38
245586.06066895 3357433.95730591 20.67774773 191 207 222
245584.34863281 3357443.59454346 19.62327957 16 17 22
245583.85754395 3357433.08447266 20.93509483 138 147 154
245584.39257813 3357440.89068604 20.46364021 20 34 43
245584.93316650 3357442.23025513 20.39340973 7 12 16
245586.30395508 3357433.20642090 20.64138794 190 218 232
245585.95007324 3357441.07739258 20.02118111 14 22 33
245583.98669434 3357443.10107422 19.70525360 51 54 61
245583.93945313 3357433.06427002 20.94298553 139 149 158
245584.95117188 3357442.54107666 20.89876175 5 12 20
245586.35656738 3357438.44586182 20.12050247 136 160 186
245586.69879150 3357443.27389526 19.94596100 195 204 219
245585.08233643 3357439.83737183 20.39146805 76 104 126
245584.37280273 3357437.63552856 20.99805260 181 207 242
245586.25671387 3357442.75668335 19.80982018 100 108 127
245586.09582520 3357434.31756592 19.78521347 16 23 33
245584.98162842 3357433.09875488 21.13498497 188 216 238
245586.72570801 3357439.62002563 19.88534546 50 55 59
245584.43341064 3357439.06274414 20.00663376 23 32 39
245585.81353760 3357432.90640259 20.74020386 16 37 58
245586.35382080 3357442.31732178 19.77865219 78 88 100
245584.99035645 3357437.68206787 20.49569702 14 35 52
245585.96716309 3357442.05603027 19.64567375 72 79 89
245586.35754395 3357432.47888184 20.26335716 13 21 24
245583.98107910 3357434.11358643 20.85249710 12 21 28
245584.21197510 3357443.70669556 19.63881302 20 23 30
245585.47631836 3357437.35025024 19.72403145 72 84 96
245586.13922119 3357437.20025635 19.68579865 76 88 104
245584.83624268 3357432.62176514 19.86784363 50 56 68
245585.71923828 3357432.58758545 20.41686249 82 95 103
245586.73382568 3357439.31427002 19.76220131 45 50 54
245585.61956787 3357440.02883911 20.32608414 87 106 123
245586.60198975 3357440.92739868 19.78515053 18 22 33
245584.30609131 3357439.76116943 20.26833344 44 54 66
245584.48126221 3357442.05642700 20.37775803 1 6 12
245584.36633301 3357438.50186157 20.59849167 0 13 29
245584.38531494 3357439.64666748 20.21296501 9 18 27
245586.18560791 3357442.93865967 19.81465340 117 128 148
245585.67279053 3357443.70516968 19.70030785 7 11 14
245585.98687744 3357441.77758789 19.64695358 77 85 98
245584.70397949 3357439.79675293 20.36059761 54 78 102
245586.40911865 3357442.41586304 19.79253387 68 80 92
245585.54589844 3357442.38916016 20.08378410 12 25 33
245586.34625244 3357440.91317749 20.23322678 178 191 207
245586.28454590 3357441.53897095 19.71685982 31 40 47
245586.04968262 3357437.19174194 19.67854691 83 96 112
245584.43542480 3357438.02740479 20.94360161 191 228 254
245586.72534180 3357443.88607788 19.66359901 41 49 51
245584.51953125 3357433.10357666 21.14108086 184 198 211
245584.82489014 3357434.38076782 19.81966972 25 35 37
245584.79058838 3357443.27941895 19.84444237 37 41 44
245585.68652344 3357442.46432495 19.99925804 31 48 58
245583.87487793 3357442.79229736 20.03180695 0 0 2
245584.19494629 3357443.83319092 19.66288567 18 21 28
245586.08752441 3357433.78533936 20.69533920 99 106 124
245586.58410645 3357441.84744263 19.75704002 42 51 60
245585.33123779 3357432.57321167 20.04373741 63 72 81
245584.66851807 3357432.90213013 19.89858437 67 73 85
245584.07543945 3357443.40219116 19.61481476 18 23 29
245584.44384766 3357441.70016479 20.16070366 31 43 55
245585.50231934 3357434.39868164 19.77223969 37 44 50
245584.34655762 3357433.02243042 20.17434883 64 69 73
245585.58276367 3357434.28073120 20.15810394 107 123 138
245586.20800781 3357438.02593994 20.10537910 114 130 146
245586.52746582 3357442.41436768 19.81563377 68 78 90
245586.27264404 3357439.16677856 20.00787354 13 18 24
245584.56439209 3357440.03613281 20.41436958 21 50 68
245584.67822266 3357441.03369141 20.45813179 9 14 20
245584.99468994 3357438.89273071 20.22372437 61 77 90
245586.11944580 3357440.42025757 20.23654747 37 54 70
245584.22387695 3357443.54867554 19.61113930 18 19 24
245587.11425781 3357433.60244751 20.04834938 25 32 48
245584.11596680 3357434.26458740 20.47963524 129 146 164
245586.54003906 3357439.32562256 19.96352577 40 47 53
245586.86114502 3357439.90701294 19.76043892 47 51 60
245585.08599854 3357443.10018921 20.66711998 27 51 75
245585.76519775 3357438.58090210 20.26822853 168 189 210
245584.09680176 3357432.95126343 20.11931229 118 128 137
245586.27410889 3357440.47592163 20.30299759 24 40 56
245585.32232666 3357438.67276001 20.26126289 82 102 126
245585.46069336 3357442.62515259 20.35696220 36 50 61
245584.06188965 3357442.87792969 20.03592682 0 0 2
245585.63708496 3357438.64193726 20.14123535 5 13 24
245583.77606201 3357434.22622681 20.77246666 58 70 84
245586.69470215 3357438.41061401 19.69970703 44 53 62
245584.14184570 3357439.63043213 20.05776215 9 16 22
245585.91577148 3357443.85510254 19.63790512 30 33 40
245584.51660156 3357434.45895386 19.79754257 34 39 45
245586.28784180 3357432.94204712 20.63351631 188 216 230
245586.00872803 3357441.07696533 19.80532455 97 104 114
245585.23284912 3357439.11862183 20.20861053 9 16 22
245586.22833252 3357432.70446777 20.56271744 151 169 183
245584.71667480 3357441.12530518 20.35006142 7 10 15
245584.15991211 3357439.58233643 19.96368980 23 31 42
245585.12170410 3357432.97128296 21.03879166 144 169 189
245583.93139648 3357432.76132202 20.00735092 77 81 92
245584.57104492 3357434.27420044 20.23026466 106 122 137
245586.60461426 3357434.23617554 20.26094818 141 153 169
245585.74279785 3357440.55694580 20.28565216 54 71 91
245584.14385986 3357432.89593506 20.58962250 19 24 28
245585.63848877 3357438.03210449 20.18886566 109 126 142
245586.76971436 3357442.60986328 19.89640236 125 138 154
245586.26184082 3357438.29800415 20.20533180 158 186 210
245585.78204346 3357437.97076416 20.04986572 101 119 131
245586.28051758 3357438.41619873 20.21099854 94 121 148
245584.50939941 3357441.33605957 20.12338829 0 6 12
245584.84918213 3357441.81042480 20.01354790 36 47 53
245586.41174316 3357440.50009155 20.28773117 0 11 27
245584.82843018 3357441.16882324 19.99823570 16 19 24
245586.05261230 3357442.33557129 19.79733658 59 66 74
245586.18731689 3357442.70800781 19.80971146 102 110 129
245586.65747070 3357441.54959106 19.71654701 47 54 62
245585.98181152 3357441.28115845 19.62386894 35 40 44
245585.23419189 3357434.16293335 20.79754448 23 30 36
245584.76910400 3357443.13809204 20.35727310 80 88 99
245585.62347412 3357438.05975342 20.22948647 117 134 150
245583.62542725 3357443.79782104 19.64114571 34 41 49
245583.92584229 3357432.83795166 20.72456932 106 110 119
245586.69848633 3357434.19348145 19.78999519 17 24 32
245584.73937988 3357441.57223511 19.91978836 33 43 52
245584.80535889 3357443.13214111 20.35088539 71 79 90
245585.53234863 3357434.28802490 20.38725090 118 137 154
245585.60369873 3357439.53750610 20.33047295 80 95 114
245585.18194580 3357441.71582031 19.85176659 38 47 56
245585.24865723 3357434.26748657 20.00060844 110 120 130
245584.50512695 3357441.43954468 20.06138802 24 31 37
245585.23474121 3357441.78662109 19.86677170 40 49 54
245586.15612793 3357434.27886963 20.35267639 133 147 158
245586.83581543 3357434.04949951 20.06593513 106 119 135
245585.24780273 3357439.24261475 20.27222824 13 23 25
245586.81451416 3357439.91976929 19.80751801 44 49 55
245585.20269775 3357432.84185791 20.56412125 47 54 64
245585.56323242 3357437.89080811 20.05740738 93 114 131
245584.24768066 3357443.10913086 20.79768944 104 113 128
245584.99865723 3357434.09280396 20.74496269 20 25 29
245584.27191162 3357432.93811035 20.47862053 2 3 8
245586.13342285 3357440.79815674 20.36955643 34 47 66
245585.31494141 3357442.05743408 19.92406464 26 34 37
245586.88153076 3357432.55371094 19.99457932 29 34 40
245585.47314453 3357434.28213501 20.34560776 113 134 151
245586.99774170 3357443.61102295 19.68232155 12 15 22
245583.91558838 3357443.57882690 19.60746574 32 35 44
245584.72900391 3357440.55337524 20.52856255 39 67 91
245586.25354004 3357432.52569580 20.37278557 9 16 22
245585.28924561 3357438.61654663 20.37804604 110 131 158
245585.07867432 3357437.30831909 20.13102913 105 122 140
245585.28723145 3357439.41024780 20.35748863 62 71 78
245585.21740723 3357434.08535767 20.96275139 125 138 154
245583.98748779 3357432.74078369 19.96458244 65 68 75
245585.71575928 3357437.81146240 19.91111183 94 112 122
245583.85345459 3357432.88708496 20.77078819 4 8 11
245584.15301514 3357443.05566406 20.49483299 109 113 124
245584.99505615 3357434.04589844 20.78062630 12 20 23
245586.81298828 3357440.77828979 19.66270828 43 52 59
245584.85180664 3357440.58142090 20.52346039 40 70 98
245585.07507324 3357441.31341553 19.75176048 24 33 40
245584.52563477 3357441.48388672 20.00532341 25 36 42
245585.83404541 3357438.61541748 20.14388466 17 27 36
245586.55548096 3357440.66238403 20.08067322 60 74 83
245586.37792969 3357439.07806396 19.93681335 34 41 49
245586.22509766 3357433.54666138 20.66505051 200 222 235
245584.83044434 3357434.24874878 20.29292107 123 139 155
245585.48693848 3357438.47851563 20.40374374 151 176 198
245584.32745361 3357440.90295410 20.45721436 17 34 44
245585.91430664 3357438.00933838 20.08217430 96 114 128
245585.69586182 3357433.17141724 20.75613022 25 53 65
245586.36968994 3357438.74465942 19.86060715 27 35 38
245585.16247559 3357434.18917847 20.60902405 78 90 102
245585.54162598 3357438.78353882 20.03288841 15 20 24
245584.69067383 3357438.23321533 20.81589127 22 53 74
245584.28027344 3357443.11132813 20.63138390 115 125 135
245584.99566650 3357441.17626953 19.77655602 10 18 21
245585.43200684 3357439.10009766 20.20109177 8 17 26
245586.21142578 3357441.03826904 20.18264389 20 23 28
245584.42028809 3357442.01800537 20.34854889 6 13 19
245584.46130371 3357433.54742432 21.17092896 102 134 149
245585.56024170 3357432.49362183 20.12095833 47 54 64
245584.35156250 3357443.08108521 20.82932472 102 112 124
245586.57495117 3357443.39263916 19.91674423 119 127 146
245584.31616211 3357433.81066895 21.09935188 172 199 216
245584.38287354 3357433.93640137 21.09140587 162 183 200
245583.83441162 3357434.22140503 20.76682663 100 114 127
245585.17889404 3357432.82022095 20.42812157 64 73 82
245584.57177734 3357442.36068726 20.66369438 38 41 46
245585.80957031 3357433.01708984 20.74212456 26 53 72
245586.08929443 3357442.42797852 19.81882668 83 89 103
245585.47259521 3357437.50805664 19.79174995 84 102 114
245584.34173584 3357438.50958252 20.56493568 10 32 55
245585.33831787 3357437.61877441 19.97581673 95 116 137
245584.46362305 3357442.19738770 20.50932693 3 8 12
245584.61462402 3357434.26016235 20.67094612 155 169 182
245585.71667480 3357443.48672485 19.73474503 20 21 26
245585.62396240 3357432.59280396 20.36669350 77 87 96
245584.70153809 3357440.69528198 20.55409431 28 46 66
245585.29022217 3357432.90515137 20.80453682 175 183 202
245586.84252930 3357443.83679199 19.67179871 6 13 19
245585.87170410 3357441.95828247 19.63736916 59 66 76
245586.71594238 3357437.75634766 19.84095383 15 23 34
245585.04620361 3357443.11157227 20.11327171 26 33 39
245585.11444092 3357434.06823730 20.92524147 55 62 72
245584.23052979 3357434.00411987 21.01538467 142 159 169
245585.13342285 3357439.13665771 20.23273659 13 23 25
245585.28302002 3357438.64321899 20.33306694 96 117 144
245585.47235107 3357439.74169922 20.43998718 95 110 129
245584.21453857 3357432.89376831 19.88303566 48 54 66
245584.56964111 3357443.06048584 20.86960030 75 87 99
245587.00891113 3357433.49703979 20.25668144 118 151 170
245586.35577393 3357438.53225708 19.96715164 105 118 134
245585.05688477 3357432.89874268 20.63238144 25 30 36
245586.80932617 3357442.29525757 19.90624046 49 62 71
245586.66534424 3357440.23992920 20.09196663 27 36 51
245585.07629395 3357438.69885254 20.31149483 77 95 117
245584.55114746 3357443.11755371 20.21958733 0 2 5
245586.31762695 3357437.86492920 20.06106186 144 152 163
245586.85852051 3357440.75381470 19.65880013 50 57 65
245584.53265381 3357433.88403320 21.14955521 85 108 124
245584.57141113 3357433.11550903 21.14097404 203 211 230
245584.67187500 3357432.94454956 20.89413071 6 9 16
245585.13031006 3357432.55139160 19.94512367 53 59 71
245586.09375000 3357434.29541016 19.83304405 20 27 37
245586.25708008 3357434.29660034 20.17933083 10 19 26
245585.20434570 3357442.31225586 20.38029671 8 13 17
245584.87182617 3357439.34625244 20.34295082 28 33 39
245584.35742188 3357437.48852539 21.02417183 171 201 235
245584.31549072 3357442.54647827 20.89400101 13 18 22
245585.81921387 3357438.85900879 20.05646324 20 24 35
245584.87194824 3357437.14746094 20.27037621 104 115 133
245584.74414063 3357443.26470947 19.85637856 46 50 53
245585.92779541 3357433.93060303 20.73906326 33 51 73
245585.11505127 3357440.70324707 20.49230957 58 88 116
245584.66857910 3357440.70886230 20.55320930 23 42 57
245584.09332275 3357432.89724731 20.76589203 3 7 10
245585.45935059 3357443.00595093 20.00521088 63 85 98
245586.29565430 3357440.75680542 20.33073616 15 30 51
245584.26519775 3357443.11730957 20.77321625 103 113 125
245584.17480469 3357438.50326538 20.47695160 81 120 151
245584.58422852 3357443.15588379 20.74662590 67 76 91
245583.75079346 3357433.35867310 21.00504875 168 189 210
245585.28656006 3357440.20022583 20.50997925 98 124 141
245586.63745117 3357432.77618408 20.42144012 64 87 101
245584.33551025 3357432.97216797 20.43287659 0 0 4
245585.42803955 3357434.24749756 20.73419380 31 44 52
245584.97338867 3357443.12231445 20.13178062 21 30 35
245586.52593994 3357440.70166016 20.11027527 96 110 121
245586.69219971 3357439.35662842 19.81592560 46 51 55
245586.71215820 3357440.83297729 19.71910286 32 39 49
245585.71368408 3357439.16613770 20.23931313 14 19 25
245586.42059326 3357437.72244263 19.98218536 15 39 63
245583.58673096 3357443.62145996 19.62190056 39 46 56
245584.53826904 3357442.15075684 20.45180893 9 12 17
245584.15167236 3357438.66296387 20.12014580 45 62 82
245584.72467041 3357433.58364868 21.13569832 67 78 96
245584.16345215 3357438.82272339 19.97903061 30 44 55
245586.37640381 3357441.27999878 19.70156670 32 36 45
245584.69836426 3357442.25473022 20.51365471 9 12 17
245584.92242432 3357441.38195801 19.77474022 34 43 52
245586.31390381 3357440.38229370 20.29093170 24 41 59
245586.20550537 3357433.00396729 20.67552376 193 216 234
245586.53295898 3357439.13162231 19.85740852 39 48 53
245584.15246582 3357442.99652100 20.38250542 89 94 100
245584.11669922 3357434.28018188 20.23829842 111 127 140
245586.27404785 3357434.27676392 19.92229843 16 22 34
245585.02020264 3357440.61526489 20.51300049 59 90 119
245584.36248779 3357432.96426392 20.50650406 1 2 6
245583.98333740 3357432.87518311 20.09863853 74 81 91
245586.12109375 3357432.42462158 20.33842468 18 23 29
245586.58941650 3357438.82669067 19.74712372 37 46 53
245585.65240479 3357434.28225708 20.11183167 102 118 131
245585.93444824 3357440.26861572 20.16621399 47 64 82
245586.35748291 3357442.23370361 19.77249146 79 89 101
245584.44915771 3357437.84249878 20.97219658 177 217 243
245586.48248291 3357432.54364014 20.27302551 83 90 96
245585.05224609 3357433.20227051 21.14048386 191 227 253
245586.76391602 3357440.37481689 19.86850929 28 36 39
245583.86614990 3357443.59777832 19.60939980 29 33 42
245586.60284424 3357433.39260864 20.46659279 193 216 230
245585.68737793 3357433.82397461 20.76560783 42 69 96
245585.55999756 3357442.76095581 20.13366890 54 76 90
245586.79412842 3357439.69158936 19.80518913 56 61 67
245586.63287354 3357433.44476318 20.45922852 193 219 236
245584.25201416 3357434.18743896 20.76359177 17 24 32
245585.07556152 3357443.91397095 19.69543839 17 20 25
245584.34368896 3357443.73181152 19.64509964 16 17 22
245586.01666260 3357442.06292725 19.65502548 71 79 90
245585.30267334 3357441.10281372 20.23634338 3 6 13
245584.16894531 3357433.72033691 21.02889252 197 220 238
245585.69433594 3357433.91705322 20.81780624 35 69 94
245584.36889648 3357433.96701050 21.07958984 150 169 183
245586.18762207 3357438.64300537 20.08803940 118 130 146
245586.99316406 3357443.11117554 19.80429649 75 81 103
245585.43005371 3357443.03689575 19.98547935 60 78 90
245586.14257813 3357434.28936768 20.13807487 27 38 42
245585.09051514 3357441.26574707 19.74795151 24 33 40
245586.79064941 3357434.08621216 20.13190460 130 146 159
245583.78527832 3357435.66400146 20.24029541 11 52 108
245585.92767334 3357442.14578247 19.68859482 53 62 71
245586.00262451 3357433.27145386 20.70595551 6 14 33
245585.00537109 3357433.49041748 21.14164162 204 226 249
245585.90979004 3357438.73559570 20.04105186 45 47 59
245586.47729492 3357437.01907349 19.69971085 82 91 98
245585.62188721 3357441.58847046 19.73048973 41 50 57
245586.03704834 3357438.68457031 20.08015442 15 19 30
245585.62402344 3357443.11953735 19.84850121 60 63 72
245584.41699219 3357442.84167480 20.96654701 100 110 122
245584.55303955 3357441.59259033 20.03174591 31 44 53
245585.71325684 3357438.78613281 20.03874016 34 41 47
245585.00708008 3357443.73562622 19.68904686 10 13 18
245584.82446289 3357441.77905273 20.00470161 37 50 58
245584.76867676 3357432.61401367 19.85868645 45 51 63
245585.42584229 3357439.29376221 20.28244400 52 62 74
245584.03393555 3357443.81625366 19.65539551 23 28 34
245584.93432617 3357442.24530029 20.41226768 5 10 14
245586.63281250 3357442.69238281 19.84641075 49 57 76
245584.52990723 3357441.36767578 20.07446289 18 23 29
245586.46661377 3357442.61727905 19.81556129 74 86 98
245586.74597168 3357439.43753052 19.78920555 48 53 59
245585.82043457 3357441.08258057 19.97037506 38 47 54
245584.11743164 3357438.88919067 19.92829704 33 43 53
245587.11376953 3357433.32800293 20.16156960 37 50 66
245584.43518066 3357433.73202515 21.15383911 166 192 209
245585.82556152 3357433.49688721 20.68675232 20 54 64
245585.31384277 3357441.50619507 19.74315834 44 54 64
245585.33172607 3357432.71319580 20.26535988 70 78 89
245585.19299316 3357439.52117920 20.42473412 12 22 23
245586.24536133 3357434.37084961 19.73011398 37 41 50
245585.25500488 3357437.57281494 20.08961487 97 115 137
245585.79565430 3357438.62075806 20.14494133 12 21 30
245586.63018799 3357438.49374390 19.71504402 36 46 55
245586.68499756 3357438.84902954 19.70975685 43 52 59
245584.04309082 3357443.02725220 20.91670799 127 136 151
245585.66296387 3357441.80029297 19.71574402 41 50 57
245586.56072998 3357440.92214966 19.82200623 28 32 43
245586.73870850 3357440.01959229 19.95128441 34 44 54
245584.15460205 3357443.24551392 19.67220497 16 17 22
245583.82897949 3357442.74917603 20.11081886 68 75 85
245586.51507568 3357439.75415039 20.21824837 153 162 169
245583.80017090 3357442.76095581 20.86490631 75 88 104
245585.12353516 3357440.22329712 20.47311020 96 125 141
245585.23846436 3357439.88314819 20.49326515 59 78 93
245585.52783203 3357439.41622925 20.33596420 88 101 118
245583.61663818 3357443.08581543 19.70404243 42 49 57
245585.78546143 3357442.22479248 19.75146103 31 40 47
245586.66992188 3357439.61727905 19.96765900 50 58 61
245584.48321533 3357434.27688599 20.16269302 103 119 134
245584.40332031 3357441.23806763 20.24757576 0 13 26
245586.50329590 3357440.78225708 20.08784485 150 164 175
245586.50982666 3357442.42376709 19.80485153 68 78 90
245586.18664551 3357433.75967407 20.66327858 198 220 233
245586.47766113 3357434.26495361 20.27448845 148 162 175
245584.21673584 3357433.16717529 21.06984901 176 191 210
245585.01385498 3357443.18621826 19.96491051 16 15 20
245584.31842041 3357440.50268555 20.47657776 26 70 99
245586.34020996 3357442.62310791 19.80482864 90 102 116
245586.65307617 3357439.59704590 19.97819328 47 55 58
245583.86785889 3357442.79586792 20.25081253 90 100 110
245585.04248047 3357432.89981079 20.61287880 24 29 35
245585.23022461 3357439.63934326 20.48399353 8 17 22
245583.73730469 3357434.93658447 20.29643250 10 36 59
245586.53759766 3357437.78643799 19.97250557 32 49 75
245583.86169434 3357436.37310791 20.30875015 11 61 130
245586.84771729 3357432.63525391 20.16531563 134 148 151
245586.56024170 3357432.51287842 20.19831085 43 46 53
245586.82940674 3357439.52600098 19.74010658 57 64 72
245584.82672119 3357437.32263184 20.61821175 13 31 51
245586.93231201 3357443.33761597 19.87670708 132 139 158
245586.95391846 3357433.76916504 20.28487778 151 179 200
245586.11828613 3357433.40963745 20.70497513 185 202 220
245585.75610352 3357432.64489746 20.54490471 124 136 148
245585.79473877 3357438.90859985 20.08293343 14 18 27
245586.66778564 3357434.18768311 19.87800789 96 106 115
245586.05328369 3357432.50369263 20.41970444 10 14 23
245584.01202393 3357433.15863037 20.97027397 163 179 194
245586.71130371 3357442.35101318 19.91721344 58 70 82
245586.20111084 3357440.15786743 20.21366310 41 59 79
245584.54235840 3357433.95263672 21.10451126 147 166 181
245587.15246582 3357432.40554810 19.81134033 60 69 76
245587.03875732 3357432.61151123 19.95536613 54 61 67
245584.91516113 3357434.12112427 20.69880486 26 37 43
245586.70574951 3357439.57794189 19.89420128 51 56 60
245586.09399414 3357441.43881226 19.68525505 36 43 49
245586.78149414 3357442.63864136 19.88252068 148 164 179
245585.22656250 3357440.23834229 20.50331879 109 138 154
245586.48809814 3357439.28265381 19.97535515 27 32 36
245584.31616211 3357443.87811279 19.67285347 12 13 18
245583.77874756 3357442.85043335 20.69175911 46 62 78
245584.07226563 3357442.99545288 20.93235970 125 135 147
245585.85046387 3357437.69540405 19.85591888 92 110 130
245586.44812012 3357442.32839966 19.79024506 63 75 89
245586.94226074 3357433.94000244 20.09023094 130 146 162
245584.53625488 3357433.44125366 21.15680313 10 33 47
245586.22839355 3357438.54751587 20.16599083 141 157 182
245586.07757568 3357432.63659668 20.55226326 159 172 181
245584.25372314 3357442.85208130 20.98003197 106 116 126
245585.37597656 3357433.03030396 20.83360481 15 36 55
245587.00262451 3357432.47744751 19.86734390 57 66 73
245586.52416992 3357441.14205933 19.76004982 26 30 39
245583.32373047 3357443.79254150 19.58542442 32 34 46
245584.62072754 3357441.96398926 20.22571564 20 27 33
245583.98834229 3357443.06961060 19.72371674 38 41 48
245585.26342773 3357432.61535645 20.03705978 73 82 91
245584.00256348 3357434.28063965 20.36909866 121 137 152
245586.16400146 3357434.23348999 20.45550728 176 193 209
245585.46026611 3357434.28845215 20.49921989 115 132 148
245584.60308838 3357433.94754028 21.11153984 149 167 181
245584.84912109 3357434.02746582 20.88508797 8 16 19
245585.89331055 3357432.90942383 20.73719978 3 21 43
245586.85272217 3357438.53210449 19.66692734 46 55 62
245586.40521240 3357437.41021729 19.79123688 100 115 134
245585.25604248 3357433.55255127 20.93524933 23 49 72
245586.08520508 3357438.90466309 20.02481461 7 17 26
245586.09429932 3357440.13031006 20.16844177 48 64 87
245584.35998535 3357433.71966553 21.11601067 177 203 220
245586.76104736 3357433.51419067 20.40958977 184 216 231
245584.84887695 3357438.65884399 20.39691353 94 119 149
245586.61364746 3357440.98721313 19.74035454 28 35 45
245586.11889648 3357439.07583618 20.04603004 19 26 32
245585.11700439 3357434.27902222 19.90876198 58 65 75
245585.32299805 3357433.74468994 20.88162613 35 57 80
245584.90649414 3357433.09436035 21.13202095 205 220 241
245586.30291748 3357434.41131592 19.71296120 43 47 56
245585.95855713 3357434.28240967 20.09233284 16 25 32
245586.57324219 3357441.15243530 19.72483063 32 39 47
245584.71478271 3357442.44488525 20.73435974 7 6 11
245585.26220703 3357437.61853027 20.16944313 99 117 137
245584.59649658 3357443.10040283 20.84211349 73 85 99
245585.05169678 3357438.18148804 20.60670853 32 53 84
245585.49621582 3357434.26547241 19.93939400 78 89 95
245584.79608154 3357441.15426636 20.25707054 4 7 12
245584.14996338 3357433.41500854 21.01414490 183 208 228
245583.85284424 3357434.30288696 20.51974487 124 140 156
245584.16180420 3357432.84817505 19.89770508 45 52 62
245584.30792236 3357438.51425171 20.53386879 10 32 55
245586.54669189 3357440.86752319 19.90819550 14 18 27
245586.82946777 3357443.85379028 19.66650391 6 13 19
245586.50720215 3357440.31909180 20.26760674 121 129 150
245584.29058838 3357432.95010376 20.45678711 7 8 12
245585.51525879 3357440.41894531 20.39717293 64 81 101
245584.83282471 3357438.71295166 20.28018188 71 95 121
245583.74304199 3357442.77951050 19.92793655 0 0 2
245584.35266113 3357432.97171021 19.87043381 92 96 107
245585.13360596 3357442.61901855 20.90512657 55 71 86
245585.65582275 3357439.09439087 20.20370865 18 21 28
245583.36804199 3357443.47369385 19.60604858 39 47 58
245585.66583252 3357441.72644043 19.71914482 44 53 62
245586.79144287 3357439.28884888 19.71587944 48 55 61
245586.52941895 3357433.83578491 20.55677986 191 215 239
245586.13568115 3357437.47274780 19.80831528 91 112 131
245585.63043213 3357439.09902954 20.20706749 16 21 25
245584.97418213 3357434.46432495 19.78343964 34 45 49
245584.86102295 3357432.93447876 20.75485229 15 18 25
245584.52972412 3357434.27410889 20.23663521 112 128 143
245585.10644531 3357432.86920166 20.61082077 30 35 41
245584.01806641 3357432.90209961 20.29582787 133 143 153
245584.68035889 3357432.95477295 21.01362801 5 8 15
245585.04962158 3357443.18676758 19.95138168 25 26 30
245585.66735840 3357437.38494873 19.72478676 72 84 100
245584.38964844 3357438.53674316 20.55451393 69 103 131
245584.62445068 3357440.58386230 20.54316902 21 46 66
245584.52764893 3357432.96127319 20.52820587 0 1 6
245583.84667969 3357434.34216309 20.28764725 124 138 147
245586.79785156 3357434.07492065 20.09937096 111 127 140
245585.31164551 3357434.15121460 20.93634605 62 68 80
245583.86401367 3357442.60647583 21.01373482 79 83 92
245586.92370605 3357432.76669312 20.23945236 91 109 123
245584.94042969 3357443.17901611 20.00367737 9 10 14
245583.79418945 3357434.35113525 20.39113045 125 141 154
245586.86370850 3357439.27050781 19.68534851 55 62 70
245584.12799072 3357434.28070068 20.15657425 112 126 137
245585.94006348 3357442.82388306 19.86293411 112 116 127
245586.17291260 3357443.31542969 19.78034973 49 52 61
245587.04736328 3357432.37194824 19.80713463 63 73 82
245586.49414063 3357440.36450195 20.27061844 114 120 142
245586.40783691 3357432.87509155 20.57365990 187 213 226
245585.05462646 3357441.80990601 19.93729782 39 48 55
245586.16748047 3357439.27499390 20.13230896 23 30 36
245586.02301025 3357440.00326538 20.16236877 48 65 85
245585.55865479 3357443.09381104 19.87467957 63 67 79
245584.49304199 3357439.25439453 20.00323105 39 52 68
245586.54840088 3357432.69869995 20.40800095 104 121 131
245585.62530518 3357439.38110352 20.34042549 67 77 89
245586.85491943 3357443.92453003 19.63731956 26 34 37
245584.18011475 3357439.21356201 19.77579689 31 42 48
245586.25469971 3357437.35110474 19.75489807 89 105 121
245585.92169189 3357439.10342407 20.13483238 6 13 21
245584.62585449 3357443.61215210 19.65073013 9 13 16
245584.44897461 3357443.14431763 20.64476204 117 127 139
245586.45654297 3357438.66931152 19.79656982 32 41 48
245585.56304932 3357442.10516357 19.83718109 34 43 50
245584.64843750 3357441.19689941 20.24083328 1 5 14
245585.93316650 3357442.83959961 19.86522675 112 116 127
245584.06695557 3357432.90322876 20.37924004 144 154 163
245584.56591797 3357441.27191162 20.13698196 17 24 30
245584.25567627 3357432.95172119 20.80757713 6 9 14
245584.84558105 3357433.86221313 21.12779617 67 80 99
245584.52551270 3357439.27978516 20.16821289 55 69 82
245585.40789795 3357442.96145630 20.13141632 55 91 107
245586.56854248 3357441.17031860 19.72450638 34 43 50
245583.74737549 3357442.76550293 20.63157082 34 50 66
245584.81433105 3357432.95989990 20.22152710 81 88 96
245584.15863037 3357438.73681641 20.02866745 39 49 61
245586.31530762 3357437.17529297 19.70532227 132 144 158
245586.42449951 3357438.69549561 19.81991959 34 43 50
245584.21093750 3357437.37484741 20.99633789 178 211 246
245585.66534424 3357443.71636963 19.69781494 7 11 14
245585.76898193 3357443.20751953 19.77079964 32 30 35
245585.89593506 3357439.76403809 20.24205017 75 94 109
245583.89373779 3357434.47009277 19.93275261 21 28 34
245584.19500732 3357443.50173950 19.60847282 18 18 26
245585.43444824 3357439.54074097 20.40039635 92 105 121
245585.83367920 3357443.56942749 19.71847153 15 16 21
245585.08758545 3357432.87582397 20.49947548 39 42 51
245583.98388672 3357432.91720581 20.79417801 5 9 12
245585.19329834 3357438.55340576 20.53108978 160 184 210
245585.85858154 3357442.83731079 19.90591431 77 83 95
245585.01318359 3357432.95117188 21.03255844 166 182 197
245584.40161133 3357437.69082642 20.98435974 178 207 239
245586.30322266 3357441.86480713 19.74541283 73 82 97
245585.31286621 3357434.26177979 20.13912010 107 121 134
245586.74273682 3357440.77398682 19.70714951 31 38 48
245584.94976807 3357439.37170410 20.32286263 35 43 46
245585.87530518 3357441.07623291 20.20821190 6 10 19
245585.43579102 3357432.63455200 20.23478317 59 68 77
245585.43988037 3357440.01470947 20.48818207 102 119 135
245586.99182129 3357433.97732544 19.91357803 64 71 87
245587.13696289 3357433.31790161 20.13048172 30 42 56
245586.00555420 3357434.14532471 20.58925438 182 198 214
245584.54034424 3357434.27575684 20.55597305 156 167 185
245585.46337891 3357433.82131958 20.85088539 44 70 95
245586.25646973 3357443.94107056 19.59973145 11 14 19
245584.79522705 3357437.61340332 20.64920998 21 43 56
245585.39459229 3357440.16433716 20.52023888 22 39 55
245585.38366699 3357442.94543457 20.18322372 61 94 111
245586.17327881 3357438.28591919 20.22731781 173 199 224
245586.33477783 3357434.14843750 20.51928902 172 198 215
245585.66174316 3357443.94265747 19.61738968 10 13 18
245584.62139893 3357434.28152466 20.02004051 102 115 124
245585.53155518 3357434.06195068 20.93706322 47 71 97
245583.80004883 3357442.74523926 20.32097626 33 46 63
245584.50421143 3357437.92147827 20.93581009 169 211 236
245585.67877197 3357441.87570190 19.70594406 40 47 55
245585.30895996 3357433.87875366 20.99241066 22 48 71
245583.90051270 3357433.31091309 20.94404602 172 194 215
245586.88183594 3357443.49426270 19.82543373 33 36 45
245584.96484375 3357443.11883545 20.15652847 28 37 44
245583.79388428 3357442.84265137 19.85530663 3 6 11
245584.67309570 3357440.08993530 20.43401718 29 62 81
245583.75384521 3357442.70913696 20.14671516 86 95 112
245584.55346680 3357434.44805908 19.79718590 29 34 38
245586.84558105 3357434.08746338 19.91164207 147 161 172
245586.73645020 3357444.04025269 19.60631943 35 42 48
245585.08331299 3357439.81628418 20.39253807 76 104 126
245584.17254639 3357434.27676392 20.02610588 107 120 128
245586.91131592 3357442.77572632 19.85853577 155 172 188
245585.87066650 3357434.30853271 20.28298759 131 143 155
245584.85437012 3357432.85626221 19.95915985 89 97 108
245584.48492432 3357443.13000488 20.52439880 114 118 130
245586.55187988 3357438.00305176 20.00866699 94 109 132
245584.53454590 3357438.64804077 20.34689713 85 112 142
245585.93469238 3357441.31738281 19.63684273 35 40 46
245584.48138428 3357434.27792358 20.03362465 108 120 134
245584.52178955 3357439.13439941 20.07250214 55 68 77
245586.13775635 3357442.78347778 19.82986069 106 114 133
245586.20788574 3357437.84762573 20.02961159 130 139 154
245584.24359131 3357438.71069336 20.06918907 33 50 66
245585.04162598 3357443.10958862 20.82851601 16 38 61
245586.00463867 3357434.27645874 20.03082848 23 32 41
245583.46667480 3357443.66650391 19.61682320 36 45 54
245585.87237549 3357442.46520996 19.86439514 28 31 40
245586.75927734 3357440.26635742 19.88187218 18 27 36
245586.82153320 3357443.37615967 19.91468430 42 49 67
245586.03704834 3357441.05343628 20.24271774 13 16 25
245583.88403320 3357432.83203125 20.33137894 91 99 110
245585.51928711 3357437.49478149 19.78021622 80 98 110
245586.22363281 3357437.75613403 19.98480415 125 134 151
245583.77722168 3357442.82055664 20.59864426 31 44 61
245586.20959473 3357434.27871704 19.88676453 16 20 31
245585.42004395 3357439.77069092 20.48581123 90 103 119
245584.80224609 3357437.56777954 20.64229393 22 42 53
245585.01202393 3357434.24688721 20.38632202 119 137 151
245586.24560547 3357437.80703735 20.01737022 131 140 155
245584.72033691 3357441.79568481 20.07098770 34 43 50
245587.21264648 3357432.81100464 20.00076485 61 65 74
245585.30230713 3357442.83825684 20.62376785 65 96 117
245585.23742676 3357443.63507080 19.71889877 11 12 16
245583.78796387 3357433.39590454 20.99170494 167 189 210
245585.84155273 3357442.21572876 19.72377205 57 66 73
245585.00335693 3357432.91082764 20.79080582 20 25 31
245587.21917725 3357432.97937012 20.05792427 40 47 55
245585.12872314 3357439.77441406 20.42164993 68 91 109
245586.30010986 3357433.47668457 20.64281464 193 219 232
245586.02343750 3357440.38427734 20.21579170 35 50 71
245586.53204346 3357437.74511719 19.95383835 25 42 68
245585.25543213 3357433.89993286 21.05436134 20 50 74
245584.67846680 3357439.54663086 20.37460518 70 91 110
245586.50933838 3357434.26022339 20.02682114 70 79 86
245584.34490967 3357433.60964966 21.10721588 208 235 254
245584.65344238 3357442.25942993 20.52705383 16 19 24
245584.25042725 3357434.28750610 19.90089989 22 33 39
245586.62133789 3357439.09002686 19.77545166 42 49 55
245584.71044922 3357433.12942505 21.13080978 200 208 227
245586.46588135 3357443.50967407 19.85908508 90 100 110
245585.47601318 3357442.34759521 20.12014771 8 19 25
245585.79241943 3357443.95239258 19.59357452 20 23 28
245586.40783691 3357440.97244263 20.05748367 92 100 103
245584.30163574 3357434.27520752 20.22544289 107 123 136
245586.52746582 3357432.93609619 20.51480484 188 211 227
245585.96258545 3357433.94412231 20.72202110 23 40 60
245584.98913574 3357439.73092651 20.35494804 66 94 116
245584.14752197 3357442.53350830 20.95918083 28 31 36
245585.09088135 3357438.73849487 20.24512482 62 80 102
245584.77728271 3357432.95941162 20.43836021 0 0 0
245583.90844727 3357433.70117188 20.97010231 178 199 218
245585.61456299 3357438.83840942 20.06569099 27 30 35
245585.91406250 3357432.46856689 20.39093018 24 32 35
245585.05279541 3357440.52047729 20.49037743 54 88 116
245585.59375000 3357438.01519775 20.19351387 103 122 137
245584.47320557 3357437.22994995 20.88827133 23 50 69
245584.42407227 3357443.06634521 19.96387100 13 14 19
245586.32385254 3357443.04501343 19.83522415 93 105 121
245584.93798828 3357437.50271606 20.53598022 11 33 44
245585.72753906 3357443.66482544 19.70451546 10 11 15
245585.92529297 3357441.49291992 19.67919731 44 54 63
245584.93365479 3357440.43331909 20.48561096 49 85 111
245584.87896729 3357442.68902588 20.96910286 94 103 118
245585.28765869 3357442.27325439 20.20770645 9 17 20
245586.10961914 3357437.81185913 19.99068451 113 126 142
245584.87322998 3357442.62835693 20.94375992 20 24 33
245584.43756104 3357439.30285645 19.75415230 26 40 53
245586.71661377 3357440.41217041 19.94036865 15 24 33
245584.61981201 3357440.19186401 20.46307755 28 60 83
245585.42028809 3357434.05395508 20.97759819 60 80 104
245586.47265625 3357440.82482910 20.10969925 173 187 198
245585.40240479 3357438.80868530 20.06219673 31 44 52
245584.80505371 3357437.32052612 20.63858795 11 32 51
245585.48284912 3357439.32449341 20.29872894 58 70 82
245587.01843262 3357443.42810059 19.75018501 57 64 72
245585.91998291 3357433.79888916 20.73091316 39 58 75
245585.65545654 3357433.71176147 20.72762108 48 75 92
245586.65991211 3357441.66030884 19.73245049 53 60 66
245586.79595947 3357443.45230103 19.89732361 23 26 41
245586.01269531 3357434.27294922 20.34470940 128 142 155
245584.77130127 3357433.00439453 21.11019135 218 228 240
245584.71075439 3357437.45166016 20.72820663 15 34 49
245586.97222900 3357433.89889526 20.12255669 134 151 169
245586.98443604 3357441.65637207 19.66193199 67 71 80
245585.78479004 3357438.40887451 20.31742287 127 149 172
245584.00427246 3357433.26913452 20.97192383 174 195 216
245584.59222412 3357439.79345703 20.34343719 21 42 59
245586.61132813 3357434.22067261 20.09570313 128 138 148
245585.73614502 3357432.92111206 20.73156929 26 48 72
245586.09155273 3357439.23547363 20.13260078 29 33 42
245584.98278809 3357432.90374756 20.51930428 11 12 17
245584.47778320 3357442.51281738 20.85991478 4 8 11
245585.82312012 3357443.71887207 19.68671417 23 24 29
245584.29223633 3357443.05899048 19.86981201 9 12 17
245585.00787354 3357432.66885376 19.93906212 52 58 70
245584.29809570 3357433.01898193 20.15360451 99 104 110
245584.95385742 3357442.90151978 20.97094154 75 92 112
245586.39221191 3357434.26638794 19.92868996 4 13 20
245585.59600830 3357437.84417725 19.98554420 96 115 129
245585.98474121 3357434.18649292 20.51070213 152 170 190
245585.06042480 3357440.63061523 20.50411415 60 91 120
245584.86987305 3357442.01129150 20.16061592 22 30 32
245584.37829590 3357443.19030762 19.75166893 35 36 40
245585.10845947 3357438.51217651 20.58911896 98 119 148
245584.54815674 3357438.74920654 20.15416527 53 69 94
245583.91833496 3357434.46636963 19.90726471 23 32 37
245584.32897949 3357443.51809692 19.62163734 17 18 23
245585.44885254 3357443.17553711 19.84736633 22 25 32
245583.74743652 3357434.40081787 20.26577950 50 63 69
245586.78045654 3357437.55230713 19.75673294 39 43 52
245585.71215820 3357438.08294678 20.20812988 113 129 144
245585.40991211 3357437.80706787 20.11893845 92 110 132
245584.21771240 3357439.64334106 19.99838829 15 22 32
245584.55078125 3357432.96105957 20.50082588 0 0 4
245586.62701416 3357443.18066406 19.92160416 107 116 131
245584.72290039 3357442.48385620 20.79849815 4 8 11
245585.26336670 3357443.18878174 19.90065384 9 12 17
245587.18768311 3357433.13699341 20.08782196 42 50 61
245586.36236572 3357437.22067261 19.70302391 131 144 160
245584.83349609 3357438.49874878 20.72709274 132 163 184
245584.18872070 3357434.24679565 20.71081352 104 118 129
245585.07421875 3357443.06274414 20.36204529 63 83 107
245586.82385254 3357443.86935425 19.66109657 4 12 15
245586.74780273 3357439.72216797 19.87364769 50 54 63
245585.75201416 3357438.52740479 20.30722427 124 145 166
245584.49536133 3357441.87551880 20.22236061 23 32 39
245586.74530029 3357439.49282837 19.80723000 47 52 56
245584.26220703 3357437.55862427 21.03119850 128 147 180
245584.63757324 3357437.27426147 20.79644775 12 34 48
245585.40148926 3357433.91778564 20.96322250 31 57 80
245585.41912842 3357437.98461914 20.30375099 109 126 144
245585.14880371 3357443.03408813 20.39497948 55 79 103
245586.45745850 3357438.55932617 19.82612801 12 21 28
245585.39263916 3357432.68328857 20.29714775 62 70 81
245584.26916504 3357433.01687622 19.97946167 97 104 114
245586.17687988 3357437.68118286 19.93482018 117 133 149
245586.15527344 3357440.59939575 20.30677605 31 48 66
245586.76568604 3357442.83566284 19.86778259 27 35 54
245586.18292236 3357443.67251587 19.73373604 14 15 20
245586.21697998 3357432.98992920 20.66934967 191 214 232
245586.13317871 3357440.41879272 20.23756409 40 57 73
245585.75201416 3357440.93560791 20.36635780 50 62 74
245585.86871338 3357442.42846680 19.85629654 28 31 40
245586.40032959 3357443.68444824 19.75447083 16 15 20
245585.92559814 3357438.42724609 20.28699684 142 168 191
245585.17724609 3357442.99987793 20.85739899 33 58 80
245584.63812256 3357438.68701172 20.28847885 83 104 133
245586.57446289 3357441.95324707 19.77201080 44 54 64
245585.95361328 3357434.23208618 20.43206215 166 183 203
245584.90551758 3357440.57397461 20.51689339 41 72 101
245584.25952148 3357434.27090454 20.02912331 108 120 132
245585.95074463 3357441.59487915 19.66998100 43 53 63
245584.05072021 3357443.02023315 19.77217484 9 14 18
245586.30346680 3357442.03576660 19.75463486 72 81 98
245586.36291504 3357442.00891113 19.75930786 81 90 107
245585.25769043 3357440.92868042 20.43193245 30 44 57
245585.90283203 3357441.48318481 19.68071175 42 52 61
245586.26135254 3357439.93997192 20.24303436 50 67 85
245585.49359131 3357437.18777466 19.67126656 80 90 102
245586.91473389 3357433.80377197 20.33614349 153 179 202
245585.61639404 3357438.19647217 20.32647514 108 126 140
245585.18798828 3357442.81811523 20.90587807 46 72 95
245584.69958496 3357440.32217407 20.48500252 43 79 103
245585.33923340 3357433.67935181 20.82095337 27 49 70
245586.04516602 3357438.95202637 20.04653740 5 14 23
245585.62689209 3357441.36392212 19.70672035 35 45 54
245586.44891357 3357438.60498047 19.81915283 13 22 27
245586.19232178 3357443.85858154 19.64746666 24 27 34
245584.03839111 3357438.83596802 19.94436836 34 43 50
245586.49395752 3357438.18572998 20.02352333 46 63 81
