245984.91265869 3357765.25579834 13.02502537 243 236 230
245985.27886963 3357765.77246094 14.03250599 93 47 58
245985.21777344 3357764.53588867 13.49690342 99 90 93
245985.53961182 3357765.94073486 14.05726337 71 51 63
245984.93017578 3357767.93933105 13.57346058 20 23 32
245984.93054199 3357767.12982178 13.06720543 54 51 44
245984.80853271 3357765.46801758 12.87913322 192 184 173
245986.35131836 3357767.49749756 13.75182438 112 112 110
245987.06091309 3357767.45385742 13.03375340 76 80 83
245985.48626709 3357764.48126221 12.85391903 173 151 140
245985.95886230 3357766.34924316 13.85092258 93 96 101
245984.76226807 3357767.49438477 12.85835266 191 179 167
245984.90216064 3357764.92840576 13.05899811 159 148 142
245984.92071533 3357766.91845703 12.99507618 63 58 54
245985.57305908 3357766.52001953 13.94569206 101 32 50
245985.52313232 3357764.91229248 13.90124798 24 32 43
245985.13171387 3357768.07305908 13.62395573 57 65 78
245986.21685791 3357766.76647949 13.83302021 64 74 76
245987.25939941 3357766.45867920 12.87755585 116 118 117
245986.93884277 3357768.05310059 13.29305458 79 85 85
245985.81457520 3357766.98437500 13.85916519 52 63 65
245986.95141602 3357766.85272217 13.21886826 201 202 206
245985.03375244 3357764.99475098 13.66978073 22 26 29
245984.95501709 3357765.45062256 13.14141941 195 193 194
245984.92993164 3357765.91009521 13.48300457 35 35 35
245987.01428223 3357765.92419434 13.10151291 169 165 154
245985.40417480 3357764.47460938 13.22431087 35 30 34
245986.74664307 3357767.28973389 13.45889091 77 77 75
245984.84246826 3357765.77398682 12.88571167 194 184 172
245985.68859863 3357765.20141602 13.95497799 27 36 43
245984.92608643 3357766.73883057 13.07759285 49 45 42
245986.77502441 3357764.79302979 13.36667442 56 52 53
245985.43530273 3357766.56665039 14.01050854 98 48 60
245985.00640869 3357765.88793945 13.80394650 36 35 40
245984.83331299 3357769.30383301 12.76825714 165 158 142
245985.66101074 3357764.50000000 13.77283859 27 25 36
245987.44799805 3357767.82562256 12.76086521 97 102 105
245984.92529297 3357766.20684814 13.39851761 40 40 40
245985.66198730 3357768.44384766 13.61800194 59 32 39
245984.92602539 3357766.29052734 13.41657734 41 41 41
245985.75018311 3357769.40319824 13.20251465 61 67 65
245985.58660889 3357765.80511475 14.03014183 70 54 65
245986.88153076 3357765.84002686 13.32280350 163 160 151
245986.30145264 3357768.32061768 13.57696056 47 48 50
245985.03521729 3357766.13024902 13.80778313 38 39 41
245986.70074463 3357764.72705078 13.42352581 35 31 32
245986.42919922 3357766.87841797 13.81081486 140 140 138
245986.96929932 3357767.76458740 13.16337776 160 164 163
245986.12451172 3357766.64251709 13.81297207 75 87 87
245984.99725342 3357768.65948486 13.48689079 84 46 59
245984.92572021 3357765.97479248 13.31615829 55 51 48
245986.19110107 3357764.75787354 13.86416054 20 20 20
245985.99475098 3357766.10223389 13.93879414 72 73 77
245984.86199951 3357768.60705566 13.07634735 213 201 201
245985.88293457 3357767.38549805 13.90256119 42 47 50
245987.15722656 3357766.60040283 12.97184563 182 186 185
245984.87280273 3357768.53118896 13.21142483 122 110 112
245987.44396973 3357768.11621094 12.79261112 106 116 118
245985.42590332 3357769.28784180 13.29275513 68 72 71
245986.73150635 3357768.32238770 13.42696762 83 84 88
245985.49468994 3357764.78961182 13.87189198 26 36 46
245985.61846924 3357769.18066406 13.30964088 26 26 28
245984.92028809 3357766.81048584 12.99717426 88 81 75
245987.10003662 3357766.26269531 13.03541851 141 138 131
245985.18151855 3357769.46783447 12.88576221 127 128 120
245985.42663574 3357768.17236328 13.62572670 91 64 79
245985.76446533 3357767.62268066 13.84011459 36 34 37
245984.98205566 3357764.96496582 13.34750938 33 33 31
245984.76678467 3357767.92327881 12.78425312 194 181 172
245986.62341309 3357768.73913574 13.34611034 66 70 69
245987.06579590 3357766.39697266 13.08131790 121 120 116
245986.39648438 3357768.95690918 13.38995457 63 63 61
245987.02069092 3357764.86859131 12.99177551 63 64 66
245986.43353271 3357768.67370605 13.39433098 57 61 60
245985.53826904 3357769.61730957 12.99313354 116 118 115
245984.89276123 3357766.26782227 12.96451187 188 175 166
245986.14788818 3357767.21289063 13.91751289 39 45 45
245986.78106689 3357766.37304688 13.43283272 159 155 146
245985.00274658 3357768.37719727 13.55453968 58 42 53
245984.87817383 3357769.02447510 12.82841301 168 158 146
245984.91986084 3357765.84313965 13.39180565 44 43 41
245985.13793945 3357764.61175537 13.56132317 83 64 66
245985.50830078 3357765.48834229 14.00658321 60 48 58
245984.74926758 3357768.71606445 12.80127716 152 142 132
245986.36181641 3357768.00720215 13.59403229 88 92 93
245984.98406982 3357765.17266846 13.55598831 19 21 20
245986.81359863 3357766.51556396 13.39128590 129 128 123
245984.88995361 3357767.93560791 13.03662014 55 56 51
245987.10174561 3357767.60485840 12.98406792 63 67 70
245985.22998047 3357767.44006348 14.02231789 32 40 43
245985.87963867 3357769.54522705 13.11471653 112 117 113
245986.30523682 3357768.08386230 13.59971619 88 92 91
245985.62689209 3357764.52093506 13.78020191 22 22 32
245985.37890625 3357764.41809082 12.85710621 177 159 145
245985.44964600 3357769.36346436 13.23269176 74 79 75
245984.91986084 3357766.39984131 13.03343773 82 75 67
245985.75451660 3357766.63098145 13.78711319 141 120 125
245984.77227783 3357768.01971436 12.78357792 188 178 168
245986.33477783 3357766.55523682 13.79965019 133 132 127
245985.88043213 3357767.65563965 13.81763077 46 41 45
245985.32153320 3357769.68054199 12.75065231 171 171 159
245986.14428711 3357764.69964600 13.86633778 18 20 19
245985.56652832 3357765.04412842 13.93196392 24 33 42
245985.04876709 3357765.66931152 13.84792328 37 36 41
245985.09454346 3357769.32604980 13.00873470 128 129 123
245984.91210938 3357766.95391846 12.97120380 90 82 79
245985.00769043 3357765.79290771 13.80173683 30 31 35
245986.27331543 3357765.96478271 13.94737530 60 66 64
245985.22296143 3357766.63427734 13.97328377 36 29 36
245986.56072998 3357765.59313965 13.83297157 123 120 115
245986.56811523 3357767.57373047 13.55906582 92 94 93
245986.02954102 3357765.45867920 13.97730541 44 45 47
245986.10540771 3357767.51593018 13.83192730 89 93 92
245985.28698730 3357764.69128418 13.78004169 36 36 48
245984.93286133 3357766.18591309 13.55851841 30 32 31
245985.50933838 3357768.70208740 13.55739021 78 51 58
245984.93145752 3357765.45471191 13.32796764 137 135 136
245986.34399414 3357767.99926758 13.59613991 78 84 84
245985.30487061 3357766.46466064 14.06529236 82 55 64
245985.01959229 3357764.82104492 13.20888710 43 37 37
245985.46484375 3357766.58435059 13.99812412 100 39 54
245984.85162354 3357768.43011475 13.04124069 253 247 249
245985.92132568 3357766.14678955 13.92844868 82 83 87
245984.90521240 3357766.94573975 13.55999756 40 41 43
245984.91650391 3357766.88531494 12.98431015 71 63 60
245986.66064453 3357768.56683350 13.37887955 66 68 67
245986.75341797 3357767.75878906 13.40428448 82 88 88
245985.58221436 3357768.76220703 13.51056671 76 53 61
245986.09155273 3357769.01855469 13.34792519 27 29 28
245985.99957275 3357768.48480225 13.57075500 37 43 43
245985.29919434 3357764.59326172 13.68313599 167 143 156
245986.25482178 3357767.62097168 13.71079826 105 107 106
245984.91699219 3357765.69268799 13.07741928 198 187 181
245987.19818115 3357767.50640869 12.94344425 84 89 93
245985.48303223 3357767.19897461 13.98880577 50 51 56
245985.01855469 3357764.90917969 13.55702209 21 21 21
245985.74188232 3357768.31231689 13.65661526 37 14 20
245985.70446777 3357766.46905518 13.86154938 137 92 112
245984.92181396 3357767.67938232 13.02687454 45 44 40
245984.92620850 3357766.23602295 13.39590168 41 41 41
245985.72540283 3357769.08392334 13.32610798 36 36 38
245985.43334961 3357766.85308838 13.96775246 60 50 58
245986.92724609 3357767.01568604 13.24655819 109 111 110
245986.83410645 3357768.36505127 13.33706093 79 83 84
245986.55358887 3357765.10333252 13.73838806 54 54 54
245985.49871826 3357766.92706299 13.95249081 57 52 59
245985.95465088 3357765.77001953 13.99251652 48 48 50
245985.45855713 3357768.27185059 13.62375546 48 18 30
245986.61871338 3357766.59960938 13.64166641 128 129 124
245985.18798828 3357769.57153320 12.74806595 163 163 153
245986.76910400 3357768.36700439 13.38045311 83 84 88
245985.24908447 3357767.25561523 14.02084255 38 37 42
245985.51824951 3357765.59124756 14.01379967 62 48 61
245985.16912842 3357769.35437012 13.05933189 110 111 106
245985.88146973 3357765.71752930 13.99743271 48 47 53
245986.73675537 3357765.83520508 13.54548645 169 166 157
245986.61761475 3357765.19628906 13.71541882 71 71 71
245986.49499512 3357764.63873291 13.61849403 36 32 33
245986.27239990 3357766.58978271 13.83265114 119 121 116
245985.76605225 3357767.94506836 13.67392635 52 61 60
245986.58935547 3357766.71844482 13.67325592 137 137 135
245985.04449463 3357766.62194824 13.83963871 21 17 18
245985.53747559 3357767.52441406 13.92068005 36 41 45
245986.76623535 3357766.21826172 13.44920063 184 180 169
245986.55401611 3357768.68640137 13.37205696 57 63 63
245987.09295654 3357767.42333984 13.01109505 55 61 61
245984.95953369 3357767.83917236 13.66507912 34 43 52
245986.62194824 3357765.95611572 13.68553638 152 148 139
245987.13037109 3357768.14935303 13.10032749 81 89 91
245987.02465820 3357767.13928223 13.11830330 44 46 45
245984.91448975 3357766.00708008 12.98022175 144 131 123
245985.26062012 3357768.99255371 13.47363853 52 21 26
245986.24957275 3357767.14398193 13.89128971 62 66 67
245985.40228271 3357766.03497314 14.11355591 78 46 61
245987.04193115 3357767.49597168 13.05932236 78 82 85
245986.15466309 3357769.09759521 13.33156586 15 19 20
245986.05560303 3357764.67120361 13.87510395 17 21 22
245986.81292725 3357766.38482666 13.39385319 157 153 144
245986.32122803 3357765.96990967 13.92147064 78 82 81
245984.85571289 3357769.28942871 12.79266930 166 160 146
245985.44128418 3357768.27429199 13.62280083 47 19 31
245986.05596924 3357766.49633789 13.79573441 89 95 95
245987.10327148 3357766.25195313 13.03113365 141 138 131
245985.10681152 3357767.45623779 13.92736626 21 29 32
245986.63330078 3357764.65533447 13.45208645 31 27 28
245986.69580078 3357765.46844482 13.67137718 152 149 144
245986.83538818 3357768.16595459 13.40405178 96 105 104
245986.05108643 3357768.17822266 13.66415596 66 67 69
245985.85266113 3357768.52087402 13.56170273 41 41 43
245984.90667725 3357767.45098877 13.29366684 24 26 25
245985.81872559 3357768.52545166 13.56535149 41 37 38
245986.77947998 3357767.83746338 13.40173149 80 86 84
245986.95092773 3357765.65966797 13.24889565 153 150 141
245985.26245117 3357765.97979736 14.06529427 88 45 55
245986.04718018 3357765.17016602 13.93342304 20 26 26
245985.55261230 3357766.99096680 13.93697262 59 58 63
245986.95483398 3357765.09417725 13.31418228 95 91 90
245986.20965576 3357769.11029053 13.34945297 23 27 26
245984.88848877 3357767.68731689 13.40731621 27 28 30
245984.93585205 3357767.93200684 13.58345318 28 32 43
245985.02490234 3357769.46697998 12.75980949 159 157 142
245986.61798096 3357766.46105957 13.64109516 154 151 142
245985.25671387 3357765.84448242 14.04051399 99 52 62
245985.36968994 3357766.42749023 14.06755829 90 52 67
245984.98718262 3357767.27136230 13.74179745 27 32 35
245985.52105713 3357767.66754150 13.83553600 36 46 55
245985.02862549 3357768.24377441 13.59217072 57 44 53
245984.90802002 3357766.76239014 12.98486519 102 95 87
245986.98956299 3357765.65277100 13.19042015 153 150 141
245985.03216553 3357764.79248047 13.51872063 28 27 25
245984.89630127 3357765.21704102 12.99209023 223 214 207
245984.92742920 3357766.33093262 13.41121292 40 40 40
245986.52935791 3357765.85565186 13.81970596 133 130 123
245986.54077148 3357765.25537109 13.80542469 71 70 68
245985.71984863 3357764.69335938 13.86128902 23 30 36
245985.19287109 3357769.05792236 13.44246674 113 104 107
245986.60852051 3357766.45678711 13.65245914 158 154 145
245987.33435059 3357767.13024902 12.81638241 58 63 67
245985.44750977 3357764.50695801 13.59426403 50 33 41
245987.25854492 3357767.39465332 12.89860821 84 89 92
245986.98651123 3357767.02966309 13.17686558 118 120 119
245984.94232178 3357765.36840820 13.39000034 93 88 92
245986.71423340 3357767.42272949 13.45576096 101 103 102
245985.62774658 3357766.53729248 13.89305210 110 46 63
245986.57275391 3357765.12371826 13.72797394 58 58 58
245985.49963379 3357766.23962402 14.08333778 103 69 86
245986.73449707 3357768.05395508 13.50860596 99 105 105
245985.80511475 3357765.92547607 13.97791481 64 58 68
245985.34912109 3357769.49310303 13.03250027 119 121 116
245985.60546875 3357766.16186523 14.03504372 97 73 87
245985.57598877 3357767.42779541 13.95726013 39 40 44
245985.60882568 3357764.47167969 13.67997074 40 32 43
245985.60009766 3357768.97760010 13.40849400 56 46 47
245986.62347412 3357766.51416016 13.63465309 151 148 141
245985.51995850 3357765.60040283 14.01442242 62 48 61
245986.64166260 3357766.60754395 13.61225986 128 129 124
245985.58148193 3357768.04083252 13.64398003 51 51 61
245984.95257568 3357768.28161621 13.52923489 46 34 44
245984.86206055 3357769.42340088 12.71768570 161 149 137
245986.54791260 3357766.38116455 13.68852139 173 169 158
245985.39080811 3357768.78894043 13.55054951 100 65 72
245986.86407471 3357767.21545410 13.31856823 62 64 61
245986.05737305 3357765.20959473 13.93550587 21 26 29
245985.72149658 3357766.84704590 13.82838631 84 88 91
245987.18029785 3357766.75195313 12.95549011 187 188 192
245986.77844238 3357766.75042725 13.43765736 193 194 196
245985.68414307 3357766.55627441 13.84402943 121 62 80
245985.03643799 3357767.77880859 13.74848270 39 49 58
245987.19732666 3357767.33374023 12.93425751 72 80 82
245985.90295410 3357766.33990479 13.85590935 95 96 101
245984.91931152 3357766.49230957 13.02579498 110 101 94
245985.00738525 3357766.05993652 13.75777340 30 31 33
245986.01513672 3357769.36791992 13.22500515 28 30 27
245985.28021240 3357769.52551270 12.90412903 117 120 113
245987.03662109 3357767.01922607 13.12630367 87 89 88
245986.58081055 3357765.85858154 13.75713348 142 137 131
245984.90258789 3357767.77673340 13.18143749 41 43 42
245985.74285889 3357768.12500000 13.67568302 47 43 42
245987.14501953 3357768.23681641 13.10266495 85 90 93
245986.61505127 3357764.99218750 13.62196541 49 49 49
245985.72155762 3357764.88684082 13.90145111 42 47 53
245987.10186768 3357765.72503662 13.03447723 147 144 135
245984.69653320 3357767.82110596 12.76905251 200 186 173
245986.58764648 3357767.40698242 13.59712696 157 158 153
245985.04528809 3357764.66888428 12.96372890 183 171 159
245985.10589600 3357769.37945557 12.92935753 119 120 114
245985.08508301 3357768.10540771 13.62068367 52 49 60
245986.28186035 3357768.97821045 13.37330723 39 43 44
245984.91369629 3357767.27484131 13.24797058 32 34 33
245986.28149414 3357766.81909180 13.84951115 71 77 77
245985.50537109 3357764.52117920 12.88425350 126 107 101
245986.73254395 3357764.69598389 13.30665016 35 33 34
245986.75189209 3357765.71704102 13.54347992 167 164 155
245985.16937256 3357764.67468262 13.68535519 108 87 96
245986.00616455 3357768.69842529 13.45297623 44 42 43
245986.86828613 3357764.94360352 13.33004093 78 74 75
245985.36547852 3357769.00231934 13.45651340 64 39 43
245985.80633545 3357769.39318848 13.19875145 34 38 37
245985.24505615 3357767.17822266 13.99976349 37 36 41
245985.99835205 3357764.91082764 13.91278934 27 32 35
245985.67144775 3357767.54974365 13.88038635 40 39 44
245985.43188477 3357767.36853027 14.01877213 34 38 41
245984.93212891 3357766.44647217 13.36700916 38 38 38
245985.41741943 3357764.47290039 13.29432774 34 32 35
245986.58691406 3357766.33532715 13.64814186 177 173 161
245986.13647461 3357764.86914063 13.89377975 18 20 19
245985.16369629 3357769.34863281 13.06367588 110 111 106
245987.44006348 3357767.53143311 12.78692532 81 89 92
245984.93750000 3357765.38446045 13.36173725 124 120 121
245985.09326172 3357764.64227295 13.22234726 44 38 40
245986.76531982 3357765.03204346 13.47629547 75 75 75
245985.12725830 3357767.84405518 13.71210766 41 58 68
245985.26513672 3357764.51654053 13.48123455 69 60 63
245984.97454834 3357765.47290039 13.65653038 18 19 21
245986.27655029 3357768.96191406 13.37473392 37 38 40
245986.45843506 3357766.31262207 13.74459076 171 168 159
245985.84295654 3357767.74316406 13.77026844 63 64 66
245985.98815918 3357766.46301270 13.79977226 83 88 91
245987.18725586 3357767.56988525 12.94165230 83 88 91
245984.90032959 3357766.79840088 13.46427155 26 30 29
245985.52093506 3357768.70892334 13.55117702 78 51 58
245987.10992432 3357766.69165039 13.02816772 192 193 195
245985.81542969 3357767.26098633 13.91011715 48 56 58
245986.41375732 3357768.75354004 13.38770199 60 66 66
245985.55383301 3357766.51184082 13.96514225 104 41 58
245985.75903320 3357766.53186035 13.79303837 158 122 136
245985.65686035 3357764.54986572 12.94563198 44 37 31
245986.99847412 3357767.39678955 13.12222195 89 93 94
245985.84619141 3357769.58355713 13.07374096 115 120 114
245984.95721436 3357765.36645508 13.51905441 22 20 21
245985.74322510 3357765.30389404 13.96452713 34 41 49
245987.16906738 3357766.39831543 12.96083260 102 102 100
245984.95526123 3357768.89923096 13.08050728 31 20 18
245984.93395996 3357765.93365479 13.06824112 88 78 69
245984.89990234 3357767.38342285 13.38022327 22 24 23
245985.98370361 3357765.18237305 13.93694210 20 28 30
245985.92108154 3357768.66589355 13.48260307 50 44 48
245984.91113281 3357768.74084473 13.11380577 53 37 37
245986.95733643 3357766.08422852 13.19285297 179 175 163
245986.33056641 3357764.78979492 13.82252789 19 19 19
245985.30181885 3357766.33563232 14.09509563 86 56 68
245986.46917725 3357765.81988525 13.89211178 124 121 116
245985.98687744 3357766.38031006 13.83544540 91 95 98
245987.15435791 3357767.23291016 12.97941303 43 48 51
245986.94299316 3357767.71649170 13.20082474 148 153 149
245984.94226074 3357766.31384277 13.09341049 60 55 49
245985.21667480 3357766.41015625 14.02252483 17 25 28
245984.98577881 3357765.10308838 13.52377987 18 20 19
245986.48901367 3357767.27142334 13.74550819 156 157 151
245986.86968994 3357765.38500977 13.42326546 116 115 111
245984.88842773 3357766.22418213 12.95809269 190 177 168
245984.89135742 3357767.91064453 13.07114124 56 56 54
245985.44586182 3357764.42388916 12.84300900 179 160 146
245987.24157715 3357767.30615234 12.89884090 74 79 82
245985.95617676 3357767.69360352 13.77102947 83 83 83
245985.26330566 3357768.50793457 13.60550690 79 46 57
245987.28308105 3357766.55163574 12.85188484 149 150 152
245986.88293457 3357768.18170166 13.35727692 98 107 106
245985.36297607 3357766.08422852 14.11470127 82 50 65
245985.35601807 3357768.51086426 13.61004257 85 49 59
245985.90057373 3357766.11071777 13.93653011 71 70 75
245985.26483154 3357766.30255127 14.08081341 85 55 63
245984.86206055 3357768.31628418 13.04186821 197 197 197
245984.93383789 3357765.93121338 13.51759338 36 36 36
245985.76617432 3357766.38476563 13.85970306 148 136 148
245984.92633057 3357766.06451416 13.33767223 47 47 45
245985.46807861 3357764.46649170 13.24939156 31 31 33
245986.64245605 3357768.45361328 13.42611122 65 65 67
245987.26538086 3357766.48083496 12.87113094 138 139 141
245984.90008545 3357765.85363770 12.94621658 198 181 171
245984.89672852 3357767.70532227 13.32991600 29 31 30
245986.99334717 3357766.96313477 13.16632080 124 128 129
245986.82012939 3357765.50787354 13.47755337 158 153 149
245985.06872559 3357765.16455078 13.78952122 36 42 42
245986.21179199 3357767.54888916 13.77320957 104 106 105
245986.24145508 3357765.34265137 13.93243980 43 45 40
245985.08288574 3357769.40295410 12.84446526 116 117 109
245985.92578125 3357766.50128174 13.78706932 81 87 87
245986.11273193 3357765.76367188 13.99637127 49 49 47
245984.98742676 3357769.14721680 13.04627991 113 112 108
245987.00726318 3357768.32250977 13.22679806 112 116 119
245986.20465088 3357764.50433350 13.78639698 29 27 28
245985.12097168 3357764.52929688 13.42642498 51 49 52
245985.67340088 3357768.29180908 13.64191818 53 20 27
245986.65600586 3357765.96368408 13.63992977 169 165 156
245986.68157959 3357767.78753662 13.49579430 80 89 86
245987.05078125 3357766.19476318 13.09195900 153 150 141
245985.47259521 3357765.95416260 14.08190441 75 44 59
245985.11968994 3357764.52288818 13.40138435 36 34 39
245986.73126221 3357764.98675537 13.49820042 72 70 71
245985.03350830 3357766.54949951 13.84517670 28 23 27
245985.47991943 3357768.00805664 13.63232803 52 75 116
245984.84509277 3357768.58404541 12.96895218 194 183 179
245986.04370117 3357764.71185303 13.88149548 18 22 23
245984.94219971 3357766.08758545 13.14252377 61 56 52
245986.15008545 3357766.50921631 13.81568623 112 114 113
245985.93109131 3357769.14697266 13.29948521 16 20 19
245985.20013428 3357764.62261963 13.65774250 180 154 165
245986.40570068 3357768.53820801 13.45769215 55 59 60
245985.91186523 3357765.48199463 13.98086548 62 62 70
245984.93646240 3357766.24383545 13.57156181 28 28 28
245985.98858643 3357764.62152100 13.86402225 20 25 28
245985.42028809 3357765.33734131 13.99370098 56 46 57
245985.21777344 3357767.73504639 13.81390762 41 54 70
245985.38360596 3357767.33148193 14.02162361 34 38 41
245984.99353027 3357765.96984863 13.75410175 24 25 27
245984.76135254 3357766.30236816 12.88638878 200 186 173
245984.91168213 3357767.41937256 13.25556278 30 30 30
245985.25549316 3357765.12182617 13.93583965 68 62 72
245986.88385010 3357765.71545410 13.34238911 163 160 151
245985.69067383 3357769.18334961 13.29472637 25 25 27
245986.64135742 3357764.61779785 13.33342743 21 19 20
245986.16101074 3357767.56988525 13.77710152 95 97 96
245984.94726563 3357765.30181885 13.15413857 214 204 203
245985.71282959 3357767.04388428 13.90482712 56 61 65
245986.85083008 3357768.20489502 13.38713360 92 101 100
245986.74041748 3357765.57189941 13.58616257 160 157 150
245984.92443848 3357766.27593994 13.51008701 37 37 39
245987.23071289 3357767.05047607 12.92651081 43 44 46
245987.36175537 3357767.43505859 12.83008480 88 96 98
245986.58013916 3357765.27062988 13.78483105 71 70 68
245986.57446289 3357768.58264160 13.39883900 55 59 60
245985.63885498 3357768.68621826 13.52932835 58 39 43
245987.12750244 3357765.81182861 12.97573662 150 147 138
245984.88049316 3357767.69952393 13.48778915 36 37 41
245986.88067627 3357766.70214844 13.30710411 183 184 186
245986.66088867 3357765.26806641 13.70416451 84 84 84
245984.92187500 3357766.51184082 13.58487511 30 30 28
245984.89288330 3357768.63269043 13.21424866 55 39 40
245985.54418945 3357767.13372803 13.95611954 55 56 61
245985.11236572 3357769.40509033 12.89184475 123 124 118
245986.12396240 3357767.40850830 13.87587929 73 79 77
245985.73370361 3357765.06231689 13.93694401 22 31 38
245986.26647949 3357766.53009033 13.82493401 131 130 126
245985.58251953 3357765.13879395 13.95170498 26 35 42
245984.86663818 3357768.32214355 13.33946609 79 70 73
245986.19445801 3357764.74584961 13.86152840 20 20 20
245985.32238770 3357764.50994873 13.09904575 35 25 26
245986.95629883 3357764.93737793 13.23261261 83 79 80
245984.79675293 3357768.28314209 12.84519577 195 190 186
245985.17773438 3357767.07812500 13.93087196 25 24 29
245985.54876709 3357766.17498779 14.07018375 96 68 83
245985.87493896 3357765.73663330 13.99564362 48 47 53
245986.66949463 3357768.62731934 13.36164379 68 70 69
245985.19464111 3357765.31201172 13.95115662 45 39 43
245987.00457764 3357765.35491943 13.28187847 99 98 96
245986.76666260 3357765.34619141 13.57245922 104 104 102
245986.43737793 3357764.65399170 13.69591999 22 18 19
245987.05767822 3357768.23468018 13.18599606 99 104 107
245985.85998535 3357766.61651611 13.76758671 106 115 110
245985.45147705 3357768.26177979 13.62375927 48 18 30
245984.90020752 3357766.77136230 13.46851826 26 30 29
245985.80859375 3357767.58172607 13.85235691 38 39 41
245986.10888672 3357766.19885254 13.89855957 66 67 69
245984.92327881 3357767.33898926 13.14423561 47 46 44
245985.97406006 3357764.89935303 13.91102505 27 32 35
245985.49713135 3357765.89392090 14.06855106 72 48 61
245986.47760010 3357768.27197266 13.54467010 55 55 55
245986.98919678 3357766.64910889 13.17571068 178 180 179
245985.55975342 3357764.54553223 12.96072006 43 32 30
245985.94287109 3357765.44226074 13.97187138 60 61 66
245985.45294189 3357767.26934814 14.00908661 39 43 46
245986.49169922 3357767.45916748 13.68848038 135 136 131
245985.56280518 3357767.16711426 13.94969177 49 50 54
245984.88909912 3357767.47998047 13.49371624 25 26 28
245985.90789795 3357768.99719238 13.34046459 38 36 37
245987.18444824 3357766.06866455 12.95435524 140 140 130
245985.52972412 3357769.58422852 13.02074432 116 118 115
245985.52136230 3357764.51586914 13.06114197 35 30 27
245986.02752686 3357766.52899170 13.78397560 86 95 92
245984.92352295 3357767.46173096 13.64307117 17 20 25
245986.00982666 3357768.26403809 13.67449856 49 51 50
245985.63250732 3357769.59161377 13.03567791 111 116 110
245986.11791992 3357767.15844727 13.91167641 39 45 45
245985.92071533 3357769.20330811 13.27750206 16 20 19
245985.91613770 3357769.74938965 12.91908646 168 169 163
245985.20538330 3357764.56903076 13.56324005 126 107 111
245986.53308105 3357766.98504639 13.73082352 180 180 180
245985.24591064 3357768.66009521 13.59917641 99 53 66
245984.92797852 3357767.25616455 13.09568977 57 56 51
245985.66552734 3357768.34661865 13.63102150 51 20 28
245984.82989502 3357766.36236572 12.93578148 192 178 165
245985.34826660 3357767.37744141 14.02785301 32 37 40
245984.96655273 3357767.82855225 13.68037701 39 49 58
245986.33905029 3357766.64599609 13.81776142 117 119 114
245986.32336426 3357768.86285400 13.39542007 56 58 57
245985.47247314 3357766.18090820 14.09663200 96 62 79
245985.55426025 3357768.58874512 13.59612370 64 39 45
245984.78106689 3357767.10711670 12.85738659 203 189 176
245985.84271240 3357767.54620361 13.85391521 44 45 47
245985.59875488 3357767.13037109 13.92880630 54 58 61
245984.91107178 3357767.80957031 13.58164978 16 23 31
245985.45410156 3357767.90686035 13.67255497 45 85 136
245986.57397461 3357765.16082764 13.74427414 64 64 64
245985.64825439 3357765.08178711 13.93702126 22 33 39
245986.46704102 3357764.82446289 13.73892784 23 23 23
245986.97857666 3357767.48315430 13.14807034 105 109 110
245986.85760498 3357768.05322266 13.38578224 100 109 108
245984.84692383 3357765.05072021 12.97162914 174 165 156
245984.93457031 3357765.67608643 13.59702682 33 35 34
245986.09356689 3357767.95367432 13.63752079 63 69 69
245986.91802979 3357765.45025635 13.33888435 134 133 129
245984.96594238 3357769.10723877 12.98630524 105 102 97
245986.21215820 3357766.87115479 13.85895729 41 51 53
245985.12829590 3357769.06726074 13.37783813 138 142 143
245985.68530273 3357768.32080078 13.64038563 53 20 27
245984.83007813 3357768.78546143 12.85939407 158 148 138
245985.68493652 3357766.34588623 13.93387413 150 119 134
245984.92437744 3357767.51556396 13.12262821 45 45 43
245986.42370605 3357768.86169434 13.38442421 62 64 61
245985.14630127 3357764.77014160 13.75246429 49 47 52
245984.86944580 3357768.32861328 13.08981514 210 210 212
245985.16381836 3357768.32000732 13.60727406 62 36 47
245985.68756104 3357767.17742920 13.91786003 48 53 56
245985.52777100 3357765.53076172 14.00919056 59 47 59
245986.74597168 3357766.64050293 13.47822571 121 123 120
245986.33996582 3357766.22607422 13.82342339 108 108 106
245985.16766357 3357769.47161865 12.86173248 137 138 130
245985.12481689 3357767.29010010 13.92849827 26 27 32
245984.77221680 3357766.78265381 12.84054470 199 185 174
245985.03381348 3357769.06274414 13.23489189 109 105 106
245986.60028076 3357766.83935547 13.65473747 180 182 181
245986.45556641 3357764.70141602 13.71319962 20 18 19
245984.92077637 3357768.83569336 12.99629688 51 36 31
245985.51129150 3357768.27465820 13.62516785 59 27 38
245986.38482666 3357765.74169922 13.95869160 70 69 65
245985.47131348 3357764.93652344 13.91079998 26 32 44
245986.84436035 3357765.94293213 13.36116886 170 166 157
245986.91436768 3357767.61511230 13.24093437 151 153 148
245984.92047119 3357766.96160889 12.99566078 60 55 51
245986.28344727 3357766.89184570 13.86779022 53 59 59
245986.40582275 3357764.60754395 13.68084908 24 20 21
245984.78393555 3357769.31665039 12.74588871 165 158 142
245985.01025391 3357764.99658203 13.59084034 21 22 24
245984.87988281 3357767.91345215 13.44652462 60 61 65
245985.96099854 3357768.12030029 13.67978573 55 61 59
245985.37927246 3357767.72631836 13.79986858 32 51 66
245986.66717529 3357768.64495850 13.35909939 68 70 69
245986.89813232 3357765.62255859 13.33764458 153 150 143
245985.55096436 3357767.68365479 13.81533909 36 46 55
245987.09179688 3357766.12268066 13.03088093 162 160 148
245984.91882324 3357767.70117188 13.03255463 45 44 40
245985.48974609 3357768.80395508 13.51691723 95 68 75
245985.20880127 3357767.25787354 13.98880482 38 37 42
245984.88232422 3357767.75555420 13.45265865 51 52 56
245986.19268799 3357767.03918457 13.89790058 37 45 47
245986.91394043 3357765.45483398 13.34435940 147 144 139
245984.98022461 3357765.12396240 13.48460293 18 20 19
245986.61315918 3357764.61944580 13.40944386 25 21 22
245984.94360352 3357765.30804443 13.18768883 214 204 203
245986.88159180 3357765.37481689 13.40226650 116 115 111
245986.84027100 3357767.37536621 13.34153652 91 96 92
245986.27331543 3357767.77325439 13.63595867 70 75 78
245985.69256592 3357764.72003174 13.86501503 25 32 40
245984.91687012 3357768.73333740 13.16378593 51 35 36
245986.21215820 3357768.86401367 13.38050938 46 47 51
245985.25720215 3357769.59857178 12.76770496 170 172 161
245984.71484375 3357767.02288818 12.84020996 202 188 175
245986.85473633 3357768.22436523 13.38261890 87 93 93
245984.86071777 3357765.83697510 12.89942265 198 186 174
245987.06756592 3357767.90051270 13.00913143 79 83 84
245984.91540527 3357766.11206055 12.99111557 177 163 154
245985.75164795 3357766.54711914 13.79687977 158 122 136
245984.90319824 3357766.88549805 13.41701984 27 29 28
245987.02465820 3357766.52703857 13.13417816 112 112 110
245984.96496582 3357769.16137695 12.97568512 129 126 121
245984.99365234 3357767.04333496 13.73761654 34 36 35
245984.98046875 3357767.17199707 13.72597504 31 35 38
245985.23657227 3357765.82489014 14.02789497 100 52 64
245987.03668213 3357766.03540039 13.08737087 174 170 158
245987.11071777 3357767.86187744 12.94103146 69 73 76
245984.83636475 3357765.22753906 12.91610622 185 175 166
245985.75024414 3357766.01165771 13.96837711 80 73 81
245986.89361572 3357768.20751953 13.34532356 98 107 106
245987.05737305 3357765.51617432 13.16404724 123 120 115
245986.48944092 3357764.79022217 13.71033955 25 25 25
245984.91870117 3357766.74438477 13.28099442 38 38 36
245984.90917969 3357767.10070801 13.51094437 22 24 23
245985.26904297 3357764.49188232 13.36676788 36 40 43
245986.64678955 3357767.29632568 13.56491852 101 102 97
245986.46582031 3357768.53137207 13.44545650 56 60 61
245984.89880371 3357767.02362061 12.94913864 134 125 118
245985.00451660 3357765.51281738 13.73098373 25 26 28
245984.89550781 3357767.76147461 13.55487156 31 36 42
245984.86529541 3357769.41345215 12.72139740 161 149 137
245984.98675537 3357765.47412109 13.68573380 22 23 25
245985.51641846 3357764.46392822 13.25529194 31 31 33
245985.25628662 3357769.19647217 13.36512375 68 74 72
245985.31048584 3357768.50213623 13.60807800 79 47 58
245985.65869141 3357766.54345703 13.86492157 110 46 63
245985.88873291 3357766.07617188 13.94428444 65 64 69
245987.23748779 3357767.83520508 12.87330532 93 101 103
245986.04479980 3357767.89703369 13.66110420 65 71 69
245985.46173096 3357766.51348877 14.01848412 96 42 58
245985.81958008 3357768.36486816 13.65524769 40 42 41
245985.27264404 3357768.36254883 13.61119270 59 36 46
245986.23645020 3357764.56170654 13.79943657 25 24 22
245986.74304199 3357765.44659424 13.60418034 139 138 134
245984.92639160 3357767.11999512 13.61136532 19 20 22
245984.93859863 3357766.25665283 13.23626423 54 53 49
245985.11120605 3357765.61407471 13.91000938 24 22 27
245986.44104004 3357764.82391357 13.75747395 17 17 17
245986.08654785 3357768.39453125 13.61828423 41 45 44
245985.84796143 3357769.82421875 12.84138203 171 172 164
245986.41516113 3357766.59802246 13.77521420 135 134 129
245985.02502441 3357765.69042969 13.81650066 35 35 37
245986.18658447 3357767.93609619 13.61940002 70 76 76
245987.25482178 3357766.79736328 12.88545036 129 130 134
245984.98565674 3357768.81292725 13.48305893 107 59 71
245985.84899902 3357769.59857178 13.05941677 115 120 114
245984.77923584 3357769.61816406 12.68941784 120 111 104
245985.40545654 3357769.06353760 13.41912556 38 26 28
245984.94555664 3357766.09753418 13.06459713 78 69 62
245987.06427002 3357765.79321289 13.04846382 154 152 140
245986.54577637 3357764.71350098 13.61928082 22 18 19
245986.77478027 3357764.70733643 13.20846653 47 45 46
245984.93035889 3357766.09112549 13.52104092 35 37 36
245986.43475342 3357768.79711914 13.38240528 59 63 62
245986.81072998 3357767.49310303 13.35784912 142 144 139
245984.92016602 3357767.42352295 12.94829655 68 61 55
245986.03356934 3357769.27337646 13.25926590 19 23 24
245986.96044922 3357768.12634277 13.28617001 93 99 99
245985.58697510 3357768.46234131 13.61616135 57 32 38
245984.92047119 3357765.67041016 13.25011063 111 101 99
245984.93298340 3357767.47399902 13.03777313 49 48 43
245984.88000488 3357768.03369141 13.08607197 79 81 80
245984.93176270 3357766.56341553 13.09326649 66 61 57
245985.30590820 3357766.84906006 13.96580315 44 37 44
245985.38592529 3357766.95043945 13.99372196 56 51 57
245985.61816406 3357764.63336182 13.84220219 23 30 40
245986.38165283 3357767.86151123 13.60807514 89 95 95
245985.78253174 3357765.96417236 13.96969223 67 61 71
245984.95770264 3357765.47125244 13.08101463 216 214 217
245985.14538574 3357765.22064209 13.88170910 52 53 55
245986.43383789 3357766.22692871 13.78557587 162 159 152
245986.96588135 3357765.24749756 13.32084656 99 99 99
245986.17443848 3357768.62200928 13.46162128 53 54 56
245985.10510254 3357768.38665771 13.60179234 67 41 52
245984.92474365 3357765.84777832 13.23270988 63 55 52
245984.91455078 3357767.12750244 13.24228859 35 37 34
245986.08013916 3357766.62377930 13.79901695 81 91 90
245984.91583252 3357769.07550049 12.85963535 156 149 139
245985.65222168 3357768.53045654 13.59571552 48 29 33
245986.87921143 3357765.43054199 13.40228462 158 157 153
245985.96972656 3357766.23980713 13.89719582 93 94 96
245985.59735107 3357769.69293213 12.93826866 147 150 143
245985.41436768 3357767.63946533 13.87907219 41 55 64
245987.20562744 3357766.40039063 12.92824268 103 103 101
245986.11328125 3357768.92059326 13.36530781 37 38 40
245984.88244629 3357768.54986572 13.27478218 105 90 93
245986.51232910 3357768.01751709 13.57683563 115 117 116
245984.91485596 3357768.67932129 13.36537266 60 37 45
245984.89855957 3357767.49285889 13.35750389 27 29 28
245985.70007324 3357765.16149902 13.94875431 25 34 41
245985.28399658 3357765.75854492 14.03098679 93 47 58
245985.68774414 3357766.18420410 13.97587395 107 90 100
245987.01092529 3357767.81774902 13.09257889 101 107 107
245986.07617188 3357766.67181396 13.80352116 64 78 78
245985.16473389 3357767.05853271 13.91819477 25 24 29
245986.28131104 3357769.11944580 13.35560036 23 25 22
245985.94653320 3357765.62500000 14.00926018 49 44 50
245985.69647217 3357768.22198486 13.65922928 65 34 39
245986.00134277 3357766.13366699 13.93171978 71 75 76
245986.72253418 3357764.97491455 13.50174427 65 64 62
245986.12286377 3357766.74908447 13.82383251 53 67 70
245985.43682861 3357768.21453857 13.62472343 47 19 31
245986.52490234 3357765.00805664 13.72337914 40 41 43
245987.00567627 3357766.71081543 13.15481091 196 197 199
245987.01232910 3357767.68029785 13.09998989 120 124 123
245984.91174316 3357767.40814209 13.25745106 30 30 30
245985.15600586 3357764.51525879 13.39230061 81 80 85
245986.60076904 3357767.52410889 13.55267620 98 100 99
245985.98529053 3357765.55053711 13.99919415 58 56 61
245985.47900391 3357767.63928223 13.86944008 26 39 45
245986.80450439 3357765.86151123 13.43813038 169 166 157
245986.27655029 3357768.31298828 13.58728790 47 49 48
245985.38934326 3357769.60839844 12.89399147 141 142 134
245986.73730469 3357766.57604980 13.48873425 129 128 124
245986.30676270 3357767.23193359 13.86448002 110 112 107
245984.96527100 3357765.44122314 13.62782574 20 20 22
245985.60986328 3357767.53826904 13.88705063 41 42 47
245984.88507080 3357767.75836182 13.50220013 47 50 55
245984.93927002 3357765.26898193 13.19679642 193 183 182
245984.94055176 3357768.82501221 13.34982109 102 75 84
245984.88708496 3357767.65081787 13.53988743 52 55 60
245985.02343750 3357765.46484375 13.77262211 30 31 33
245984.85711670 3357767.95434570 12.86293316 155 148 140
