245788.91894531 3357661.93835449 17.25452995 52 61 76
245788.64727783 3357648.96185303 17.04042816 53 56 63
245789.98486328 3357662.29022217 16.73772240 70 74 73
245789.58032227 3357649.47204590 18.61174011 38 46 48
245788.84625244 3357659.76190186 16.68395805 209 233 233
245789.03729248 3357659.05578613 15.97550011 56 59 66
245788.57110596 3357661.44018555 17.15581894 232 247 254
245789.94628906 3357659.68438721 16.39705086 74 97 111
245789.98596191 3357660.62066650 16.66710854 44 58 67
245788.43450928 3357663.72741699 16.64470673 148 129 135
245788.14202881 3357662.13708496 15.80035973 69 73 76
245789.04162598 3357649.60107422 16.35137367 2 31 75
245789.51965332 3357653.76361084 15.64161396 98 99 101
245788.31005859 3357662.91174316 16.62466240 211 219 222
245787.98339844 3357662.01916504 15.69183540 74 78 81
245789.34179688 3357652.54992676 16.34620094 55 73 93
245788.93304443 3357663.72302246 16.73276901 70 69 67
245788.71319580 3357659.63830566 16.63836670 207 233 234
245789.79223633 3357659.43530273 16.35023499 132 164 179
245789.06127930 3357661.47991943 17.18793678 47 70 88
245789.98040771 3357663.56182861 16.68787003 130 134 133
245789.19848633 3357663.49957275 16.84673309 29 32 37
245788.24182129 3357649.60223389 16.14922333 69 84 105
245788.39483643 3357663.37023926 16.74751663 227 237 238
245789.61413574 3357663.49182129 16.88883781 11 11 19
245789.15447998 3357660.49652100 16.74044037 38 45 51
245789.15502930 3357662.51965332 17.24555779 52 64 78
245789.49407959 3357654.05688477 15.67471886 69 70 72
245788.96356201 3357662.76086426 17.24900055 245 249 250
245788.74835205 3357660.42297363 16.77229691 62 76 85
245789.29260254 3357649.54217529 16.52796555 9 17 20
245787.99530029 3357652.16699219 16.41497993 11 15 24
245788.30529785 3357651.05053711 16.30850220 6 17 19
245788.59906006 3357648.79522705 17.64591980 67 76 81
245788.67132568 3357659.25762939 16.15500450 120 131 137
245787.99194336 3357658.97302246 15.70995235 78 82 85
245788.33856201 3357651.13311768 16.35334206 0 4 7
245790.11499023 3357661.01593018 16.63200951 49 58 63
245789.35601807 3357652.70263672 15.97128105 31 40 47
245789.36248779 3357649.02862549 17.80856133 55 70 73
245789.17596436 3357660.51702881 16.73953629 35 40 46
245788.73822021 3357661.04095459 17.08851814 117 148 169
245789.48321533 3357652.92333984 15.71218872 43 49 49
245788.73541260 3357648.71319580 17.31317711 138 149 153
245788.53137207 3357652.09710693 16.68213654 45 69 103
245789.13079834 3357652.55187988 16.78338623 23 63 89
245789.09710693 3357659.78192139 16.76933289 207 227 234
245787.95391846 3357650.82012939 16.57178879 21 26 32
245789.10235596 3357662.18890381 17.25247383 40 51 71
245789.18060303 3357649.24810791 18.51812935 50 58 60
245787.94696045 3357652.23168945 16.02589226 40 45 48
245789.80468750 3357661.76672363 17.15434456 178 178 190
245788.78295898 3357652.02703857 16.66816711 15 40 80
245788.69293213 3357648.90649414 17.10125923 28 37 42
245787.95660400 3357650.44934082 16.25486374 16 25 32
245788.14428711 3357651.43255615 16.57332039 2 15 23
245788.39099121 3357650.86871338 16.15263557 59 83 95
245790.02124023 3357663.35943604 16.64451790 113 125 121
245789.97637939 3357663.63128662 16.66844940 28 30 29
245789.20410156 3357650.62866211 16.40683365 67 89 102
245788.43963623 3357662.59301758 16.95144653 20 28 30
245789.72705078 3357663.57952881 16.86979485 25 24 29
245789.91082764 3357663.33160400 16.90489578 99 101 100
245788.27874756 3357650.65325928 16.03496170 62 89 106
245788.25531006 3357660.21905518 16.55464554 209 224 227
245788.22442627 3357659.83807373 16.37526512 112 130 140
245787.83850098 3357662.19604492 15.69781017 80 81 85
245788.60797119 3357650.85168457 15.86162758 127 149 160
245788.89935303 3357651.79107666 16.63003922 89 118 152
245789.95458984 3357662.06652832 16.78556252 42 51 50
245789.16442871 3357663.62780762 16.79689026 23 27 28
245788.40509033 3357663.70129395 16.36702919 219 225 221
245789.64996338 3357662.61914063 17.23484421 238 239 243
245787.95257568 3357650.46069336 16.42426872 14 23 28
245789.43267822 3357649.05981445 17.25988770 43 53 54
245789.88787842 3357663.75848389 16.74749184 71 61 59
245788.27642822 3357661.31805420 15.93492126 111 119 122
245788.35876465 3357663.54998779 16.44085503 213 222 221
245789.02069092 3357663.34277344 16.90658951 36 49 57
245789.26568604 3357651.09167480 16.42737579 45 80 102
245788.83471680 3357649.15032959 18.58070183 37 46 45
245787.94097900 3357649.94879150 16.41838264 31 36 40
245788.40704346 3357661.62054443 16.85115433 16 26 28
245788.44635010 3357662.16918945 16.90324783 20 21 25
245790.67181396 3357655.37554932 19.82036591 41 57 44
245789.49493408 3357660.65319824 16.75139427 32 41 46
245789.57958984 3357660.76434326 16.79113007 20 28 31
245789.40191650 3357663.91748047 16.54222298 184 184 176
245789.70556641 3357649.22784424 17.64715385 18 26 28
245788.76086426 3357662.96838379 17.22066116 176 180 181
245788.38287354 3357663.62750244 16.46606445 215 221 219
245790.01989746 3357663.55548096 16.47035980 72 74 73
245788.70068359 3357651.00091553 15.95542336 2 24 37
245788.50445557 3357663.41925049 16.97330093 220 225 231
245788.45526123 3357661.86651611 16.97682571 38 43 47
245789.64447021 3357660.42749023 16.70991135 24 34 44
245788.92401123 3357651.54357910 16.59193420 30 43 59
245788.84710693 3357648.81506348 17.25738144 95 106 110
245789.54730225 3357654.80316162 15.64624119 75 80 83
245788.21917725 3357663.66345215 15.97198391 57 62 65
245788.41088867 3357649.30853271 16.58784294 98 112 115
245787.94189453 3357650.21569824 16.23851204 37 44 52
245788.84167480 3357652.68383789 16.55546951 30 46 71
245788.27160645 3357649.88891602 16.07225990 20 39 54
245788.80059814 3357649.12603760 16.93272591 47 56 61
245788.68518066 3357662.26214600 17.24773407 237 244 250
245790.13909912 3357661.47790527 16.48322105 34 39 43
245788.88342285 3357659.22729492 16.26775932 54 61 69
245788.43475342 3357659.65692139 16.55026627 182 203 208
245788.30682373 3357662.05212402 16.56092834 215 230 233
245789.74444580 3357660.60345459 16.76418877 60 68 79
245789.94232178 3357661.94293213 16.80907059 7 12 16
245787.90643311 3357661.58166504 15.70170212 72 76 79
245789.98468018 3357662.11596680 16.73732185 98 102 101
245789.57904053 3357649.35571289 16.57922745 26 34 37
245787.82635498 3357660.61627197 15.89669704 65 69 70
245788.32165527 3357648.80908203 17.58807945 67 75 77
245788.43060303 3357648.70477295 17.13401985 48 58 60
245789.10449219 3357648.86883545 17.34051704 82 93 97
245788.61425781 3357659.12640381 15.94384575 53 63 65
245789.28442383 3357649.01098633 17.83844185 60 74 75
245790.03497314 3357660.34033203 16.49944687 145 159 172
245787.89007568 3357660.11236572 16.06596375 66 70 69
245788.78887939 3357661.63830566 17.23596954 70 79 96
245788.04669189 3357650.00830078 16.11466599 89 95 107
245789.48565674 3357663.90924072 16.56991386 179 180 172
245789.32275391 3357650.75555420 16.52750015 71 94 108
245788.33984375 3357648.91680908 17.95246506 34 38 41
245788.30047607 3357652.44726563 16.50582886 15 28 47
245789.34942627 3357660.95861816 16.93511009 29 39 41
245788.48876953 3357662.57928467 17.06483650 45 54 61
245788.99108887 3357652.44201660 16.76486015 14 69 108
245788.32299805 3357663.29602051 16.52148056 216 227 223
245789.39831543 3357652.29449463 16.58358002 19 56 98
245790.61663818 3357655.35662842 19.91949081 39 55 42
245789.47747803 3357660.23535156 16.71127510 130 153 161
245788.85034180 3357662.11248779 17.28306389 38 46 59
245788.72741699 3357659.26550293 16.32762909 90 99 106
245789.80090332 3357661.60968018 17.15600586 162 164 176
245789.21252441 3357650.22528076 16.62999153 97 113 129
245789.78137207 3357663.80322266 16.75063515 166 158 155
245787.97680664 3357650.25610352 15.94148445 82 92 104
245789.98522949 3357663.45184326 16.71570587 143 148 151
245789.60174561 3357660.38806152 16.69583511 6 19 28
245788.66632080 3357651.14770508 16.35372162 43 71 83
245789.00848389 3357651.43774414 16.55735588 33 49 64
245789.16119385 3357649.13299561 16.98325539 111 127 127
245790.08825684 3357663.41632080 16.22935867 59 67 54
245788.46069336 3357663.74987793 16.67165947 88 62 71
245789.86846924 3357661.78259277 17.03721046 2 9 17
245788.47015381 3357663.89996338 16.20377159 134 134 134
245789.79010010 3357663.41497803 16.95494652 18 19 23
245788.57806396 3357658.79064941 15.75975227 66 71 74
245788.61083984 3357649.44519043 16.33876228 59 74 93
245789.77490234 3357660.77764893 16.84296036 22 27 31
245787.97778320 3357650.58135986 16.34092712 8 15 21
245789.00140381 3357661.59838867 17.20130157 47 65 85
245789.23675537 3357648.95648193 17.26687431 34 48 51
245789.80792236 3357663.77459717 16.80186462 189 181 178
245789.82897949 3357660.57183838 16.74655533 70 79 96
245787.94952393 3357649.60510254 16.52033043 47 52 56
245789.35382080 3357651.94116211 16.65188026 20 61 105
245788.92932129 3357663.42108154 16.86989403 23 31 33
245788.21813965 3357659.94915771 16.42567444 81 98 106
245788.41088867 3357659.50500488 16.30735397 165 182 192
245788.13964844 3357659.04968262 15.76552582 70 73 78
245789.63140869 3357656.42797852 15.63767910 57 62 65
245789.62524414 3357660.25036621 16.68716049 217 237 248
245789.13684082 3357648.87768555 17.65033150 68 81 87
245787.85290527 3357660.73596191 15.85558224 71 74 79
245788.46301270 3357650.30029297 16.01319122 74 86 98
245790.11474609 3357662.68237305 16.51150131 61 70 67
245788.58740234 3357659.14874268 15.94474888 54 64 66
245788.68383789 3357658.81286621 15.80383015 65 69 70
245788.53070068 3357660.50421143 16.76269150 84 97 113
245789.33428955 3357660.95849609 16.93561172 27 38 42
245789.28363037 3357650.44171143 16.71016121 59 82 96
245789.72924805 3357661.22808838 17.11220169 144 152 163
245788.12091064 3357648.72314453 17.17833519 59 67 70
245788.17254639 3357648.71307373 17.17982101 73 83 85
245788.09155273 3357651.42456055 16.56182480 15 25 34
245788.78985596 3357649.32476807 16.53634071 75 81 93
245789.13946533 3357660.31390381 16.73236275 2 18 34
245788.15667725 3357659.41955566 16.04830551 68 69 73
245788.49218750 3357661.86718750 17.09853363 8 17 26
245789.32366943 3357649.05413818 17.16504478 90 101 103
245789.54925537 3357651.15130615 16.70034027 53 86 105
245788.94720459 3357649.09991455 17.00534439 133 142 149
245789.38519287 3357661.04034424 17.02470589 21 31 40
245788.69281006 3357659.36145020 16.42631912 58 72 83
245788.40960693 3357648.89697266 17.88074684 54 57 62
245789.32568359 3357662.96270752 17.22916985 216 230 231
245788.88287354 3357663.53210449 16.81917572 23 25 22
245788.46685791 3357651.45166016 16.59558487 25 33 35
245788.51116943 3357661.44409180 17.13085938 118 136 146
245788.45190430 3357663.13793945 16.90398788 229 230 234
245789.90203857 3357663.03289795 16.96602058 126 139 145
245788.56231689 3357650.03387451 16.14932442 48 55 63
245788.32952881 3357650.97637939 16.27120972 34 54 63
245789.17370605 3357663.38421631 16.89295006 27 36 45
245787.97100830 3357649.39978027 16.62368393 53 60 68
245790.02117920 3357662.35870361 16.67723656 88 94 94
245789.35675049 3357662.77282715 17.24843788 227 239 239
245788.79833984 3357649.37854004 16.42736435 68 77 92
245789.14282227 3357661.49847412 17.18429565 52 69 95
245788.89050293 3357663.69244385 16.74709892 70 70 70
245788.75433350 3357659.30541992 16.38694954 59 70 76
245788.27880859 3357652.46343994 16.47145271 44 54 64
245789.79632568 3357659.26086426 15.89847469 3 13 25
245788.32373047 3357661.50262451 16.21687889 189 200 202
245788.26190186 3357650.33074951 15.88761330 77 103 126
245789.79785156 3357663.94311523 16.30378914 90 91 86
245789.08111572 3357659.07458496 15.98872948 60 67 73
245787.68255615 3357658.92230225 15.69050026 76 81 84
245788.33007813 3357660.96258545 16.19351006 183 194 198
245788.73461914 3357648.97863770 17.06888390 27 34 40
245788.11767578 3357648.81591797 17.36325073 32 42 43
245788.03094482 3357648.83319092 16.89813232 29 37 40
245788.25903320 3357662.89556885 16.08993912 31 41 43
245788.88830566 3357649.21887207 16.71759033 41 48 56
245788.37463379 3357659.93505859 16.59835243 210 231 232
245789.14819336 3357649.01239014 17.91859436 59 70 72
245790.07733154 3357663.15490723 16.43907928 85 87 84
245789.36639404 3357663.11511230 17.19301414 41 51 61
245788.41436768 3357650.67205811 15.95547390 55 84 100
245788.20172119 3357663.79150391 15.91703510 66 70 71
245788.65985107 3357659.37475586 16.41455460 45 59 68
245789.50067139 3357649.23284912 16.72812080 26 34 36
245787.88281250 3357660.57006836 15.92383957 68 69 71
245789.63421631 3357649.13769531 17.28162384 24 30 30
245788.92852783 3357661.30792236 17.19883537 240 249 248
245788.05682373 3357649.16540527 16.69655228 13 18 21
245788.78656006 3357648.88928223 17.15701866 26 35 40
245789.14312744 3357652.63409424 16.48739433 53 66 82
245788.85632324 3357661.27374268 17.18263245 238 243 246
245789.04138184 3357662.40386963 17.26705551 50 59 76
245790.07641602 3357661.82110596 16.60047150 87 92 98
245788.34136963 3357661.90411377 16.70083237 241 253 251
245788.09289551 3357650.77526855 16.44940948 17 28 34
245789.22552490 3357652.57141113 16.57262993 35 59 87
245788.28430176 3357661.34722900 15.95352459 118 126 128
245789.45153809 3357662.28796387 17.22693062 36 55 61
245789.70928955 3357649.24371338 17.81329727 11 21 23
245788.39343262 3357659.55761719 16.36325073 130 146 159
245789.75305176 3357649.35522461 18.05679131 11 21 22
245789.48510742 3357649.54058838 16.51110649 15 18 23
245789.89257813 3357662.28820801 16.92405701 21 30 25
245788.76562500 3357663.77136230 16.74665260 165 160 154
245789.52697754 3357660.93170166 16.90825844 30 37 43
245789.44171143 3357653.92022705 15.66842747 72 76 77
245790.06524658 3357663.77160645 16.13933563 14 16 15
245788.27081299 3357649.58032227 16.15896225 57 71 98
245788.25354004 3357658.95959473 15.74379730 63 68 74
245789.45617676 3357649.53997803 16.52700806 21 22 27
245788.53186035 3357661.19177246 17.06855774 222 240 250
245788.95397949 3357652.74285889 16.10989571 27 38 42
245788.97631836 3357648.81201172 17.60087395 68 82 85
245789.72668457 3357649.24401855 17.62141228 22 31 30
245788.16033936 3357649.24475098 16.65340233 14 23 28
245789.91735840 3357662.39416504 16.84823608 56 61 57
245788.36993408 3357649.96954346 16.08065796 25 35 44
245789.30834961 3357662.41912842 17.23319626 42 54 70
245789.58142090 3357659.80352783 16.67318153 200 227 234
245789.05999756 3357660.41333008 16.74478531 44 53 62
245788.24505615 3357648.66754150 17.28275871 111 121 123
245788.56408691 3357650.73828125 15.84466934 11 37 50
245788.47003174 3357650.78582764 15.92820549 144 164 171
245788.19940186 3357649.53332520 16.32164574 59 68 73
245787.76403809 3357660.77136230 15.82466888 72 76 79
245789.35375977 3357663.86322021 16.70307732 206 208 197
245789.01776123 3357648.85821533 17.66526985 65 78 84
245789.35864258 3357663.35778809 16.94211960 21 31 41
245789.93762207 3357660.43859863 16.64253807 204 216 228
245789.59100342 3357661.05328369 17.04541969 14 24 34
245787.91217041 3357652.21911621 15.92591190 50 51 55
245788.30334473 3357661.99603271 15.93023777 88 93 99
245789.41998291 3357650.83288574 16.65677834 52 80 101
245788.99798584 3357650.41723633 16.30714607 96 105 122
245789.59246826 3357656.11114502 15.61553383 49 54 57
245788.30877686 3357661.31280518 16.54594231 220 229 234
245789.74206543 3357660.30572510 16.66910744 225 237 249
245788.53698730 3357659.16644287 15.93630600 55 63 66
245790.14312744 3357661.64739990 16.49724579 32 37 40
245788.40521240 3357651.72259521 16.65314484 25 48 80
245789.97338867 3357662.81524658 16.76624870 121 121 121
245788.60241699 3357663.05883789 17.15626526 238 241 246
245789.46063232 3357649.24700928 16.74797440 41 49 51
245789.14434814 3357652.77038574 15.97712517 19 30 34
245788.31677246 3357661.84326172 16.22629738 179 195 195
245789.47814941 3357652.56567383 16.14370918 9 23 34
245788.30633545 3357663.43395996 16.26095009 221 232 226
245788.28356934 3357663.13275146 16.00700760 51 56 60
245788.58715820 3357650.50097656 15.87982559 68 93 113
245789.07305908 3357650.93133545 16.07559776 6 21 26
245787.95599365 3357662.69274902 15.67384911 78 79 81
245788.32135010 3357663.53411865 16.21174622 204 216 212
245788.31549072 3357661.99285889 16.09764671 172 181 186
245789.60394287 3357649.13598633 17.50615120 24 30 30
245788.22271729 3357651.40216064 16.57017326 19 28 35
245788.84344482 3357652.25726318 16.72478104 46 84 123
245788.59088135 3357663.22998047 17.11063004 75 83 94
245788.41467285 3357650.06164551 16.10563278 64 73 72
245787.86657715 3357658.99444580 15.71046734 76 80 83
245788.98565674 3357660.63586426 16.76336288 32 42 51
245788.75079346 3357662.34759521 17.27239799 100 103 122
245788.95330811 3357663.90954590 16.61767769 190 190 180
245789.67102051 3357649.22344971 17.83751869 10 20 22
245788.68652344 3357660.27069092 16.72717476 229 250 253
245789.07464600 3357649.11334229 17.00957489 119 132 138
245788.77484131 3357659.32397461 16.41533661 37 47 56
245788.86096191 3357652.64147949 16.71230698 41 69 108
245789.53552246 3357649.34167480 18.30762482 42 50 52
245789.21380615 3357663.15368652 17.14498711 27 40 49
245789.73382568 3357662.64971924 17.20712280 197 201 210
245789.99560547 3357663.90502930 16.08744240 26 26 28
245788.20471191 3357663.02880859 15.73025227 47 51 52
245787.96783447 3357650.31701660 15.91476059 64 77 86
245788.39477539 3357661.97192383 16.78519058 101 104 109
245788.51135254 3357649.47985840 16.29257202 69 87 99
245789.11505127 3357650.76940918 16.16708565 58 75 82
245788.31072998 3357660.18878174 16.57947159 212 230 232
245788.31976318 3357651.05072021 16.29805565 6 17 19
245789.35754395 3357661.65081787 17.15319824 53 66 85
245788.34167480 3357663.08105469 16.68766594 221 226 229
245789.70422363 3357661.80255127 17.21775055 102 100 114
245788.73785400 3357650.62432861 15.90744686 59 90 108
245788.47888184 3357663.23748779 16.94136620 224 227 232
245788.64581299 3357648.82263184 17.14292526 38 47 52
245789.07537842 3357658.95837402 15.89792919 52 57 61
245790.09887695 3357662.07580566 16.34013176 34 39 42
245788.10937500 3357650.64178467 16.17996216 32 46 55
245789.26757813 3357650.49322510 16.63648796 67 93 108
245788.85583496 3357649.04760742 18.21440697 58 68 69
245789.51037598 3357649.06982422 17.39334297 30 38 40
245788.77172852 3357659.23645020 16.28120422 54 61 71
245789.33001709 3357663.76312256 16.77044868 3 7 10
245788.47808838 3357663.73181152 16.74196243 212 202 203
245788.30566406 3357662.28771973 16.31176949 187 201 201
245788.64166260 3357659.04882813 15.91435528 54 62 65
245789.00305176 3357652.69799805 16.56086540 53 67 80
245788.30267334 3357661.85931396 16.48557281 207 223 223
245788.71484375 3357663.33135986 17.00542259 47 51 62
245788.89520264 3357648.76983643 17.50730705 79 93 96
245788.99633789 3357660.14404297 16.73909378 219 244 241
245788.25793457 3357663.65722656 16.01738167 26 31 34
245790.04272461 3357663.38391113 16.43896294 83 93 84
245788.71435547 3357663.75610352 16.78588676 104 101 96
245788.31079102 3357662.18701172 16.22591972 182 194 194
245788.23919678 3357651.88781738 16.63667297 63 91 138
245789.02960205 3357652.69531250 16.62236214 27 45 65
245788.29815674 3357661.57617188 15.97308636 128 136 138
245787.92272949 3357659.49157715 15.92847061 67 71 74
245788.74114990 3357661.28936768 17.16512299 234 245 249
245788.78417969 3357648.79174805 17.64235687 69 83 86
245790.01867676 3357663.60046387 16.43722534 74 76 73
245789.26269531 3357649.31494141 18.59605598 48 58 57
245788.28948975 3357658.66296387 15.65698719 61 66 72
245788.18566895 3357649.48107910 16.41660500 60 67 73
245789.97686768 3357660.76739502 16.79901314 88 99 105
245788.29962158 3357661.93322754 16.57991028 215 231 231
245788.39874268 3357650.05926514 16.10023689 61 69 71
245789.53527832 3357661.19927979 17.14497948 224 239 244
245789.34741211 3357651.73291016 16.65875244 45 98 142
245788.23400879 3357660.50048828 16.49744415 168 178 187
245788.12939453 3357659.55413818 16.08913994 71 75 78
245788.65179443 3357660.63146973 16.83466530 30 34 45
245788.48577881 3357663.82904053 16.35588455 243 243 235
245788.93945313 3357649.89117432 16.36329842 88 169 222
245788.48742676 3357651.49682617 16.60673332 27 36 41
245789.15460205 3357651.66290283 16.62503242 63 95 133
245789.07623291 3357651.27471924 16.48563385 44 67 85
245788.25054932 3357662.87078857 16.19335556 24 34 36
245788.12591553 3357649.68865967 16.19280052 46 52 68
245788.09588623 3357661.19348145 15.79153442 67 67 69
245788.76940918 3357661.83843994 17.25722885 69 78 93
245788.66046143 3357660.24578857 16.71570778 220 242 240
245789.61621094 3357651.93005371 16.57875061 15 35 72
245788.22503662 3357660.54418945 16.46339226 197 207 209
245788.41540527 3357659.55566406 16.37922859 122 138 151
245789.65142822 3357663.73168945 16.81301117 48 44 41
245789.27362061 3357661.11022949 17.14510727 27 40 48
245788.72259521 3357659.22491455 16.13572693 47 56 61
245789.56524658 3357652.47656250 16.20839691 5 23 37
245788.37097168 3357662.92150879 16.76769257 237 238 240
245788.99169922 3357650.88842773 15.98364067 104 127 135
245789.71710205 3357657.97326660 15.62994194 62 72 73
245788.10028076 3357660.32824707 16.26755905 28 32 41
245788.45001221 3357662.37652588 16.92898750 16 21 25
245788.21228027 3357663.08807373 15.75778866 44 48 49
245790.09448242 3357663.22662354 16.37114525 55 65 54
245788.29956055 3357662.29431152 16.55377197 205 219 219
245789.44073486 3357661.88293457 17.19991302 35 53 65
245788.99200439 3357661.04241943 17.09366989 129 139 140
245789.88018799 3357662.68334961 17.04481506 14 23 22
245788.31304932 3357660.83697510 16.33007431 188 202 203
245789.98681641 3357663.14837646 16.75381660 139 149 148
245788.52563477 3357659.34027100 16.03887939 175 189 192
245789.05596924 3357650.85705566 16.04953384 134 155 160
245788.39935303 3357659.71002197 16.55670166 193 217 217
245789.41137695 3357663.37786865 16.93490028 21 31 43
245788.91461182 3357659.42816162 16.52529526 204 225 230
245789.27484131 3357651.90844727 16.65211487 54 98 143
245788.27374268 3357662.88806152 16.47764969 208 218 220
245789.59918213 3357661.62609863 17.21557999 142 150 161
245789.92993164 3357661.09466553 16.79065514 3 14 18
245789.31860352 3357652.87811279 15.76341915 42 48 48
245788.50860596 3357650.94073486 16.02648163 112 130 140
245789.52252197 3357663.08746338 17.19899368 83 92 99
245788.57336426 3357663.18817139 17.11264229 80 86 98
245788.85986328 3357660.66491699 16.77616501 38 42 53
245788.63885498 3357649.32464600 16.57210159 88 99 105
245788.77722168 3357649.19439697 18.74944115 26 30 29
245788.31854248 3357660.87738037 16.37161064 198 209 213
245789.24822998 3357659.70861816 16.76607132 201 229 233
245790.11810303 3357661.87042236 16.40680313 43 51 53
245789.39434814 3357662.07037354 17.20944023 34 52 66
245787.90008545 3357658.86059570 15.68080711 74 78 81
245788.10253906 3357663.20880127 15.72033405 71 75 76
245788.92840576 3357649.59600830 16.25943375 83 153 205
245788.39154053 3357648.90209961 17.89914322 42 46 49
245789.84765625 3357661.63586426 17.06794739 3 10 20
245789.40588379 3357650.27374268 16.74251747 37 53 66
245789.28479004 3357662.46472168 17.23604584 41 54 71
245788.43646240 3357650.59143066 15.86970520 50 79 95
245788.02838135 3357660.50122070 16.06093407 34 35 37
245788.51409912 3357649.03723145 18.33626175 33 37 40
245789.57861328 3357659.22186279 16.11141396 46 53 69
245788.90899658 3357660.61462402 16.76902962 38 48 57
245789.45910645 3357653.78491211 15.65133095 57 58 60
245788.84588623 3357649.07214355 18.31428909 55 63 65
245789.21215820 3357660.60479736 16.74247360 15 22 32
245788.43835449 3357649.19323730 16.72901726 42 50 53
245788.02990723 3357659.78790283 16.12722015 51 55 58
245788.51708984 3357660.93670654 16.98928261 173 187 200
245788.98052979 3357659.73272705 16.72411919 201 230 228
245789.27264404 3357651.15301514 16.48423195 49 81 106
245789.86560059 3357659.39904785 16.04642677 63 83 92
245788.45367432 3357650.44036865 15.83996201 68 95 114
245788.24420166 3357660.72845459 16.22978210 183 191 193
245788.90112305 3357658.97973633 15.92794132 69 70 75
245788.51226807 3357649.08502197 18.48732376 35 39 42
245789.13006592 3357649.06091309 18.02873993 55 66 68
245788.77569580 3357651.04058838 15.99341011 9 28 42
245789.86004639 3357649.47613525 18.35350609 17 27 26
245787.82171631 3357658.65338135 15.67641354 55 60 63
245789.61022949 3357649.36627197 18.27997017 38 48 50
245788.72448730 3357649.44616699 16.31157303 87 94 123
245789.85211182 3357661.01251221 16.95991707 105 104 112
245788.63189697 3357660.54632568 16.79862022 150 160 170
245789.61218262 3357660.56085205 16.73517036 35 46 50
245787.83197021 3357660.97070313 15.79160500 65 73 75
245788.77545166 3357649.13995361 16.90481949 23 33 35
245789.25976563 3357661.85809326 17.19561195 47 59 81
245788.36755371 3357660.73217773 16.77633286 84 105 124
245789.09722900 3357649.07507324 18.07155609 57 68 70
245788.87725830 3357659.54138184 16.61581802 203 232 230
245788.11590576 3357660.52105713 16.21656990 34 39 42
245788.36651611 3357649.55981445 16.16685486 75 75 125
245789.40496826 3357649.74365234 16.49126244 16 17 22
245789.73223877 3357659.90954590 16.65028191 203 232 238
245788.85314941 3357649.23297119 16.69977188 42 49 57
245789.48675537 3357651.29492188 16.67695427 28 56 77
245787.79589844 3357659.18737793 15.74939346 73 77 78
245788.08312988 3357662.93432617 15.66707325 77 77 79
245789.49273682 3357652.63903809 15.97671795 30 34 43
245789.33044434 3357650.63940430 16.64194298 61 90 108
245789.10034180 3357648.96966553 17.18922997 130 145 150
245789.06732178 3357662.02044678 17.24334526 49 60 78
245788.31909180 3357660.42919922 16.65242577 218 233 236
245789.86999512 3357661.46728516 16.95948982 7 11 22
245789.31683350 3357650.49084473 16.73918724 50 76 89
245787.96166992 3357650.09014893 16.26665115 34 37 44
245788.05358887 3357651.59796143 16.61228561 7 19 33
245788.73706055 3357660.59466553 16.78784752 24 28 39
245788.29425049 3357650.20129395 15.98210144 29 37 48
245788.75463867 3357660.02612305 16.70435333 211 236 232
245788.33007813 3357660.99121094 16.20359039 180 192 192
245788.39965820 3357649.72161865 16.07883644 23 71 119
245788.90734863 3357650.86828613 15.91578197 124 148 160
245788.17541504 3357662.11285400 15.81607533 68 72 75
245788.98449707 3357649.24371338 18.77967644 25 31 31
245789.10363770 3357663.71221924 16.75503540 22 22 22
245788.05987549 3357659.69104004 16.10364342 64 68 69
245789.73083496 3357660.06304932 16.67119026 207 232 239
245790.13128662 3357663.03717041 16.35114861 4 6 5
245789.06066895 3357651.64398193 16.61959267 18 39 68
245788.05267334 3357649.07989502 16.73099518 21 26 29
245788.21771240 3357651.54034424 16.62182236 15 28 45
245789.31848145 3357663.61053467 16.82083702 24 27 32
245788.89404297 3357659.69873047 16.67853928 210 231 232
245788.42718506 3357650.40093994 15.87098026 68 97 115
245789.21624756 3357649.14807129 16.92318916 92 106 109
245788.88385010 3357663.25146484 16.97465706 46 59 68
245790.09722900 3357662.85485840 16.52490807 57 63 59
245787.95104980 3357652.24096680 16.01520729 40 45 48
245788.22808838 3357659.88842773 16.40790558 92 109 117
245788.30883789 3357662.14434814 16.42988396 204 219 222
245788.04266357 3357650.73406982 16.47128677 15 24 29
245788.54779053 3357650.81829834 15.87073898 144 164 173
245788.68463135 3357652.23590088 16.71868706 1 29 68
245788.45385742 3357661.83093262 16.97804451 34 39 43
245789.70111084 3357660.01855469 16.67560387 208 232 242
245789.77703857 3357662.39880371 17.19620705 203 207 208
245788.40087891 3357663.53588867 16.68779373 231 236 240
245788.57604980 3357648.82965088 17.71592522 68 75 81
245787.94128418 3357652.21551514 16.04437637 33 36 41
245789.01165771 3357649.62145996 16.32681847 21 71 120
245789.45654297 3357652.42083740 16.43490982 20 48 85
245788.30120850 3357663.34002686 16.34666061 216 228 226
245788.23004150 3357660.47772217 16.49640465 152 162 171
245788.96093750 3357649.17199707 16.85411835 105 119 128
245789.65972900 3357649.18743896 17.55304718 21 26 29
245789.89831543 3357662.38745117 16.93699455 66 71 67
245787.97937012 3357663.13995361 15.68657303 82 81 86
245788.80340576 3357651.88830566 16.64454269 5 37 75
245790.00067139 3357662.67810059 16.70846748 155 157 152
245789.99188232 3357649.62182617 18.69478416 22 28 26
245788.09979248 3357658.63513184 15.65563583 67 71 74
245788.11639404 3357650.66729736 16.20853615 14 27 35
245789.11682129 3357649.07073975 18.05483437 55 66 68
245788.85400391 3357649.29528809 16.57615662 72 79 89
245789.60571289 3357663.95184326 16.38916397 230 227 218
245789.55169678 3357650.77539063 16.90049934 36 53 69
245788.12811279 3357649.93444824 16.09324455 49 57 76
245788.35980225 3357648.73187256 17.47155380 85 95 96
245788.88220215 3357652.67633057 16.65459251 39 58 90
245788.66778564 3357652.69323730 16.30906677 40 49 66
245789.82965088 3357660.24761963 16.65807915 215 227 239
245787.98669434 3357650.12731934 16.10106087 64 68 79
245788.96520996 3357661.82232666 17.23261261 54 66 82
245788.26507568 3357652.04925537 16.62394524 52 84 125
245787.90466309 3357660.58337402 15.92589378 68 69 71
245787.92675781 3357662.38818359 15.70195961 73 74 78
245788.23712158 3357660.40063477 16.53595161 206 219 225
245789.54730225 3357649.51208496 18.78218651 41 50 49
245788.88220215 3357651.44702148 16.54032135 21 33 49
245788.22442627 3357662.94042969 15.75840378 44 50 50
245788.21508789 3357662.42248535 15.89264297 40 45 48
245789.05578613 3357650.11968994 16.53179741 86 97 142
245789.06542969 3357660.80712891 16.82660484 36 43 51
245789.76000977 3357660.35021973 16.67836761 120 130 142
245788.76507568 3357659.21533203 16.23421478 86 93 101
245788.01464844 3357649.20593262 16.68069267 34 41 47
245788.67712402 3357648.81494141 17.68931580 66 75 80
245788.30529785 3357661.50244141 16.57777596 220 234 237
245788.82489014 3357649.10339355 18.43249512 50 55 58
245788.67041016 3357660.67199707 16.85074425 44 48 57
245787.86370850 3357660.88983154 15.81563473 73 77 80
245788.25830078 3357651.92834473 16.63353539 58 90 137
245788.05401611 3357660.15991211 16.22591400 55 59 62
245787.96301270 3357650.49182129 16.47291374 14 21 27
245789.47052002 3357649.60534668 16.49012184 15 20 24
245788.32995605 3357660.83154297 16.83568192 185 201 216
245789.96081543 3357660.92572021 16.83617020 8 11 18
245788.09857178 3357659.89257813 16.22422981 30 38 41
245789.62506104 3357661.14874268 17.09745026 79 89 99
245789.60491943 3357651.59490967 16.72314453 62 96 134
245788.27807617 3357663.25268555 16.16194725 23 32 37
245788.33276367 3357659.90698242 16.55665970 208 230 228
245788.46728516 3357663.68353271 16.77382088 245 246 248
245788.42010498 3357661.64764404 16.89381218 18 26 29
245788.64392090 3357649.05242920 18.34022903 54 59 62
245789.28045654 3357662.86370850 17.23908997 216 228 226
245788.27056885 3357662.83728027 15.91563892 36 41 44
245789.11547852 3357651.09790039 16.29172707 35 69 97
245789.44305420 3357649.10504150 17.06051254 35 45 46
245789.20373535 3357659.93969727 16.79474831 208 232 236
245788.33367920 3357659.70324707 16.46753883 131 151 162
245788.25213623 3357662.97601318 16.25173378 39 50 54
245789.18945313 3357649.82611084 16.49048805 0 20 41
245789.42675781 3357653.67266846 15.64564419 63 64 66
245788.28186035 3357662.43725586 16.18630600 174 181 187
245788.26745605 3357649.10345459 16.73219872 4 16 16
245788.97082520 3357663.16381836 17.09503365 40 59 76
245788.20111084 3357649.07269287 16.74449921 9 19 20
245788.30584717 3357662.01855469 16.55090714 208 223 226
245788.86224365 3357652.09466553 16.68513680 4 27 68
245788.71844482 3357661.69848633 17.24663162 191 197 209
245789.33789063 3357649.54382324 16.54489136 18 23 26
245789.13128662 3357663.88562012 16.65104294 174 171 164
245788.85723877 3357661.34191895 17.19717789 241 251 252
245789.20019531 3357650.81835938 16.25599098 87 106 113
245789.11370850 3357651.42199707 16.56800652 22 43 60
245788.16180420 3357659.27929688 15.95694542 72 73 75
245789.21740723 3357660.93493652 16.92802429 37 52 55
245788.54412842 3357662.85009766 17.11398315 228 232 233
245788.42022705 3357660.90197754 16.92464828 170 186 202
245788.97424316 3357649.19116211 18.60110474 45 55 56
245789.18719482 3357660.51770020 16.73854065 35 40 46
245788.14447021 3357662.63452148 15.74044037 72 76 75
245789.83526611 3357660.82714844 16.88277817 141 139 142
245788.34625244 3357650.27947998 15.95540142 53 66 82
245788.41473389 3357661.52331543 16.89138794 22 31 36
245788.80773926 3357663.70349121 16.75333977 79 79 79
245789.86767578 3357662.37658691 17.06573486 57 68 62
245788.49218750 3357663.77734375 16.68944550 110 85 89
245788.98468018 3357659.63525391 16.69267654 204 230 229
245788.26306152 3357663.08715820 16.26231956 22 32 41
245789.66119385 3357660.59094238 16.74901581 40 51 55
245789.96716309 3357662.97210693 16.81145668 79 87 90
245788.48162842 3357649.75457764 16.08738136 30 94 155
245789.15539551 3357650.43737793 16.47627640 60 79 94
245788.26007080 3357662.70080566 16.27076530 15 26 30
245789.14550781 3357649.26947021 18.62885666 43 53 54
245788.07568359 3357650.48095703 15.93489075 94 121 132
245789.16052246 3357650.62152100 16.34775925 73 92 106
245788.79156494 3357650.13812256 16.30189896 101 112 118
245789.48651123 3357649.81225586 16.45965004 9 10 15
245788.36926270 3357649.18499756 16.71174431 8 16 19
245789.82885742 3357663.84906006 16.50065804 153 148 144
245788.24993896 3357662.54779053 16.03828239 17 25 27
245788.75903320 3357660.45996094 16.77561378 175 190 197
245788.87707520 3357650.08264160 16.36548805 101 119 129
245788.94885254 3357661.64361572 17.21466446 49 62 79
245789.02642822 3357649.27355957 16.61519814 59 68 75
245788.96667480 3357661.28802490 17.19948959 237 246 245
245789.46508789 3357651.74969482 16.67985535 17 73 120
245789.12988281 3357663.09570313 17.20703697 134 142 144
245789.64892578 3357651.79748535 16.61460876 33 55 92
245788.23596191 3357660.76599121 16.08022118 126 131 135
245790.00177002 3357663.26379395 16.72319221 138 148 147
245788.72198486 3357650.06353760 16.23600960 10 23 32
245787.92254639 3357649.84124756 16.47929382 37 42 45
245790.64471436 3357655.38146973 19.87647438 44 60 47
245788.83868408 3357661.50244141 17.21792603 47 58 76
245789.27862549 3357649.61004639 16.50173569 5 17 17
245789.47161865 3357663.86944580 16.67981148 186 186 178
245787.93127441 3357650.37329102 16.01629448 31 38 44
245788.89892578 3357651.56640625 16.59822083 31 44 60
245790.04748535 3357662.84271240 16.62759972 100 104 103
245787.81945801 3357659.81286621 15.95941162 65 71 71
245788.85302734 3357660.06713867 16.71879387 213 238 235
245787.97851563 3357650.93627930 16.59247017 11 16 22
245788.75445557 3357658.86895752 15.84583569 69 73 76
245790.06823730 3357662.26269531 16.55442238 97 102 106
245788.28540039 3357658.65338135 15.65602112 67 72 76
245788.15344238 3357660.46313477 16.33392143 40 44 53
245788.78955078 3357659.63659668 16.64994812 204 232 233
245788.47625732 3357648.85821533 17.75326157 68 73 77
245788.46191406 3357660.40136719 16.71793365 195 210 217
245789.53375244 3357650.23077393 16.53750229 54 62 73
245788.09863281 3357651.04150391 16.47465324 24 29 32
245789.14715576 3357661.39154053 17.20837212 100 115 136
245789.95080566 3357661.32861328 16.71631432 3 11 13
245789.47558594 3357649.10089111 17.18795967 36 46 45
245788.19354248 3357660.48852539 16.41316032 22 31 40
245789.12322998 3357652.06726074 16.67985535 27 80 124
245788.43902588 3357661.62335205 16.96291733 18 27 34
245790.02539063 3357663.02246094 16.65022659 94 98 99
245788.89697266 3357650.63134766 15.99989414 55 81 94
245788.13775635 3357649.19647217 16.68316460 1 11 13
245788.30706787 3357661.31201172 16.57273293 220 229 234
245788.34747314 3357648.67413330 17.36354637 98 108 110
245788.76855469 3357651.65338135 16.61033249 14 29 52
245788.91210938 3357649.22558594 18.79095459 28 32 31
245789.49896240 3357651.74499512 16.68682480 28 77 120
245788.60833740 3357652.66302490 16.58404732 50 68 90
245789.70794678 3357651.93322754 16.55306053 67 89 112
245789.21148682 3357650.90124512 16.27752876 103 123 134
245788.87164307 3357660.97308350 17.03830719 87 95 106
245788.17156982 3357660.84948730 15.95634651 40 46 46
245788.26495361 3357662.92016602 16.06403351 42 52 53
245789.27075195 3357652.44866943 16.64965630 15 65 98
245789.21948242 3357652.60430908 16.43020439 62 76 89
245787.92242432 3357659.05480957 15.73287487 63 68 71
245789.57611084 3357649.11260986 17.46632195 27 32 35
245788.28088379 3357648.99694824 16.83015442 27 35 38
245788.39239502 3357663.65936279 16.42154884 214 219 215
245788.34295654 3357659.42443848 16.09161949 197 208 212
245788.85046387 3357661.62017822 17.22942162 50 58 77
245789.38165283 3357663.18804932 17.10518265 25 35 47
245788.40808105 3357660.63677979 16.78500557 214 232 242
245789.90093994 3357662.42742920 16.92455292 57 59 54
245788.31677246 3357661.85675049 16.20780945 177 191 194
245788.47259521 3357648.82080078 17.68555450 71 76 80
245788.28137207 3357663.32617188 16.16440010 8 16 19
245789.49035645 3357649.24932861 16.70292473 34 42 44
245788.34405518 3357661.90093994 16.70700264 241 253 251
245789.32006836 3357663.16009521 17.14258385 25 35 45
245788.00946045 3357662.65124512 15.68268967 79 83 82
245789.25970459 3357660.18170166 16.75359154 169 189 196
245788.94451904 3357650.37414551 16.28696251 82 89 107
245788.98400879 3357652.76043701 15.94552135 25 32 38
245789.27722168 3357650.79248047 16.40220833 76 95 110
245788.78790283 3357659.99090576 16.70651436 210 235 231
245788.96630859 3357648.91253662 17.22364235 107 118 122
245789.58435059 3357650.61395264 16.88856125 31 41 51
245790.05291748 3357663.29602051 16.43541145 80 92 82
245789.36596680 3357652.81842041 15.79548073 41 45 48
245789.97711182 3357663.91259766 16.12194633 21 22 24
245788.57537842 3357652.65295410 16.07694817 16 25 34
245789.30688477 3357652.25939941 16.63538933 24 78 116
245789.47271729 3357651.25549316 16.65476990 55 86 107
245788.98358154 3357663.96691895 16.56991386 211 208 199
245788.94232178 3357649.22882080 18.77320480 22 28 28
245789.44616699 3357651.28015137 16.65246773 39 71 92
245789.40313721 3357649.33642578 18.46262932 51 61 63
245787.91754150 3357652.16680908 16.06323242 16 19 24
245789.02758789 3357649.08728027 17.04238701 130 139 146
245789.44281006 3357651.23645020 16.63344574 53 85 106
245789.38568115 3357662.34161377 17.22930717 38 54 67
245789.91003418 3357662.59857178 16.90122032 5 11 9
245788.70098877 3357658.97351074 15.89484596 63 67 70
245789.16015625 3357648.92407227 17.72633934 63 76 82
245788.79815674 3357660.43237305 16.77050972 97 112 119
245788.71246338 3357651.12023926 16.23534203 40 55 60
245788.81182861 3357652.68969727 16.47981262 34 45 65
245789.63299561 3357652.24694824 16.48794174 30 56 83
245788.46038818 3357662.00238037 16.97096634 17 20 29
245789.92150879 3357660.14483643 16.59417343 199 219 228
245788.37188721 3357663.84765625 16.06119919 15 18 23
245788.10174561 3357650.20666504 15.95917892 72 88 104
245787.96130371 3357660.14691162 16.12607765 55 56 58
245788.16772461 3357649.11102295 16.71879959 12 22 23
245789.53790283 3357660.16979980 16.70164299 210 233 239
245788.62133789 3357662.54254150 17.17709732 236 237 241
245788.10510254 3357660.42083740 16.24334335 31 34 39
245789.16052246 3357652.58593750 16.78534698 57 92 120
245788.59057617 3357663.87988281 16.37784958 239 236 227
245788.55303955 3357660.41723633 16.74323845 11 22 40
245789.71331787 3357662.51086426 17.20922089 104 104 112
245789.72863770 3357663.04290771 17.15757561 141 144 153
245789.89306641 3357662.30480957 16.93781090 61 70 65
245787.79455566 3357659.48712158 15.82985973 68 72 75
245788.70166016 3357649.19976807 18.80043793 30 36 36
245789.20538330 3357649.95489502 16.57726669 3 27 51
245788.77459717 3357661.52087402 17.22236633 117 126 143
245787.82891846 3357659.09289551 15.73890591 71 75 76
245788.24713135 3357660.60198975 16.49243927 172 181 186
245789.63903809 3357663.57653809 16.86272430 35 36 40
245789.28564453 3357652.81561279 15.80548763 40 45 48
245789.94061279 3357659.98510742 16.56591225 172 192 199
245788.87707520 3357651.25598145 16.43840790 61 83 97
245787.98913574 3357659.03308105 15.72927666 74 78 81
245789.36828613 3357650.69946289 16.66897774 60 89 107
245789.10943604 3357651.81372070 16.63665962 72 111 152
245788.16040039 3357658.67077637 15.65886116 67 70 75
245788.58593750 3357649.01837158 18.24900818 54 59 62
245788.12017822 3357649.94232178 16.09066010 49 57 76
245789.63433838 3357662.30694580 17.25366974 156 154 157
245789.20867920 3357652.57507324 16.62725449 25 58 89
245788.72119141 3357662.53131104 17.24391365 201 204 211
245788.66986084 3357660.95477295 17.04710388 163 190 209
245788.02386475 3357659.82550049 16.14435959 54 58 59
245789.07812500 3357649.95245361 16.47806549 109 157 206
245789.32775879 3357652.29998779 16.61579132 20 72 111
245789.10711670 3357651.40167236 16.55745888 26 48 62
245788.26910400 3357663.88140869 15.93287182 60 61 63
245788.32269287 3357662.30493164 16.69560242 231 236 240
245789.27758789 3357661.11785889 17.15515900 64 75 81
245788.14935303 3357660.90216064 15.90627861 42 48 46
245789.43646240 3357650.67376709 16.83144951 71 94 110
245789.54907227 3357661.98852539 17.23053360 42 52 64
245788.43817139 3357650.91125488 16.10268211 76 96 107
245789.27630615 3357650.27917480 16.69545937 103 117 128
245788.34753418 3357648.67315674 17.17531013 100 110 112
245789.47662354 3357650.94567871 16.70862961 53 84 105
245788.24060059 3357662.40991211 15.93925190 32 37 41
245787.94329834 3357648.97656250 16.77973175 41 44 49
245788.18609619 3357661.74053955 15.80537128 62 66 67
245789.35925293 3357662.58819580 17.24731445 38 55 73
245788.55609131 3357651.24462891 16.50738525 78 102 114
245789.17297363 3357660.23730469 16.74005890 71 90 104
245788.38787842 3357661.82983398 16.80524445 74 79 83
245790.03338623 3357663.46704102 16.43876076 63 69 67
245788.06927490 3357662.25738525 15.77577019 76 80 83
245789.03045654 3357650.54742432 16.21706009 75 95 106
245788.38958740 3357651.11138916 16.33134460 17 27 36
245789.57867432 3357662.17700195 17.24690056 40 49 56
245789.55828857 3357650.35369873 16.63862991 51 59 70
245789.35461426 3357659.13732910 16.06202888 27 34 42
245789.52618408 3357652.07598877 16.57020569 9 31 72
245788.06811523 3357660.18139648 16.25067329 39 43 46
245788.30065918 3357662.05590820 15.94460011 95 100 106
245788.56024170 3357662.26232910 17.14842033 248 255 255
245789.38659668 3357653.21185303 15.68134785 60 62 61
245789.28613281 3357662.48962402 17.23796654 39 52 69
245789.04327393 3357650.51220703 16.26669312 70 89 103
245788.19622803 3357659.21166992 15.90574837 73 74 78
245788.72894287 3357662.77453613 17.24057007 226 226 228
245789.50860596 3357662.10693359 17.23337746 40 52 66
245787.98962402 3357650.64392090 16.47567177 10 17 23
245789.77294922 3357659.31866455 16.03837585 112 132 143
245788.06890869 3357651.55004883 16.60020256 10 22 36
245788.47125244 3357651.44372559 16.59246635 25 33 35
245788.31665039 3357661.88317871 16.65797043 232 246 246
245788.67663574 3357660.66027832 16.84283066 38 42 53
245788.37359619 3357648.66656494 17.18745422 138 149 153
245789.57781982 3357661.74023438 17.21281624 65 71 83
245790.03057861 3357663.40411377 16.52433586 75 84 81
245788.87335205 3357649.23144531 16.69700050 11 18 24
245789.67346191 3357649.19177246 17.40334511 22 26 25
245789.03393555 3357660.65972900 16.76108170 27 36 43
245790.13873291 3357661.68621826 16.48836136 31 39 41
245789.04779053 3357663.27801514 16.93771172 30 47 55
245789.68640137 3357660.42889404 16.70945549 24 37 46
245788.13897705 3357648.71978760 17.21846962 81 91 93
245788.09643555 3357661.67150879 15.73579884 59 63 64
245788.25598145 3357651.36871338 16.55958557 26 33 39
245788.59710693 3357649.12591553 16.87814903 56 61 67
245788.32110596 3357659.55566406 16.18531609 172 187 194
245788.25781250 3357662.42364502 15.96817589 28 33 39
245789.96942139 3357663.90826416 16.15383148 19 20 22
245789.48510742 3357651.09527588 16.66968536 44 85 105
245788.30877686 3357662.19042969 16.61424255 226 237 239
245787.99822998 3357663.59283447 15.82741070 67 71 74
245788.80511475 3357659.18316650 16.17647362 73 77 86
245788.21496582 3357649.48785400 16.40125465 63 70 76
245788.27362061 3357649.12237549 16.72152519 4 16 16
245788.84930420 3357651.22167969 16.37890053 59 82 96
245788.38293457 3357648.72650146 17.09486961 24 34 35
245790.04711914 3357662.15716553 16.63554192 113 118 122
245788.36163330 3357648.90124512 17.87069130 39 43 46
245789.16705322 3357649.37695313 16.55229568 52 59 67
245788.29815674 3357660.83581543 16.78071404 242 255 255
245789.46105957 3357659.98858643 16.73351288 206 231 235
245789.20794678 3357649.31469727 18.67198753 46 55 54
245789.64227295 3357663.90881348 16.53747177 232 229 220
245789.57672119 3357659.17980957 16.00734520 11 19 30
245789.42236328 3357662.57312012 17.24702263 48 64 79
245789.48779297 3357662.89971924 17.24460411 216 232 229
245789.97546387 3357662.79492188 16.75197983 95 95 93
245788.63598633 3357652.34710693 16.73955536 56 84 123
245789.52557373 3357662.23071289 17.23408699 39 54 61
245789.87915039 3357661.13470459 16.93292618 4 10 26
245789.98333740 3357663.74005127 16.44705582 100 99 97
245789.24365234 3357661.04235840 17.05537796 5 16 22
245788.93695068 3357659.81054688 16.72737503 205 231 230
245789.44757080 3357652.86328125 15.75384331 41 45 46
245788.86572266 3357662.46771240 17.29150391 44 50 64
245789.94445801 3357663.54187012 16.78165436 118 124 122
245789.39276123 3357650.63085938 16.77773285 81 107 120
245790.00988770 3357663.70385742 16.41269493 97 97 97
245788.29357910 3357663.45471191 16.16189384 191 202 198
245788.81793213 3357661.28417969 17.17838669 242 247 251
245788.18884277 3357650.46759033 15.90347576 72 103 123
245787.95263672 3357650.40496826 16.22794914 18 27 36
245788.97174072 3357662.66845703 17.26478386 49 59 68
245787.99298096 3357660.31085205 16.11986351 39 43 46
245789.94903564 3357663.86578369 16.30571747 102 101 99
245787.84106445 3357662.67706299 15.67540455 86 86 88
245789.46136475 3357650.19134521 16.61332512 51 61 71
245788.64056396 3357662.16497803 17.22575569 210 215 221
245789.07507324 3357650.50366211 16.31225204 67 86 100
245788.71118164 3357660.73571777 16.86310577 45 45 57
245787.83813477 3357659.79425049 15.96741199 67 73 73
245789.54412842 3357649.42004395 16.55646706 14 22 24
245788.23785400 3357659.65283203 16.19053459 168 179 185
245788.32678223 3357661.27899170 16.28030014 184 198 201
245788.92846680 3357648.99304199 17.96293259 59 73 74
245788.75823975 3357659.77905273 16.68494415 207 233 232
245788.90173340 3357650.97296143 15.95106888 8 28 39
245789.63092041 3357652.42279053 16.23011398 13 25 39
245789.62158203 3357659.76409912 16.64096260 208 233 237
245789.01013184 3357663.61016846 16.78603172 24 24 22
245788.52227783 3357658.92425537 15.80560207 68 72 73
245790.05731201 3357662.32440186 16.61594200 91 96 99
245789.64825439 3357661.03851318 17.02948570 45 53 64
245787.97686768 3357660.10272217 16.13633347 41 45 46
245787.79504395 3357660.80163574 15.82341766 71 76 79
245788.30444336 3357662.22644043 16.47585487 209 223 224
245789.78002930 3357649.33721924 17.94083023 6 18 18
245788.29211426 3357663.41119385 16.07094574 58 66 68
245789.82580566 3357661.96252441 17.11285210 33 35 47
245790.07287598 3357660.73345947 16.61652374 88 100 100
245789.21423340 3357662.46868896 17.23453522 36 50 63
245789.53057861 3357660.59881592 16.73962975 33 40 46
245788.33233643 3357661.31005859 16.65769005 237 245 248
245788.03729248 3357650.78021240 16.49382973 18 26 29
245788.42327881 3357662.38922119 16.86054611 27 27 35
245788.40496826 3357648.88549805 16.98287010 31 38 44
245788.26025391 3357652.03033447 16.62409210 50 83 128
245788.30645752 3357662.26165771 16.32594681 191 206 203
245787.99273682 3357660.63745117 15.93399715 64 65 69
245788.32379150 3357661.34729004 16.31919861 187 201 204
