245881.13909912 3357600.88262939 15.11411476 29 35 35
245865.09033203 3357602.67016602 15.91122341 33 43 42
245880.92749023 3357599.66961670 15.93828964 252 238 237
245862.49975586 3357603.45239258 15.33848095 138 114 110
245864.96398926 3357603.55627441 15.41603661 23 25 20
245880.77752686 3357600.59619141 15.21062946 43 29 26
245879.99383545 3357600.41711426 15.73682022 248 250 249
245862.18878174 3357603.79077148 15.27026176 200 178 164
245881.38458252 3357599.57623291 15.74676323 222 224 211
245884.37896729 3357599.86743164 15.48983955 222 217 211
245865.34906006 3357603.31201172 15.30340385 114 113 109
245864.75329590 3357603.04443359 15.69081020 27 36 33
245865.27825928 3357601.69689941 16.35411072 35 38 45
245863.08984375 3357602.92407227 16.32155418 34 35 37
245864.63085938 3357602.95355225 15.66531372 41 52 38
245864.60888672 3357601.68365479 16.38967133 16 20 23
245863.14440918 3357603.02716064 15.95631027 100 102 99
245867.53057861 3357603.30078125 15.18792820 32 39 21
245880.18041992 3357600.64654541 15.36976051 251 250 248
245867.39923096 3357602.95465088 15.16047001 53 59 59
245881.66503906 3357599.74963379 16.27834511 139 140 144
245879.95074463 3357601.29156494 15.14800072 171 154 144
245863.96856689 3357601.96136475 16.53996086 178 181 186
245865.65911865 3357601.39459229 15.85125160 146 148 147
245883.73712158 3357600.05676270 15.61104679 244 230 230
245862.12023926 3357603.89739990 15.42612839 101 87 78
245863.35156250 3357602.05303955 16.45340157 180 178 181
245863.40313721 3357601.65356445 16.11544418 180 189 194
245880.47741699 3357601.72412109 15.19747543 96 107 47
245862.90820313 3357602.84088135 15.40833473 174 175 169
245864.16748047 3357601.56140137 15.56226444 154 151 146
245880.78704834 3357601.31890869 15.16738415 158 151 145
245882.56805420 3357599.64782715 15.07674122 226 218 216
245865.45153809 3357602.85858154 15.55683899 104 116 102
245881.75964355 3357599.61041260 16.18482971 19 17 18
245881.05291748 3357600.79919434 15.11811638 51 55 58
245864.72113037 3357601.52404785 15.57809544 150 147 142
245882.13598633 3357599.62670898 16.26107025 207 198 199
245880.79986572 3357600.18988037 15.93406391 77 67 68
245882.45794678 3357599.54370117 15.46218586 179 178 173
245863.53295898 3357602.13946533 16.48012543 199 198 206
245880.38964844 3357599.56488037 15.46176815 248 248 250
245863.43237305 3357603.75463867 15.31444740 59 58 53
245863.78399658 3357603.00201416 16.00129700 136 139 132
245881.64953613 3357599.65808105 16.27020645 91 89 90
245865.67974854 3357603.14636230 15.16774559 37 46 29
245866.97387695 3357601.53411865 15.56878281 14 18 29
245881.78057861 3357599.42156982 15.42175007 235 226 219
245864.62512207 3357601.77899170 16.51659775 166 178 190
245882.70526123 3357600.04437256 15.24468994 39 39 39
245875.19177246 3357600.31646729 15.02795219 190 190 178
245880.17468262 3357601.89044189 15.19381046 75 96 31
245862.78918457 3357601.71398926 15.58771610 141 132 133
245881.07989502 3357600.19299316 15.78445435 94 97 106
245864.77697754 3357602.68707275 16.46722984 30 36 36
245864.83679199 3357602.82281494 15.80549622 35 48 41
245880.69842529 3357600.47406006 15.70460129 54 55 49
245867.48419189 3357603.38336182 15.19783020 36 42 16
245863.53881836 3357601.75885010 16.31222153 45 43 48
245865.68609619 3357603.22308350 15.14912224 157 158 152
245862.50170898 3357601.81512451 15.77478123 120 119 124
245880.13085938 3357599.81481934 15.85154915 224 219 216
245869.78948975 3357601.15460205 15.10552502 190 188 176
245862.79626465 3357603.01605225 15.93183613 135 135 133
245862.54449463 3357602.73846436 15.57564926 156 161 164
245865.88684082 3357603.15997314 15.25028515 65 70 64
245864.38659668 3357602.83050537 16.35118294 138 138 136
245880.52764893 3357599.76690674 15.86713123 251 249 252
245867.58886719 3357603.55993652 15.25267601 100 111 51
245883.85321045 3357599.13745117 15.38057804 87 75 79
245865.60577393 3357603.77343750 15.26019955 61 69 28
245880.42700195 3357601.10302734 15.14120770 101 103 100
245865.80590820 3357602.90307617 15.69149971 38 47 42
245862.96807861 3357603.18426514 15.58646965 118 114 105
245862.56048584 3357602.90954590 15.88381100 230 236 222
245884.09942627 3357599.75408936 15.55540943 249 237 239
245883.36566162 3357599.53564453 15.81933403 252 247 243
245880.29528809 3357599.98706055 16.00979996 255 255 255
245882.01861572 3357599.35601807 15.34717083 239 228 224
245866.71209717 3357601.34155273 15.67956066 138 149 155
245879.93060303 3357601.13873291 15.20380497 156 147 132
245881.90301514 3357599.83868408 15.62635326 53 67 94
245867.41906738 3357602.72045898 15.18293953 58 64 64
245880.82904053 3357600.54913330 15.24178219 34 23 19
245882.71618652 3357599.76654053 15.89109325 20 20 20
245866.44451904 3357603.20318604 15.42508411 76 76 74
245865.24963379 3357602.55212402 16.02151108 16 25 24
245880.40747070 3357599.52233887 15.36428833 146 144 149
245862.41979980 3357601.92895508 16.14895630 178 191 208
245880.05810547 3357599.73779297 15.55011272 211 200 204
245880.08819580 3357600.14660645 15.89185905 246 247 251
245863.23748779 3357602.03466797 16.40771294 107 107 109
245881.09796143 3357600.96606445 15.12560081 48 54 54
245881.48242188 3357599.86566162 16.13652420 72 73 77
245865.01965332 3357602.57830811 16.40843201 109 110 112
245865.37756348 3357602.30798340 16.26615334 7 17 18
245863.49395752 3357602.03704834 15.41309547 163 167 166
245882.95043945 3357599.71484375 15.90344715 20 24 27
245863.45428467 3357603.46795654 15.72406101 35 36 30
245879.95123291 3357600.15136719 15.65723991 251 251 249
245866.92468262 3357602.20635986 15.79891682 85 89 88
245881.76635742 3357601.28070068 15.19958878 215 216 218
245863.02648926 3357602.71343994 16.33610725 20 19 24
245884.40350342 3357600.66369629 15.20021152 112 101 97
245881.34924316 3357599.65283203 15.29552078 203 202 197
245867.17193604 3357601.56805420 15.23609924 59 61 58
245881.73071289 3357600.09185791 15.20615196 96 85 83
245865.53515625 3357601.60351563 16.21153641 19 25 25
245864.52661133 3357601.69934082 16.39799118 12 16 25
245865.49072266 3357602.18060303 16.17999077 13 25 25
245884.10791016 3357599.17901611 15.28401947 190 182 179
245865.05218506 3357601.57989502 16.31067085 22 27 31
245881.22790527 3357599.53326416 15.39756584 228 214 211
245864.93273926 3357603.46789551 15.52930927 28 29 23
245880.67065430 3357600.17480469 15.98141956 58 47 43
245866.35266113 3357601.45367432 15.97721004 189 203 206
245863.46820068 3357601.68792725 16.18349457 235 234 242
245882.29187012 3357600.08416748 15.13044548 8 0 0
245862.18438721 3357602.36431885 15.93047619 193 192 188
245863.28900146 3357602.61657715 15.54921722 161 163 162
245882.96838379 3357600.18817139 15.67061234 18 29 33
245882.68804932 3357600.15759277 15.19201565 12 16 15
245864.46997070 3357603.42718506 15.70773983 28 29 24
245881.59820557 3357601.14221191 15.15185165 17 17 17
245880.63079834 3357600.43609619 15.30398083 144 150 148
245863.60778809 3357602.86645508 15.62329483 154 157 150
245864.85089111 3357602.75982666 15.96700191 61 77 66
245883.83782959 3357600.48913574 15.54571724 239 225 222
245866.87158203 3357601.95086670 15.86449146 93 101 103
245882.99365234 3357600.73553467 15.61768246 29 31 30
245862.85919189 3357603.00329590 15.90239239 134 136 133
245863.26202393 3357603.19451904 15.60106277 79 84 78
245863.49407959 3357602.81719971 15.51703835 203 205 204
245882.83978271 3357600.22021484 15.54612637 40 45 48
245881.33624268 3357599.57696533 15.70282650 227 226 221
245880.64331055 3357600.68200684 15.12502003 40 52 42
245862.20117188 3357603.94689941 15.34972191 97 83 72
245862.91723633 3357603.20654297 15.58763218 94 89 83
245862.30426025 3357603.26818848 15.34641647 191 177 164
245864.23193359 3357602.67547607 16.41658974 144 148 149
245862.24365234 3357602.79052734 15.45293236 153 144 135
245881.48504639 3357599.80535889 15.56301117 133 138 132
245880.96978760 3357601.25024414 15.19163322 221 220 215
245866.63336182 3357602.79663086 15.74773216 87 89 84
245882.65112305 3357599.95733643 15.53410816 20 22 19
245863.55987549 3357603.36993408 15.82155228 60 55 49
245884.61254883 3357600.75244141 15.08239555 39 43 44
245882.27716064 3357599.66625977 16.22270775 140 128 128
245882.09124756 3357599.94708252 15.23787117 98 89 90
245862.17083740 3357602.15734863 15.69532204 129 124 118
245883.52343750 3357601.00085449 15.62587929 90 71 64
245864.16192627 3357601.56304932 16.03370667 171 174 179
245862.67620850 3357602.79449463 15.72798824 220 228 217
245882.76116943 3357601.03833008 15.55669117 81 81 83
245883.01013184 3357600.49932861 15.62906456 24 29 32
245881.79760742 3357600.24121094 15.19145012 25 35 37
245865.88513184 3357602.77850342 15.94576550 26 31 27
245880.68151855 3357600.94189453 15.11650562 98 101 94
245865.68750000 3357601.50469971 16.11454391 117 117 115
245882.36120605 3357599.43103027 15.83568573 181 150 147
245863.60015869 3357602.15930176 16.47280312 197 196 204
245868.24383545 3357601.38702393 15.11834526 192 190 178
245862.80493164 3357601.73565674 16.11422157 151 150 156
245884.35455322 3357600.73791504 15.23638821 79 68 64
245881.25524902 3357600.00592041 15.31867409 169 165 156
245866.67932129 3357602.53137207 15.74930096 109 113 112
245881.93096924 3357601.54461670 15.27535248 30 45 12
245862.73645020 3357601.75354004 16.02378654 155 153 158
245862.17156982 3357602.32012939 15.93766975 188 187 183
245881.56823730 3357601.04492188 15.13035488 18 23 19
245864.87927246 3357602.13244629 16.53563690 130 133 140
245882.55212402 3357601.26800537 15.37274361 29 28 26
245862.61859131 3357602.82934570 15.78463650 221 229 216
245876.86657715 3357600.06427002 15.00831699 204 200 188
245865.62634277 3357601.58953857 16.16383553 37 37 39
245881.26422119 3357599.56933594 15.65114880 235 236 231
245862.21124268 3357602.60791016 15.46401691 164 157 151
245883.50738525 3357599.58819580 15.76984882 251 246 242
245882.83270264 3357600.17633057 15.57858562 35 40 43
245880.20190430 3357601.08361816 15.24155045 151 148 143
245879.99810791 3357600.45141602 15.74297523 246 248 247
245862.95971680 3357601.77270508 16.21540833 224 223 229
245866.20849609 3357602.66802979 15.87964344 136 138 137
245862.72235107 3357602.74255371 15.55486298 168 176 178
245881.92004395 3357599.81384277 15.53318596 73 81 94
245866.46887207 3357603.38616943 15.26988506 33 36 29
245883.22064209 3357601.09173584 15.67988205 23 26 19
245862.85296631 3357602.01019287 16.27606773 141 142 146
245881.20416260 3357600.15783691 15.55270195 97 112 107
245880.30670166 3357600.62719727 15.42227936 135 137 134
245880.47332764 3357600.79064941 15.10174751 54 56 55
245867.13128662 3357602.16052246 15.66266632 47 52 56
245865.86437988 3357602.84918213 15.80692101 41 50 45
245881.76019287 3357599.41632080 15.36686516 239 230 225
245880.01776123 3357600.20550537 15.78873634 249 247 248
245883.97833252 3357599.63836670 15.60739899 250 238 240
245865.64556885 3357601.39154053 15.82577133 145 147 144
245884.46514893 3357600.53240967 15.24353981 139 129 120
245880.69024658 3357601.02471924 15.14158630 101 102 96
245863.22406006 3357602.50750732 16.44679260 25 25 27
245882.49267578 3357599.88977051 15.69254303 77 76 72
245880.50500488 3357599.65405273 15.70961475 247 246 244
245865.98455811 3357602.81945801 15.92224407 78 83 79
245880.57135010 3357600.69934082 15.11716843 44 49 43
245864.80169678 3357601.47174072 15.89814186 140 138 139
245867.36785889 3357603.33782959 15.18021679 38 45 29
245883.91711426 3357599.79394531 15.59343052 255 244 242
245863.84680176 3357602.27478027 16.44008446 177 180 187
245866.21868896 3357602.03387451 15.99854088 135 143 145
245862.33508301 3357603.28277588 15.34577560 192 176 163
245863.63140869 3357603.21545410 15.80639839 163 159 158
245883.56475830 3357599.76055908 15.73793125 249 241 238
245883.12274170 3357599.45336914 15.89162254 87 56 61
245866.22277832 3357602.25823975 15.92866611 131 139 141
245862.72528076 3357603.05773926 16.09049606 85 79 79
245863.69708252 3357603.18060303 15.60804367 167 166 162
245862.25872803 3357603.52911377 15.24252319 215 201 188
245863.73883057 3357602.92199707 15.66013718 136 139 132
245880.18420410 3357600.33367920 16.00239944 245 251 251
245862.95318604 3357603.09619141 15.48967457 142 142 130
245883.98278809 3357601.08843994 15.42051125 43 38 16
245872.41809082 3357600.74749756 15.06975746 205 203 190
245867.07196045 3357602.19146729 15.73381233 74 78 77
245863.22302246 3357603.89691162 15.22299480 187 172 151
245864.71380615 3357601.57061768 16.14935684 145 143 148
245862.83673096 3357601.70690918 15.70999908 149 145 144
245863.06225586 3357603.37603760 15.70842266 57 55 60
245865.06622314 3357601.75445557 16.45322227 77 81 92
245881.48779297 3357599.91284180 15.74559689 33 47 60
245863.59234619 3357601.70709229 16.23265839 213 208 214
245882.68261719 3357599.47735596 16.06305122 218 200 198
245882.50598145 3357599.45166016 16.03844643 24 14 12
245881.23779297 3357600.12786865 15.55878925 99 114 107
245865.72125244 3357601.39874268 15.90128136 156 162 160
245863.74572754 3357603.85119629 15.34890461 69 73 58
245880.60156250 3357601.12493896 15.15660667 122 121 117
245864.16021729 3357602.72918701 16.38302994 149 153 152
245862.58514404 3357601.79162598 15.79437065 134 134 134
245882.57891846 3357599.90112305 15.50168896 128 123 117
245863.47381592 3357601.59716797 15.84668159 149 153 154
245863.27600098 3357602.61193848 15.55961895 161 163 162
245882.27648926 3357599.83905029 15.96665859 30 31 25
245862.55859375 3357602.77758789 15.76161957 205 211 199
245884.25891113 3357599.63909912 15.54309940 236 228 226
245881.62896729 3357599.80255127 16.24814987 90 94 97
245867.26428223 3357603.19354248 15.16181087 38 40 35
245862.41760254 3357601.85266113 15.73960590 127 125 130
245867.55340576 3357603.58575439 15.25230312 110 121 63
245880.73864746 3357599.70037842 15.86170101 253 253 255
245862.78833008 3357603.06878662 16.16144371 24 22 23
245864.19818115 3357603.45751953 15.67024040 31 32 26
245884.14538574 3357599.53674316 15.59725285 232 223 224
245866.16528320 3357602.78771973 15.86372471 134 136 133
245865.71496582 3357601.97277832 16.16299057 21 26 29
245863.03204346 3357603.69744873 15.35762787 179 171 160
245882.51092529 3357601.35723877 15.28649044 7 12 5
245880.39782715 3357600.03784180 16.09634399 115 81 79
245862.06207275 3357603.62365723 15.33486080 141 128 111
245880.69122314 3357599.73992920 15.95033932 254 248 250
245862.44927979 3357601.82177734 15.61646461 131 122 123
245881.68615723 3357600.86523438 15.11235714 21 25 24
245862.77166748 3357602.22772217 16.30849648 25 27 26
245865.94323730 3357602.48553467 16.08562851 32 36 37
245881.91729736 3357601.53997803 15.27398300 30 45 12
245867.46240234 3357603.30303955 15.17714024 34 41 25
245864.43420410 3357602.86651611 16.11558151 138 146 133
245881.55432129 3357601.65484619 15.24366283 78 86 45
245864.50897217 3357602.76641846 16.45196342 39 41 38
245882.73162842 3357599.38409424 15.09904861 212 203 196
245862.16326904 3357602.27825928 15.95911503 186 185 181
245863.47021484 3357603.03173828 16.38408852 84 84 84
245882.79870605 3357599.67919922 15.96594334 35 33 34
245862.97644043 3357603.86901855 15.20763397 185 165 141
245864.46185303 3357601.57879639 16.08486557 172 173 177
245864.08685303 3357602.52020264 16.43337059 160 164 167
245865.07440186 3357603.07568359 15.60683727 124 129 125
245864.24731445 3357601.68542480 16.27509880 34 32 33
245862.03509521 3357603.61956787 15.33458805 141 128 111
245865.54357910 3357602.84497070 15.59889984 7 16 13
245882.84436035 3357600.14398193 15.62798309 16 24 26
245865.26953125 3357601.87121582 16.33027649 19 24 27
245880.81848145 3357601.25189209 15.18546677 156 151 148
245882.78558350 3357599.97875977 15.71992683 13 21 23
245883.15155029 3357600.40972900 15.70568466 48 56 58
245884.03411865 3357600.31573486 15.48901272 236 221 218
245865.12011719 3357602.87670898 15.65105820 69 74 68
245880.47906494 3357599.93988037 16.06682396 232 224 222
245880.22412109 3357600.35565186 16.03836441 244 248 249
245882.67041016 3357599.59167480 15.49650669 199 195 184
245879.99572754 3357600.59796143 15.73242760 246 245 243
245883.99377441 3357600.74499512 15.58650398 244 220 210
245862.36962891 3357602.22729492 16.23604965 182 182 190
245884.43298340 3357600.58489990 15.24409485 128 115 109
245865.35937500 3357602.19927979 16.28466415 13 23 24
245883.64245605 3357601.03442383 15.57046890 70 47 41
245865.21594238 3357603.52734375 15.39567852 45 48 39
245880.28680420 3357600.64373779 15.32042313 86 88 85
245882.75531006 3357599.66265869 15.24166107 223 221 209
245862.77825928 3357602.84124756 16.25275612 20 21 25
245866.90112305 3357601.96606445 15.85343266 91 97 97
245865.89556885 3357603.36682129 15.15793419 106 105 101
245882.43481445 3357599.77087402 15.45240402 133 130 121
245881.36236572 3357599.63574219 15.36150932 215 214 209
245879.89440918 3357600.85424805 15.31832790 141 134 118
245864.64624023 3357601.66656494 16.36182213 23 24 28
245865.95562744 3357602.11798096 16.10332108 97 106 105
245880.81274414 3357600.38049316 15.51121426 117 115 102
245880.35717773 3357601.03814697 15.16876316 99 99 97
245865.90148926 3357602.08728027 16.12058830 47 51 52
245881.56115723 3357599.79864502 15.58215332 114 120 118
245866.09448242 3357603.71850586 15.22317410 46 51 29
245882.70843506 3357599.43597412 15.75334930 222 208 208
245881.17279053 3357600.59014893 15.23753643 41 43 42
245881.41571045 3357600.07238770 15.30928040 166 163 154
245865.64251709 3357603.10205078 15.21355057 61 77 51
245862.13464355 3357602.43267822 15.37146378 186 177 168
245863.59149170 3357602.96221924 16.37129402 171 167 166
245862.95324707 3357601.97497559 16.28358459 162 163 168
245865.67181396 3357602.45098877 16.07295227 25 33 35
245865.88891602 3357601.84356689 16.12483215 70 78 80
245863.09265137 3357602.42132568 16.38497353 27 29 26
245884.21728516 3357601.35809326 15.17380619 103 116 62
245882.74420166 3357599.39385986 15.84151459 243 223 225
245884.48095703 3357601.11743164 15.10782814 45 54 35
245866.75402832 3357601.77520752 15.92666245 105 113 116
245863.39825439 3357603.78955078 15.30028152 143 139 128
245867.23156738 3357603.32324219 15.18711472 42 45 38
245884.31134033 3357599.76361084 15.50428677 238 233 230
245884.15679932 3357599.23364258 15.18774223 194 187 179
245880.60516357 3357600.49542236 15.82449436 38 40 35
245884.02294922 3357600.62139893 15.54738903 248 237 231
245881.07409668 3357599.46405029 15.30441284 96 68 67
245881.48309326 3357599.87066650 16.10811424 67 70 75
245865.70477295 3357602.91113281 15.59407902 17 26 23
245862.31530762 3357602.77362061 16.10824394 155 150 154
245884.42687988 3357600.68634033 15.15713215 79 70 65
245880.75085449 3357599.70562744 15.89625454 254 254 255
245864.50299072 3357603.13439941 15.77595425 111 113 110
245882.64483643 3357600.58184814 15.26140785 18 19 21
245881.93341064 3357600.35400391 15.13634682 17 23 21
245881.65667725 3357599.76287842 15.23787308 234 220 219
245863.69464111 3357601.68957520 16.22143555 196 189 196
245882.06573486 3357601.31347656 15.26598740 29 29 27
245865.08215332 3357602.59472656 16.27352715 60 64 65
245883.31054688 3357600.13677979 15.78533554 74 78 79
245881.64703369 3357599.51684570 15.31468678 223 208 205
245863.26831055 3357602.45135498 15.46846771 163 167 168
245863.06628418 3357603.00860596 15.44257164 159 166 148
245881.89819336 3357599.40045166 15.45307732 232 223 216
245882.41998291 3357600.17028809 15.08401489 29 25 24
245865.04113770 3357602.71575928 15.88290119 32 42 41
245863.75219727 3357603.90319824 15.33453941 121 126 94
245863.90997314 3357603.20013428 15.70282650 152 152 152
245863.55767822 3357601.58477783 15.71889019 163 157 157
245880.07397461 3357599.55108643 15.05760574 189 180 175
245884.35845947 3357599.40002441 15.21832561 175 167 165
245862.87377930 3357603.84777832 15.19182968 193 170 152
245864.23760986 3357602.12213135 16.52733612 168 171 178
245863.50561523 3357603.01782227 15.43589401 148 151 140
245863.31201172 3357602.40234375 15.44378090 159 163 164
245882.25964355 3357599.66290283 16.23588943 168 156 156
245863.39416504 3357602.62438965 16.50270462 82 83 85
245862.14093018 3357602.16711426 15.43976974 173 167 155
245880.69769287 3357600.12298584 16.00529289 79 55 53
245881.27386475 3357601.35137939 15.16598034 146 138 136
245867.32745361 3357601.85485840 15.28199387 64 69 72
245882.86401367 3357600.85046387 15.56672955 16 16 16
245864.43609619 3357603.14678955 15.76624203 110 112 111
245882.45904541 3357599.61944580 16.19972610 109 97 97
245882.53613281 3357600.61499023 15.15163898 14 16 15
245880.40313721 3357599.95935059 16.03900337 245 239 239
245880.32904053 3357600.98205566 15.17068577 96 95 91
245866.56311035 3357603.00878906 15.64940166 61 63 58
245883.56097412 3357600.89471436 15.64851570 255 243 240
245865.24804688 3357601.39892578 15.92755604 142 142 142
245883.62609863 3357600.74035645 15.65244579 255 244 242
245863.03576660 3357603.55328369 15.55106831 64 65 60
245862.64544678 3357603.01580811 16.15505409 85 84 82
245866.60870361 3357603.45111084 15.23258591 36 39 32
245880.78979492 3357600.36999512 15.79152393 30 32 27
245866.58343506 3357603.01330566 15.63688469 60 62 57
245863.10742188 3357603.99853516 15.21937275 180 167 135
245863.15856934 3357602.11059570 16.38101387 62 64 63
245881.26306152 3357599.64465332 16.08810425 26 16 17
245882.85687256 3357599.36389160 15.88303757 212 194 194
245882.32324219 3357599.77758789 15.43079758 108 105 98
245863.36169434 3357603.15447998 15.51477432 89 95 91
245881.53863525 3357599.81286621 15.62163830 101 109 111
245883.44708252 3357601.36181641 15.29272461 21 27 15
245881.17687988 3357599.58099365 15.83524895 241 241 239
245880.31805420 3357601.56652832 15.14109516 168 166 141
245866.81494141 3357602.04913330 15.85275841 100 105 108
245862.78411865 3357601.81353760 16.22049904 227 226 232
245882.18829346 3357600.06292725 15.17061615 25 25 23
245866.57769775 3357603.48535156 15.22903919 31 37 27
245882.65631104 3357599.92474365 15.74784851 12 21 20
245864.00549316 3357603.35882568 15.79269123 38 40 35
245883.84088135 3357599.56060791 15.65411377 245 235 234
245866.15338135 3357601.38372803 15.90328121 187 203 203
245863.85931396 3357602.00408936 16.51339722 185 182 189
245865.12475586 3357602.64044189 15.93030453 39 48 45
245880.19311523 3357600.40234375 16.00462341 238 244 244
245863.37768555 3357602.93652344 15.85103798 122 122 120
245865.54278564 3357601.55639648 16.20450401 94 95 97
245884.37817383 3357601.08038330 15.16262150 42 47 40
245882.20867920 3357601.44738770 15.27700520 1 7 0
245863.43255615 3357602.87518311 16.46877289 68 68 68
245862.10894775 3357603.37860107 15.30321884 194 182 168
245862.75122070 3357603.75219727 15.24359798 196 182 169
245883.61535645 3357600.10424805 15.67805004 235 223 223
245880.90893555 3357599.44427490 15.20557499 66 57 58
245880.13873291 3357600.79620361 15.30412197 131 130 128
245866.95220947 3357601.71783447 15.81611824 109 118 123
245864.63671875 3357601.52697754 15.56499767 155 150 146
245862.25030518 3357603.94909668 15.31259251 132 116 103
245866.69891357 3357601.36102295 15.40838718 98 100 97
245882.83111572 3357601.13781738 15.62401962 25 26 20
245862.45941162 3357601.85333252 16.05696869 87 99 115
245866.00012207 3357603.62359619 15.20866394 62 67 44
245866.54919434 3357603.38989258 15.26619434 30 33 26
245881.00860596 3357599.93048096 16.15006065 156 137 139
245863.12731934 3357602.90020752 15.80584621 131 133 130
245884.13751221 3357599.26898193 15.56453228 133 121 121
245884.14746094 3357600.96948242 15.39671993 55 43 27
245867.22229004 3357603.21813965 15.17370510 45 47 42
245881.82067871 3357599.66595459 16.28468704 191 187 184
245883.72814941 3357599.49670410 15.67593956 249 240 241
245879.93939209 3357601.55749512 15.09835625 151 146 108
245863.17028809 3357602.08209229 16.38402748 97 99 98
245863.14263916 3357601.63092041 15.94151974 146 147 151
245882.59265137 3357599.91210938 15.49555874 128 123 117
245863.28637695 3357603.24188232 15.61595726 75 80 76
245863.00811768 3357602.15728760 16.33166504 37 38 42
245882.47265625 3357599.45263672 16.02631569 15 10 6
245862.87695313 3357603.20916748 15.57322598 61 53 50
245862.19219971 3357603.98449707 15.35203171 92 80 68
245881.20581055 3357600.91778564 15.11794758 29 33 32
245884.06335449 3357600.84808350 15.56787682 219 185 175
245867.56518555 3357603.55682373 15.24811077 91 105 46
245862.17474365 3357603.65356445 15.23554993 156 145 127
245882.46569824 3357599.69464111 15.09776878 205 205 203
245864.28375244 3357601.53295898 15.95694065 147 148 150
245882.41345215 3357599.84051514 15.60197926 107 108 100
245881.71368408 3357599.82354736 15.22150612 225 220 217
245883.69879150 3357600.50354004 15.61875057 245 231 228
245881.62200928 3357599.86041260 15.95300484 55 64 71
245864.23693848 3357603.81835938 15.34887028 19 34 15
245880.85504150 3357599.74645996 16.11719513 71 61 62
245882.44421387 3357601.26861572 15.26347160 99 97 98
245864.01440430 3357603.44311523 15.73111439 33 35 30
245866.08062744 3357601.32141113 15.69447517 87 92 95
245862.04040527 3357602.40881348 15.29760170 188 178 169
245863.88397217 3357603.04846191 15.48609924 112 117 110
245862.62207031 3357602.49957275 16.28221130 185 167 167
245866.08117676 3357601.66345215 16.09076309 124 130 130
245881.08752441 3357599.50616455 15.54228115 217 207 205
245862.51788330 3357602.93804932 16.13975143 137 136 141
245866.49060059 3357603.67803955 15.23102856 29 37 16
245883.51947021 3357601.32000732 15.32571983 25 33 22
245881.36187744 3357599.65429688 15.31168747 203 202 197
245863.24530029 3357602.92352295 15.42869282 221 227 213
245865.96704102 3357603.09869385 15.45081329 38 46 35
245880.03216553 3357600.65856934 15.79513359 241 240 238
245883.95184326 3357599.68572998 15.60192299 254 240 240
245862.59222412 3357603.72619629 15.19930458 190 178 166
245880.27648926 3357599.87567139 15.91299438 249 250 252
245880.56555176 3357600.07238770 16.05843925 118 84 72
245866.80535889 3357603.42407227 15.23445129 63 64 56
245883.64959717 3357600.69079590 15.65017128 250 241 236
245862.48211670 3357603.07037354 15.44228077 99 93 93
245866.09155273 3357603.14050293 15.45641994 36 41 34
245880.28302002 3357601.31085205 15.14080524 161 149 135
245865.63049316 3357603.42205811 15.16516876 114 112 113
245865.44226074 3357601.39721680 15.78694630 149 148 144
245881.77105713 3357599.49194336 15.70091534 229 230 222
245882.66003418 3357599.86090088 15.10443687 100 99 95
245882.31317139 3357599.75170898 15.35694504 111 102 95
245880.40637207 3357599.58831787 15.54703426 250 249 247
245880.01940918 3357600.96777344 15.32120323 113 106 98
245865.25598145 3357601.61041260 16.33205414 145 152 160
245865.61761475 3357603.78222656 15.26066017 61 69 28
245880.90216064 3357599.72534180 16.10297203 68 54 51
245863.32891846 3357602.79968262 16.45701981 30 32 31
245884.14575195 3357599.47186279 15.61190987 241 232 235
245864.72052002 3357602.79412842 15.93264008 67 80 71
245863.39593506 3357602.11230469 16.47406578 230 228 233
245864.23394775 3357601.63079834 16.13876915 162 162 164
245866.91583252 3357602.43078613 15.73969078 87 92 88
245866.97772217 3357603.10662842 15.31462002 41 41 39
245866.32391357 3357601.88940430 16.03212547 134 142 144
245866.62927246 3357601.38073730 15.82469654 177 196 200
245865.84252930 3357603.72961426 15.24041748 54 60 26
245863.45428467 3357603.21948242 15.60139179 73 74 66
245881.83563232 3357601.05310059 15.15248585 22 22 24
245865.04833984 3357601.47070313 16.08600044 148 153 156
245883.94335938 3357600.36853027 15.49970245 238 222 222
245866.88464355 3357602.82696533 15.56234074 63 65 60
245864.03100586 3357602.60498047 16.39394760 156 160 161
245863.75451660 3357603.01452637 15.48838425 137 141 124
245883.14788818 3357599.79296875 15.85807610 26 35 40
245862.21368408 3357602.48260498 16.12141228 203 205 218
245881.09716797 3357601.25683594 15.18143368 221 222 217
245884.31896973 3357600.83886719 15.28880978 42 35 29
245866.24761963 3357603.06561279 15.63055801 101 106 100
245881.59777832 3357599.88378906 15.82007504 39 52 61
245865.26068115 3357602.93347168 15.52371502 49 53 52
245866.90057373 3357603.00744629 15.43650913 54 56 51
245863.89196777 3357601.84985352 16.51416779 119 129 139
245880.24554443 3357599.87939453 15.91033554 244 248 249
245863.07250977 3357602.52606201 16.37604904 22 22 22
245884.53466797 3357600.38128662 15.26618671 131 123 120
245866.58807373 3357602.73339844 15.76709938 159 164 158
245882.89477539 3357601.11016846 15.68651104 49 48 46
245881.94519043 3357599.80261230 15.48760986 75 84 91
245862.51672363 3357602.38104248 16.28079414 185 185 195
245866.19360352 3357602.99139404 15.70401192 120 125 119
245880.69934082 3357600.47607422 15.66705608 60 60 52
245864.80499268 3357601.52606201 15.54191208 149 146 141
245864.85418701 3357603.55230713 15.44198036 28 29 24
245879.94567871 3357599.99755859 15.59055519 250 250 250
245865.36309814 3357603.10571289 15.26181507 81 84 77
245863.25219727 3357601.60314941 15.65816402 122 124 123
245883.11718750 3357600.87939453 15.67494965 69 71 68
245862.92877197 3357602.71691895 15.61460686 169 174 170
245880.61627197 3357601.07080078 15.14345932 107 108 102
245864.46539307 3357603.47552490 15.62146664 28 29 24
245882.52270508 3357600.01025391 15.05487633 65 49 49
245865.70587158 3357603.66821289 15.22927952 63 70 37
245865.29357910 3357603.61303711 15.32406330 44 52 39
245864.55505371 3357601.49829102 15.91381073 157 157 155
245880.21728516 3357600.30755615 16.03651237 247 248 250
245884.39929199 3357599.42431641 15.14558411 102 98 97
245881.24951172 3357599.97094727 15.30719757 150 140 138
245881.53228760 3357600.84051514 15.11250973 18 24 20
245866.70098877 3357601.94152832 15.91644096 119 129 130
245881.18469238 3357601.47058105 15.19789028 52 45 39
245863.54510498 3357601.59106445 15.80441666 158 158 158
245881.98828125 3357599.75854492 16.18054199 147 140 134
245862.66503906 3357602.36822510 16.30379486 31 29 30
245865.81713867 3357602.32458496 16.11152840 42 44 43
245884.16381836 3357600.02343750 15.51357269 247 231 231
245864.04058838 3357602.37005615 16.46437645 167 172 178
245881.93066406 3357601.07934570 15.18614197 21 21 23
245884.38104248 3357600.67950439 15.25122929 124 109 104
245881.64337158 3357599.63153076 16.22694397 4 2 7
245865.31878662 3357601.67938232 16.32436180 32 33 38
245880.69036865 3357599.45880127 15.17422962 68 62 62
245881.66375732 3357599.57843018 15.35699749 239 226 218
245862.37524414 3357603.88037109 15.19888401 146 134 118
245884.38482666 3357599.35253906 15.07502270 72 67 63
245881.63275146 3357599.62615967 16.19837379 2 2 2
245862.99127197 3357602.58825684 16.33809280 23 24 26
245880.73223877 3357600.77581787 15.11573505 53 64 56
245864.27331543 3357601.71124268 16.35331154 41 44 49
245864.27453613 3357603.84429932 15.34097099 23 39 12
245866.99536133 3357602.54956055 15.60641193 81 83 80
245881.61499023 3357599.86804199 15.20123959 220 213 205
245865.65771484 3357603.72637939 15.24619389 56 67 27
245864.71038818 3357601.53009033 15.51923656 149 146 139
245882.48431396 3357599.83831787 15.54941750 145 136 129
245882.04718018 3357600.92187500 15.18002605 26 28 27
245862.51934814 3357603.00177002 15.46759510 117 116 122
245863.24774170 3357603.31591797 15.72053432 63 66 57
245880.03326416 3357600.62182617 15.79862595 243 242 240
245863.71270752 3357602.95495605 15.85457802 129 132 125
245866.04370117 3357602.87207031 15.86110020 103 108 102
245864.50335693 3357602.21008301 16.53823662 12 14 11
245880.45434570 3357599.49975586 15.27705383 80 78 81
245865.36041260 3357601.41796875 15.72929001 148 147 142
245864.21166992 3357601.78424072 16.52625656 96 110 121
245866.73187256 3357601.35510254 15.73535919 147 162 167
245862.34588623 3357604.02404785 15.26657295 149 140 123
245865.80371094 3357602.85815430 15.75686646 34 43 38
245882.28680420 3357599.82543945 15.16443443 23 28 31
245881.00512695 3357599.48742676 15.55293274 249 241 239
245883.82373047 3357599.17260742 15.50616932 223 219 220
245881.41333008 3357599.90930176 15.22116566 180 177 168
245867.01293945 3357601.46954346 15.29203892 72 69 64
245865.16827393 3357602.63726807 15.90980625 36 45 44
245880.33209229 3357599.52795410 15.29573822 220 216 217
245880.54663086 3357599.63958740 15.70765591 250 250 248
245867.52282715 3357602.54968262 15.15096664 64 69 72
245863.01055908 3357603.08648682 16.22091675 37 37 35
245865.57666016 3357603.36486816 15.16760063 113 112 107
245882.51080322 3357599.35504150 15.10859203 202 191 185
245867.16339111 3357602.22344971 15.55403805 56 59 64
245883.53167725 3357600.63555908 15.69986153 255 246 240
245883.91638184 3357600.59899902 15.56125927 247 237 235
245882.73931885 3357600.22186279 15.37933159 18 22 25
245862.22668457 3357602.62280273 16.08507729 192 192 202
245880.13568115 3357600.94976807 15.69392109 241 230 226
245862.46289063 3357602.43231201 16.26552963 176 176 188
245862.44848633 3357602.85388184 15.50831985 119 123 134
245866.90185547 3357601.44421387 15.45728302 60 59 64
245883.85113525 3357599.50732422 15.65537071 244 234 235
245867.01232910 3357602.27264404 15.75098705 78 80 79
245865.03387451 3357602.26879883 16.49303436 124 122 127
245880.19274902 3357600.63366699 15.37279415 250 249 247
245863.40209961 3357603.13714600 15.47912693 98 104 100
245866.07543945 3357601.50872803 16.01786995 164 170 168
245864.03100586 3357603.23626709 15.74523830 126 127 122
245866.53900146 3357601.32739258 15.78344727 114 125 127
245880.15246582 3357600.94696045 15.77405643 215 202 194
245884.20642090 3357599.25976563 15.31884003 185 177 174
245864.34375000 3357601.59759521 16.09841156 172 169 176
245862.64978027 3357602.77172852 15.54875183 174 179 182
245867.32672119 3357602.26953125 15.31228065 45 48 53
245864.96136475 3357601.51745605 15.53250790 152 147 143
245864.69372559 3357603.57983398 15.42765617 21 23 18
245882.39154053 3357599.47875977 15.53613472 195 194 189
245863.56237793 3357602.90307617 15.75370312 140 142 137
245880.83209229 3357601.43780518 15.16814613 153 150 135
245881.62738037 3357599.73767090 15.24300385 234 220 219
245863.18395996 3357601.93109131 16.36239243 200 199 205
245881.54571533 3357599.70544434 15.23263550 230 221 214
245880.26885986 3357599.53936768 15.19592762 183 180 175
245863.22375488 3357603.31854248 15.70286274 63 66 57
245864.72308350 3357601.47747803 15.94656086 139 139 139
245880.01867676 3357600.33337402 15.78488255 246 247 249
245882.37847900 3357600.66821289 15.12691975 16 18 17
245882.98107910 3357599.37158203 15.39445686 241 232 225
245863.74548340 3357602.43884277 16.43371773 173 176 181
245880.72595215 3357601.28094482 15.17066288 150 141 142
245883.47113037 3357601.16906738 15.53663445 28 29 21
245862.81530762 3357603.10552979 15.42691422 143 145 142
245862.60784912 3357603.00726318 16.01769447 102 96 96
245884.12750244 3357600.28009033 15.48250294 240 226 225
245865.39874268 3357601.83856201 16.23875237 14 24 25
245882.82440186 3357600.26165771 15.50606441 38 42 45
245882.83581543 3357599.48822021 15.29578590 235 225 223
245881.68859863 3357599.57360840 16.00131607 29 9 8
245863.88775635 3357601.91143799 16.53040314 213 217 226
245881.74700928 3357599.59497070 16.11091805 17 17 17
245863.86810303 3357601.61340332 15.58427334 175 171 168
245865.92761230 3357601.41119385 15.89651203 177 189 189
245884.04626465 3357601.23156738 15.27459145 34 47 17
245882.75744629 3357600.27264404 15.40932655 12 17 20
245881.69604492 3357599.61920166 16.19572067 16 14 17
245880.86499023 3357600.83245850 15.11291790 62 69 62
245866.35260010 3357601.81945801 16.05324364 130 138 140
245881.82745361 3357600.79583740 15.12057877 19 25 23
245865.00408936 3357602.64770508 16.11269379 43 53 52
245868.35485840 3357601.34503174 15.11524868 191 189 176
245862.34918213 3357602.80090332 15.96289444 245 243 231
245864.29437256 3357601.56146240 16.02669334 166 167 171
245884.12921143 3357599.54278564 15.59910107 231 222 223
245880.33093262 3357599.58648682 15.46552181 243 243 243
245865.33056641 3357602.71014404 15.81055641 31 37 37
245880.17596436 3357599.67272949 15.56075764 228 219 222
245882.62274170 3357601.35406494 15.39097214 14 20 8
245866.42260742 3357603.19738770 15.43332863 74 76 71
245880.51562500 3357600.50537109 15.36237431 101 106 100
245880.85083008 3357600.71185303 15.17415047 49 58 53
245865.54101563 3357601.71679688 16.21120644 25 31 31
245884.33917236 3357601.01165771 15.19273376 32 37 30
245864.99560547 3357602.77856445 15.83337784 27 38 34
245879.86700439 3357600.38043213 15.46589756 255 255 253
245862.18603516 3357602.34851074 15.70536232 141 137 126
245882.08868408 3357601.36749268 15.27699089 15 16 10
245882.65917969 3357599.88043213 15.40448093 133 126 120
245880.14172363 3357600.47235107 15.94795036 236 240 243
245881.28344727 3357600.01983643 15.52259731 117 123 119
245881.00891113 3357600.49310303 15.30866146 51 47 44
245882.99438477 3357599.83496094 15.85148144 19 26 32
245866.31250000 3357603.38232422 15.26290131 53 55 50
245864.69622803 3357602.24902344 16.54317856 10 16 14
245882.40032959 3357599.82061768 15.10295868 106 107 109
245866.73352051 3357601.79370117 15.93820667 116 124 127
245867.09020996 3357601.50079346 15.24318695 62 61 57
245862.21820068 3357602.49041748 16.12868690 203 205 218
245881.98046875 3357600.32855225 15.14178467 14 20 18
245863.05194092 3357602.74810791 15.40082073 191 198 190
245880.56274414 3357600.47424316 15.22778225 133 135 132
245864.88977051 3357601.62438965 16.36268616 21 26 30
245863.07867432 3357603.26470947 15.70174980 68 67 63
245862.35571289 3357602.68829346 15.56341648 121 123 122
245882.01104736 3357599.37133789 15.37904644 235 224 220
245863.43273926 3357602.13818359 15.41123772 170 174 175
245864.86779785 3357602.72973633 16.21236992 35 45 37
245882.40277100 3357599.47473145 16.07629013 22 12 13
245864.07781982 3357601.93072510 16.55474472 183 186 195
245862.49243164 3357603.63958740 15.22220325 211 193 183
245866.72229004 3357601.80828857 15.94434834 116 124 127
245863.20935059 3357601.84130859 16.32167816 78 77 82
245882.75915527 3357599.76184082 15.19022369 202 198 189
245863.81634521 3357603.08001709 15.48614883 120 123 112
245881.04669189 3357600.23956299 15.71537399 94 99 105
245880.38446045 3357600.85290527 15.89167309 63 64 69
245862.93499756 3357601.68853760 15.93380833 158 158 160
245882.57037354 3357599.71356201 15.47817993 196 186 174
245862.18011475 3357603.98748779 15.35588741 59 51 40
245863.25256348 3357602.72479248 16.43395424 36 38 37
245881.76196289 3357600.00500488 15.20243740 208 190 186
245863.51580811 3357601.86999512 15.41173077 156 158 155
245880.65527344 3357599.92700195 16.12715912 231 228 223
245880.24639893 3357601.55505371 15.13277340 152 148 119
245881.34674072 3357600.01995850 15.82842731 98 103 106
245863.51928711 3357602.95068359 15.87245750 130 131 126
245862.55450439 3357602.48394775 16.27344513 194 184 192
245863.65570068 3357601.71252441 16.25191689 145 139 143
245862.39929199 3357602.50982666 16.22888374 177 175 186
245862.21929932 3357602.59051514 16.04572296 210 215 221
245864.74108887 3357602.77301025 16.04250145 41 51 43
245882.68817139 3357599.60272217 16.08027267 64 50 47
245866.84552002 3357603.02032471 15.46196842 61 63 58
245883.55023193 3357600.82110596 15.66705322 253 245 242
245863.88366699 3357603.57006836 15.57987595 30 31 26
245866.33111572 3357602.03594971 15.97321415 130 138 140
245867.03259277 3357603.48004150 15.22233295 41 42 28
245881.33087158 3357599.70031738 16.17228889 19 18 23
245880.76788330 3357599.73773193 16.03698730 130 111 115
245863.41278076 3357602.67687988 15.49409866 146 147 149
245883.65838623 3357600.19879150 15.64207268 234 220 220
245881.38452148 3357600.92535400 15.11873817 27 29 28
245863.75396729 3357601.59155273 16.01779938 151 154 161
245883.24114990 3357599.57141113 15.88342285 68 37 35
245863.80938721 3357602.16461182 16.46218681 184 187 196
245864.69726563 3357603.52844238 15.49751282 24 25 20
245865.76251221 3357602.68627930 15.93573761 36 41 44
245867.36981201 3357601.93011475 15.25477123 67 72 76
245863.00073242 3357602.91595459 16.29299355 30 29 34
245865.71264648 3357602.34918213 16.11653900 20 29 28
245883.66448975 3357600.09210205 15.64775085 240 226 225
245880.51855469 3357599.49664307 15.41851902 77 75 80
245881.44335938 3357599.79797363 15.49335384 169 168 164
245863.25994873 3357603.78851318 15.25907326 176 170 156
245866.55786133 3357601.31201172 15.69147587 105 110 114
245882.81555176 3357600.82135010 15.51839638 18 20 19
245863.49859619 3357602.90100098 15.45574856 251 255 250
245883.13305664 3357600.60614014 15.65912151 43 47 48
245863.59753418 3357602.03204346 16.49522972 210 205 211
245882.53320313 3357600.94445801 15.29165173 22 23 25
245880.35571289 3357600.71130371 15.95901585 75 74 82
245866.16485596 3357602.61193848 15.90862942 136 138 137
245864.43048096 3357602.03210449 16.53685760 69 67 72
245862.23724365 3357602.57476807 16.11752892 153 153 163
245882.74670410 3357599.86077881 15.19159698 111 111 103
245881.31225586 3357599.57452393 15.82604122 233 234 229
245880.34649658 3357599.81146240 15.88675308 250 250 252
245867.12548828 3357603.02398682 15.27014351 35 37 36
245864.57781982 3357602.09387207 16.54053688 22 21 19
245880.80743408 3357600.38470459 15.51491165 117 115 102
245866.07904053 3357602.56317139 15.96603489 131 135 134
245863.85913086 3357603.66406250 15.48292542 38 38 36
245863.03631592 3357602.61816406 15.49313927 172 178 174
245880.01043701 3357600.21392822 15.77525425 248 246 247
245864.01458740 3357602.94848633 15.67406273 77 84 76
245867.00854492 3357602.99285889 15.37733650 36 36 36
245863.45031738 3357603.51129150 15.67357826 34 35 29
245864.26013184 3357602.71130371 16.41333008 140 144 145
245881.64886475 3357599.92639160 15.19422340 228 221 211
245866.45861816 3357603.40582275 15.25907803 26 29 22
245862.89746094 3357601.87469482 16.25347710 198 199 204
245863.81805420 3357601.95886230 16.52036858 216 219 226
245880.26190186 3357601.79510498 15.19212627 91 104 50
245883.15783691 3357599.80255127 15.85664749 26 34 37
245880.14508057 3357600.77709961 15.90881634 235 235 235
245884.55212402 3357600.84143066 15.08577442 42 46 45
245881.78961182 3357599.77899170 16.22946167 57 61 64
245880.68292236 3357600.91979980 15.11007404 91 92 86
245863.53503418 3357602.66650391 16.48797607 178 177 182
245882.79925537 3357600.92724609 15.55048943 14 16 15
245880.27130127 3357600.86950684 15.69122982 99 104 100
245864.10748291 3357602.90045166 16.22710800 136 144 131
245880.00775146 3357599.73223877 15.42720222 242 241 239
245863.63586426 3357601.62249756 16.09693146 184 188 197
245864.80438232 3357601.51855469 16.05959702 167 165 170
245862.25616455 3357602.59185791 15.52590466 139 134 128
245883.32220459 3357599.98651123 15.82601547 46 44 45
245880.40850830 3357599.80224609 15.89105129 248 249 251
245862.87152100 3357602.72210693 15.60560608 174 180 178
245880.49676514 3357599.80938721 15.93411446 245 249 250
245866.32318115 3357603.34588623 15.27595901 59 60 55
245882.28405762 3357599.41107178 15.39350796 205 200 194
245864.58666992 3357602.98913574 15.68009090 95 108 90
245882.54241943 3357601.20849609 15.39268303 75 75 77
245880.85491943 3357600.22375488 15.87039757 55 53 56
245864.06640625 3357602.73492432 16.36367035 154 158 157
245865.53216553 3357601.49224854 16.15230942 143 147 150
245881.56408691 3357599.59887695 15.23033810 227 213 212
245880.08343506 3357600.63195801 15.41226578 250 249 245
245862.69995117 3357603.45483398 15.41646862 133 125 122
245878.87884521 3357599.77368164 14.99403381 195 188 178
245865.74121094 3357603.66174316 15.22658730 59 66 33
245882.44238281 3357600.32171631 15.08241749 11 17 15
245882.95166016 3357600.03662109 15.75091839 24 34 36
245864.96997070 3357602.75341797 15.88255310 36 48 44
245867.34326172 3357602.11901855 15.28848743 52 56 59
245865.93737793 3357601.41076660 15.90220356 177 189 189
245881.91601563 3357600.87890625 15.13981056 16 22 20
245882.32495117 3357599.44256592 15.46463966 199 198 193
245880.82897949 3357600.34008789 15.42048264 117 122 118
245881.95166016 3357601.40985107 15.26752567 21 24 15
245881.79077148 3357599.63592529 16.26966476 136 134 135
245865.71289063 3357601.89672852 16.16651917 21 26 29
245881.60931396 3357599.47521973 15.24866295 250 239 237
245864.03204346 3357602.59985352 16.39569283 156 160 161
245876.41638184 3357600.15722656 15.01242256 192 190 177
245863.02874756 3357601.90948486 16.27802086 186 185 191
245863.89764404 3357603.27880859 15.79266930 134 135 130
245866.24377441 3357602.74249268 15.84518242 136 138 135
245863.96337891 3357601.56103516 15.81825352 158 153 150
245865.54473877 3357602.84515381 15.59964180 7 16 13
245868.22802734 3357601.36682129 15.12024307 188 186 173
245864.85687256 3357601.57794189 16.21729279 38 38 40
245881.29742432 3357601.45245361 15.18626785 52 49 42
245864.87139893 3357602.57275391 16.51789474 15 19 18
245865.75390625 3357602.71417236 15.90369415 34 40 40
245884.31414795 3357600.72241211 15.40729046 122 99 93
245865.91406250 3357601.38220215 15.78701687 149 159 158
245882.31445313 3357599.39410400 15.31622696 228 221 215
245881.99133301 3357599.74377441 16.20640564 164 155 150
245865.43035889 3357602.60516357 15.93336964 21 29 31
245881.25811768 3357599.96826172 15.28129005 156 148 145
245863.76660156 3357602.93078613 15.78701019 127 130 123
245864.45129395 3357601.52258301 15.65177441 148 145 140
245880.98089600 3357599.83068848 16.20925140 207 207 207
245883.81976318 3357600.87286377 15.61175728 243 216 209
245881.10681152 3357600.12023926 15.86777020 93 96 105
245862.76342773 3357602.74328613 15.46558380 190 192 189
245882.43450928 3357600.46185303 15.08929729 10 14 17
245881.18676758 3357600.10015869 15.44176960 118 124 120
245863.77392578 3357602.95111084 15.83250237 126 129 122
245861.94897461 3357603.26275635 15.26936436 199 185 172
245864.74182129 3357602.77697754 16.19560432 51 61 52
245880.45660400 3357600.63995361 15.11899185 68 50 50
245882.08874512 3357600.26306152 15.14786053 15 19 18
245881.75335693 3357599.51464844 15.80484390 239 232 222
245863.08294678 3357601.64465332 15.98733807 152 155 160
245865.83819580 3357603.48205566 15.17572594 106 103 94
245881.67321777 3357599.57470703 15.99588871 29 9 8
245862.87225342 3357602.68090820 15.46601391 196 202 202
245880.35650635 3357601.45684814 15.09539127 152 141 135
245865.92456055 3357602.22045898 16.11357498 59 63 64
245884.04077148 3357600.55432129 15.52639103 253 243 241
245880.71453857 3357600.54705811 15.21095371 55 30 26
245867.12457275 3357602.00067139 15.61980438 57 60 65
245865.37420654 3357602.39245605 16.22519493 13 23 24
245866.61712646 3357602.28717041 15.81254959 114 123 122
245882.96496582 3357600.14160156 15.69365883 22 31 36
245863.16131592 3357602.69073486 15.41140270 192 194 191
245882.15051270 3357599.46588135 15.89008427 65 40 35
245880.31848145 3357600.62609863 15.42728710 115 117 112
245866.09613037 3357601.52941895 16.03413010 165 174 173
245863.54992676 3357603.04089355 16.33375359 174 173 169
245882.07348633 3357599.38183594 15.42092896 225 214 208
245865.92822266 3357603.30963135 15.17745781 77 77 75
245864.18151855 3357602.58251953 16.44067001 152 156 159
245864.96691895 3357601.75000000 16.48244286 161 170 187
245862.61645508 3357603.90356445 15.13026524 181 168 152
245881.49023438 3357599.77581787 15.51105595 157 157 147
245882.57519531 3357599.84130859 15.47914600 143 134 127
245882.61291504 3357600.60931396 15.23468876 15 17 16
245882.46594238 3357600.71258545 15.13164806 11 13 12
245883.03210449 3357600.53253174 15.64022732 31 36 39
245864.04547119 3357603.25262451 15.76060486 122 124 119
245882.68493652 3357599.79986572 15.85860443 18 20 19
245864.05053711 3357602.36975098 16.46713829 167 172 178
245864.76940918 3357603.47064209 15.56893444 29 28 26
245863.72686768 3357602.99230957 16.24391365 162 158 149
245864.20507813 3357601.54370117 15.76911640 150 151 146
245883.37713623 3357599.38696289 15.21196365 178 178 178
