245663.25201416 3357454.25979614 19.67293930 0 0 0
245662.94110107 3357454.98669434 18.69278908 42 61 57
245661.74420166 3357452.75900269 19.50991440 152 166 179
245662.54565430 3357450.56225586 19.06799316 68 92 120
245663.54345703 3357451.83264160 19.09134293 16 34 34
245663.14227295 3357451.50051880 19.57797623 18 29 35
245661.74645996 3357454.20184326 19.60401726 178 194 210
245662.87854004 3357452.89041138 20.01718330 23 37 48
245662.06652832 3357454.85076904 19.15529060 76 102 103
245661.74548340 3357453.32470703 19.52044106 111 122 140
245663.34802246 3357450.79541016 19.43032455 63 78 99
245661.81829834 3357454.80783081 18.84151459 36 59 53
245662.32647705 3357451.22671509 19.55069160 136 170 198
245663.43927002 3357452.25814819 19.55095863 142 159 166
245663.55792236 3357451.90914917 18.89981461 15 29 29
245662.55810547 3357454.22842407 19.75354767 56 78 102
245662.33306885 3357451.62753296 19.62734032 46 57 61
245662.45727539 3357451.27639771 19.58428955 150 168 190
245662.47686768 3357452.18994141 19.90863609 32 50 64
245662.20135498 3357453.18502808 20.04441071 94 142 188
245662.70806885 3357454.49899292 19.72543144 20 36 49
245663.57519531 3357454.63085938 18.98449707 42 58 58
245663.31964111 3357453.70617676 19.60723495 1 19 21
245661.69775391 3357453.14498901 19.40986633 25 49 59
245663.47009277 3357450.92697144 19.38508797 42 52 61
245662.04144287 3357452.52438354 19.99630547 121 147 174
245663.59191895 3357454.35681152 18.93627548 57 81 83
245662.89953613 3357454.98709106 18.76679039 19 31 27
245662.64465332 3357453.55868530 19.98333740 77 125 173
245661.66125488 3357453.98498535 19.22022629 14 40 55
245663.60559082 3357451.97677612 18.71708679 11 30 26
245662.69122314 3357450.37734985 18.92113495 49 67 87
245663.16467285 3357454.43762207 19.65985298 0 1 0
245661.90179443 3357454.03387451 19.73629570 65 78 84
245662.34185791 3357454.94601440 19.02401161 98 122 126
245661.74023438 3357452.78381348 19.50381088 151 164 180
245661.66210938 3357455.08142090 18.52529526 36 78 58
245661.62713623 3357454.31790161 18.99861336 18 34 31
245662.03411865 3357452.37380981 19.95907402 119 144 166
245661.97326660 3357452.30712891 19.90580940 149 167 189
245662.17919922 3357450.60095215 19.23591423 71 96 126
245663.01104736 3357451.06594849 19.49095154 106 139 170
245663.27532959 3357451.67880249 19.63731194 43 56 65
245663.39593506 3357451.74325562 19.60640717 59 73 84
245663.01947021 3357451.78662109 19.64919281 32 43 47
245661.65881348 3357453.87197876 19.36486244 1 36 56
245663.36755371 3357453.06079102 19.65136337 6 11 15
245661.58312988 3357454.49514771 18.71444511 26 53 44
245663.56451416 3357453.18310547 19.39850235 97 117 126
245662.91912842 3357452.31787109 19.93726540 138 161 167
245662.07012939 3357455.07546997 18.59079742 45 72 65
245662.91912842 3357452.91180420 20.01503372 24 38 49
245662.95922852 3357454.06802368 19.79216385 75 94 108
245661.90753174 3357452.25653076 19.81692123 74 89 112
245663.54101563 3357450.94064331 18.94674683 16 27 29
245662.42687988 3357453.86822510 19.90987778 6 37 65
245663.51690674 3357451.55657959 19.28362274 30 45 48
245662.92358398 3357453.54382324 19.98192787 82 128 164
245662.61413574 3357451.18521118 19.53591537 141 175 200
245663.65020752 3357451.02484131 18.67106056 16 32 22
245662.43292236 3357451.11422729 19.47698402 124 159 191
245662.31842041 3357453.85693359 19.91243172 9 40 69
245662.49981689 3357455.16445923 18.50631142 53 74 59
245663.23132324 3357452.18133545 19.87794876 87 102 109
245662.52911377 3357451.99951172 19.76315308 32 43 47
245663.22790527 3357454.27334595 19.68566322 0 1 2
245661.81695557 3357450.51394653 18.95100594 22 48 39
245662.27490234 3357453.16708374 20.06794739 87 137 186
245663.35858154 3357451.55068970 19.61069679 83 99 115
245662.25231934 3357455.12329102 18.53510857 46 76 64
245661.72894287 3357454.04739380 19.60662842 200 223 241
245663.39337158 3357453.57055664 19.50058174 3 8 12
245661.54211426 3357455.10598755 18.52485275 42 83 67
245661.68383789 3357454.45379639 19.26581001 25 42 50
245663.50573730 3357453.62207031 19.38511276 109 132 138
245663.12432861 3357453.10317993 20.00426483 114 133 147
245662.05590820 3357452.62771606 20.00887489 139 165 188
245662.39184570 3357450.60910034 19.15213585 75 103 127
245662.35003662 3357454.92398071 19.26262093 89 117 121
245661.62792969 3357454.62600708 18.72595978 30 51 46
245661.79510498 3357454.71975708 19.01958466 27 47 45
245662.70654297 3357452.55310059 20.00245476 53 76 92
245662.75952148 3357453.78585815 19.93411636 115 153 190
245662.08471680 3357453.85705566 19.87981415 14 35 54
245663.51226807 3357451.13354492 19.14618111 30 41 45
245662.81866455 3357451.42868042 19.57223892 14 27 33
245662.25622559 3357451.73577881 19.64841080 25 36 38
245662.40972900 3357451.52679443 19.61076546 29 44 49
245662.21038818 3357451.75790405 19.65473938 13 24 26
245663.39880371 3357450.53900146 19.02999687 27 39 39
245661.70886230 3357454.57363892 19.46249771 22 45 53
245661.99639893 3357453.36840820 19.95690918 125 154 186
245662.86169434 3357454.65881348 19.66757202 5 14 21
245662.78094482 3357452.82504272 20.02493668 26 45 62
245662.98785400 3357452.83789063 20.03129005 37 55 67
245662.27124023 3357451.13925171 19.49842262 109 142 175
245661.80474854 3357453.10546875 19.58403397 41 46 50
245661.64721680 3357453.67700195 18.91502571 13 29 29
245663.63684082 3357452.77139282 18.81340599 12 27 24
245662.23449707 3357450.93637085 19.39057350 94 129 161
245661.64324951 3357453.56958008 18.94731903 11 22 26
245661.89758301 3357454.69799805 19.54406929 46 65 80
245663.60644531 3357452.81484985 19.10920143 42 60 64
245662.88482666 3357452.18533325 19.86357307 2 15 31
245661.69213867 3357453.55429077 19.46625328 76 102 129
245662.35382080 3357454.65066528 19.66262054 71 112 140
245662.69030762 3357455.10281372 18.49501038 43 66 50
245662.78430176 3357451.77066040 19.63926888 25 35 44
245663.61712646 3357452.63885498 18.91595650 27 43 43
245662.99169922 3357450.83309937 19.43396378 94 119 150
245663.14263916 3357454.46511841 19.65267181 0 0 0
245662.54553223 3357452.56103516 20.00870895 45 64 79
245663.54156494 3357454.89654541 18.75818443 25 58 51
245662.60833740 3357453.92523193 19.86962318 56 85 119
245662.54772949 3357451.31042480 19.59391975 38 54 70
245662.34844971 3357451.84402466 19.67130470 31 42 46
245662.00061035 3357452.18508911 19.87763977 76 88 102
245662.27685547 3357454.08792114 19.77110863 23 42 59
245662.41314697 3357453.74838257 19.98839188 95 139 178
245661.73333740 3357454.56860352 19.17258835 25 40 43
245662.78143311 3357454.96844482 18.53359032 11 26 23
245661.89233398 3357453.54138184 19.76943398 0 13 32
245662.06701660 3357454.77301025 19.56426811 79 102 120
245663.58673096 3357454.31719971 18.94981956 59 87 90
245661.96447754 3357454.40386963 19.66071320 33 43 53
245662.47015381 3357454.52075195 19.71616364 55 73 87
245661.66961670 3357454.14978027 19.44280052 5 45 70
245663.43487549 3357451.08300781 19.45835686 95 110 129
245662.20697021 3357453.37866211 20.03413010 87 138 183
245662.54064941 3357454.95108032 18.92107201 118 141 147
245662.08026123 3357455.03530884 18.62026596 38 70 59
245661.82183838 3357452.52682495 19.62653542 9 15 15
245663.59271240 3357454.40420532 18.93710518 55 79 79
245662.77050781 3357452.77291870 20.03240204 115 137 160
245662.75158691 3357451.91546631 19.68188286 39 48 55
245661.63232422 3357454.14364624 19.05229568 17 31 34
245661.66461182 3357454.45849609 19.05622101 28 40 38
245661.68743896 3357453.24526978 19.40907097 19 43 55
245662.50048828 3357452.18475342 19.90795708 32 50 64
245663.62976074 3357452.98504639 19.05881691 52 73 74
245663.05279541 3357450.31158447 19.03511238 43 52 61
245662.53833008 3357454.90899658 18.57403755 42 53 59
245662.18939209 3357454.70800781 19.63177681 78 118 144
245661.65008545 3357454.21536255 19.24931526 23 44 47
245662.93267822 3357453.68756104 19.95912361 122 162 198
245662.56066895 3357452.60501099 20.01438141 57 78 95
245662.99517822 3357455.00643921 18.64902496 13 34 25
245662.66705322 3357450.45510864 18.96306419 53 74 95
245663.13952637 3357452.55596924 19.97233009 109 136 147
245663.47912598 3357452.52304077 19.46912193 108 125 133
245662.48413086 3357453.57257080 20.01723289 77 128 173
245662.08807373 3357453.22100830 20.00618362 104 142 179
245662.00042725 3357450.76367188 19.39788246 77 110 141
245661.65216064 3357453.73348999 19.32212830 9 42 61
245662.16906738 3357454.71914673 19.62040329 84 121 148
245662.16467285 3357452.96313477 20.03886414 129 161 199
245663.15710449 3357450.48165894 19.29455376 55 72 90
245662.74981689 3357452.83847046 20.02106667 24 45 64
245662.41735840 3357453.54138184 20.03062439 78 129 174
245662.55383301 3357451.63031006 19.62868500 31 42 48
245663.62738037 3357453.34857178 19.02953529 58 73 78
245663.14202881 3357454.04840088 19.78980255 81 102 107
245662.03680420 3357454.80133057 19.50848770 42 59 67
245661.78814697 3357453.50524902 19.59951210 97 100 105
245662.83850098 3357450.38137817 18.98738480 48 65 83
245661.98370361 3357453.30374146 19.93935204 152 180 204
245662.13500977 3357454.84078979 19.46161079 114 137 151
245663.18548584 3357450.30435181 19.00844765 53 64 66
245662.09906006 3357451.14599609 19.50738144 103 139 175
245661.90960693 3357453.18994141 19.83283997 0 21 35
245663.38403320 3357453.21496582 19.66096687 10 15 18
245662.24182129 3357454.38436890 19.75123024 9 18 23
245662.54760742 3357451.58065796 19.62405396 30 41 45
245663.42449951 3357451.31591797 19.50305748 81 101 125
245663.31756592 3357452.22427368 19.76197433 117 134 142
245663.53167725 3357454.32461548 19.12566376 57 87 89
245662.85125732 3357452.47589111 19.99265862 81 108 119
245661.89575195 3357452.74584961 19.76431465 2 15 31
245663.29986572 3357454.12310791 19.64600182 10 30 31
245662.73767090 3357450.71603394 19.22223663 86 110 144
245661.77508545 3357455.25125122 18.51106071 57 74 58
245662.36181641 3357452.26016235 19.93186951 110 141 162
245663.55120850 3357452.09957886 19.15361404 47 65 67
245662.90460205 3357452.60882568 20.02482033 136 164 185
245663.57232666 3357453.29483032 19.33510399 74 93 100
245662.35974121 3357453.99856567 19.82320976 43 71 93
245662.54870605 3357450.53930664 19.04725647 68 92 120
245662.05200195 3357454.10040283 19.74642754 8 15 21
245662.34613037 3357453.25497437 20.04982948 78 130 180
245662.03015137 3357454.24325562 19.70694160 11 15 18
245663.60852051 3357451.12149048 18.72650337 16 31 26
245662.97912598 3357451.56982422 19.57757378 38 52 53
245662.95904541 3357451.06814575 19.48783302 99 132 167
245662.84991455 3357452.97235107 20.00080299 40 57 73
245663.50183105 3357451.57565308 19.35911179 38 56 60
245663.39447021 3357450.65798950 19.32420731 54 66 78
245661.79626465 3357452.21145630 19.61417961 50 58 60
245662.63580322 3357452.10379028 19.86345482 11 25 36
245662.36895752 3357454.18762207 19.77449989 16 41 61
245662.27777100 3357450.35870361 19.00442886 42 59 75
245662.71496582 3357452.12051392 19.85552597 0 11 20
245662.84814453 3357452.51971436 20.00111771 74 100 115
245663.04968262 3357451.84994507 19.67528534 38 49 55
245662.18298340 3357453.11962891 20.04706764 105 150 192
245661.89019775 3357454.56854248 19.60826683 99 117 141
245662.27789307 3357450.80911255 19.32572746 91 126 156
245663.56750488 3357451.24545288 18.84939194 12 23 25
245662.78686523 3357450.42053223 18.98549652 50 68 90
245663.57885742 3357453.42190552 19.27249527 64 84 91
245662.54241943 3357454.61624146 19.69109535 37 54 72
245663.20880127 3357454.45684814 19.63759041 0 0 0
245662.31951904 3357454.34616089 19.76297569 15 32 40
245662.40625000 3357451.57482910 19.61817551 21 36 39
245661.66845703 3357453.96475220 19.49999809 61 113 137
245662.60461426 3357453.44467163 19.98664665 70 119 162
245662.26916504 3357454.94296265 18.65585518 27 48 39
245662.46228027 3357454.90002441 18.70659447 31 45 46
245662.94171143 3357452.42807007 19.97847557 79 104 109
245661.83032227 3357452.21905518 19.68729019 11 19 22
245663.48767090 3357453.35360718 19.46457481 89 103 112
245661.80792236 3357451.54861450 19.59181595 154 157 166
245662.54498291 3357454.96029663 18.52055740 67 85 87
245662.08020020 3357450.73294067 19.37150955 73 108 140
245662.89312744 3357454.54412842 19.70254898 8 18 20
245663.48791504 3357452.74215698 19.43497276 110 125 130
245661.92950439 3357453.77328491 19.82569695 75 98 114
245661.65045166 3357454.85821533 18.61564445 34 66 55
245661.86981201 3357454.94876099 18.67917442 41 72 66
245663.35357666 3357453.05700684 19.67697906 6 11 15
245661.99389648 3357454.82617188 19.11295509 40 62 59
245663.53564453 3357452.97836304 19.41602898 93 113 120
245661.66076660 3357454.04666138 19.31498337 12 45 60
245662.37481689 3357451.04946899 19.43381119 113 146 179
245663.31152344 3357452.03515625 19.73170471 38 49 53
245663.25042725 3357451.26113892 19.55535126 160 191 219
245662.81823730 3357451.25872803 19.55583191 175 197 218
245662.98724365 3357453.87210083 19.89299393 46 64 76
245661.92102051 3357454.98043823 18.67481804 41 73 62
245662.94464111 3357450.90240479 19.43778419 101 127 162
245662.23870850 3357452.08087158 19.79851341 35 45 54
245661.91394043 3357454.78421021 19.08588600 35 53 53
245662.60656738 3357452.10870361 19.87372017 15 29 40
245663.51879883 3357451.39028931 19.24255371 32 46 49
245662.40136719 3357451.98767090 19.74331474 29 38 45
245662.64068604 3357454.48501587 19.73297119 30 46 59
245662.76043701 3357453.34024048 19.96663475 61 105 142
245661.94659424 3357451.10333252 19.49846268 111 144 179
245662.40795898 3357451.01464844 19.40818214 109 144 176
245663.53515625 3357454.77758789 18.97081566 59 81 79
245663.57092285 3357451.54003906 18.92710686 22 36 39
245661.89514160 3357452.53277588 19.81562805 1 13 35
245662.79425049 3357454.43286133 19.73966408 40 56 69
245662.32196045 3357454.61312866 19.66859818 72 114 139
245663.63092041 3357453.37612915 18.94008446 54 69 72
245661.92901611 3357450.46206665 19.19869041 15 30 37
245662.60742188 3357453.26339722 19.97599602 71 116 157
245662.69647217 3357452.53723145 20.00055885 39 62 78
245663.34375000 3357452.63043213 19.75277901 12 16 25
245663.53991699 3357451.51538086 19.14060211 19 35 35
245662.00347900 3357454.15835571 19.72268867 17 22 26
245663.57678223 3357451.01589966 18.79356575 18 33 30
245662.71789551 3357455.13327026 18.50284195 50 73 55
245663.04174805 3357450.40917969 19.17935944 49 68 85
245662.57769775 3357454.92742920 18.75533485 48 64 64
245662.29418945 3357454.91708374 19.23289299 98 123 127
245662.15753174 3357454.41464233 19.70184898 12 22 32
245661.80169678 3357454.83114624 18.76690483 37 62 58
245661.96234131 3357452.10107422 19.83021355 90 103 112
245662.01470947 3357453.72564697 19.91169167 88 120 141
245663.58221436 3357451.36779785 18.81834221 16 34 34
245661.70233154 3357454.26574707 19.54900169 121 153 174
245663.44036865 3357452.55166626 19.51716423 74 87 93
245663.59442139 3357451.91174316 18.73189926 11 30 26
245662.82336426 3357450.70721436 19.27880859 67 94 124
245662.15576172 3357450.69833374 19.31808090 78 111 142
245663.54705811 3357451.54626465 19.08812332 15 31 31
245663.44647217 3357452.56100464 19.50582314 74 87 93
245661.94287109 3357452.95617676 19.88521385 42 68 85
245662.83331299 3357454.95947266 18.54058838 62 81 77
245663.56823730 3357452.29550171 19.23786545 56 71 78
245662.21466064 3357454.81378174 19.58032799 127 156 174
245662.34594727 3357451.35357666 19.58572388 2 14 26
245663.60815430 3357451.68762207 18.75619125 19 35 34
245662.90197754 3357450.38854980 19.04972839 49 66 86
245662.58142090 3357455.20086670 18.49427414 73 85 65
245662.48248291 3357454.14303589 19.75273323 63 85 109
245663.34094238 3357452.02325439 19.68338585 58 67 74
245663.62036133 3357453.42861938 19.05165672 56 76 77
245662.78637695 3357451.81677246 19.65228081 27 37 46
245662.90551758 3357454.63748169 19.66474152 2 12 14
245663.30358887 3357453.32928467 19.90312767 107 131 141
245663.28973389 3357452.75518799 19.90559387 76 95 101
245662.21942139 3357455.03689575 18.54816818 31 63 52
245663.45874023 3357454.79071045 19.04474068 54 75 76
245663.28643799 3357453.66491699 19.72164154 49 69 76
245663.28253174 3357452.60653687 19.90320969 120 144 154
245661.98315430 3357452.99938965 19.95163536 169 195 218
245663.52844238 3357452.20272827 19.45888138 63 84 87
245663.52246094 3357454.02081299 19.27781677 78 109 111
245663.31738281 3357453.05380249 19.81066704 6 17 21
245662.90362549 3357450.44183350 19.10895157 54 74 98
245662.35882568 3357454.82711792 19.60056686 133 169 191
245663.45562744 3357454.11071777 19.40272522 103 130 137
245662.91918945 3357455.02563477 18.54488564 44 67 61
245662.06958008 3357451.03759766 19.45382690 104 140 174
245663.48437500 3357451.09216309 19.36995888 34 48 59
245663.18127441 3357452.34338379 19.92266846 66 90 94
245661.67407227 3357454.40875244 19.27835464 26 43 50
245663.35644531 3357452.71951294 19.69271660 12 12 22
245663.50512695 3357453.41268921 19.42800713 116 134 146
245662.04431152 3357454.81164551 19.43109512 62 80 90
245662.14971924 3357451.35574341 19.58126259 27 43 58
245662.52545166 3357452.26013184 19.92906761 115 141 164
245663.50103760 3357451.76870728 19.43724823 75 94 98
245662.80328369 3357453.26779175 19.96518326 59 99 134
245663.52514648 3357453.14044189 19.46066475 110 128 140
245663.49005127 3357450.95837402 19.31197166 34 43 52
245661.98944092 3357452.50103760 19.97075081 199 225 248
245663.13562012 3357454.68869019 19.58905792 78 99 102
245663.24249268 3357454.11782837 19.70837593 100 125 130
245661.82757568 3357450.42346191 18.86523247 11 45 29
245661.62982178 3357454.16629028 18.99044418 20 34 37
245663.39666748 3357452.97741699 19.58781242 7 10 15
245661.65667725 3357453.86489868 19.14949226 18 43 47
245662.10272217 3357454.02288818 19.78622437 33 45 57
245661.86981201 3357451.27352905 19.54232216 133 164 192
245662.69671631 3357453.34378052 19.95902824 72 115 157
245662.05590820 3357451.44927979 19.59339142 12 21 26
245663.54302979 3357451.42718506 19.05606842 10 24 25
245663.10479736 3357451.11166382 19.51501274 97 128 157
245663.27319336 3357452.11587524 19.81098557 84 95 97
245663.21496582 3357453.01953125 19.97825432 155 176 195
245663.21777344 3357453.73291016 19.82038498 103 127 137
245663.62506104 3357453.68630981 19.06643867 49 73 77
245662.90203857 3357451.95419312 19.71547508 11 20 27
245662.90655518 3357453.20721436 19.97488785 51 82 111
245662.50354004 3357453.86642456 19.91227913 16 47 78
245662.11718750 3357452.76425171 20.03675461 131 147 172
245662.30480957 3357450.48831177 19.08632469 58 82 106
245662.55664063 3357454.37097168 19.76941681 28 41 57
245661.67547607 3357453.26477051 19.38644409 14 39 46
245663.46600342 3357452.78540039 19.46941566 101 114 120
245662.47180176 3357451.68579102 19.63419342 28 39 45
245661.85076904 3357453.32962036 19.67348099 12 11 16
245662.84649658 3357453.81207275 19.91774750 77 104 131
245662.69580078 3357454.74572754 19.67458725 62 78 94
245663.09472656 3357453.14788818 20.00285339 41 55 68
245662.35949707 3357453.44546509 20.04541016 77 128 175
245663.48339844 3357451.89120483 19.49965096 71 91 98
245662.24151611 3357450.60903931 19.21192169 72 99 129
245661.64947510 3357453.70843506 19.07377243 17 38 39
245663.37286377 3357454.03100586 19.56360817 88 111 117
245663.43115234 3357450.78231812 19.36643982 71 85 96
245663.59460449 3357451.33984375 18.77500153 14 32 32
245663.41687012 3357452.47348022 19.56319618 5 14 13
245661.88525391 3357453.17123413 19.73513603 6 19 27
245663.38739014 3357453.15017700 19.65207100 10 15 18
245662.47088623 3357450.65667725 19.17072868 83 113 141
245663.17675781 3357451.31750488 19.56419373 118 145 174
245663.54156494 3357452.07614136 19.25571823 43 64 65
245662.35614014 3357450.40405273 19.00199890 49 67 87
245661.74194336 3357453.31042480 19.51212120 124 136 152
245663.57189941 3357453.07336426 19.37840652 86 109 115
245663.56457520 3357453.33584595 19.35624886 80 98 108
245663.37561035 3357452.56765747 19.65417290 11 12 16
245662.47558594 3357450.92297363 19.34456253 105 140 172
245663.10833740 3357451.48110962 19.57500458 32 43 49
245662.56774902 3357451.13424683 19.49799347 141 176 204
245662.34356689 3357451.28802490 19.57825470 135 157 180
245661.89459229 3357451.00152588 19.47776222 120 146 179
245663.50531006 3357451.04116821 19.16254807 23 34 38
245662.81372070 3357453.02822876 19.97278595 56 80 104
245663.38195801 3357451.83990479 19.63265610 112 125 133
245663.57226563 3357452.33819580 19.25195694 56 71 78
245662.44744873 3357454.43243408 19.74540901 0 12 21
245661.74530029 3357452.05477905 19.48501968 184 202 216
245662.78649902 3357450.80133057 19.30373192 91 117 150
245663.52679443 3357451.36245728 19.14560127 23 37 38
245662.22210693 3357453.89947510 19.87209511 35 55 79
245662.64331055 3357453.00595093 19.98644829 90 126 160
245662.67053223 3357453.79641724 19.94473267 102 142 178
245662.81756592 3357453.74853516 19.93515396 125 163 202
245662.84710693 3357452.08828735 19.80639839 0 8 17
245662.28875732 3357454.90005493 19.39666557 99 128 134
245661.90496826 3357453.46630859 19.82691765 3 19 42
245663.15209961 3357452.07952881 19.81750107 31 42 48
245662.71386719 3357454.30578613 19.75754356 39 58 75
245661.92108154 3357454.99182129 18.66531754 41 73 62
245663.20794678 3357452.93197632 19.98459816 156 177 194
245661.57403564 3357454.87322998 18.57259178 33 65 54
245662.08770752 3357450.60891724 19.28698158 69 96 123
245662.76489258 3357452.52081299 19.99607468 40 63 81
245663.29394531 3357450.48059082 19.18917084 30 40 42
245662.46301270 3357450.53247070 19.06702232 66 90 116
245662.78729248 3357452.42791748 19.98235703 157 179 193
245661.78698730 3357452.94747925 19.55936050 93 100 108
245661.72460938 3357454.80960083 18.70379257 38 61 55
245661.75170898 3357454.68899536 18.91628265 26 45 43
245662.56158447 3357452.05480957 19.82601357 28 41 47
245662.16021729 3357454.07012939 19.76586151 18 28 38
245663.48120117 3357453.07601929 19.50068474 103 117 126
245661.64337158 3357453.56842041 18.96822929 11 22 26
245661.64971924 3357453.97076416 19.03831673 20 33 41
245661.88348389 3357453.31585693 19.78562927 2 16 27
245662.93756104 3357452.94839478 20.00908661 34 50 63
245662.31652832 3357454.86804199 19.54210091 126 159 176
245663.44836426 3357450.61175537 19.00745392 28 40 40
245663.52630615 3357451.18197632 18.99955559 17 28 30
245663.46093750 3357452.08636475 19.52178574 114 131 141
245662.20385742 3357450.60983276 19.23094749 72 97 127
245661.96691895 3357451.69061279 19.66627502 16 25 32
245662.11712646 3357450.40515137 19.11710167 35 52 68
245663.56561279 3357451.03115845 18.83389473 14 26 26
245662.89923096 3357451.23620605 19.53799057 156 182 205
245663.54003906 3357454.18395996 19.15684700 68 104 104
245663.48022461 3357452.85720825 19.46396065 108 121 127
245661.90435791 3357454.74172974 19.36459732 25 39 40
245663.51916504 3357454.56076050 19.22175789 64 89 93
245662.27368164 3357450.40423584 19.03272247 45 64 81
245663.53955078 3357451.98684692 19.18833733 40 60 61
245662.25036621 3357451.34768677 19.58571434 15 24 39
245661.75787354 3357454.62567139 19.19593811 25 41 41
245663.62646484 3357453.17471313 19.06387138 51 69 73
245663.35845947 3357454.00183105 19.59365845 83 108 115
245661.81683350 3357450.50747681 18.93590546 21 47 36
245663.52056885 3357451.45068359 19.24088669 26 40 41
245663.63067627 3357453.37545776 18.94687271 54 69 72
245662.90087891 3357454.28329468 19.74553680 72 88 101
245661.73803711 3357452.53173828 19.49969101 146 159 178
245663.06207275 3357451.05541992 19.49090576 99 132 163
245662.95898438 3357453.29031372 19.99297523 48 72 96
245662.30291748 3357452.67575073 20.03251648 32 55 71
245663.04156494 3357453.51345825 19.98001099 95 123 147
245661.84252930 3357453.46160889 19.67354965 2 10 12
245662.85552979 3357452.64044189 20.02608109 117 145 167
245663.31060791 3357454.55895996 19.53854561 77 108 103
245661.79504395 3357454.67959595 19.12127686 29 45 45
245662.53625488 3357454.92077637 18.75646782 48 66 68
245663.51196289 3357451.97985840 19.46768761 82 102 111
245663.30651855 3357452.32830811 19.80192184 113 136 144
245662.17034912 3357453.06457520 20.04845428 105 147 187
245663.46850586 3357452.02175903 19.51000023 112 130 140
245661.61785889 3357454.32315063 18.89043236 21 40 34
245662.33233643 3357452.17956543 19.90139389 31 52 69
245663.60852051 3357452.79904175 19.08022118 49 64 69
245663.11840820 3357452.47592163 19.97285843 81 105 115
245662.84204102 3357450.49765015 19.11315918 57 81 105
245663.20642090 3357453.85751343 19.76949120 87 114 123
245663.21099854 3357451.59466553 19.60801697 27 40 48
245662.27593994 3357453.57748413 20.01861572 77 129 177
245663.24938965 3357451.69284058 19.63879013 27 40 48
245662.25842285 3357454.31417847 19.75948143 22 35 43
245663.50524902 3357453.34402466 19.44337845 111 128 138
245661.77893066 3357452.83349609 19.55805397 147 153 167
245662.81988525 3357452.67156982 20.02862930 108 134 157
245663.04016113 3357455.00778198 18.79880524 8 24 14
245662.82287598 3357452.14505005 19.84376144 0 14 25
245663.35534668 3357452.93173218 19.66061401 13 16 21
245662.16003418 3357454.86480713 19.31596184 104 133 141
245662.38232422 3357454.64193726 19.67793655 65 102 128
245663.03070068 3357453.43063354 19.98633385 83 109 134
245663.07489014 3357450.31961060 19.05644035 30 40 50
245662.89910889 3357453.35296631 19.99053955 54 90 124
245661.74334717 3357454.65798950 18.95510292 25 44 42
245662.08380127 3357451.65853882 19.63581276 38 49 51
245662.32598877 3357452.64529419 20.02751541 34 55 72
245661.64605713 3357454.17358398 19.24600410 28 49 52
245661.66491699 3357453.95507813 19.45148468 6 48 72
245663.43023682 3357454.17098999 19.43190002 96 121 126
245661.93908691 3357454.12817383 19.71576691 73 78 82
245661.83569336 3357451.73693848 19.65726089 72 75 80
245661.96643066 3357453.34756470 19.91967583 149 174 205
245662.86572266 3357454.46908569 19.72861862 3 12 17
245662.38006592 3357454.35913086 19.76732254 17 34 44
245663.57794189 3357453.88201904 19.16874504 64 94 96
245662.73791504 3357454.22543335 19.75301552 53 73 97
245662.88226318 3357452.28598022 19.91760635 138 162 172
245663.06127930 3357452.48678589 19.98969460 76 101 108
245663.62280273 3357453.41281128 19.03379059 56 76 77
245661.76391602 3357453.12057495 19.51759148 159 169 179
245661.73663330 3357452.13409424 19.43691635 107 132 152
245663.46343994 3357451.73297119 19.51493263 131 149 159
245662.53289795 3357452.73327637 20.03322220 45 67 81
245663.61254883 3357453.26751709 19.14354897 52 67 74
245663.29809570 3357451.54687500 19.60382652 53 66 82
245663.62316895 3357452.48025513 18.80289268 7 26 24
245662.19293213 3357453.72070313 19.96182823 104 141 183
245663.62164307 3357451.58462524 18.76062584 19 38 36
245662.83776855 3357452.10452271 19.81847763 0 8 17
245663.30798340 3357454.79791260 19.24760056 63 89 90
245662.04479980 3357450.53561401 19.25082397 59 82 100
245662.08581543 3357452.22564697 19.91559410 56 73 89
245663.27130127 3357451.21389771 19.54745674 163 193 221
245661.89190674 3357453.25262451 19.78942299 0 16 26
245661.65429688 3357453.71563721 19.43026924 5 39 64
245663.31518555 3357452.89581299 19.82962227 4 13 20
245662.01226807 3357455.03091431 18.66441917 42 72 62
245663.21356201 3357454.15115356 19.73033524 38 56 58
245663.54589844 3357453.63107300 19.34100151 88 111 119
245663.51428223 3357452.93942261 19.43579674 108 127 134
245663.33990479 3357452.68087769 19.75873947 8 15 21
245663.49786377 3357451.11056519 19.30926895 35 50 57
245661.82226563 3357454.36236572 19.64702606 114 132 142
245662.92047119 3357454.08035278 19.77201653 79 101 115
245661.64135742 3357454.35482788 19.03323174 24 40 37
245663.46929932 3357454.88082886 18.94101524 39 61 58
245663.10791016 3357451.49380493 19.57511902 25 34 39
245661.79077148 3357453.71606445 19.62829590 131 136 142
245662.52386475 3357453.50430298 20.00926781 71 122 165
245663.60369873 3357454.07739258 19.00909615 52 80 81
245663.66131592 3357452.38684082 18.65300179 26 39 32
245662.38824463 3357455.20300293 18.51376343 52 73 56
245663.17114258 3357450.99835205 19.49740791 115 146 174
245661.79650879 3357455.33325195 18.51056862 159 157 132
245661.87170410 3357453.01998901 19.68289185 11 18 26
245663.34661865 3357452.11984253 19.67354202 121 134 142
245661.81811523 3357454.64392090 19.52213669 85 104 118
245661.81219482 3357452.81845093 19.60579872 12 17 23
245662.95422363 3357453.98156738 19.83486366 65 82 92
245662.92077637 3357450.38201904 19.05883598 47 64 82
245661.66815186 3357453.38281250 19.39062119 23 47 57
245663.23321533 3357452.36483765 19.87993431 50 74 78
245662.48822021 3357453.29809570 20.00641823 76 122 171
245662.05987549 3357454.85031128 19.14465141 60 86 85
245663.39605713 3357451.72128296 19.60352516 99 115 128
245661.66278076 3357453.54287720 19.40793419 77 105 126
245662.49206543 3357451.54946899 19.61699677 25 38 44
245662.84210205 3357451.63046265 19.59654427 40 54 57
245662.71948242 3357450.42773438 18.95867729 50 68 90
245661.93438721 3357451.50561523 19.59885979 13 18 22
245662.47540283 3357451.46371460 19.60635567 13 23 32
245662.62304688 3357451.99465942 19.76269722 9 19 28
245662.74114990 3357453.88565063 19.90092087 36 71 99
245662.21197510 3357454.76068115 19.61324692 103 137 162
245662.15081787 3357455.00064087 18.63974380 34 65 57
245662.45989990 3357453.91940308 19.87679100 28 58 86
245663.61712646 3357452.79403687 18.99048996 53 68 73
245663.54302979 3357451.12063599 18.91888428 17 28 30
245662.44897461 3357452.06030273 19.82439232 46 57 63
245663.21160889 3357451.09002686 19.51885033 127 156 186
245663.41052246 3357451.11886597 19.49788857 51 71 96
245662.14941406 3357454.34548950 19.72873116 9 14 18
245662.64215088 3357453.33682251 19.97171974 74 117 160
245661.89245605 3357452.68640137 19.77016449 2 15 31
245662.33435059 3357453.62643433 20.02156830 80 131 178
245662.24255371 3357452.87130737 20.04714203 18 47 81
245663.55902100 3357451.49356079 18.98298454 15 31 31
245661.71240234 3357452.68920898 19.46593094 73 95 108
245663.47149658 3357450.83901978 19.34327888 19 34 39
245661.68005371 3357454.46936035 19.11645317 31 43 43
245663.25305176 3357453.61334229 19.84138870 115 137 148
245663.15527344 3357451.97302246 19.75788689 21 32 36
245662.34545898 3357454.85382080 19.56243896 131 166 185
245662.70092773 3357454.49588013 19.72621536 20 36 49
245661.87500000 3357452.42947388 19.78041267 1 16 35
245663.57366943 3357452.86160278 19.31911850 73 92 98
245661.91534424 3357454.44897461 19.65595627 90 103 120
245663.17919922 3357453.47387695 19.95874023 126 148 162
245663.06597900 3357452.66360474 20.02831268 155 183 204
245663.61157227 3357452.34414673 18.84065437 6 25 21
245662.16625977 3357452.44656372 19.99325371 135 156 185
245663.28143311 3357451.63156128 19.62535667 35 48 57
245663.48706055 3357451.31396484 19.38177299 34 51 61
245662.85119629 3357451.24334717 19.54513550 166 194 216
245662.34918213 3357453.36642456 20.04889107 77 127 176
245662.17181396 3357451.14648438 19.50564575 104 138 175
245663.64007568 3357453.22808838 18.96295929 55 70 75
245662.43737793 3357451.46801758 19.60438347 17 27 36
245661.76568604 3357453.36709595 19.55913162 158 160 175
245663.58752441 3357453.40280151 19.24168777 59 79 86
245663.00079346 3357450.77624512 19.42336655 81 106 137
