246108.95349121 3357664.19897461 13.33280277 29 34 40
246108.38452148 3357663.34375000 12.91946983 34 43 40
246108.98254395 3357663.93115234 13.29531574 37 44 50
246109.50256348 3357664.36102295 13.25227165 46 65 72
246107.80334473 3357664.04321289 13.77552891 43 48 44
246107.02111816 3357665.46972656 13.15419865 177 189 185
246109.36645508 3357663.69189453 13.15305233 138 146 149
246109.74523926 3357665.00836182 13.33727360 32 51 66
246109.15905762 3357663.13574219 12.52303696 26 37 29
246105.80346680 3357664.17993164 13.39817524 36 42 32
246109.00073242 3357663.48718262 12.92858124 161 165 164
246109.20666504 3357665.47540283 13.13442707 149 164 167
246109.40991211 3357665.42089844 13.18064976 141 154 160
246109.28979492 3357665.43536377 13.28478050 186 201 204
246106.90661621 3357664.66070557 13.47359753 162 167 161
246110.50207520 3357663.61627197 12.87080479 83 97 98
246109.26098633 3357664.13244629 13.22230530 10 21 23
246109.78881836 3357663.57800293 12.84228134 81 87 85
246107.05810547 3357664.04400635 13.55594730 48 58 50
246109.99353027 3357665.33135986 13.11086464 164 187 195
246110.00158691 3357663.57421875 12.91554737 52 68 67
246107.82592773 3357665.46075439 13.24952888 173 185 185
246106.08374023 3357664.19689941 13.04689884 73 80 72
246106.79467773 3357665.09844971 13.37936783 196 203 195
246110.25976563 3357664.75823975 13.22392368 187 217 225
246106.49877930 3357664.94873047 13.26839256 152 168 158
246110.40222168 3357665.32373047 13.00372124 155 181 194
246106.15026855 3357664.36547852 13.77635193 64 74 63
246107.07214355 3357664.66302490 13.49138260 30 37 29
246110.22351074 3357664.76208496 13.23074055 171 194 202
246109.44152832 3357663.56451416 12.74370956 26 32 30
246108.70703125 3357665.52136230 12.64521980 51 65 66
246108.82507324 3357663.96527100 13.47486782 123 130 136
246108.31018066 3357665.50250244 12.84592152 137 151 152
246109.86047363 3357663.75097656 13.16622543 162 180 190
246107.93847656 3357664.66210938 13.61210442 178 194 194
246110.73107910 3357663.82122803 13.03243256 133 159 176
246109.65502930 3357663.57904053 12.83804512 75 81 81
246110.01220703 3357663.30541992 12.43428230 34 39 43
246110.20471191 3357664.29766846 13.17271042 147 181 191
246107.37512207 3357665.53399658 13.05116081 160 175 172
246107.63330078 3357664.49383545 13.57973385 174 188 189
246108.52905273 3357663.75183105 13.30561447 89 95 93
246110.76538086 3357665.17303467 13.01951313 160 187 208
246109.43322754 3357664.73583984 13.26981544 11 25 34
246107.68786621 3357665.59002686 12.95780945 141 155 156
246109.43151855 3357665.40997314 13.21184731 150 163 169
246108.82751465 3357665.18981934 13.54964352 179 190 192
246107.83007813 3357664.56866455 13.59727478 182 196 197
246106.94165039 3357664.98785400 13.40777969 118 123 116
246108.87072754 3357663.18750000 12.58951378 23 28 24
246111.12402344 3357663.98718262 12.38102150 38 47 52
246110.42382813 3357665.03344727 13.17306042 172 204 215
246107.68017578 3357665.59143066 12.95879364 136 150 151
246107.96423340 3357664.85150146 13.61254597 175 193 195
246108.76721191 3357665.35870361 13.37830162 21 32 28
246108.66467285 3357664.39288330 13.69452763 13 18 22
246110.80627441 3357663.78668213 12.86600494 52 66 79
246110.42932129 3357665.20751953 13.12697220 170 199 215
246108.87548828 3357664.15881348 13.54570580 147 160 168
246108.71716309 3357665.49273682 13.11282730 139 159 158
246106.24816895 3357664.65362549 12.96897316 78 101 115
246110.98559570 3357664.93572998 12.87549591 149 166 182
246108.88598633 3357665.48645020 12.76023483 138 151 157
246110.47790527 3357664.67077637 13.16990566 149 182 197
246110.60742188 3357664.95312500 13.12000751 164 200 216
246110.03540039 3357663.50354004 12.60727882 28 29 31
246109.49206543 3357663.67486572 13.11723423 125 133 136
246109.07653809 3357663.06951904 12.52483463 36 47 39
246106.61596680 3357664.22668457 13.82151413 38 54 41
246107.18408203 3357664.45141602 13.48541546 29 38 37
246106.68701172 3357665.59155273 12.57779884 31 45 46
246109.17675781 3357665.47631836 13.00373173 116 132 132
246108.90661621 3357663.78881836 13.24558067 146 157 159
246107.32324219 3357665.18743896 13.45624828 75 87 87
246106.40307617 3357664.66265869 13.19422817 206 215 214
246109.28686523 3357663.42926025 12.56890488 64 68 67
246110.04333496 3357665.36096191 13.04723358 153 173 182
246110.24121094 3357664.96563721 13.21313381 190 209 216
246108.81005859 3357663.47375488 12.96473598 39 43 44
246108.68359375 3357665.48937988 12.90975952 122 142 141
246107.74621582 3357665.39794922 13.37592125 32 40 42
246110.83642578 3357664.06628418 13.05140114 139 170 191
246108.15673828 3357665.24792480 13.55274296 60 74 74
246110.65844727 3357664.89038086 13.10820961 152 191 208
246110.21484375 3357664.28753662 13.16796970 150 182 193
246110.22949219 3357664.80200195 13.22677326 167 184 191
246107.86975098 3357665.58020020 12.58280277 19 31 31
246109.84204102 3357665.41760254 12.67672348 52 60 63
246109.38818359 3357663.41400146 12.54134560 52 58 54
246106.30151367 3357665.43817139 12.58420849 41 55 56
246108.98205566 3357664.82031250 13.46309662 109 120 122
246108.69641113 3357664.13494873 13.67084122 100 119 125
246111.06213379 3357664.73327637 12.46567440 25 34 41
246111.04113770 3357664.38897705 12.76839161 58 70 96
246107.98010254 3357664.30920410 13.67125034 232 241 238
246109.21765137 3357665.45507813 12.88598537 122 140 142
246107.04577637 3357665.62316895 12.61882591 72 82 83
246106.07092285 3357665.10253906 12.65791607 38 46 48
246110.46569824 3357664.65063477 13.17110634 152 185 200
246110.03820801 3357664.98876953 13.26578045 198 219 220
246106.23498535 3357665.43096924 12.55932522 52 62 64
246109.03393555 3357665.48632813 13.13968658 125 140 143
246110.17358398 3357663.58142090 12.95633698 58 79 80
246106.98950195 3357665.61370850 12.59530163 73 84 86
246108.83178711 3357663.76800537 13.22999573 141 146 150
246111.07031250 3357665.15557861 12.34409618 69 80 86
246107.06726074 3357665.49908447 13.08827782 166 178 176
246108.32116699 3357665.51818848 12.69050598 143 154 156
246108.35998535 3357665.25109863 13.55461025 12 22 23
246110.00744629 3357665.04272461 13.26685143 183 201 203
246111.01916504 3357664.26501465 12.53913975 69 76 95
246108.05053711 3357664.34509277 13.67527390 181 190 185
246107.94396973 3357664.81585693 13.60929012 182 196 197
246109.43811035 3357663.65887451 13.10268211 137 142 146
246108.81335449 3357664.07342529 13.58910656 150 160 169
246109.53845215 3357663.60339355 12.93288612 99 109 111
246109.62866211 3357665.34759521 13.22784615 158 175 182
246106.78894043 3357664.31927490 13.42348385 201 206 210
246108.30432129 3357663.94696045 13.69984913 28 37 34
246108.95703125 3357664.92828369 13.55773354 179 195 195
246107.05932617 3357664.17498779 13.45328808 89 95 95
246108.96166992 3357664.70843506 13.52064419 118 129 131
246108.98156738 3357665.28405762 13.49208355 17 25 27
246109.09448242 3357664.59576416 13.23324203 5 13 16
246108.96301270 3357665.49957275 12.98050213 127 141 144
246110.05493164 3357665.42132568 12.67796803 29 39 41
246109.56274414 3357664.38897705 13.26186752 48 70 83
246107.72143555 3357665.60736084 12.61816692 21 31 32
246110.21752930 3357665.40777588 12.75605774 30 40 49
246110.71008301 3357663.63708496 12.52024078 76 80 83
246110.03710938 3357665.41760254 12.71490002 27 37 39
246106.89221191 3357665.18231201 13.35889816 194 199 195
246109.64221191 3357663.88000488 13.28951740 7 17 26
246109.05505371 3357664.80371094 13.25686455 19 26 34
246106.45373535 3357664.34454346 13.96279716 57 69 65
246110.21862793 3357663.94427490 13.17542648 156 184 196
246110.95117188 3357664.03631592 12.66835785 110 125 144
246110.64001465 3357663.45989990 12.40147877 67 67 65
246109.32531738 3357665.32196045 13.37602329 69 78 83
246106.59375000 3357664.19335938 13.49980354 69 80 74
246106.84326172 3357665.29962158 13.30590725 211 222 218
246109.44274902 3357665.30895996 13.35068035 121 131 140
246110.20227051 3357665.06866455 13.20759869 170 194 196
246108.02087402 3357664.34899902 13.66754532 203 212 209
246107.31787109 3357665.65441895 12.71845341 27 32 35
246110.23205566 3357665.40557861 12.55286789 33 37 46
246108.29650879 3357665.50457764 12.80119991 140 154 155
246109.29687500 3357663.70001221 13.17350578 118 128 129
246109.40270996 3357664.84216309 13.28405762 7 22 29
246108.90429688 3357663.91973877 13.37223816 115 120 124
246108.33947754 3357663.22515869 12.64752960 41 45 44
246108.28503418 3357664.76995850 13.66501904 170 181 183
246110.45263672 3357665.11694336 13.15545368 165 197 208
246108.59057617 3357663.53692627 13.13649464 36 42 38
246109.47741699 3357664.04492188 13.30184555 16 28 28
246108.52673340 3357663.95501709 13.62312603 33 46 39
246107.32775879 3357665.43383789 13.24254131 203 215 213
246108.86975098 3357663.67059326 13.22430325 86 90 91
246108.48339844 3357663.13342285 12.53844452 37 43 39
246110.96276855 3357664.90295410 12.96454811 164 190 207
246109.32873535 3357663.38519287 12.54475307 55 59 58
246106.88293457 3357664.23345947 13.43177795 179 182 187
246110.69641113 3357664.70965576 13.10914230 160 196 218
246106.75097656 3357665.35833740 13.28090191 222 233 229
246106.88647461 3357664.13171387 13.58456802 58 62 61
246110.37756348 3357664.06054688 13.13593292 149 182 197
246106.63452148 3357664.28411865 13.96360970 50 63 53
246107.41040039 3357665.09906006 13.51255322 81 95 96
246110.35290527 3357663.57885742 12.85841846 79 95 94
246111.09716797 3357664.28057861 12.42784786 26 34 45
246106.61584473 3357664.30749512 13.43208599 131 142 138
246110.37695313 3357663.38653564 12.46220493 33 39 39
246110.56274414 3357663.27374268 12.38190174 37 41 42
246105.97827148 3357665.16760254 12.62219143 44 54 53
246108.95129395 3357664.09448242 13.37285519 36 43 49
246110.05505371 3357664.34466553 13.23820972 165 194 202
246110.14746094 3357665.34887695 13.03758335 159 179 188
246107.15612793 3357664.89733887 13.47490120 9 21 11
246108.85595703 3357665.13928223 13.59190464 207 219 219
246109.84179688 3357663.12091064 12.38805580 26 37 29
246110.56774902 3357663.61853027 12.84083366 102 112 114
246109.62170410 3357663.51708984 12.60727310 69 73 74
246108.48791504 3357665.28192139 13.51407814 15 19 22
246109.21179199 3357663.53814697 12.88408852 77 81 80
246110.99841309 3357664.20129395 12.67681503 55 70 93
246108.30603027 3357665.21850586 13.57343388 158 169 173
246108.07653809 3357664.22955322 13.70931244 235 241 239
246106.82983398 3357665.63653564 12.52506733 48 58 59
246108.72558594 3357665.34527588 13.40565586 25 37 33
246110.51660156 3357664.85101318 13.15656853 152 184 197
246109.21655273 3357663.66699219 13.14829826 56 61 64
246109.81079102 3357665.15905762 13.31156445 32 46 59
246111.02832031 3357664.29559326 12.52328110 61 68 87
246109.26525879 3357663.80120850 13.22094822 63 73 74
246110.09826660 3357663.43066406 12.51517105 39 43 46
246110.89868164 3357665.09588623 12.78719521 140 158 172
246108.43237305 3357665.49426270 13.03277588 133 147 148
246107.16601563 3357665.56048584 12.98467159 167 182 179
246108.92443848 3357664.39459229 13.42228317 35 42 48
246107.38830566 3357665.59686279 12.95420456 155 165 164
246108.00415039 3357665.45513916 13.29356861 105 116 112
246106.44641113 3357664.78479004 13.20681381 121 131 130
246107.29772949 3357664.34271240 13.54231071 13 23 24
246109.42626953 3357664.15185547 13.27161980 31 45 46
246108.18701172 3357664.92828369 13.65672112 175 193 195
246110.49938965 3357664.09539795 13.10314274 148 179 197
246106.73950195 3357664.30590820 13.42899799 219 224 227
246109.34985352 3357663.70977783 13.17119598 137 145 148
246106.47937012 3357664.27905273 13.42665005 57 72 65
246107.47595215 3357665.30755615 13.45087147 194 205 207
246107.05053711 3357664.05194092 13.53313255 50 59 54
246108.98034668 3357664.61901855 13.43281460 10 18 21
246108.78552246 3357664.59234619 13.68106747 93 102 107
246109.84289551 3357663.41094971 12.44095135 58 59 61
246107.47644043 3357664.24987793 13.58327675 136 148 148
246107.65490723 3357664.88562012 13.60304070 207 218 220
246107.61791992 3357664.32952881 13.57734871 177 191 191
246108.84948730 3357663.39910889 12.73959732 129 131 130
246108.32421875 3357663.30120850 12.83328152 33 39 39
246109.11291504 3357665.47674561 12.88879299 130 145 148
246108.06457520 3357664.38732910 13.66899967 179 190 184
246105.91796875 3357664.29510498 13.56182861 42 47 41
246109.88061523 3357664.54565430 13.30129528 75 105 115
246110.87182617 3357663.59771729 12.34693718 78 79 74
246110.68090820 3357663.65521240 12.74802876 102 109 115
246109.19335938 3357664.12805176 13.20157146 12 22 24
246108.84582520 3357663.49487305 13.03057861 44 48 49
246107.90759277 3357665.53314209 12.76567650 141 157 154
246107.56530762 3357665.63909912 12.74157906 31 39 42
246109.37500000 3357663.10229492 12.50053692 35 46 40
246109.43847656 3357662.94232178 12.53275394 19 31 17
246110.29357910 3357664.83184814 13.21212769 164 191 200
246109.28002930 3357664.68518066 13.22385883 13 22 27
246107.07531738 3357665.59814453 12.75130844 135 147 147
246110.07348633 3357665.04388428 13.24379158 185 200 205
246109.58007813 3357665.39477539 12.93811131 117 136 140
246109.80944824 3357663.56469727 12.77045918 76 82 80
246109.62780762 3357665.38305664 13.13110256 146 165 171
246109.28222656 3357663.57153320 12.99433613 59 64 67
246106.67407227 3357665.45721436 13.13463306 114 126 126
246109.79223633 3357663.64129639 13.05346489 210 218 221
246106.07336426 3357664.22930908 12.98406696 80 87 80
246106.20153809 3357664.81768799 12.75803471 16 38 51
246109.68530273 3357665.29870605 13.27255344 196 216 223
246108.94897461 3357664.24627686 13.32097149 31 36 42
246108.62426758 3357664.47070313 13.68243980 11 21 23
246108.57592773 3357663.39025879 12.79375267 43 47 48
246106.98889160 3357664.06463623 13.76136494 54 67 57
246110.07128906 3357665.04718018 13.24359322 185 200 205
246110.97241211 3357663.58825684 12.32564068 133 135 130
246106.62316895 3357664.90057373 13.34186935 202 213 207
246106.94250488 3357665.52313232 12.94701004 168 183 180
246111.02404785 3357664.25531006 12.90352440 31 51 78
246107.11083984 3357665.57226563 12.89401436 160 176 173
246110.88146973 3357665.10681152 12.61442757 129 142 151
246108.78491211 3357664.66326904 13.68583775 108 122 125
246110.90246582 3357664.01562500 12.99889851 145 171 196
246108.13269043 3357665.50335693 12.79841900 138 154 153
246106.48278809 3357665.36932373 12.93337345 173 190 197
246111.06201172 3357664.57476807 12.90061474 20 35 56
246109.19677734 3357664.64294434 13.23017597 17 26 31
246110.60559082 3357665.33953857 12.55929089 61 79 83
246111.02758789 3357664.29327393 12.52278805 61 68 87
246110.57727051 3357663.31219482 12.39427948 107 109 108
246109.52246094 3357663.57397461 12.80478382 31 37 35
246109.62536621 3357663.60083008 12.95555019 96 104 106
246109.47949219 3357663.30224609 12.50827694 54 63 58
246109.71655273 3357664.99938965 13.33913326 39 58 73
246110.23437500 3357663.61810303 13.00397968 107 132 136
246107.98205566 3357665.20361328 13.57763195 185 205 206
246110.16442871 3357664.33264160 13.19121933 149 182 191
246106.66296387 3357664.97283936 13.37396812 203 212 209
246109.14660645 3357665.45208740 12.65950584 130 144 145
246110.22900391 3357663.53662109 12.85505390 24 36 34
246108.49169922 3357663.70501709 13.30181313 49 55 53
246109.57177734 3357664.20416260 13.30764484 10 24 24
246106.41284180 3357665.24310303 13.06094170 173 191 193
246106.68164063 3357664.28820801 14.00801277 54 67 58
246109.66516113 3357664.44519043 13.29290581 49 68 85
246107.55822754 3357664.08355713 13.65090561 65 74 69
246110.09936523 3357663.91650391 13.18543530 153 180 189
246111.01977539 3357664.82501221 12.80704308 21 30 45
246107.27233887 3357664.88360596 13.52141666 27 40 33
246109.54821777 3357665.02392578 13.35309982 35 58 74
246108.19116211 3357665.48992920 13.09854698 153 172 168
246109.97302246 3357665.39392090 12.93336296 136 151 156
246109.02490234 3357663.45812988 12.79577923 51 55 54
246109.44787598 3357665.40740967 12.95030975 124 142 144
246108.33764648 3357664.93603516 13.65878201 154 165 167
246107.81982422 3357665.42596436 13.32664013 54 66 66
246106.40795898 3357665.32672119 12.86932850 181 202 207
246106.41162109 3357664.68243408 13.19293213 206 215 214
246110.07836914 3357664.13433838 13.22003269 153 181 192
246110.91430664 3357663.71343994 12.39682579 59 65 65
246109.39489746 3357665.41870117 12.88339710 125 143 145
246108.03552246 3357665.50262451 12.80044270 136 155 153
246108.94311523 3357665.14031982 13.57420826 172 182 184
246110.70422363 3357664.83349609 13.09766006 154 192 213
246107.81579590 3357665.33953857 13.44409752 12 22 23
246109.14318848 3357664.18750000 13.17334366 15 25 27
246106.18847656 3357664.35943604 13.07060528 110 117 110
246106.25903320 3357664.58905029 13.02988529 131 152 155
246107.78857422 3357664.48901367 13.59436226 179 191 191
246109.90319824 3357665.14288330 13.27981472 203 223 230
246109.22802734 3357665.20635986 13.42555237 96 111 116
246109.12866211 3357664.01452637 13.24565983 21 28 34
246109.70727539 3357665.31964111 13.25177383 161 181 188
246110.25488281 3357664.65875244 13.21996021 152 186 195
246108.42297363 3357663.37609863 13.00115490 45 54 49
246108.85827637 3357663.26702881 12.61865330 47 52 48
246106.50158691 3357664.55407715 13.35209560 210 219 218
246107.33117676 3357665.65307617 12.74717999 27 32 35
246108.58239746 3357665.50769043 12.78722572 135 155 154
246111.03601074 3357664.40441895 12.69778252 93 105 127
246110.30969238 3357663.48413086 12.64522076 17 26 23
246109.76037598 3357663.63806152 13.06351566 181 189 192
246107.61108398 3357664.33380127 13.57460022 177 191 191
246106.12390137 3357664.23065186 13.06907749 76 86 77
246108.10668945 3357665.31390381 13.46718597 17 27 26
246106.47766113 3357664.20660400 13.47662544 58 71 64
246108.26818848 3357664.33917236 13.66993427 105 114 111
246109.24792480 3357665.44067383 12.81068993 117 135 137
246110.92150879 3357665.02593994 12.68643093 125 139 150
246106.46154785 3357664.28161621 13.42014790 62 77 70
246106.31970215 3357665.05487061 12.83764362 153 183 194
246106.34143066 3357664.28411865 13.74390984 47 59 49
246108.70837402 3357665.39709473 13.32910538 27 39 37
246106.51721191 3357665.58776855 12.52268791 51 60 59
246109.83984375 3357663.42913818 12.45574284 58 59 61
246109.55859375 3357665.26904297 13.33531666 152 171 178
246111.08666992 3357664.77990723 12.43801117 33 42 47
246106.20837402 3357665.53710938 12.39727116 58 66 69
246110.88586426 3357663.76049805 12.47389126 28 35 41
246109.55969238 3357664.24157715 13.29588604 12 28 28
246107.31359863 3357664.05120850 13.62380409 45 56 50
246106.95520020 3357664.44207764 13.41473484 76 80 79
246110.37792969 3357663.46588135 12.56365108 27 31 32
246110.97351074 3357665.09216309 12.43134499 45 54 59
246108.06811523 3357664.38696289 13.66847324 179 190 184
246109.30224609 3357665.42675781 12.78492069 118 136 138
246108.48205566 3357665.50585938 12.80664063 139 157 157
246110.95385742 3357663.95520020 12.55060577 40 48 61
246108.41113281 3357663.35424805 12.91342068 35 41 39
246109.20397949 3357664.14825439 13.19943905 13 23 25
246108.45520020 3357665.15631104 13.58158207 167 183 183
246109.52770996 3357664.74853516 13.29597187 24 42 52
246107.65124512 3357665.61206055 12.85662079 44 55 57
246109.62255859 3357663.29345703 12.42759323 54 58 57
246106.40173340 3357664.99316406 13.16697693 177 191 194
246108.43029785 3357664.65350342 13.65620995 18 26 28
246111.05566406 3357664.72229004 12.83162975 16 25 42
246109.22900391 3357663.11541748 12.51493740 27 37 29
246108.00842285 3357664.16656494 13.72672367 157 163 159
246108.49694824 3357663.45513916 13.08809757 69 76 69
246107.88208008 3357664.20989990 13.68134022 215 221 219
246108.93847656 3357664.88610840 13.57917786 204 220 220
246108.97375488 3357664.96392822 13.51169109 139 151 151
246109.13769531 3357665.48455811 13.00644112 109 124 127
246110.28466797 3357664.59942627 13.20164967 146 180 192
246106.98779297 3357664.39263916 13.40364361 12 16 17
246106.54040527 3357664.18957520 13.54694748 63 76 67
246109.39904785 3357665.41668701 12.87300682 124 142 144
246107.44433594 3357665.31970215 13.43473339 158 169 171
246106.45031738 3357664.48834229 13.34813309 166 177 173
246108.11584473 3357665.56982422 12.56619740 18 30 30
246108.33081055 3357663.30572510 12.84193039 33 39 39
246109.48486328 3357665.05346680 13.34685040 42 65 79
246109.47131348 3357664.08245850 13.29551315 23 35 35
246108.05810547 3357664.54150391 13.64964008 175 191 190
246108.81152344 3357665.49017334 12.73493767 137 151 154
246108.77880859 3357663.67932129 13.21705437 32 36 39
246107.02526855 3357664.75842285 13.50237465 46 52 38
246106.53381348 3357664.28076172 13.43886757 58 71 64
246107.58105469 3357664.44311523 13.57406712 176 190 190
246106.49133301 3357664.27563477 13.83739376 49 62 53
246107.68090820 3357664.20257568 13.63701439 160 169 168
246107.14416504 3357663.99188232 13.67649460 49 60 52
246111.00708008 3357664.09185791 12.51961422 17 29 41
246110.65270996 3357663.31732178 12.37052631 131 133 130
246108.30810547 3357664.89154053 13.66034412 159 169 171
246109.59094238 3357664.17779541 13.31937599 10 24 24
246108.93408203 3357664.38714600 13.36569118 10 17 23
246109.29003906 3357664.75598145 13.24197292 20 29 36
246106.46179199 3357664.19934082 13.58854103 39 55 44
246109.61486816 3357665.34997559 13.22517300 158 175 182
246107.32995605 3357664.79980469 13.55640697 43 55 53
246108.21069336 3357664.92919922 13.65824890 175 193 195
246110.57092285 3357663.48968506 12.44293022 40 44 45
246109.54345703 3357665.17431641 13.36243916 44 63 77
246110.95849609 3357664.92810059 12.94433594 164 190 207
246110.39318848 3357665.39923096 12.61106205 37 48 54
246109.87878418 3357663.40667725 12.44395447 43 49 49
246108.48046875 3357664.07214355 13.68097687 76 90 90
246106.26770020 3357664.82891846 12.81664276 107 142 161
246107.37963867 3357665.05377197 13.51528168 48 60 60
246106.54199219 3357665.41009521 12.96809578 174 191 198
246107.56738281 3357664.39154053 13.57166195 179 193 193
246106.88378906 3357664.15838623 13.49828434 111 115 114
246106.49572754 3357664.82299805 13.25877380 135 145 144
246108.66186523 3357664.91601563 13.66825199 15 25 27
246111.02416992 3357664.49426270 13.00725079 157 182 204
246110.36132813 3357665.38732910 12.78440475 17 30 39
246110.73376465 3357664.90234375 13.07912540 154 193 208
246110.47241211 3357663.48944092 12.54238224 31 39 41
246106.69213867 3357664.22583008 13.87668228 39 55 42
246109.42736816 3357663.48663330 12.57538795 31 40 39
246106.53015137 3357665.40979004 12.90715694 175 194 201
246110.69274902 3357665.06677246 13.06724548 162 195 212
246106.37683105 3357664.76885986 13.11949921 183 197 200
246109.66088867 3357663.43701172 12.48867607 63 65 62
246106.01660156 3357665.40997314 12.49728584 52 62 61
246108.37683105 3357664.21484375 13.69159317 93 101 103
246106.16235352 3357664.26379395 13.10010338 81 88 80
246109.96081543 3357664.54254150 13.28476143 170 199 207
246109.13671875 3357665.46850586 12.85812473 128 143 146
246110.25903320 3357663.96600342 13.16500664 148 180 191
246108.20849609 3357664.68286133 13.66252708 192 208 208
246105.83923340 3357664.21166992 13.42053986 36 42 32
246107.36389160 3357664.91302490 13.55284023 43 56 49
246110.71093750 3357663.54229736 12.40306664 47 47 45
246106.37500000 3357665.11145020 13.09222603 201 218 225
246107.96411133 3357665.13916016 13.59397984 153 174 175
246107.91723633 3357665.52459717 12.92076111 151 165 165
246109.24865723 3357663.50390625 12.70422077 22 26 25
246109.22058105 3357664.63842773 13.22258663 13 22 27
246106.31372070 3357665.01995850 12.83106518 133 165 178
246110.22253418 3357665.40130615 12.66187191 23 32 41
246108.99365234 3357665.49310303 13.13151169 127 145 147
246110.29016113 3357664.12762451 13.15577698 145 179 189
246106.13171387 3357664.20300293 13.15170097 69 76 68
246105.92553711 3357664.24426270 13.44265366 49 52 45
246108.94262695 3357664.44903564 13.40474319 16 21 25
246108.69042969 3357665.50750732 12.74359035 132 148 148
246107.88916016 3357664.51300049 13.61661530 190 202 202
246108.59704590 3357665.55743408 12.59477139 20 31 33
246111.01684570 3357664.15777588 12.51238155 28 37 52
246109.90637207 3357663.31323242 12.40629864 39 44 48
246106.35498047 3357664.38262939 13.30328655 39 50 42
246106.32714844 3357664.91955566 13.02214622 152 174 188
246105.95568848 3357664.33758545 13.65682030 38 43 39
246110.03283691 3357665.31689453 13.11575222 167 190 198
246107.15454102 3357665.19659424 13.41165161 42 48 48
246106.26538086 3357664.90045166 12.79022312 80 112 127
246108.27465820 3357665.18090820 13.59486580 183 197 200
246110.75109863 3357664.61828613 13.08820724 156 191 211
246106.49938965 3357665.40509033 12.85908222 182 200 210
246107.84729004 3357665.26696777 13.52323818 74 88 89
246108.87548828 3357665.49963379 13.03840828 122 137 140
246108.34948730 3357665.49859619 12.93108749 134 148 149
246107.48901367 3357664.71990967 13.59350300 161 175 175
246109.13439941 3357664.66778564 13.25590706 11 21 23
246109.60229492 3357665.39190674 12.99504185 115 134 140
246108.72827148 3357663.08337402 12.52901363 48 57 52
246108.88769531 3357664.50054932 13.60186481 168 182 185
246107.43127441 3357665.57446289 12.99601746 171 183 183
246109.26928711 3357663.24194336 12.52218151 39 45 41
246110.39050293 3357663.73455811 13.09902859 146 174 188
246109.21276855 3357663.44921875 12.63296604 44 48 47
246108.14318848 3357664.28759766 13.69245625 233 242 241
246105.78356934 3357664.30560303 13.56835842 33 38 31
246109.33691406 3357665.13006592 13.35854244 27 45 55
246108.90686035 3357664.02441406 13.46742535 14 18 27
246108.68872070 3357664.73162842 13.69221687 9 19 21
246106.66772461 3357664.21679688 13.47436428 68 74 70
246108.99853516 3357664.56622314 13.25706005 21 30 35
246110.50695801 3357663.24798584 12.38085079 38 42 43
246107.64892578 3357664.15350342 13.64703369 126 135 134
246111.10375977 3357663.90472412 12.36355495 33 41 44
246107.46325684 3357665.64642334 12.74076462 36 41 45
246109.39404297 3357664.33349609 13.21333408 30 45 52
246109.00793457 3357664.55639648 13.24684429 15 22 28
246109.02075195 3357663.73944092 13.23666096 146 156 158
246107.89379883 3357664.57519531 13.61216259 177 191 191
246106.54235840 3357664.22027588 13.75134945 39 55 44
246107.48815918 3357665.12963867 13.53431892 183 197 200
246108.42248535 3357665.48986816 13.12828827 142 156 156
246110.63269043 3357663.59344482 12.48594856 60 63 68
246108.47375488 3357664.42742920 13.62665176 16 24 27
246107.72875977 3357665.24487305 13.53709793 189 203 206
246110.93579102 3357664.04608154 12.97846413 149 173 199
246108.37561035 3357664.54205322 13.61889172 14 20 20
246107.25573730 3357664.48742676 13.52367496 23 33 34
246110.54492188 3357663.57275391 12.57704258 70 79 78
246107.56176758 3357665.49328613 13.13634872 159 171 169
246107.16821289 3357664.83721924 13.50363731 10 20 9
246108.77856445 3357664.74041748 13.68270397 120 135 138
246109.78466797 3357665.40332031 12.82426453 122 140 142
246109.30761719 3357664.00994873 13.25353432 15 25 27
246108.48681641 3357664.52087402 13.63722992 26 34 36
246106.07446289 3357664.77941895 12.70555401 42 47 53
246109.16845703 3357663.52807617 12.91703033 73 77 78
246111.00671387 3357664.62554932 13.01576805 166 193 212
246109.73388672 3357664.16510010 13.36274052 11 26 29
246110.96118164 3357664.06182861 12.74034023 79 95 118
246106.47363281 3357664.99420166 13.24301338 175 187 185
246107.16149902 3357665.64990234 12.63927364 40 48 50
246109.04577637 3357663.52246094 13.02226353 114 120 118
246110.15917969 3357665.42468262 12.59870243 41 48 54
246106.42956543 3357665.52307129 12.54123878 44 52 55
246108.20678711 3357664.79376221 13.66048622 182 197 200
246106.82751465 3357664.21655273 13.45484638 179 183 186
246110.95275879 3357664.04211426 12.68902779 101 116 135
246108.43505859 3357664.25732422 13.67335606 5 8 13
246108.16247559 3357664.72662354 13.65256882 191 206 209
246106.37829590 3357665.08764648 13.14168262 179 194 199
246107.38403320 3357664.85296631 13.56579399 46 58 54
246110.52770996 3357664.94165039 13.14641953 166 200 212
246110.93078613 3357663.95587158 12.66365433 104 118 131
246106.80236816 3357664.81903076 13.44504261 224 226 221
246110.69714355 3357663.32330322 12.37517262 163 164 159
246108.86108398 3357663.15582275 12.57585049 27 33 29
246106.78283691 3357664.16516113 13.73229790 59 72 63
246108.30444336 3357665.49041748 13.10201168 149 165 162
246108.24780273 3357664.49578857 13.65120697 158 168 167
246109.49365234 3357664.64324951 13.26984692 11 27 40
246107.00683594 3357664.76751709 13.49398613 46 52 38
246106.85644531 3357665.55230713 12.74480820 157 169 169
246108.37634277 3357663.93890381 13.67279243 27 36 33
246108.82678223 3357663.71716309 13.22266388 128 133 136
246108.70678711 3357665.48010254 13.14223003 156 176 175
246107.31481934 3357665.38220215 13.35634613 178 188 189
246108.97558594 3357664.52612305 13.32766914 18 23 27
246107.49829102 3357664.05981445 13.66181755 44 55 49
246109.13867188 3357663.31860352 12.56328297 48 52 51
246108.64001465 3357663.89697266 13.49707222 42 51 50
246106.58874512 3357664.96051025 13.32968426 185 197 193
246108.89978027 3357663.34002686 12.65284729 43 48 44
246107.20800781 3357664.18957520 13.49853992 18 27 26
246110.97338867 3357664.67742920 13.02135372 156 185 203
246106.41479492 3357664.61535645 13.24287796 202 211 210
246110.78051758 3357663.71655273 12.60610676 62 73 79
246107.13854980 3357664.04620361 13.57143402 51 60 55
246108.26281738 3357664.02215576 13.73038387 33 42 41
246108.80725098 3357665.48657227 12.77193165 137 151 154
246106.01477051 3357665.21875000 12.62065315 40 49 46
246106.35900879 3357664.58880615 13.18157005 162 173 169
246108.07641602 3357664.90887451 13.63673306 168 189 190
246106.27624512 3357664.93157959 12.79548168 80 112 127
246108.89489746 3357664.63397217 13.60892487 205 216 218
246110.90441895 3357665.06347656 12.69254398 131 148 158
246109.41271973 3357663.93713379 13.27353668 15 25 26
246109.00732422 3357665.47265625 12.64779949 92 105 111
246110.59619141 3357663.64941406 12.93299866 38 53 60
246106.98449707 3357664.07415771 13.58014584 46 55 50
246108.34875488 3357665.15441895 13.59807682 144 158 161
246108.74340820 3357663.89135742 13.41082668 52 58 58
246106.49316406 3357664.60766602 13.32796192 213 222 221
246110.80773926 3357663.78656006 12.81594372 93 105 117
246106.78369141 3357665.52349854 12.82332230 171 182 184
246111.00537109 3357663.37994385 12.34728146 114 116 105
246111.20385742 3357664.79229736 12.34065247 48 57 62
246108.71435547 3357663.28942871 12.60709095 87 91 90
246110.59130859 3357663.68139648 13.01759911 135 153 165
246110.99291992 3357664.11712646 12.86606026 11 28 54
246107.77050781 3357664.53863525 13.58780670 191 203 203
246110.32495117 3357664.18743896 13.14155197 147 180 195
246110.17932129 3357664.77947998 13.23817158 169 186 193
246110.34509277 3357664.07672119 13.14584446 149 181 192
246110.08837891 3357665.41528320 12.75030899 35 44 49
246109.99902344 3357665.40252686 12.85468292 15 26 30
246110.15625000 3357663.77020264 13.13366890 130 158 169
246107.71911621 3357664.84692383 13.59977245 188 199 201
246109.91918945 3357663.20880127 12.37396812 47 53 53
246109.79577637 3357663.66809082 13.09738350 159 172 178
246108.98156738 3357664.71051025 13.45675850 77 87 89
246106.49865723 3357664.80395508 13.25801468 135 145 144
246107.36718750 3357665.64807129 12.82443237 21 26 29
246109.25463867 3357664.89947510 13.26805019 10 27 35
246106.15344238 3357664.41070557 12.97554302 95 104 101
246108.42224121 3357663.23803711 12.59300900 59 65 63
246110.70422363 3357665.06396484 13.06308842 160 193 210
246106.64086914 3357664.96008301 13.35959816 195 206 202
246106.82409668 3357665.49798584 13.10673332 109 119 118
246107.81250000 3357665.55877686 12.84890366 141 156 153
246108.41845703 3357663.94555664 13.65851688 27 36 31
246108.65759277 3357665.35589600 13.40034580 22 32 31
246109.90112305 3357665.40686035 12.78742886 45 59 62
246108.50671387 3357663.82592773 13.41503143 59 65 65
246109.65576172 3357664.42736816 13.29035378 52 69 89
246107.91796875 3357665.10046387 13.58383656 194 212 214
246110.00036621 3357663.13134766 12.40627289 12 21 16
246109.24743652 3357664.48834229 13.16566658 18 29 31
246108.34533691 3357665.36743164 13.40561199 30 34 35
246109.01403809 3357664.92102051 13.37041187 7 16 21
246109.99267578 3357665.21954346 13.21910763 203 224 229
246107.64416504 3357665.32342529 13.45856953 55 65 66
246109.28112793 3357665.14288330 13.37355232 31 48 58
246109.83422852 3357664.95410156 13.33749199 23 43 54
246109.36157227 3357663.91333008 13.26164150 21 31 32
246106.87182617 3357664.14440918 13.55435848 67 72 68
246110.56787109 3357663.54223633 12.48905468 38 43 46
246106.24291992 3357664.74255371 12.82308674 90 117 138
246107.85815430 3357664.19287109 13.68144703 170 174 173
246109.20153809 3357664.83679199 13.24587727 1 14 22
246110.99890137 3357663.73431396 12.35327244 52 61 58
246108.78125000 3357665.48828125 13.12803364 139 159 158
246110.68347168 3357664.08856201 13.06498337 141 172 190
246107.01403809 3357664.80615234 13.47918129 42 49 33
246106.66406250 3357665.52258301 12.73727512 160 175 180
246109.59436035 3357664.82342529 13.32536030 42 61 75
246109.01171875 3357665.48669434 12.79219723 139 152 158
246109.60900879 3357663.27612305 12.43688202 54 58 57
246106.48315430 3357664.28515625 13.85244274 49 62 53
246109.56945801 3357663.04711914 12.48827934 35 45 36
246110.75622559 3357664.46868896 13.07040596 154 186 207
246110.46276855 3357664.75042725 13.18113136 154 186 199
246109.42492676 3357665.32513428 13.33842468 65 76 82
246106.27258301 3357664.22576904 13.56091499 45 52 45
246109.51525879 3357665.39434814 12.98583508 117 135 139
246109.82739258 3357663.81188965 13.22428894 164 184 193
246108.26440430 3357665.48687744 13.17401981 162 176 176
246110.45776367 3357664.94714355 13.16844463 167 200 209
246109.23779297 3357664.15173340 13.20522118 10 21 23
246106.84729004 3357664.16320801 13.51216793 82 86 85
246107.79467773 3357664.08544922 13.70490170 56 60 59
246110.75708008 3357664.63183594 13.08799744 156 191 211
246107.20568848 3357664.57708740 13.51234627 26 37 33
246110.42639160 3357664.04394531 13.12136459 144 176 191
246107.34057617 3357664.97406006 13.52974033 37 49 47
246111.12463379 3357665.09167480 12.33521748 56 70 73
246106.96398926 3357665.62017822 12.55195332 51 63 63
246107.10156250 3357664.11712646 13.48847675 133 142 141
246108.51940918 3357665.49658203 13.00156975 125 143 143
246108.02258301 3357665.50030518 12.85415077 133 152 148
246108.68127441 3357664.45507813 13.70144176 13 21 24
246108.90576172 3357663.90283203 13.35204124 83 92 97
