246216.07043457 3357596.62982178 11.91434765 79 80 72
246213.77807617 3357597.91625977 12.12644768 109 114 110
246214.66516113 3357590.61407471 11.99345398 59 56 49
246215.42626953 3357585.63055420 11.87959480 91 91 79
246216.09265137 3357587.15649414 12.46086979 31 41 53
246214.36450195 3357601.47338867 13.07350540 207 212 215
246215.56005859 3357583.83538818 12.58622551 16 19 24
246212.89770508 3357602.75781250 12.59466839 220 224 225
246216.13061523 3357591.43316650 12.38427639 20 29 24
246214.01733398 3357601.62304688 12.58990574 180 190 191
246213.88293457 3357595.41900635 12.39940548 178 187 194
246215.99243164 3357591.10815430 12.80723000 58 69 65
246215.65649414 3357590.19989014 12.06347561 117 123 123
246215.16223145 3357590.86444092 13.37100506 96 107 125
246216.59667969 3357583.58807373 13.37722015 42 12 22
246215.29821777 3357594.20764160 12.52731800 167 169 181
246217.59777832 3357584.43255615 12.11726665 55 58 49
246213.32922363 3357610.31994629 12.23629761 49 51 48
246211.45434570 3357610.66503906 12.22322083 233 230 223
246215.40283203 3357587.20385742 12.55549431 56 65 74
246211.61315918 3357609.72473145 15.48372650 109 137 76
246215.15393066 3357587.30596924 12.29954529 122 137 142
246215.02966309 3357595.28399658 12.51741695 51 58 64
246213.82836914 3357601.22064209 13.09293270 15 26 22
246214.84179688 3357602.56231689 11.97846031 115 117 103
246211.97338867 3357614.70690918 12.33562088 153 155 154
246211.61804199 3357609.63903809 15.29114532 110 134 76
246213.62573242 3357598.90496826 12.30296326 146 147 149
246207.89025879 3357609.90838623 18.35153770 152 176 114
246216.10253906 3357584.67010498 13.31434250 12 21 26
246213.43920898 3357599.74169922 12.59846020 238 239 241
246214.00610352 3357602.57110596 12.85979271 24 34 33
246212.28051758 3357613.31652832 12.61828518 156 163 169
246215.22143555 3357601.42016602 11.86183357 96 97 83
246213.92224121 3357595.17492676 12.70792389 208 213 216
246214.60534668 3357595.97137451 12.42310810 87 97 109
246214.69409180 3357602.75482178 12.04679775 190 192 189
246213.54211426 3357601.21807861 13.09129238 41 49 51
246215.11132813 3357589.51782227 12.49611282 69 75 75
246216.06042480 3357588.08923340 12.08192158 93 100 106
246214.97302246 3357590.76715088 13.37294769 149 158 175
246210.95874023 3357613.24566650 12.11989594 168 179 175
246214.03625488 3357598.56005859 11.79295158 99 101 100
246216.52563477 3357584.32525635 13.29631805 37 14 20
246214.10974121 3357596.71710205 13.04208851 149 153 156
246215.10644531 3357589.81726074 12.50801659 54 59 63
246214.88476563 3357599.14331055 12.35662746 180 188 191
246215.42517090 3357600.81750488 11.93957901 104 105 87
246212.67773438 3357615.13385010 11.91268158 109 108 113
246214.99060059 3357597.59918213 12.40591621 114 115 110
246216.02416992 3357591.32525635 12.68122292 59 64 60
246214.91052246 3357602.46331787 11.95979214 75 80 60
246215.96374512 3357597.71325684 11.92829609 71 83 69
246215.35070801 3357594.89849854 12.71153736 26 37 39
246215.03540039 3357596.92639160 11.84958553 103 103 103
246214.87817383 3357595.86596680 12.16354370 75 81 81
246212.30505371 3357614.62823486 12.39441872 147 151 152
246212.96594238 3357602.96624756 12.18937874 218 224 224
246214.33520508 3357593.37402344 11.86076736 137 134 129
246210.74377441 3357614.18676758 12.12007618 141 142 137
246214.02270508 3357595.56103516 12.95022678 5 12 20
246215.55212402 3357587.12884521 12.48534870 20 23 30
246214.52270508 3357596.01062012 12.56089973 81 91 103
246215.32507324 3357591.72882080 12.02898788 33 35 34
246214.09851074 3357601.84014893 12.63862991 185 193 195
246214.31933594 3357595.01300049 12.91978168 73 84 90
246215.26477051 3357600.58404541 12.06359291 59 62 55
246214.32971191 3357601.69671631 12.85464764 209 215 215
246215.82409668 3357596.19866943 11.84140587 129 134 140
246217.96179199 3357581.64733887 12.10930061 55 58 47
246215.81555176 3357598.54809570 11.88981056 63 69 59
246216.42614746 3357583.47479248 13.34768105 38 20 32
246213.52294922 3357600.36804199 12.71994591 71 93 116
246215.96997070 3357594.42663574 12.02253532 62 66 67
246212.78576660 3357602.19628906 11.77082634 157 154 137
246214.89550781 3357589.40362549 12.98222542 90 95 101
246214.67395020 3357590.35711670 11.87443256 134 126 105
246213.74572754 3357597.37384033 12.76424980 210 219 226
246216.88146973 3357585.08935547 12.77332306 24 26 25
246213.36572266 3357602.52618408 12.85955334 42 63 82
246213.73901367 3357599.72088623 12.62622166 208 218 227
246215.69787598 3357583.41442871 12.89850521 3 10 16
246214.75878906 3357600.36694336 12.51108074 126 129 134
246213.80810547 3357598.79138184 12.20224094 192 192 190
246212.88134766 3357602.73229980 12.54443836 205 207 206
246213.46752930 3357602.98541260 12.62146187 239 246 254
246213.19714355 3357600.65344238 12.75779819 29 44 49
246214.20605469 3357602.93579102 12.70954418 146 151 155
246215.44677734 3357589.36230469 13.40125465 47 57 59
246212.52148438 3357612.98614502 12.69961452 18 24 24
246215.08386230 3357591.77416992 11.97271729 48 50 47
246216.34277344 3357584.86840820 12.85871983 36 20 23
246215.06213379 3357593.68695068 12.36529827 171 175 184
246213.68249512 3357597.14337158 12.10132790 58 68 67
246215.42382813 3357588.46838379 12.97718620 107 127 151
246214.94592285 3357595.23388672 12.64109993 45 50 54
246213.89953613 3357595.26623535 12.53611374 196 205 210
246214.21276855 3357602.47973633 12.90190125 12 17 21
246213.50500488 3357602.60510254 12.31677055 161 165 164
246215.30371094 3357593.80157471 12.39881897 172 177 183
246213.25439453 3357599.39532471 12.12780380 139 140 135
246214.03918457 3357595.54656982 12.98031807 5 12 20
246213.00988770 3357602.32922363 12.70927048 246 254 255
246217.40869141 3357582.44421387 12.88842106 24 28 31
246214.03454590 3357598.04919434 12.69822121 175 174 180
246216.39196777 3357581.91571045 12.82929802 15 25 34
246213.10205078 3357601.26684570 12.67290974 143 156 164
246215.32482910 3357588.26318359 12.92511272 50 67 85
246216.39062500 3357590.58367920 12.07322311 8 18 20
246211.34777832 3357612.38903809 12.88425827 7 11 14
246214.36853027 3357602.59039307 11.86578751 169 171 166
246215.90148926 3357591.30279541 13.20689583 53 63 65
246213.68713379 3357601.66479492 12.46695042 174 183 188
246214.09338379 3357598.64062500 11.82704163 121 123 122
246213.44262695 3357599.42614746 12.52325916 201 212 214
246212.67944336 3357602.88958740 11.73965263 222 213 172
246213.25561523 3357601.75451660 12.38877583 174 187 204
246215.64978027 3357596.97894287 11.86278820 103 107 108
246216.80834961 3357584.74090576 13.26745033 16 18 17
246216.36645508 3357587.93560791 12.16730118 83 90 98
246217.70190430 3357582.61224365 12.42348862 80 82 81
246212.55615234 3357612.20910645 13.06696606 153 152 160
246216.05358887 3357591.28723145 12.55773830 82 89 82
246214.72546387 3357602.62310791 11.96719265 174 176 171
246215.04113770 3357589.05920410 13.28053093 12 29 36
246216.80383301 3357585.09033203 12.66331959 24 24 26
246217.07910156 3357581.67742920 12.73457718 4 9 15
246213.47839355 3357602.67846680 12.29401684 162 168 166
246215.97900391 3357589.88476563 12.90686417 100 106 104
246216.92236328 3357581.25476074 12.54273796 7 6 14
246216.85681152 3357589.68499756 12.00513077 49 54 57
246211.53771973 3357611.72589111 13.16921425 242 250 253
246215.19860840 3357597.12054443 11.84430027 103 104 108
246217.15502930 3357585.12445068 12.27522469 56 60 59
246213.67810059 3357600.77099609 12.08804131 165 182 190
246213.04406738 3357602.97827148 12.20509529 225 229 230
246215.21728516 3357600.46813965 12.12742996 57 60 53
246214.08666992 3357595.57757568 13.08562851 41 50 57
246213.49536133 3357601.47924805 13.09391212 254 255 255
246215.66918945 3357584.72729492 12.43551350 45 28 36
246216.00744629 3357589.02362061 13.13992977 15 25 26
246216.17810059 3357595.94195557 11.94375610 55 61 51
246215.46081543 3357591.73400879 11.99845028 38 40 39
246217.59997559 3357581.94030762 12.44090271 19 23 22
246216.72033691 3357581.90850830 12.83205700 15 24 31
246215.46447754 3357596.73107910 11.78008270 158 154 143
246215.61218262 3357583.46405029 12.64926624 16 20 23
246214.05407715 3357600.08514404 12.65637875 34 48 49
246215.92236328 3357581.92272949 12.90367317 12 26 37
246216.99548340 3357583.45458984 13.45401478 92 96 97
246214.20178223 3357596.11389160 13.09558582 108 116 127
246215.88220215 3357591.68542480 12.42582989 19 24 28
246216.01672363 3357597.60571289 11.94589233 87 94 76
246216.66406250 3357581.23101807 12.46747398 44 42 47
246212.09741211 3357610.42291260 13.06603146 62 70 73
246213.78906250 3357602.81842041 12.76518154 38 43 39
246216.21337891 3357587.46197510 12.51053047 53 66 74
246213.75207520 3357600.92761230 13.04817295 225 235 237
246216.65441895 3357589.31030273 11.84809685 62 72 74
246216.33593750 3357594.35510254 11.89937687 79 80 75
246215.08129883 3357588.69207764 13.07781887 96 111 130
246215.99865723 3357597.10302734 11.91064930 61 69 54
246215.60974121 3357583.51025391 12.63559341 18 19 23
246213.36096191 3357600.08618164 12.68537521 120 130 140
246214.96203613 3357588.42864990 12.92536449 78 89 95
246216.33300781 3357587.95202637 12.15867424 87 94 102
246214.15979004 3357600.78759766 11.93397045 160 171 177
246215.02001953 3357589.54925537 12.57253361 50 58 60
246215.06860352 3357598.34582520 11.88394070 94 99 95
246213.11254883 3357601.73492432 12.79678535 18 38 37
246216.37500000 3357585.32391357 12.03644371 85 89 90
246210.74377441 3357614.18780518 11.98660278 111 108 101
246213.54382324 3357599.01672363 12.39922142 223 227 228
246214.90771484 3357597.16503906 12.08162498 114 116 111
246214.15490723 3357601.24298096 11.88388920 170 180 190
246213.30456543 3357610.30010986 12.52633476 30 35 31
246215.10998535 3357596.11132813 11.89856529 120 115 111
246213.39147949 3357603.31787109 11.84893036 35 36 30
246214.45886230 3357598.18237305 12.02692986 108 112 111
246215.64562988 3357595.11926270 12.58502579 131 137 135
246213.75793457 3357600.79315186 12.30508709 157 173 173
246215.80139160 3357594.21466064 12.33661652 132 137 143
246214.71520996 3357590.26788330 12.81078339 125 129 138
246214.91674805 3357600.45568848 12.26246834 136 137 139
246214.51257324 3357601.20404053 12.94589043 205 217 203
246211.60144043 3357614.03436279 12.58542061 165 185 194
246217.56604004 3357584.51770020 12.10543633 59 62 53
246216.38171387 3357587.18426514 12.27048492 38 42 45
246216.70776367 3357587.65679932 12.17987347 57 63 75
246211.74560547 3357614.79791260 12.10267067 70 69 64
246215.84167480 3357589.99151611 13.23165131 93 101 104
246214.68322754 3357593.90234375 12.50797939 168 175 185
246216.11511230 3357591.11297607 12.37547207 48 52 53
246213.14318848 3357602.97882080 12.61434937 207 217 226
246211.07299805 3357612.30004883 11.88259315 99 99 99
246210.73266602 3357614.41296387 11.75862598 83 84 76
246217.46350098 3357581.18353271 12.34503174 58 49 54
246215.77624512 3357584.77978516 13.17300129 15 13 16
246213.81347656 3357601.95861816 13.02762413 216 238 236
246212.37707520 3357614.95184326 12.07729053 103 104 99
246215.79077148 3357589.33093262 11.97837925 65 75 84
246211.63098145 3357610.67901611 12.97400761 205 214 221
246211.78601074 3357612.75732422 12.80379677 13 14 16
246211.50048828 3357610.50390625 12.30119991 226 222 219
246215.03515625 3357588.81536865 13.13068581 67 75 86
246215.46850586 3357593.88085938 12.43110466 156 157 162
246213.80224609 3357601.74188232 12.52338409 174 183 188
246214.82702637 3357604.39434814 11.80339718 144 141 96
246214.21679688 3357596.44946289 12.90845203 97 104 114
246212.13232422 3357611.19720459 13.45577240 173 196 210
246215.70312500 3357599.03057861 11.85361862 45 53 40
246215.72070313 3357596.31561279 11.80195713 118 120 119
246214.39953613 3357597.29205322 12.44675922 109 109 101
246213.68310547 3357598.97399902 12.38461781 243 244 239
246216.50781250 3357594.64483643 11.91278934 65 65 55
246215.52319336 3357588.29626465 12.75067711 55 69 82
246214.13537598 3357601.09289551 11.90079689 161 174 183
246214.83935547 3357588.97674561 12.46672630 47 51 54
246214.91284180 3357589.73187256 12.02196693 53 59 59
246216.39013672 3357589.97076416 11.99113655 42 52 54
246212.43640137 3357610.61535645 13.21805668 161 177 177
246214.25708008 3357601.63592529 12.72956848 195 204 203
246213.23791504 3357601.46844482 12.44482708 180 196 212
246211.30419922 3357611.64312744 12.67612934 213 222 219
246214.82336426 3357589.74890137 11.96910763 98 97 93
246214.89001465 3357590.88262939 13.19798183 40 51 55
246217.22387695 3357584.91662598 12.37169266 36 37 39
246215.66613770 3357591.71624756 12.84290504 29 30 35
246214.49230957 3357603.52746582 11.82134533 91 93 92
246216.59790039 3357588.77398682 11.87681389 73 81 84
246216.77709961 3357584.45898438 13.40594482 29 23 25
246214.85949707 3357597.51141357 12.59263992 136 136 126
246215.95776367 3357595.45556641 11.93050957 116 124 127
246213.92065430 3357595.16613770 12.33778381 171 178 184
246211.70202637 3357614.16009521 12.59391308 178 195 202
246214.02258301 3357602.73986816 12.53451252 167 173 173
246213.88305664 3357601.30194092 13.09413815 20 32 30
246211.47241211 3357613.01849365 12.82348061 47 48 50
246214.81958008 3357589.32177734 12.12937450 72 74 73
246213.63806152 3357601.89739990 13.04692268 235 251 248
246211.71740723 3357609.25946045 15.61267662 100 130 80
246214.69274902 3357591.19775391 12.55831623 29 34 38
246213.92968750 3357598.66412354 11.92195320 94 98 99
246215.83801270 3357598.32531738 11.87925243 74 82 71
246212.17773438 3357610.88061523 13.36366177 163 185 196
246215.69787598 3357590.39233398 12.39313030 115 121 111
246214.84790039 3357595.63336182 12.21898270 72 78 76
246216.29821777 3357594.94732666 11.92371559 56 56 48
246214.75573730 3357590.30023193 12.31199360 45 46 48
246214.68566895 3357591.15997314 12.14218903 43 47 46
246217.55737305 3357585.22381592 12.04939270 69 72 63
246216.09118652 3357596.67803955 11.91291046 80 81 73
246213.43957520 3357602.48217773 12.00430489 159 168 165
246214.13403320 3357598.09265137 12.61534786 138 143 149
246214.27954102 3357596.41857910 12.79789829 93 103 113
246214.99951172 3357598.83288574 11.86421490 75 75 73
246215.78588867 3357594.67919922 12.28525066 97 98 102
246214.78002930 3357593.94812012 12.46725368 165 172 180
246213.42553711 3357601.38098145 12.39946079 177 191 202
246214.72009277 3357602.93164063 12.11939716 143 146 139
246214.31677246 3357600.93841553 12.52910709 149 159 158
246213.12719727 3357602.11901855 12.89824104 166 182 182
246211.77319336 3357611.58428955 13.26871490 56 61 64
246214.86950684 3357588.37200928 12.20575619 72 72 74
246214.14416504 3357596.23583984 13.13966179 155 158 167
246214.10351563 3357607.65948486 11.73859024 79 86 79
246215.52319336 3357591.74249268 12.54352188 57 71 97
246216.90051270 3357588.15948486 12.01035595 97 105 108
246217.05993652 3357585.41064453 12.15937233 74 76 75
246214.90039063 3357588.69659424 12.94010735 97 105 116
246216.81579590 3357589.57397461 11.97572994 66 74 77
246213.68493652 3357601.33520508 12.41737080 174 185 191
246214.03564453 3357595.61291504 12.98325634 3 14 18
246213.03271484 3357610.31848145 12.86734295 40 44 43
246214.95690918 3357588.22558594 12.22294426 23 28 32
246217.88256836 3357581.48052979 12.10424900 56 57 51
246215.26342773 3357588.66558838 13.05891514 84 109 139
246212.59423828 3357612.27252197 13.07340908 58 59 63
246213.77282715 3357597.43218994 12.40559483 167 173 173
246215.95996094 3357590.28063965 13.10600853 98 107 106
246214.48522949 3357597.44647217 12.65093422 132 130 115
246213.55151367 3357601.58410645 12.10364246 165 191 204
246217.55798340 3357581.55828857 12.29913425 31 22 25
246211.57556152 3357614.69726563 12.31590271 97 96 91
246210.80541992 3357614.34851074 12.25531960 136 142 140
246215.67224121 3357588.63684082 12.99552250 36 48 60
246216.16369629 3357583.91516113 13.47869682 45 24 33
246210.74743652 3357613.97540283 11.71815968 158 156 133
246215.33386230 3357587.92694092 12.23670101 134 145 163
246213.77307129 3357598.39416504 11.76105213 106 107 102
246213.35168457 3357602.75219727 12.14540005 178 187 186
246215.35217285 3357589.65789795 12.54875278 92 98 96
246214.20239258 3357596.77996826 12.78513241 128 131 140
246213.46911621 3357610.23077393 11.70526218 79 85 83
246215.64819336 3357594.56427002 12.65851593 211 215 224
246211.19946289 3357612.05908203 12.13665104 189 198 195
246213.37243652 3357599.50219727 12.49770927 210 216 214
246216.10107422 3357590.02716064 12.06506062 58 64 64
246213.48303223 3357602.04772949 13.01258373 252 255 255
246214.27307129 3357601.67291260 13.02330494 253 255 254
246215.75500488 3357590.42169189 12.13272381 72 83 77
246215.69226074 3357587.86883545 12.26991463 81 94 103
246214.87878418 3357591.86791992 11.88475037 94 95 90
246214.82519531 3357589.05273438 12.75530243 27 31 40
246213.84594727 3357601.81445313 12.54402542 176 184 187
246214.46069336 3357600.90008545 12.96359158 82 87 93
246213.82006836 3357601.76336670 13.06849098 218 234 234
246215.30810547 3357590.10644531 12.01327801 109 115 115
246215.51696777 3357595.55456543 11.92787457 79 82 87
246213.83959961 3357609.43951416 11.70778847 85 88 81
246214.68139648 3357591.54571533 11.88638306 124 118 106
246211.20349121 3357611.98889160 12.41224480 190 198 201
246212.04797363 3357613.50671387 12.65525246 151 159 162
246211.67297363 3357610.71752930 13.05340672 234 241 249
246213.01452637 3357602.05828857 12.46315956 196 210 213
246214.10949707 3357593.79064941 12.16107368 161 174 182
246217.27392578 3357582.28741455 12.91947651 32 37 41
246214.14306641 3357596.67260742 12.98482418 117 122 128
246215.66516113 3357589.03204346 12.51738834 111 119 121
246214.06848145 3357598.66479492 12.35812855 124 124 132
246212.20678711 3357613.18884277 12.63154697 123 124 128
246215.14892578 3357589.54125977 12.17713070 66 72 70
246210.99377441 3357613.29321289 12.43706703 245 250 253
246216.19812012 3357587.16198730 12.11425686 40 44 53
246213.59606934 3357601.76428223 12.44605446 170 179 184
246215.67443848 3357595.15350342 12.31058502 76 85 80
246215.61303711 3357590.29296875 13.39264965 70 78 81
246215.86572266 3357595.49853516 11.92250824 97 104 110
246214.47814941 3357593.49957275 12.20618248 186 196 205
246216.36352539 3357589.04168701 11.78385830 100 112 110
246214.28710938 3357596.84326172 12.51040459 107 110 117
246214.47888184 3357598.91107178 12.30387497 230 234 235
246210.87988281 3357613.99041748 12.43937397 250 248 249
246216.37341309 3357584.35070801 13.29659653 38 19 25
246215.94763184 3357590.45562744 13.02461720 81 90 89
246214.19018555 3357600.99639893 12.52648640 158 168 167
246215.77404785 3357598.23455811 11.86520195 64 74 63
246215.37573242 3357587.13323975 12.18238544 86 87 91
246213.82714844 3357609.79614258 11.70561886 64 67 60
246211.71545410 3357611.96826172 13.14481354 174 183 190
246215.24926758 3357599.39758301 11.96878624 57 67 58
246216.62011719 3357590.66711426 12.04371548 103 108 112
246213.85949707 3357598.75164795 12.18909168 161 157 158
246213.87512207 3357596.04730225 12.07155228 145 149 150
246211.81884766 3357609.06152344 15.26025295 88 108 71
246213.70776367 3357602.39544678 11.83011436 154 165 161
246214.64636230 3357591.72637939 11.85261536 118 119 113
246214.93872070 3357604.00891113 11.79486942 140 130 103
246214.92761230 3357596.12670898 12.08568859 150 143 135
246215.20727539 3357601.31109619 11.88878822 90 92 79
246216.77172852 3357583.34179688 13.26949596 0 0 4
246217.04296875 3357582.59973145 12.95226669 6 15 14
246216.93688965 3357588.08050537 12.01300335 112 122 123
246214.30578613 3357596.59075928 12.60259819 116 119 128
246215.38098145 3357587.73480225 12.36913204 114 124 133
246213.83679199 3357600.67071533 12.23235893 148 164 163
246216.86779785 3357589.56317139 11.99248219 76 84 87
246216.56555176 3357591.75463867 11.92781067 60 66 66
246213.25439453 3357601.98315430 13.01730824 249 251 248
246214.05493164 3357595.10247803 12.94043827 61 66 72
246212.97924805 3357601.08612061 11.94043541 72 83 87
246215.36535645 3357596.03863525 11.79296017 133 133 135
246214.17150879 3357601.53985596 12.63601494 185 193 195
246215.81970215 3357588.99633789 12.20634174 87 97 106
246215.18188477 3357591.80902100 11.93326283 49 51 50
246216.40161133 3357584.41912842 13.27181911 40 21 27
246214.19348145 3357598.13397217 12.31367493 186 194 197
246212.69067383 3357610.34313965 13.06155300 169 179 181
246216.73535156 3357590.65954590 12.02677059 19 23 22
246216.06030273 3357591.08312988 12.45429230 70 76 72
246216.16198730 3357584.82147217 13.05010033 20 21 25
246215.47961426 3357594.63592529 12.73235130 204 204 214
246213.33520508 3357602.49066162 12.22706604 151 155 154
246213.42382813 3357602.72967529 12.10827446 187 199 199
246213.49731445 3357601.01947021 13.07955265 239 243 246
246214.56079102 3357595.28588867 12.80007172 59 71 87
246215.99951172 3357582.83081055 13.06776142 30 47 63
246216.03381348 3357589.53277588 12.95942116 87 97 88
246217.47961426 3357584.73754883 12.11075401 31 36 29
246215.43371582 3357595.24224854 12.55232906 89 94 98
246215.34680176 3357587.41796875 12.54539013 121 129 148
246216.25634766 3357583.93713379 13.44992161 44 19 25
246214.67980957 3357591.44049072 12.31415081 34 35 39
246213.32739258 3357600.61340332 12.36840248 163 184 189
246212.26562500 3357614.06372070 12.53982258 130 143 149
246211.68579102 3357609.60894775 15.19211197 106 127 71
246214.30090332 3357601.27410889 11.86286163 157 166 173
246215.56066895 3357584.65106201 12.88597870 16 11 18
246215.66223145 3357598.66937256 11.87702370 52 59 43
246215.95544434 3357587.84252930 12.33740044 67 80 89
246215.79284668 3357582.93096924 13.00797462 49 50 55
246215.16809082 3357589.72174072 12.52005005 51 54 59
246214.91577148 3357589.89801025 13.18296051 16 21 25
246211.43371582 3357610.82861328 12.45162964 208 212 213
246217.56579590 3357581.55572510 12.27112484 30 21 24
246215.63342285 3357588.38702393 12.74312782 59 67 78
246214.04797363 3357600.51123047 12.06941319 117 134 116
246214.21411133 3357601.35791016 13.09341526 12 22 21
246215.12731934 3357591.75616455 12.38488102 34 34 44
246216.98327637 3357588.46154785 11.98628139 54 64 65
246213.67834473 3357602.30346680 11.84520340 156 165 160
246214.59130859 3357600.78698730 12.84341621 86 96 95
246214.63671875 3357602.55517578 11.91744804 163 164 159
246214.90478516 3357598.88244629 11.88615227 31 33 32
246211.36450195 3357611.03387451 12.03609562 160 160 152
246215.90893555 3357590.25885010 12.82212257 103 109 105
246213.05249023 3357601.90014648 12.71096230 176 188 188
246215.92614746 3357591.21997070 13.15592480 65 74 73
246215.62121582 3357594.52075195 12.67660522 215 219 230
246214.01354980 3357602.71484375 12.53438473 168 174 174
246214.17272949 3357596.91021729 12.83537102 127 129 141
246213.66918945 3357600.86291504 12.35816956 165 180 183
246215.33874512 3357591.45013428 13.16137218 9 13 16
246213.70874023 3357597.37786865 12.15097427 151 157 155
246214.83300781 3357594.34478760 12.64641666 173 178 184
246215.95935059 3357585.06292725 12.04199219 54 58 61
246215.17541504 3357599.55297852 12.10583115 34 46 36
246212.63098145 3357612.55822754 12.93876266 13 19 15
246215.17077637 3357589.12438965 13.36925697 232 242 254
246215.89831543 3357589.28491211 12.77993679 95 104 101
246213.69580078 3357597.25598145 12.26303673 188 203 198
246215.91516113 3357591.54235840 13.00226688 5 10 13
246214.66406250 3357590.60009766 12.56471157 31 35 36
246214.14843750 3357597.44110107 12.79413128 122 126 137
246217.75122070 3357581.42425537 12.12268257 86 96 97
246214.84899902 3357588.37493896 12.09659958 100 100 102
246215.61669922 3357588.80175781 13.13396549 31 40 47
246213.77697754 3357599.40545654 12.54063797 230 239 244
246211.03112793 3357612.92681885 12.47537708 174 183 188
246214.44213867 3357595.57043457 12.75912857 58 75 93
246212.03320313 3357612.81256104 12.73819065 0 2 1
246212.03222656 3357613.64764404 12.63919258 191 202 208
246210.75000000 3357614.29345703 12.06205845 84 86 85
246215.20031738 3357600.74273682 12.11571217 68 68 60
246213.39294434 3357602.59051514 12.06585312 160 170 169
246217.41455078 3357581.23016357 12.47742748 27 22 26
246213.59692383 3357609.81561279 11.64418983 96 98 95
246213.54272461 3357601.75402832 12.42366314 169 178 185
246214.14282227 3357598.11181641 11.97436905 128 127 125
246212.92114258 3357601.90917969 11.90384007 67 71 74
246215.64782715 3357591.89624023 11.82222462 60 60 58
246213.22937012 3357601.04058838 12.49627018 197 214 222
246215.88708496 3357584.88763428 12.56998062 43 21 34
246213.64208984 3357601.26025391 13.09232044 31 47 44
246214.62365723 3357602.68988037 11.97131252 157 159 156
246215.23950195 3357589.81030273 12.02727795 85 93 95
246212.72912598 3357602.48522949 11.74101734 157 160 139
246216.37438965 3357584.83990479 12.96398735 30 21 26
246210.75634766 3357614.36315918 12.00041485 57 61 60
246214.61474609 3357600.60345459 12.59820366 90 104 104
246213.47888184 3357602.13604736 12.32117844 158 167 166
246215.65979004 3357588.53955078 12.62448406 79 88 93
246215.71594238 3357591.76080322 11.89815235 47 48 50
246214.85852051 3357598.14062500 12.51517582 118 129 123
246214.13598633 3357598.73260498 12.39358330 193 203 212
246214.66418457 3357590.64929199 12.20836067 52 53 55
246211.60864258 3357609.27520752 15.42649841 84 111 66
246215.85681152 3357585.29400635 11.99150467 76 81 84
246211.01330566 3357612.56140137 11.85179043 69 69 69
246215.37817383 3357596.27362061 11.71251011 185 174 170
246217.38964844 3357584.57025146 12.31869984 79 87 76
246211.29772949 3357611.31048584 11.95758533 138 130 128
246214.17956543 3357598.09991455 12.12082481 127 128 132
246214.76489258 3357590.47106934 12.97121334 90 99 104
246214.05468750 3357600.70043945 12.84752178 21 26 29
246215.29028320 3357599.55682373 11.88466454 91 100 95
246215.86340332 3357587.77215576 12.39569378 60 69 84
246215.77124023 3357589.91638184 12.63547134 109 114 108
246213.86633301 3357595.54907227 12.56148624 197 207 216
246215.90856934 3357594.18530273 12.13455677 68 72 75
246215.53149414 3357598.15386963 11.84172344 140 148 151
246211.43603516 3357612.49688721 13.17047405 129 133 132
246215.80187988 3357584.46875000 13.36707878 46 46 46
246214.58618164 3357596.13531494 12.42912006 114 121 131
246214.92810059 3357599.03503418 12.09354115 123 128 131
246215.89367676 3357591.99621582 11.77824974 65 67 66
246214.56787109 3357593.99053955 12.59585667 170 175 181
246215.58825684 3357588.48626709 12.58678436 68 79 85
246215.68212891 3357582.69134521 12.78428555 10 19 24
246214.51806641 3357593.83660889 12.56293106 164 171 179
246214.16943359 3357603.11694336 11.96885014 136 140 139
246213.56860352 3357601.48529053 12.39409637 173 186 194
246213.24792480 3357601.57275391 13.01921844 177 196 202
246215.66101074 3357599.49444580 11.86831760 59 65 53
246215.34887695 3357590.24786377 12.25370121 124 129 123
246211.19616699 3357613.44281006 12.61505032 216 225 230
246214.03869629 3357594.08282471 12.46756077 147 154 162
246214.87109375 3357588.32360840 12.09834194 67 67 67
246216.35180664 3357581.11254883 12.52308464 92 87 94
246214.53588867 3357592.70166016 11.82532215 131 130 128
246212.56591797 3357610.45617676 13.12523365 151 165 166
246214.88378906 3357590.20037842 13.21147633 23 24 28
246215.89331055 3357591.64471436 12.71735954 27 28 32
246215.65734863 3357594.17938232 12.58230209 119 126 134
246211.31494141 3357612.58111572 12.95262814 0 5 7
246216.46606445 3357589.37371826 11.86692810 83 92 99
246216.66699219 3357587.69415283 12.19322777 60 68 79
246211.99792480 3357613.00933838 12.64715862 2 3 5
246214.34362793 3357597.59387207 12.80046082 159 160 162
246211.16052246 3357612.23492432 12.04057026 188 193 189
246216.57763672 3357588.23248291 12.01172352 79 88 93
246217.16650391 3357581.98254395 12.86582088 2 6 15
246213.26416016 3357602.34710693 12.93094635 72 85 94
246215.21301270 3357599.02380371 11.90451622 74 78 81
246215.57775879 3357583.97406006 12.84096050 12 15 22
246214.55273438 3357593.45935059 12.02752304 163 167 176
246215.68347168 3357594.34619141 12.57298279 202 206 215
246214.23583984 3357595.01293945 12.97620869 195 205 215
246214.27319336 3357597.85778809 12.86588478 198 197 195
246213.86840820 3357595.81097412 12.15597820 144 152 155
246215.47314453 3357597.49902344 11.83662128 113 121 123
246213.67785645 3357598.80535889 12.09736347 203 203 201
246213.70068359 3357597.34899902 12.10550690 154 163 162
246213.85131836 3357602.00549316 13.01637936 213 233 234
246216.58142090 3357592.39886475 11.92955780 61 63 58
246213.52416992 3357600.70233154 12.95898533 78 94 109
246216.51452637 3357585.19909668 12.14010239 77 81 82
246214.90124512 3357591.78625488 11.90713215 69 71 66
246211.66394043 3357612.98107910 12.73184490 35 39 42
246213.79479980 3357596.97802734 12.84364414 187 189 201
246212.09240723 3357614.46038818 12.48351288 175 190 195
246215.75878906 3357582.55999756 12.92574501 9 19 21
246213.13366699 3357610.24499512 12.68789196 71 72 74
246215.64404297 3357596.80413818 11.83383751 127 129 126
246211.20715332 3357612.01446533 12.51832008 218 221 226
246216.46069336 3357587.74743652 12.32115078 67 77 86
246213.80261230 3357602.77996826 12.77929688 24 30 26
246213.72509766 3357597.15075684 12.60782623 198 210 208
246213.88256836 3357598.07092285 11.93812275 30 29 27
246211.56823730 3357614.77539063 12.14972687 76 76 68
246214.75842285 3357598.42327881 11.84213257 122 117 114
246211.79357910 3357611.67474365 13.23608112 38 39 41
246214.46362305 3357600.54840088 12.39104939 131 143 141
246215.98498535 3357596.24029541 11.88801670 80 85 81
246214.68811035 3357600.34240723 12.30044460 133 144 138
246213.66918945 3357609.53961182 11.68085003 114 117 110
246214.38305664 3357607.00042725 11.71669388 89 92 75
246212.21704102 3357614.40917969 12.50127888 162 175 181
246214.63879395 3357593.61010742 12.47865009 179 182 189
246213.61999512 3357602.86285400 12.01999283 178 192 193
246216.21972656 3357591.57037354 12.08324909 24 28 29
246214.54455566 3357593.54968262 12.44616604 195 196 201
246216.99755859 3357581.62182617 12.72090530 8 13 19
246214.94409180 3357597.44958496 12.46805382 121 122 116
246213.47644043 3357602.98327637 12.13199043 144 159 162
246215.30859375 3357586.43536377 11.90432930 125 125 123
246215.82885742 3357583.65332031 13.14995003 10 13 20
246216.31909180 3357582.16375732 12.86286259 40 54 63
246214.60559082 3357590.92572021 11.87793350 72 67 48
246214.24816895 3357598.73236084 12.00503635 198 196 197
246212.99438477 3357602.06652832 12.12758827 165 171 167
246213.58007813 3357600.48321533 12.03084946 146 161 166
246213.96057129 3357595.86169434 12.87489510 16 21 25
246211.18054199 3357612.13983154 12.27674961 186 194 196
246215.18176270 3357590.08709717 11.99545956 105 109 110
246211.65148926 3357614.56427002 12.49287510 222 227 231
246214.96350098 3357602.04650879 11.93814468 149 150 145
246215.11804199 3357588.51879883 13.01938438 103 119 142
246213.68701172 3357596.89306641 12.47039890 206 211 215
246216.04772949 3357596.40319824 11.89935589 74 74 66
246215.95690918 3357590.26806641 12.98264694 99 105 105
246211.86645508 3357611.66668701 13.24298096 0 0 0
246210.82409668 3357614.22949219 12.40597916 109 118 117
246215.75329590 3357589.67083740 12.63247871 103 108 104
246217.35864258 3357585.34545898 12.07171822 65 71 61
246214.71374512 3357590.66973877 12.91852474 43 53 62
246214.13659668 3357601.34106445 13.09599686 11 20 19
246213.42321777 3357602.68682861 12.08767223 181 191 192
246214.85839844 3357591.56359863 12.80671883 66 75 84
246213.76940918 3357596.30316162 12.38584518 162 173 177
246213.08691406 3357601.93206787 12.38929272 179 194 199
246216.11132813 3357589.36474609 13.20389462 78 86 89
246214.23559570 3357596.96722412 12.66186619 107 113 125
246215.04382324 3357601.02404785 12.06257343 142 142 142
246215.91857910 3357594.14819336 12.11043644 83 88 91
246216.42553711 3357588.96923828 11.78621960 86 96 97
246214.95288086 3357597.93200684 12.62390804 131 132 124
246216.81372070 3357583.32952881 13.27082348 0 1 6
246214.00512695 3357596.00250244 12.99338818 13 21 24
246216.03515625 3357589.59497070 11.89024544 48 56 58
246213.78234863 3357601.02819824 13.07330322 188 200 198
246213.08850098 3357610.32928467 12.84725571 43 48 44
246214.84753418 3357598.36022949 11.88091850 89 89 87
246215.33764648 3357598.74261475 11.84699154 126 131 134
246215.54028320 3357597.27941895 11.84450436 100 109 108
246215.24572754 3357587.88342285 12.27069569 131 143 159
246213.33972168 3357603.14782715 12.11263084 228 237 236
246214.36303711 3357601.42272949 12.81466961 192 201 198
246217.25708008 3357581.56347656 12.67785168 5 10 16
246213.78112793 3357609.30395508 11.69304752 111 112 107
246216.64245605 3357581.99243164 12.83478928 13 22 29
246214.53979492 3357601.05999756 12.98447800 207 209 208
246214.79565430 3357589.95373535 12.72944832 76 87 81
246214.13256836 3357595.52539063 13.12101841 196 203 213
246215.72863770 3357589.08233643 12.58144188 109 119 120
246211.71887207 3357611.11224365 13.25558472 100 114 127
246215.29614258 3357601.48083496 11.83370209 78 81 64
246215.51342773 3357588.44146729 12.95652199 126 141 162
246213.71130371 3357600.67669678 12.26458168 154 172 172
246212.57141113 3357610.45465088 13.12329388 151 165 166
246216.18273926 3357587.15435791 12.03554440 47 51 60
246216.50183105 3357587.91229248 12.10505772 84 93 100
246214.81481934 3357590.30554199 13.07879829 25 30 36
246216.08679199 3357594.37384033 11.95394325 113 116 121
246214.63134766 3357596.17187500 12.26463509 99 102 109
246215.46386719 3357591.20172119 13.32100582 49 66 76
246216.24768066 3357587.73895264 12.40942097 67 77 87
246215.29589844 3357590.26080322 12.07705879 100 105 101
246214.89843750 3357600.14971924 12.29202175 174 178 181
246211.58386230 3357612.72027588 12.95503616 13 18 21
246210.74291992 3357614.19049072 12.06818104 142 142 134
246214.75292969 3357590.24035645 12.50239944 38 42 45
246215.34399414 3357588.11926270 12.17501163 119 131 153
246213.21337891 3357601.01477051 12.83857536 4 18 21
246216.29895020 3357591.64086914 11.96040440 26 30 31
246214.81250000 3357589.26220703 12.11419201 85 87 86
246216.46777344 3357587.44268799 12.43229294 62 72 82
246213.73559570 3357596.55145264 12.29553127 164 174 176
246217.18713379 3357582.61859131 12.97369194 26 34 37
246215.39282227 3357595.40100098 12.23760700 73 81 84
246213.94018555 3357601.52130127 11.88724136 157 183 198
246216.09375000 3357591.53515625 12.33839607 23 29 29
246217.32788086 3357582.73852539 12.98328876 49 53 56
246210.94531250 3357612.94531250 11.85893154 56 58 55
246213.28027344 3357600.76641846 12.95725441 88 97 102
246216.78857422 3357588.21240234 12.01681328 78 88 90
246215.31030273 3357600.47180176 12.02269554 69 72 61
246211.79394531 3357613.67510986 12.63151836 191 206 213
246214.61499023 3357594.23736572 12.65637493 179 182 189
246214.00451660 3357594.38055420 12.59184074 210 220 230
246215.95935059 3357589.14770508 13.28605080 50 61 67
246216.70043945 3357585.45764160 12.07511139 83 84 86
246211.16223145 3357612.24542236 12.47685528 199 203 206
246214.05065918 3357599.67370605 12.61041164 205 218 226
246212.63586426 3357612.59375000 12.91594791 11 17 15
246215.42297363 3357590.24096680 12.32585144 121 126 120
246214.92138672 3357601.01513672 12.07744598 151 155 154
246212.05432129 3357615.03570557 11.72603035 136 138 127
246214.67590332 3357600.41192627 12.11001301 129 144 139
246207.72595215 3357609.92993164 18.49893379 157 177 108
246215.61669922 3357590.35284424 12.34516430 111 116 109
246211.52758789 3357611.01037598 12.96619797 13 16 21
246215.96179199 3357591.18969727 13.07619572 81 87 85
246217.50097656 3357582.19836426 12.74658012 22 23 25
246215.35156250 3357593.86370850 12.40701008 156 161 167
246211.14562988 3357612.29406738 12.40230370 205 211 211
246211.45532227 3357612.01794434 13.03803635 4 13 18
246216.28564453 3357584.76019287 13.13118744 0 11 15
246211.53540039 3357611.39556885 13.10034084 5 6 10
246215.17736816 3357596.24591064 11.80815220 161 147 138
246214.29345703 3357596.73016357 12.43206310 158 158 166
246214.89062500 3357590.61236572 13.20067501 9 17 20
246215.72119141 3357594.83410645 12.44028091 124 128 131
246217.29162598 3357582.94531250 13.03047562 62 63 65
246214.55200195 3357596.60064697 11.86317444 153 153 155
246213.53479004 3357603.07354736 12.57931709 217 231 234
246211.91650391 3357610.38378906 12.90094757 34 39 42
246212.57043457 3357614.15234375 12.52783012 15 24 21
246215.56616211 3357597.81909180 11.86345291 156 160 169
246214.98388672 3357589.44659424 12.55783367 38 46 48
246215.35925293 3357589.79431152 13.41213608 36 43 49
246216.47412109 3357581.89691162 12.82660580 13 22 29
246215.24060059 3357588.30761719 12.29986191 131 144 161
246212.38000488 3357610.31103516 12.99103165 193 204 206
246216.22619629 3357581.68847656 12.81123829 16 19 28
246213.31042480 3357602.04351807 12.25122738 155 161 161
246215.50244141 3357589.10809326 13.32618332 60 76 92
246213.97607422 3357594.42895508 12.48275089 174 185 191
246213.74389648 3357597.93780518 11.98169041 99 104 98
246214.80407715 3357589.93591309 11.91328239 104 99 93
246211.06713867 3357612.22454834 11.86270428 60 62 61
246214.01306152 3357601.04730225 13.06349754 213 222 219
246214.50134277 3357596.22241211 12.32702541 133 138 144
246213.57312012 3357602.77813721 12.73740864 42 52 54
246212.23303223 3357613.03741455 12.65946198 8 9 11
246217.24157715 3357581.51092529 12.65812016 10 15 21
246215.89660645 3357590.27978516 13.23408985 96 104 106
246214.27136230 3357602.72680664 12.76946831 102 108 108
246214.15551758 3357608.36883545 11.74766731 55 58 47
246213.76721191 3357599.60705566 12.59717464 210 220 230
246216.83569336 3357583.45056152 13.33923054 11 4 12
246213.44177246 3357603.27081299 11.94485569 90 100 101
246215.12316895 3357594.48077393 12.69244957 172 175 184
246215.76892090 3357590.25152588 12.07840061 73 83 85
246213.48046875 3357602.47973633 12.88610744 46 64 76
246211.54760742 3357613.51605225 12.69496536 219 232 238
246214.10693359 3357603.12030029 11.94962883 149 153 156
246212.84179688 3357602.99987793 11.91872406 186 184 161
246215.31481934 3357598.06341553 11.94444656 117 122 118
246213.94421387 3357595.84515381 12.84114647 14 19 23
246214.93774414 3357593.81768799 12.39333630 171 178 186
246215.95947266 3357590.56530762 12.15113640 61 73 63
246214.39672852 3357593.04260254 11.81331635 126 123 118
246214.59545898 3357602.56811523 11.91062450 174 174 172
246213.20104980 3357600.45703125 12.48148251 145 166 171
246215.33142090 3357598.94604492 11.86365318 84 89 92
246213.72485352 3357597.48913574 12.72838020 212 217 223
246215.85363770 3357589.62579346 12.73595047 101 103 98
246215.92993164 3357591.75378418 11.82025146 44 46 45
246215.10461426 3357600.77899170 12.19851875 61 62 56
246213.14318848 3357603.31884766 11.76599312 147 130 102
246216.10266113 3357589.72369385 11.90742302 39 49 50
246216.58508301 3357590.79272461 12.06562233 100 105 109
246213.74096680 3357599.42462158 12.54100037 221 232 238
246215.70104980 3357589.34271240 12.01431847 96 113 123
246212.64318848 3357612.48992920 12.99674511 36 41 37
246214.86743164 3357595.82232666 12.17976761 69 73 74
246214.34033203 3357596.50054932 12.32125854 116 120 123
246213.00610352 3357601.55139160 11.91125584 114 125 119
246213.64904785 3357600.64477539 12.07283020 145 164 168
246214.45227051 3357606.83056641 11.71007442 100 97 82
246214.66015625 3357590.70770264 12.34543800 39 40 42
246211.85400391 3357612.64825439 12.84272766 30 38 40
246212.95593262 3357602.24414063 12.55195999 220 229 234
246216.90734863 3357588.93200684 12.00172138 91 96 102
246215.20263672 3357587.75909424 12.33407974 153 162 177
246214.43273926 3357601.19152832 11.86150265 171 174 181
246212.67944336 3357615.11663818 11.92892361 105 104 109
246214.77661133 3357601.17388916 11.93936634 146 161 128
246214.55761719 3357603.51910400 11.84598255 81 85 84
246214.79589844 3357598.19812012 12.42709351 99 110 104
246214.74792480 3357590.37048340 12.19682789 36 37 39
246213.81616211 3357595.90618896 12.45671558 182 191 198
246216.64392090 3357582.37005615 12.82149506 31 40 45
246215.05017090 3357589.72827148 12.06708145 51 57 57
246213.72863770 3357600.55419922 12.77595806 33 47 50
246215.16052246 3357595.90277100 11.94556904 103 109 109
246214.75256348 3357602.26702881 11.99496937 142 142 144
246216.01232910 3357589.14739990 12.94997501 62 70 72
246215.44165039 3357590.24633789 12.04846954 114 118 117
246211.07104492 3357612.68225098 12.18690872 184 188 189
246216.38708496 3357589.45513916 11.87721920 79 88 95
246215.75891113 3357596.33258057 11.82157230 151 155 158
246214.79064941 3357603.65203857 11.85300064 38 48 40
246215.23217773 3357599.36016846 12.02242851 43 52 47
246214.74975586 3357594.90588379 12.75185490 112 118 118
246213.93200684 3357596.48681641 12.96300697 0 0 2
246212.16857910 3357612.46954346 12.96414566 1 13 13
246215.76086426 3357589.89215088 12.62488842 111 116 110
246214.64904785 3357601.16363525 11.89428616 193 193 201
246210.85388184 3357614.67657471 11.79512978 46 52 52
246215.34887695 3357596.02691650 11.80207634 133 133 135
246211.09130859 3357612.43249512 12.09430790 188 190 185
246212.52380371 3357611.64953613 13.24871635 15 16 18
246214.38415527 3357600.70648193 11.93043900 159 167 170
246215.69506836 3357589.73822021 12.02077961 82 91 96
246212.88513184 3357602.28344727 12.41295910 238 242 245
246215.00964355 3357589.99664307 12.47230721 34 38 41
246217.60815430 3357584.27813721 12.18977547 52 53 48
246214.50891113 3357602.75384521 11.99259949 191 195 194
246214.96032715 3357590.71185303 13.35180759 111 120 135
246216.68908691 3357588.88287354 11.86774826 65 72 78
246213.77661133 3357596.20538330 12.44041920 180 187 193
246211.66320801 3357609.91430664 15.36024189 149 170 101
246216.00244141 3357589.81121826 13.11741924 99 108 107
246215.21740723 3357594.68811035 12.72734547 15 25 26
246215.78503418 3357589.97576904 12.06857586 62 73 77
246215.72290039 3357587.22729492 12.58073807 71 79 92
246215.58068848 3357584.66247559 12.53022194 29 18 24
246214.97058105 3357598.65856934 11.91396046 94 94 92
246213.96447754 3357608.69104004 11.72304535 58 61 52
246214.88330078 3357590.52673340 13.18982887 12 17 21
246211.37500000 3357613.14892578 12.77938366 37 40 45
246212.90991211 3357602.94470215 12.58646584 183 185 184
246214.30212402 3357600.82446289 12.91553307 51 64 73
246215.86657715 3357584.84924316 12.43201828 31 15 25
246212.19335938 3357613.49096680 12.63401031 162 171 178
246214.74951172 3357590.34191895 12.95256996 66 73 79
246216.05725098 3357587.52990723 12.50584507 51 67 82
246214.91491699 3357599.17224121 12.36670685 158 166 169
246213.77441406 3357596.16973877 12.60263729 200 205 209
246214.37097168 3357595.93865967 12.79795742 71 87 102
246216.58618164 3357590.47900391 12.02526855 36 43 49
246216.17504883 3357588.63739014 12.07173157 90 100 102
246216.27941895 3357592.29736328 11.79656506 67 71 72
246210.99145508 3357613.23077393 12.39232922 204 213 212
246214.05053711 3357602.61260986 12.84788132 24 34 35
246215.79785156 3357582.90667725 13.00745964 49 50 55
246215.88647461 3357589.80255127 12.77146721 99 104 98
246215.10498047 3357597.64544678 12.09063911 112 113 99
246215.52795410 3357584.49041748 12.22137928 41 36 40
246215.01074219 3357596.62188721 11.81098747 153 152 147
246214.69958496 3357595.62738037 12.28855610 51 59 62
246213.38720703 3357599.09020996 12.36967182 219 218 216
246213.35363770 3357610.35614014 12.15627289 36 41 37
246215.71301270 3357589.57690430 13.25559807 63 68 72
246213.36413574 3357600.88433838 13.02159405 205 209 210
246213.20507813 3357601.86328125 12.36544418 163 176 184
246216.04040527 3357584.43255615 13.43862820 66 43 59
246214.02197266 3357602.81738281 12.52182961 172 178 178
246213.70178223 3357600.72729492 12.94725609 42 53 57
246211.47180176 3357613.39404297 12.71944904 164 173 178
246216.30090332 3357581.49414063 12.69181156 52 45 61
246214.82751465 3357589.11553955 12.62499905 34 39 43
246216.79846191 3357580.91229248 12.35325718 52 46 56
246213.72424316 3357601.68463135 11.96224117 158 184 197
246214.71777344 3357591.29010010 12.04668236 51 51 53
246214.63952637 3357600.46997070 12.05133057 142 156 157
246211.26403809 3357614.05078125 12.52694416 239 243 244
246213.92297363 3357602.75433350 12.79403400 26 35 34
246211.98535156 3357610.45904541 13.06184387 48 56 59
246216.07238770 3357584.80010986 13.15526867 9 16 22
246215.44958496 3357590.06286621 12.42606258 110 115 108
246214.13012695 3357598.81542969 12.40818691 233 241 243
246215.57116699 3357589.80950928 12.04135036 118 129 131
246211.29199219 3357611.43914795 12.46825886 207 209 206
246217.05981445 3357582.72619629 12.99431610 17 25 28
246215.06469727 3357599.85992432 12.32816601 34 38 41
246215.18310547 3357600.96337891 12.01753044 78 79 73
246216.37048340 3357594.55322266 11.89912605 63 63 53
246213.39770508 3357602.21453857 12.97292137 235 240 244
246213.68286133 3357609.77960205 11.69543648 130 132 129
246213.07763672 3357601.40649414 12.65167427 157 170 178
246217.22961426 3357582.81005859 13.04383659 59 63 66
246214.39843750 3357602.64111328 11.88467503 178 183 179
246215.30004883 3357588.91400146 13.23829556 88 110 131
246216.13293457 3357596.44140625 11.90160179 110 108 96
246216.10571289 3357589.05566406 11.88574409 92 102 103
246215.68322754 3357590.40948486 12.35044193 110 115 108
246214.81042480 3357594.03497314 12.48403835 163 170 180
246213.03833008 3357601.94561768 12.66989231 194 210 210
246216.30749512 3357590.00689697 11.99306583 44 54 56
246214.23876953 3357598.12957764 11.98093224 110 110 110
246216.69226074 3357584.92486572 12.82257271 30 17 24
246214.47167969 3357600.45239258 12.59194183 16 28 24
246211.51232910 3357611.77319336 13.12440395 175 185 187
246214.56518555 3357597.33905029 12.46128368 100 101 93
246213.95605469 3357600.80200195 12.95467377 184 190 202
246215.68029785 3357589.39453125 12.57425499 104 110 110
246213.65612793 3357600.42095947 12.71288395 57 75 89
246215.17773438 3357599.73071289 12.06797504 67 77 52
246214.95458984 3357588.03131104 12.15968323 67 67 69
246215.20947266 3357588.99761963 13.30546665 232 239 249
246214.77807617 3357597.74890137 12.77160931 140 140 132
246213.41296387 3357600.42480469 12.00421143 154 169 176
246212.50341797 3357610.32348633 13.03529739 173 184 188
246213.85339355 3357595.65539551 12.53437710 190 200 209
246217.46704102 3357581.74670410 12.57728100 10 11 15
246215.04553223 3357596.15301514 11.93723583 171 161 149
246211.07568359 3357612.65954590 12.15475082 185 189 188
246214.85681152 3357601.20605469 11.96275425 136 148 128
246211.90515137 3357612.83190918 12.71908569 3 11 13
246216.30932617 3357588.86505127 11.85882473 93 103 102
246216.16076660 3357588.52337646 12.04543304 84 94 96
246214.00195313 3357598.89501953 12.40863514 227 231 234
246214.92663574 3357596.32391357 11.85193634 205 198 182
246212.65722656 3357611.19232178 13.27567577 137 156 162
246211.58654785 3357610.48480225 12.75849915 225 230 236
246214.87902832 3357602.87512207 12.00550461 82 86 69
246213.97729492 3357601.50860596 12.55736637 178 188 189
246211.09863281 3357612.39965820 12.11477470 198 200 195
246214.82434082 3357597.76605225 12.76305676 129 126 121
246214.87011719 3357588.31896973 12.07286358 41 41 43
246215.60363770 3357584.75164795 12.65485573 40 20 29
246214.59948730 3357597.22424316 12.33239460 156 153 136
246215.84924316 3357583.06384277 13.12138844 8 13 19
246214.67700195 3357590.93322754 12.46567822 26 36 35
246215.98608398 3357590.54681396 12.13076973 43 54 46
246215.12414551 3357600.80047607 12.17250538 61 62 56
246216.70312500 3357587.66149902 12.18065453 57 63 75
246214.21911621 3357595.51220703 13.13580322 102 105 120
246214.06896973 3357601.78247070 11.83102131 150 165 168
246214.71960449 3357598.15435791 12.61965847 118 123 126
246213.25158691 3357600.22766113 12.66649532 164 174 184
246215.06250000 3357596.17095947 11.91893959 151 141 129
