245948.93151855 3357737.32086182 13.90487576 69 70 74
245950.89178467 3357736.86437988 13.69102287 27 30 35
245946.08416748 3357737.48315430 13.63543797 142 135 119
245947.47021484 3357738.79559326 14.54419899 0 9 15
245950.84228516 3357734.62512207 13.51709557 73 84 88
245947.69201660 3357746.09625244 13.57489872 30 31 35
245952.46173096 3357734.94226074 13.95629787 94 111 139
245946.27301025 3357736.51708984 14.54518318 124 140 140
245949.24816895 3357746.80603027 14.81498337 31 37 35
245952.96551514 3357746.46356201 14.28108692 171 183 181
245950.24096680 3357734.45458984 13.73570633 54 64 66
245947.21337891 3357740.06896973 13.66044235 42 53 55
245950.70385742 3357735.50451660 14.12246704 2 3 5
245951.22070313 3357738.57824707 13.58846474 49 59 68
245949.39605713 3357735.18560791 14.44951344 172 181 196
245950.65643311 3357735.03521729 14.11670589 21 25 26
245952.69012451 3357746.70611572 14.12963104 45 56 50
245947.66674805 3357736.58422852 14.59744453 6 13 19
245956.79333496 3357745.58221436 14.75408077 53 53 51
245948.92370605 3357736.21008301 13.88128567 62 68 66
245949.22119141 3357738.60693359 14.07834530 45 53 55
245948.99145508 3357739.08398438 13.86520767 53 62 67
245955.16131592 3357745.29290771 14.62762356 111 125 126
245954.35668945 3357739.34497070 13.44819641 75 80 83
245950.28686523 3357745.97155762 14.00085449 131 140 145
245946.81701660 3357746.82452393 13.87939835 48 54 54
245952.72967529 3357745.70153809 13.66608047 136 142 142
245956.11621094 3357745.52441406 14.89774513 204 210 210
245952.84301758 3357734.95117188 14.08307838 130 139 156
245953.49169922 3357736.57495117 13.73986816 44 74 98
245950.65576172 3357737.32983398 14.65890121 4 9 15
245946.76495361 3357737.47167969 14.75489140 118 136 148
245947.04052734 3357740.30072021 13.74703789 48 53 57
245945.79486084 3357735.26477051 13.66602135 63 68 74
245954.88696289 3357745.28436279 13.49786472 95 90 87
245946.42272949 3357738.19262695 14.00038433 46 47 49
245950.74218750 3357739.57104492 13.82335758 106 110 109
245952.68719482 3357736.18615723 14.10163212 30 45 64
245948.33477783 3357739.28582764 13.91966343 35 45 47
245956.43243408 3357744.89172363 14.32868195 238 228 229
245948.58184814 3357736.36529541 13.53995228 57 66 73
245956.25231934 3357744.86071777 13.52256203 77 76 74
245950.77233887 3357746.55517578 14.43315220 43 52 51
245946.04821777 3357737.11206055 13.75648499 63 67 66
245949.75384521 3357734.59863281 13.70027161 86 94 105
245949.07995605 3357746.85491943 14.80514336 2 6 7
245954.58233643 3357745.36395264 14.32036018 254 255 255
245948.76483154 3357734.75933838 13.65925121 55 63 66
245947.04461670 3357737.86798096 14.75886440 95 112 120
245946.93786621 3357736.13732910 14.39428139 73 106 121
245946.23352051 3357737.30712891 14.09338188 48 50 45
245952.47290039 3357734.93927002 13.96664906 94 111 139
245954.02111816 3357736.96392822 13.55760765 48 55 61
245954.49420166 3357747.27111816 14.70303154 24 29 25
245950.70568848 3357735.58148193 14.17640018 47 48 50
245953.55249023 3357738.01049805 13.56080055 74 85 91
245946.42266846 3357738.10876465 14.19485664 52 53 55
245953.15313721 3357735.39544678 13.73680019 24 39 60
245948.60461426 3357739.47003174 13.83134937 45 56 62
245950.17761230 3357735.33483887 14.42760468 184 194 206
245950.27990723 3357734.62677002 13.79731083 88 92 101
245948.96948242 3357738.11193848 13.93435955 31 41 43
245949.59112549 3357734.87622070 14.35955906 149 160 178
245954.14593506 3357746.99420166 14.54233932 21 27 27
245948.63391113 3357738.42797852 13.67601204 41 50 55
245954.40057373 3357748.07824707 14.41809273 16 26 18
245949.64172363 3357740.50817871 13.45587254 61 71 73
245948.85729980 3357746.34460449 14.56083965 109 121 133
245949.60949707 3357739.75366211 13.77820110 60 69 74
245950.19970703 3357739.67657471 13.89726448 65 72 78
245948.88311768 3357735.87408447 13.90136719 63 64 69
245945.97680664 3357740.04272461 13.46884918 63 63 63
245946.53851318 3357736.78259277 14.30271435 107 139 152
245953.84918213 3357739.79583740 13.40626049 73 79 79
245950.04193115 3357737.40252686 15.01566410 13 26 42
245957.20599365 3357746.58758545 14.29872417 30 30 28
245950.46301270 3357740.25146484 13.44423866 162 162 154
245946.63269043 3357736.02276611 14.39588833 101 136 155
245951.06677246 3357734.82495117 13.54108620 68 77 84
245954.05145264 3357738.78338623 13.40799332 34 44 45
245951.25201416 3357737.83172607 13.54668236 46 53 61
245949.22943115 3357739.54589844 13.90438747 53 62 67
245950.57244873 3357737.16510010 14.88994884 17 18 22
245946.99896240 3357739.38378906 14.03790379 56 67 71
245953.90185547 3357745.38677979 13.92689705 208 219 221
245952.82220459 3357735.27160645 13.81379700 52 68 84
245950.52478027 3357737.36962891 14.91668797 75 75 83
245949.68811035 3357737.38946533 15.00439930 15 28 44
245950.65777588 3357746.08294678 14.05961704 104 114 116
245948.91583252 3357746.42016602 14.70273972 63 66 71
245948.34368896 3357746.30224609 14.43720913 86 93 99
245949.21881104 3357738.89959717 13.95309830 47 57 59
245951.16229248 3357738.60571289 13.62280941 40 53 59
245946.33721924 3357735.41033936 14.24162388 175 199 211
245950.82836914 3357738.08807373 14.37171364 119 119 121
245953.53692627 3357736.64447021 13.72499752 50 82 103
245953.06597900 3357735.19659424 13.88349438 43 56 75
245951.49102783 3357734.73803711 13.46641064 66 75 80
245952.84136963 3357745.72869873 14.15094090 219 229 228
245954.94598389 3357746.58013916 15.00993824 52 52 52
245947.23132324 3357735.32464600 14.28952026 158 181 197
245955.59771729 3357746.04870605 14.83745861 183 192 191
245947.96649170 3357735.76947021 13.63056850 51 60 67
245949.50915527 3357746.46636963 14.83036327 37 41 40
245948.14703369 3357736.60583496 13.57523155 45 54 61
245951.06683350 3357737.00793457 13.61128521 35 44 49
245948.93353271 3357736.41314697 13.91724777 94 94 94
245947.18170166 3357736.26928711 14.47071743 63 90 111
245956.42260742 3357744.82312012 13.69430256 90 90 88
245946.51055908 3357737.36895752 14.74243259 21 32 34
245952.59387207 3357735.01007080 14.03985119 149 164 187
245946.78228760 3357738.03039551 14.77706909 135 143 145
245949.61993408 3357734.96368408 14.35178852 161 173 189
245950.81958008 3357738.19421387 14.30919075 124 124 124
245946.72467041 3357736.65679932 14.82527447 146 177 195
245953.55139160 3357747.52160645 14.46812439 14 24 16
245948.03430176 3357737.99621582 14.40853214 103 114 120
245949.88275146 3357736.37670898 14.98321533 151 166 185
245947.95483398 3357737.86547852 14.52032280 9 14 18
245952.81365967 3357746.20178223 14.25398159 182 192 191
245949.35339355 3357735.32751465 14.54112148 170 179 194
245946.11877441 3357739.37432861 13.51489353 122 115 107
245948.20397949 3357738.36541748 13.96947575 31 39 41
245948.19451904 3357746.44952393 14.49664307 10 14 17
245948.98693848 3357735.04705811 14.24771786 57 64 70
245950.10076904 3357740.24218750 13.43295288 76 80 83
245947.02526855 3357738.40557861 14.71018410 3 8 12
245948.98101807 3357737.22821045 14.37476635 100 103 108
245952.24816895 3357735.64685059 14.15497684 46 61 80
245952.00274658 3357735.98870850 13.60417938 88 96 98
245957.10852051 3357745.99731445 14.41069126 31 36 32
245957.06689453 3357745.91625977 14.49992180 33 35 30
245949.08453369 3357738.74707031 13.93818378 42 52 54
245951.47326660 3357745.74102783 13.51661396 51 55 58
245948.29858398 3357735.76983643 13.64844036 59 68 73
245946.50256348 3357735.66680908 14.33575535 164 185 202
245946.23748779 3357737.08624268 14.43641186 16 18 15
245950.22424316 3357737.56365967 14.98316002 172 181 196
245949.71343994 3357738.28771973 14.78519344 140 147 157
245946.05126953 3357739.27709961 13.49653435 132 123 116
245950.93176270 3357739.43554688 13.73709583 120 121 123
245952.92669678 3357736.38861084 14.04189110 102 132 156
245947.30004883 3357737.75573730 14.74944687 100 118 132
245953.87854004 3357745.99609375 14.53131199 8 17 16
245948.40679932 3357746.60540771 14.65733528 6 11 14
245953.32830811 3357735.03308105 13.96263027 48 55 71
245946.92535400 3357746.56042480 13.85382080 64 74 75
245948.79827881 3357734.66589355 13.59111023 59 66 72
245947.39007568 3357735.81658936 14.41223907 75 90 109
245949.40917969 3357735.39746094 14.58365345 169 181 193
245946.79711914 3357736.42248535 14.25336170 87 122 142
245948.52526855 3357735.57543945 13.66049671 51 60 65
245947.44049072 3357736.15698242 14.53516674 79 98 115
245947.07745361 3357739.59521484 13.74778652 41 50 55
245952.93676758 3357745.65863037 14.12226677 221 229 232
245954.91632080 3357745.39611816 14.13703537 221 225 226
245950.13592529 3357737.71594238 14.95129871 174 181 197
245950.88519287 3357735.80853271 13.80058956 32 39 45
245956.83837891 3357745.18670654 14.14698982 177 173 162
245950.16040039 3357745.99346924 14.28649616 180 191 195
245950.74438477 3357735.96624756 14.21465778 73 74 78
245946.84930420 3357737.61767578 14.75640869 114 133 148
245947.51916504 3357740.40679932 13.49902534 66 78 78
245947.34002686 3357737.07446289 14.79551506 146 167 188
245955.75000000 3357744.90222168 13.88732815 99 101 100
245948.52185059 3357736.83264160 13.57352638 73 80 88
245952.06274414 3357735.29162598 14.07552338 191 200 215
245954.13885498 3357747.32952881 14.56633186 16 25 20
245948.70178223 3357737.25390625 13.67874813 70 78 81
245948.20507813 3357736.99829102 13.67875004 43 47 56
245953.70825195 3357747.13616943 14.56987858 10 17 10
245948.61499023 3357747.10620117 14.75881481 19 28 27
245947.30236816 3357746.36987305 14.01160431 95 106 108
245953.76702881 3357745.54272461 14.60614109 66 72 72
245946.07501221 3357735.53460693 14.22722435 155 175 184
245949.69439697 3357746.00097656 14.12142849 81 92 94
245946.88818359 3357738.43920898 14.68356991 8 8 8
245950.19726563 3357739.63940430 13.95168781 57 64 70
245949.64801025 3357737.37121582 15.00347710 17 29 43
245947.32360840 3357735.31591797 14.28008461 170 196 213
245949.27233887 3357746.88861084 14.81874657 28 32 31
245953.80993652 3357737.36523438 13.57863426 58 67 74
245950.93835449 3357735.70123291 13.71646690 40 51 57
245949.51763916 3357735.54888916 14.72231007 29 41 53
245948.27966309 3357738.59533691 13.96361065 24 32 34
245949.05151367 3357739.07818604 13.90375710 51 60 65
245946.14245605 3357736.57110596 14.50304413 30 34 35
245955.62768555 3357745.01019287 14.41156673 242 246 247
245951.98883057 3357736.08178711 13.54238510 103 107 106
245954.29071045 3357737.96051025 13.49916363 38 46 48
245952.93151855 3357737.14056396 13.78675842 127 159 182
245947.58972168 3357738.80377197 14.53849316 12 25 33
245954.39562988 3357738.87860107 13.41850376 55 58 63
245952.63201904 3357734.75933838 13.76793003 81 102 131
245949.67498779 3357738.89520264 14.07481861 28 38 40
245948.99926758 3357734.77844238 13.72381973 94 99 105
245946.56195068 3357739.31646729 13.69645309 67 68 70
245947.08471680 3357746.40130615 13.81818390 45 55 54
245952.95367432 3357746.66668701 14.26038742 160 172 168
245947.59136963 3357739.63482666 13.47184849 45 52 58
245951.08508301 3357738.07672119 13.64975166 33 38 44
245948.89904785 3357736.77044678 14.10690880 99 100 102
245950.11614990 3357740.04998779 13.48825550 60 67 73
245949.85656738 3357746.27038574 14.57886791 149 162 168
245953.73645020 3357736.11767578 13.69706059 19 30 36
245954.67730713 3357745.59057617 14.96092987 80 84 87
245948.19604492 3357739.47692871 13.76777172 33 40 46
245947.70086670 3357737.93786621 14.75747776 100 111 117
245948.15808105 3357737.57806396 13.65179920 28 33 37
245948.68536377 3357736.20257568 13.58313847 59 68 73
245947.52636719 3357739.35321045 13.82369137 20 26 24
245949.39569092 3357738.49603271 14.41496277 122 122 132
245955.51989746 3357746.42254639 15.06603432 38 42 43
245947.10485840 3357738.53875732 14.64154911 3 11 14
245953.06329346 3357736.51922607 13.88519573 100 136 158
245951.89001465 3357735.17047119 13.47759533 69 78 83
245945.90966797 3357736.96856689 13.79930019 34 39 43
245947.06616211 3357735.26019287 14.26445198 174 202 216
245950.05523682 3357745.93786621 13.60871887 101 106 110
245946.08459473 3357738.80511475 13.62211609 158 151 141
245949.24676514 3357737.02380371 14.92469120 46 47 52
245955.57983398 3357744.96337891 14.00140762 161 163 162
245950.33917236 3357738.90960693 14.30562210 35 43 46
245950.41723633 3357734.39611816 13.66844654 54 62 65
245950.82763672 3357737.16680908 13.95974636 92 94 93
245947.39984131 3357747.16278076 14.24847317 27 33 33
245953.97546387 3357737.95489502 13.53423500 55 65 67
245955.81195068 3357746.43432617 15.04751873 17 21 20
245953.41406250 3357739.55609131 13.49348640 98 102 105
245950.73852539 3357740.06488037 13.49736118 180 176 165
245950.33569336 3357739.66497803 13.88724232 55 66 72
245947.19348145 3357738.52325439 14.62687588 8 16 19
245952.83435059 3357745.61322021 13.45471096 45 50 53
245947.46917725 3357739.59613037 13.49914360 33 41 44
245955.90991211 3357744.85839844 13.81991386 106 110 109
245950.25823975 3357745.94964600 13.56209660 38 42 45
245946.14636230 3357737.02874756 14.25532818 45 49 48
245954.32739258 3357745.92181396 14.84257221 100 108 110
245948.40960693 3357736.96508789 13.60857773 64 68 77
245946.45013428 3357734.79858398 14.02556229 63 87 115
245948.95336914 3357738.31921387 13.88156414 40 50 52
245949.00201416 3357737.44720459 14.14181805 59 62 67
245948.19403076 3357738.61828613 14.22256565 35 38 45
245949.31420898 3357734.92614746 14.47083092 161 171 183
245954.82122803 3357746.04083252 14.91622829 27 26 32
245947.34936523 3357737.38177490 14.77639580 129 150 169
245947.78131104 3357737.07952881 14.58036423 21 26 30
245950.86993408 3357737.73687744 14.00233364 16 17 21
245951.30767822 3357746.12609863 13.51475525 47 51 54
245947.06909180 3357736.41638184 14.46864319 73 100 121
245947.86474609 3357738.02252197 14.70571041 106 119 125
245947.06829834 3357746.92218018 14.03175545 37 46 45
245946.66265869 3357735.44500732 14.29158592 172 194 208
245954.42864990 3357747.54553223 14.60461998 23 33 25
245955.60125732 3357746.40484619 15.05043983 18 22 23
245950.51629639 3357746.40533447 14.52822399 23 34 30
245955.67065430 3357744.93572998 13.73157215 105 107 106
245948.25610352 3357736.68316650 13.55652905 47 56 63
245953.02954102 3357737.96441650 13.42553711 34 51 67
245950.70587158 3357739.01525879 14.26310349 49 58 65
245948.60729980 3357746.23583984 14.38786030 39 50 54
245952.51727295 3357737.77117920 13.48955154 54 67 84
245954.73266602 3357745.31256104 14.31687737 240 240 242
245948.55511475 3357737.42987061 13.65453529 59 68 73
245950.75549316 3357739.04718018 14.16475105 43 52 57
245951.31298828 3357739.91101074 13.45670033 189 182 176
245953.08532715 3357736.74407959 13.76704979 101 142 164
245949.80517578 3357738.70825195 14.36182308 34 37 42
245953.90124512 3357747.78356934 14.46239758 10 20 12
245951.03735352 3357738.01239014 13.67417431 23 31 34
245950.53826904 3357737.11456299 14.96509647 70 71 76
245948.07470703 3357737.41143799 13.68148136 23 28 32
245946.85998535 3357740.18682861 13.70492363 53 58 64
245947.45849609 3357740.23559570 13.50812340 45 57 57
245954.13720703 3357739.63946533 13.44047737 78 82 83
245952.69317627 3357735.20129395 13.89260483 61 76 99
245956.27392578 3357744.83117676 14.12252235 233 245 241
245949.11938477 3357735.13177490 14.46170235 132 140 151
245948.14166260 3357738.22320557 14.18312263 34 44 45
245953.91668701 3357745.90704346 14.56921864 9 15 15
245947.55700684 3357746.09558105 13.54537773 61 62 66
245947.65557861 3357736.06848145 14.27287483 67 75 86
245947.44342041 3357735.20556641 14.10131836 44 60 75
245952.98980713 3357739.37097168 13.61497879 73 75 74
245946.63537598 3357734.74475098 13.77607059 85 102 120
245947.66894531 3357736.18438721 14.39925289 202 211 220
245950.76812744 3357735.67138672 13.97110367 2 6 7
245957.05541992 3357745.44512939 13.87151051 156 151 145
245946.32110596 3357740.14678955 13.54123306 52 62 63
245946.65429688 3357738.23681641 14.63693714 64 65 60
245953.67767334 3357745.47210693 14.35672760 234 238 239
245951.91839600 3357746.04504395 13.54444599 62 63 65
245948.52832031 3357738.23382568 13.65981388 29 34 40
245949.84863281 3357734.47229004 13.64241600 49 58 63
245949.50067139 3357734.66320801 13.80027676 106 117 123
245950.93194580 3357746.16998291 13.85511017 63 67 68
245945.84295654 3357737.02856445 13.65860367 35 41 41
245955.74395752 3357745.72320557 14.87552357 192 202 201
245948.91564941 3357734.84936523 13.75642109 101 106 112
245950.56579590 3357740.06671143 13.51017761 149 149 139
245952.60363770 3357736.84710693 14.05470371 166 191 213
245949.73254395 3357739.93774414 13.60863781 60 69 76
245956.29309082 3357745.67333984 14.90035439 223 229 229
245953.51556396 3357735.79144287 13.68464851 26 39 55
245955.76281738 3357745.71008301 14.88054752 192 202 201
245947.14776611 3357746.81616211 14.04590130 48 58 59
245950.64392090 3357736.61572266 14.61540222 46 49 54
245948.97882080 3357735.02117920 14.10728550 56 65 72
245948.15881348 3357738.74938965 14.35172653 89 88 96
245949.78442383 3357746.54089355 14.81306839 38 44 44
245950.25000000 3357740.12811279 13.46202278 82 87 91
245946.67364502 3357737.85943604 14.74255180 80 90 92
245953.01190186 3357745.58282471 13.60536766 46 52 50
245950.64306641 3357736.04150391 14.53412628 159 158 163
245953.61035156 3357738.88751221 13.45774651 76 79 84
245954.93310547 3357745.76123047 14.97229767 5 12 22
245952.39367676 3357737.42150879 13.67484093 112 125 133
245954.93670654 3357745.42749023 13.88415432 220 226 226
245948.80047607 3357738.98455811 13.79667568 51 62 66
245946.08117676 3357736.97949219 14.11655235 48 52 51
245956.86505127 3357745.48547363 14.48208427 91 93 92
245954.60394287 3357747.22296143 14.80348396 25 30 26
245950.95776367 3357737.57550049 13.68831921 22 29 35
245947.31439209 3357735.42883301 14.30667782 158 181 199
245946.04608154 3357735.79199219 14.28510189 126 143 151
245947.47033691 3357735.95947266 14.44692516 115 133 147
245948.42877197 3357746.85443115 14.68934345 7 13 13
245948.01104736 3357736.09417725 13.61818314 42 53 57
245945.85711670 3357735.30609131 13.85570717 65 82 89
245947.55291748 3357735.80352783 14.25479412 105 121 137
245950.44219971 3357736.58520508 15.05430794 99 102 107
245946.48791504 3357738.19873047 14.39695072 49 51 50
245954.94616699 3357745.40936279 14.82491016 104 109 113
245951.08911133 3357737.83886719 13.60420704 35 44 51
245956.59765625 3357744.89404297 13.49963284 116 113 108
245948.44940186 3357735.05371094 13.74610996 53 63 65
245947.92724609 3357739.36169434 13.77512550 24 31 37
245948.09631348 3357737.89141846 14.20873070 32 42 41
245952.92041016 3357738.15612793 13.35668373 35 50 69
245946.58300781 3357740.12725830 13.60037613 54 62 65
245946.60272217 3357738.36041260 14.49915314 55 54 50
245947.59667969 3357746.56005859 14.17701817 58 64 64
245952.82183838 3357745.65441895 13.55335331 35 39 40
245947.88342285 3357739.40924072 13.71220398 29 36 44
245948.92669678 3357747.10693359 14.80397320 8 14 14
245947.37261963 3357746.43450928 14.09724903 62 71 70
245946.70794678 3357737.43774414 14.76356602 113 131 141
245949.72741699 3357736.04809570 14.88573265 59 83 107
245952.76477051 3357735.81359863 13.78925705 22 39 55
245948.58544922 3357736.80761719 13.56937790 66 73 79
245953.60168457 3357746.75561523 14.41716671 167 171 172
245954.26281738 3357739.71807861 13.47288799 73 79 79
245956.66717529 3357744.99914551 14.35637093 148 139 134
245946.31317139 3357737.64862061 14.17998409 62 63 58
245948.20587158 3357738.50610352 14.06942558 34 43 42
245950.78070068 3357736.66705322 14.28852558 92 92 94
245950.20593262 3357740.62902832 13.39532280 65 70 73
245953.13958740 3357737.29754639 13.59257126 87 115 137
245952.88916016 3357745.62896729 13.75731659 28 32 33
245948.60510254 3357740.35766602 13.41930771 57 62 65
245953.72070313 3357735.53753662 13.84531403 5 9 12
245954.40209961 3357738.50036621 13.45049572 35 40 44
245953.23577881 3357746.16168213 14.46428776 184 196 194
245954.40191650 3357738.83184814 13.41979218 46 49 54
245950.92553711 3357738.11267090 14.07089520 13 13 11
245950.30981445 3357735.69006348 14.81750011 44 58 69
245957.23901367 3357746.51647949 14.25217819 37 38 33
245954.38879395 3357738.56677246 13.43788910 40 43 48
245946.95373535 3357739.05352783 14.34919739 65 76 82
245951.40539551 3357739.66796875 13.46551132 188 183 177
245949.06396484 3357734.93121338 14.18344784 55 62 68
245949.00170898 3357736.94097900 14.54033852 166 170 173
245948.58422852 3357739.59564209 13.74764919 46 57 63
245948.07324219 3357746.91583252 14.50098515 11 16 19
245953.53247070 3357746.23162842 14.46537781 112 117 120
245947.89923096 3357737.13153076 14.39286423 68 73 79
245948.14807129 3357738.14514160 14.11418056 39 49 51
245953.23419189 3357746.31390381 14.42584324 179 191 189
245948.43316650 3357739.01104736 13.99878597 20 28 31
245948.54302979 3357747.06964111 14.72671795 8 17 16
245954.11968994 3357745.69781494 14.76381397 17 26 25
245949.62518311 3357737.34289551 15.00333214 17 31 44
245949.48590088 3357736.92486572 15.04090786 10 20 29
245953.42919922 3357736.53137207 13.75174332 47 77 103
245945.92309570 3357738.96209717 13.51632214 174 162 148
245948.21917725 3357737.82098389 13.62117958 16 24 27
245950.24407959 3357735.81347656 14.95415115 22 41 58
245952.52349854 3357746.04455566 13.87684536 114 120 120
245950.70178223 3357737.07080078 14.58840561 127 132 138
245950.60839844 3357735.65460205 14.49122334 161 162 167
245949.98937988 3357739.58489990 14.00589752 51 60 65
245949.97747803 3357737.39532471 15.01371479 5 18 34
245946.56152344 3357738.12072754 14.56744766 31 33 32
245946.84082031 3357736.66552734 14.85994434 167 196 214
245946.50024414 3357736.00317383 14.43791008 89 124 146
245950.97888184 3357740.02288818 13.48905659 185 180 174
245949.79864502 3357737.51623535 14.99656773 185 192 210
245947.86010742 3357735.82794189 13.66510773 40 47 53
245950.55035400 3357735.97351074 14.71659184 76 74 77
245947.15893555 3357735.85736084 14.46668911 45 67 91
245953.59509277 3357739.49383545 13.46042919 97 103 103
245950.17028809 3357737.05834961 15.01105499 12 22 34
245949.35266113 3357734.68566895 13.87066841 143 150 156
245946.74719238 3357734.78125000 13.94585705 79 96 112
245947.81011963 3357746.62023926 14.31237602 1 6 9
245952.83056641 3357738.76464844 13.42996788 66 75 84
245954.00671387 3357745.61981201 14.71703053 47 56 55
245948.18951416 3357736.13275146 13.57838535 55 65 74
245947.28356934 3357737.99774170 14.74859524 81 95 98
245948.09979248 3357747.00585938 14.56234932 13 18 21
245950.22515869 3357736.04364014 15.00393391 26 43 61
245949.66668701 3357745.95733643 13.85516167 66 71 75
245950.61358643 3357737.54113770 14.73222256 24 24 32
245949.75744629 3357739.64099121 13.91807365 49 60 66
245955.51660156 3357746.20507813 14.87467575 174 178 179
245954.33837891 3357745.64263916 14.82481003 188 194 194
245948.89666748 3357736.73272705 14.01808548 96 98 97
245947.23626709 3357735.72027588 14.40078926 144 159 178
245950.63806152 3357736.23541260 14.54946518 66 69 76
245945.97369385 3357736.85321045 14.13253689 42 48 48
245948.29821777 3357746.31488037 14.41907597 66 71 75
245952.95214844 3357736.09332275 13.84240437 27 43 59
245953.62188721 3357745.62017822 14.54488087 77 79 78
245953.66278076 3357745.75701904 14.56979561 8 14 12
245948.91986084 3357746.29846191 14.50247860 86 99 108
245948.61950684 3357737.92517090 13.66116047 53 61 64
245950.86236572 3357738.11517334 14.26814365 125 125 127
245950.44256592 3357745.98730469 13.59462738 17 22 25
245950.23266602 3357738.67602539 14.42452526 20 25 29
245948.58111572 3357740.05053711 13.50694942 65 76 80
245950.07592773 3357736.31256104 14.99010944 154 166 188
245946.95202637 3357739.20928955 14.22058201 59 70 74
245948.19946289 3357739.40441895 13.81803608 28 37 42
245950.87207031 3357736.54864502 13.71616173 28 32 35
245946.51135254 3357735.20886230 14.25966072 182 201 216
245947.22058105 3357734.95397949 13.93165874 132 154 175
245948.04504395 3357740.14031982 13.43016911 67 75 77
245946.92395020 3357746.61206055 13.90423679 54 64 65
245953.71551514 3357745.85516357 14.56522751 9 15 15
245947.73315430 3357736.19958496 14.26677513 131 139 152
245949.76049805 3357738.91992188 14.08442307 32 42 44
245947.31927490 3357736.58483887 14.84350777 163 197 209
245947.64739990 3357735.54162598 13.71064472 20 21 26
245950.37658691 3357738.17303467 14.85381508 205 206 208
245953.15521240 3357739.16424561 13.51048279 83 87 90
245954.44860840 3357745.93920898 14.87275219 183 191 193
245948.70056152 3357735.78887939 13.57948971 55 64 69
245948.99725342 3357737.35601807 14.37383842 90 93 98
245949.01525879 3357736.27825928 14.56365776 63 64 68
245947.88092041 3357746.44866943 14.31205368 4 5 10
245947.49218750 3357736.81604004 14.81201077 151 177 194
245948.84576416 3357735.72802734 13.61690998 31 36 40
245947.95062256 3357739.11981201 14.31474590 42 47 50
245948.61401367 3357738.95233154 13.86439991 45 59 60
245949.53515625 3357745.94378662 13.81077003 66 67 71
245949.97827148 3357735.97790527 14.84466457 37 57 81
245946.01507568 3357736.77691650 14.28040981 52 57 60
245949.93615723 3357735.74121094 14.71638489 67 82 103
245950.44921875 3357740.46411133 13.41442394 189 184 178
245947.28778076 3357734.98620605 13.84072304 36 50 63
245948.98150635 3357737.29467773 14.36411953 91 94 99
245948.15222168 3357736.99658203 13.70481014 40 45 51
245952.70190430 3357736.24084473 14.13020611 32 53 74
245947.45190430 3357734.81109619 13.54635429 62 69 77
245955.89312744 3357745.65106201 14.89893055 196 208 204
245946.83801270 3357735.92871094 14.45351791 85 114 130
245948.91040039 3357736.87097168 14.01987743 97 99 98
245946.64178467 3357736.28576660 14.28786469 97 136 153
245948.63623047 3357737.18579102 13.65592861 68 78 80
245950.36230469 3357737.67028809 14.93022156 179 185 197
245954.21069336 3357745.39929199 14.31989861 249 254 250
245956.01495361 3357746.08154297 14.91017723 189 198 197
245951.81274414 3357734.90045166 13.46830654 66 75 80
245950.81970215 3357737.28564453 14.23888588 83 83 85
245950.19592285 3357739.18438721 14.20746517 49 58 63
245953.57989502 3357746.30102539 14.46699619 60 65 68
245946.84747314 3357738.25341797 14.75304985 96 92 89
245948.89422607 3357747.13067627 14.81716156 17 23 23
245947.37103271 3357736.46319580 14.75754833 18 54 76
245950.99291992 3357739.33483887 13.69128895 94 98 101
245948.72906494 3357745.97039795 13.66729736 65 69 72
245954.00994873 3357745.46203613 14.53717422 65 66 68
245950.16723633 3357746.30895996 14.62482643 38 43 46
245952.83093262 3357735.34979248 13.76049614 41 56 75
245952.74127197 3357746.42041016 14.17185783 155 165 164
245947.89355469 3357740.27789307 13.41056061 87 92 95
245945.94030762 3357735.19848633 14.00163460 164 191 200
245949.36578369 3357736.62524414 15.07823181 176 184 197
245952.61773682 3357736.38714600 14.27872276 182 213 242
245946.21929932 3357739.17047119 13.54500580 143 138 132
245953.70623779 3357739.84069824 13.40962410 71 79 81
245947.73687744 3357737.98309326 14.75765991 76 87 93
245946.19433594 3357737.15020752 14.15193939 46 51 47
245956.10870361 3357745.52227783 14.89732170 201 210 209
245949.02209473 3357746.04785156 14.04339981 62 71 76
245948.06243896 3357737.50775146 13.69413471 18 23 26
245954.82293701 3357747.14898682 14.93160343 27 27 25
245949.27172852 3357737.16076660 14.87582970 51 52 57
245955.28698730 3357746.55718994 15.10898399 28 30 27
245949.06707764 3357747.10827637 14.80572128 5 9 8
245949.26531982 3357739.13305664 13.95366669 50 61 65
245950.27362061 3357737.46875000 15.00230789 185 192 210
245956.18432617 3357744.79400635 13.86731339 42 51 48
245946.10906982 3357736.93981934 14.27829647 66 71 67
245949.89721680 3357736.85150146 14.97845650 12 26 37
245947.85363770 3357747.13287354 14.45769596 15 21 21
245956.94421387 3357745.45141602 14.16976738 167 159 146
245949.80816650 3357740.69708252 13.41138363 60 70 72
245952.60473633 3357745.88061523 13.88056469 191 200 197
245954.92871094 3357746.66033936 15.04827976 18 18 18
245954.32415771 3357746.63305664 14.63961697 22 32 33
245946.58636475 3357736.72827148 14.75380611 101 136 155
245953.34484863 3357745.47363281 14.19258690 218 226 228
245948.86785889 3357735.72137451 13.73825455 59 68 73
245956.62908936 3357744.79400635 13.37891197 145 138 132
245946.81402588 3357739.91473389 13.64729214 68 78 79
245946.74145508 3357734.77343750 13.90566158 106 124 138
245952.13446045 3357734.75476074 13.49959564 65 72 82
245946.69244385 3357738.80377197 14.22098923 44 44 42
245952.74462891 3357734.78656006 13.88245678 112 143 189
245948.89447021 3357736.72338867 14.10125732 99 100 102
245950.81311035 3357746.09918213 13.88927746 88 97 96
245953.20355225 3357735.24267578 13.88047504 25 38 54
245949.96545410 3357737.96502686 14.89919472 172 181 196
245952.76794434 3357735.07263184 13.99121284 69 82 101
245957.18792725 3357745.47174072 13.77037239 96 93 88
245946.87396240 3357735.19946289 14.26252651 178 204 221
245948.18145752 3357739.77593994 13.56028366 42 52 54
245949.04974365 3357737.99841309 14.26309109 102 107 111
245950.91162109 3357737.84735107 14.24449730 116 117 122
245947.87615967 3357734.97509766 13.63359451 63 72 79
245950.80310059 3357737.01721191 14.32514381 98 98 100
245953.18426514 3357745.55419922 13.87648773 95 100 104
245947.15283203 3357746.44903564 13.95818901 69 79 80
245946.21990967 3357738.26226807 13.78307915 40 42 41
245951.69427490 3357746.06488037 13.53686428 58 59 61
245952.37384033 3357735.69738770 14.11592197 22 41 58
245950.72180176 3357735.13647461 13.78053474 6 11 15
245947.13238525 3357746.58496094 14.02062416 58 68 69
245947.55249023 3357746.73687744 14.19553280 28 37 36
245947.85089111 3357737.75219727 14.69302273 12 21 26
245950.90380859 3357737.94909668 14.29606819 131 132 134
245947.72314453 3357735.72650146 13.71609497 21 24 29
245953.49639893 3357739.03704834 13.46320629 98 99 103
245950.27215576 3357738.32299805 14.79582119 61 62 64
245948.31274414 3357746.06292725 13.92533588 57 68 70
245948.09655762 3357739.98712158 13.48694992 57 69 69
245947.47741699 3357746.67022705 14.16101933 41 51 50
245949.20269775 3357735.73449707 14.77119064 96 119 135
245948.15216064 3357736.74639893 13.62443638 46 53 61
245950.77111816 3357736.65966797 14.37036324 118 119 123
245948.53869629 3357740.09436035 13.48850155 68 80 80
245953.52642822 3357746.31420898 14.45423889 144 149 152
245950.58465576 3357736.52722168 14.71451855 25 28 33
245948.14984131 3357739.66705322 13.61919498 35 46 48
245947.98541260 3357737.39398193 14.01057625 26 31 35
245947.66625977 3357735.30609131 13.55105972 48 52 61
245948.74224854 3357736.11651611 13.61197758 54 62 65
245948.26409912 3357746.05328369 13.60269737 35 36 40
245946.82324219 3357736.61224365 14.84383488 138 175 194
245947.69366455 3357735.76361084 13.80850410 20 25 29
245953.71368408 3357736.35742188 13.71340847 30 42 56
245948.80798340 3357736.18872070 13.62853527 55 65 67
245949.15509033 3357740.30810547 13.50409603 61 70 75
245951.00579834 3357736.96215820 13.63367081 34 43 48
245950.77392578 3357736.89715576 14.44899845 129 130 134
245953.12329102 3357746.82757568 14.25990486 147 159 157
245953.05957031 3357746.45269775 14.32894707 169 181 179
245954.93157959 3357747.41900635 14.82106495 29 31 26
245956.10632324 3357746.38641357 15.08590984 24 30 26
245948.90551758 3357736.81469727 13.96873093 97 99 98
245949.66461182 3357738.58380127 14.53259373 109 114 118
245946.52172852 3357737.38854980 14.74333954 33 44 48
245948.08801270 3357746.32977295 14.30633450 101 101 109
245955.24853516 3357745.33728027 13.74103928 151 150 148
245952.43939209 3357737.29382324 13.78025627 106 115 112
245950.53247070 3357735.47717285 14.46528816 185 189 198
245951.07135010 3357738.81445313 13.66445255 45 58 64
245955.02294922 3357747.02288818 15.00717068 26 28 25
245946.79968262 3357735.50201416 14.30891705 170 193 209
245953.48272705 3357746.92321777 14.41940594 179 185 183
245952.57946777 3357737.52874756 13.62650776 64 77 94
245949.08410645 3357736.24322510 14.64916992 30 34 37
245954.16278076 3357747.44250488 14.54825211 18 28 20
245948.22760010 3357739.77960205 13.57801628 41 52 56
245949.16174316 3357746.53851318 14.84177208 13 17 16
245947.41125488 3357746.41229248 14.10386467 60 68 70
245947.37481689 3357737.65277100 14.76537991 114 131 147
245946.98706055 3357747.34222412 14.11575031 23 29 29
245946.15820313 3357737.41271973 13.73727417 116 113 106
245946.79736328 3357736.15997314 14.33270454 85 118 133
245949.19793701 3357739.93988037 13.61042118 56 65 70
245946.56640625 3357738.07330322 14.59391785 40 42 39
245949.80865479 3357739.70745850 13.87030602 51 62 66
245947.84637451 3357738.82318115 14.52400684 135 157 171
245946.24401855 3357734.90655518 14.08986282 16 68 90
245950.53033447 3357746.21685791 14.40291691 158 164 162
245950.45410156 3357737.79565430 14.87606049 128 131 136
245955.55413818 3357745.01776123 13.41403294 103 100 95
245950.78582764 3357736.76977539 13.84093571 50 51 55
245948.26928711 3357746.10534668 13.98396206 56 67 69
245950.28967285 3357740.30157471 13.43153000 130 132 129
245953.89733887 3357739.54931641 13.39482975 86 92 92
245947.73718262 3357738.78039551 14.52593327 39 56 66
245953.73101807 3357745.59710693 14.60866451 36 42 40
245948.76165771 3357738.83209229 13.75267601 52 61 66
245954.53088379 3357739.15692139 13.45303059 62 70 73
245949.96612549 3357746.51885986 14.76632881 45 49 48
245953.52197266 3357745.43194580 13.47826290 50 56 56
245948.91461182 3357735.84228516 14.23658180 69 73 76
245950.05169678 3357738.48889160 14.65990067 116 121 125
245955.50909424 3357745.01440430 13.63536930 66 65 61
245949.35833740 3357735.66217041 14.84301662 77 95 115
245946.14428711 3357735.98052979 14.38516140 128 144 157
245953.78796387 3357737.47540283 13.56472683 73 84 90
245953.24169922 3357746.11602783 14.47071838 187 199 197
245953.51306152 3357739.69104004 13.46116829 74 75 79
245948.18670654 3357738.37683105 14.05481339 32 38 38
245948.46649170 3357739.64349365 13.70056820 49 60 66
245951.31213379 3357739.75128174 13.47671509 191 186 180
245945.98205566 3357735.17974854 14.04857159 166 195 203
245951.06829834 3357737.85571289 13.61117649 38 45 51
245953.21417236 3357746.29504395 14.42376709 176 188 186
245953.54125977 3357745.60485840 14.43414116 232 233 235
245951.11517334 3357737.13818359 13.61430454 38 48 50
245954.24200439 3357738.64971924 13.42522240 42 45 50
245946.15313721 3357737.22100830 13.77737999 53 60 53
245948.99792480 3357734.97155762 13.98224735 47 54 64
245948.91662598 3357736.94689941 14.10775185 97 98 100
245949.26757813 3357735.78265381 14.94329834 110 132 156
245947.86151123 3357736.63226318 14.01403904 26 35 42
245946.13677979 3357738.43530273 13.72702885 57 58 60
245946.76312256 3357735.63867188 14.34330273 165 191 206
245948.35797119 3357740.27056885 13.41350746 68 78 80
245956.00091553 3357744.88702393 14.24732399 250 254 255
245946.60809326 3357738.94439697 13.91700459 55 55 53
245948.02050781 3357736.38543701 13.59404850 39 50 56
245948.96234131 3357738.84442139 13.82385254 49 58 63
245953.00640869 3357739.37066650 13.61039352 76 78 77
245946.53552246 3357734.86663818 14.16821861 153 186 201
245951.10821533 3357740.25402832 13.41331005 189 182 172
245951.24346924 3357739.51428223 13.52799129 177 174 169
245954.15075684 3357746.81872559 14.50627136 44 52 54
245947.79876709 3357737.20233154 14.59961700 0 8 11
245948.92498779 3357735.46282959 14.32237816 112 119 127
245950.69769287 3357737.70178223 14.62339306 102 105 112
245953.99090576 3357737.67602539 13.54231930 57 65 67
245948.91448975 3357736.74548340 14.39814281 116 117 122
245947.77233887 3357738.19293213 14.72369671 8 16 18
245949.27490234 3357734.76818848 14.12534428 99 108 115
245956.93853760 3357745.26318359 13.96597672 171 167 158
245948.45782471 3357737.76019287 13.63330269 46 54 57
245946.32916260 3357736.88690186 14.72053909 54 64 66
245950.10174561 3357738.96545410 14.20633602 37 45 48
245954.01934814 3357738.18182373 13.52146721 21 30 35
245954.34161377 3357746.69580078 14.64783669 34 44 45
245946.61138916 3357735.56945801 14.31529331 165 188 204
245950.18572998 3357736.99969482 15.00967121 10 20 30
245952.64428711 3357747.46087646 14.21907330 26 28 23
245953.36981201 3357738.86779785 13.46070004 74 81 89
245950.24414063 3357740.28149414 13.43251133 123 125 124
245949.93493652 3357738.15283203 14.88495350 171 179 190
245946.64318848 3357738.44818115 14.50399494 60 60 58
245950.33593750 3357738.86822510 14.31384277 35 43 46
245949.57794189 3357745.94848633 13.96260643 85 90 93
245946.02752686 3357737.60375977 13.63584709 151 146 126
245947.58551025 3357737.24505615 14.79797173 137 155 177
245949.52252197 3357734.95166016 14.37767220 167 179 193
245949.26702881 3357734.80187988 14.29300499 111 120 129
245948.75317383 3357736.88720703 13.63158417 76 84 87
245953.58300781 3357745.46850586 13.65082550 35 41 41
245948.51477051 3357745.99737549 13.58052731 16 20 23
245953.26544189 3357745.53271484 13.87806988 124 129 133
245946.63287354 3357736.77819824 14.53789520 58 93 113
245947.76000977 3357738.00744629 14.75609303 88 101 107
245952.63677979 3357735.77398682 13.89865208 26 44 64
245946.77398682 3357740.09729004 13.65737152 51 59 62
245950.63598633 3357739.61193848 13.84903336 78 83 86
245948.37634277 3357734.61529541 13.63455677 59 66 72
245948.29913330 3357746.45733643 14.54944897 5 9 12
245946.38104248 3357734.81256104 13.87954617 101 128 149
245950.72955322 3357746.06726074 13.84594059 78 88 87
245954.26934814 3357745.32391357 14.00652981 214 222 225
245946.28808594 3357738.98413086 13.61160564 99 95 92
245953.02966309 3357746.51232910 14.30303192 168 180 178
245949.04638672 3357746.53662109 14.84777260 3 7 8
245955.97283936 3357746.43054199 15.07415199 24 28 27
245946.70391846 3357736.66888428 14.78622532 121 152 170
245954.38018799 3357748.20733643 14.35046482 15 26 18
245948.36450195 3357747.07696533 14.68930531 14 20 20
245948.95861816 3357737.10876465 14.38625908 103 106 111
245949.28680420 3357734.66424561 13.81028843 131 136 142
245950.69866943 3357737.76812744 14.63565826 94 97 104
245946.32391357 3357739.70812988 13.53200626 171 167 164
245952.85729980 3357737.32971191 13.73936558 84 102 122
245954.21905518 3357745.53363037 14.72451591 238 242 241
245948.02124023 3357739.52270508 13.65817547 42 51 56
245956.61962891 3357745.98406982 14.81872749 141 140 136
245947.14654541 3357734.98846436 14.10694218 180 203 219
245954.29187012 3357746.83514404 14.57616615 40 48 50
245953.61676025 3357739.47485352 13.45548058 97 103 103
245949.98498535 3357746.64581299 14.76677895 45 49 48
245948.69464111 3357739.88635254 13.58405399 48 62 63
245946.92645264 3357739.46551514 13.92405701 44 55 57
245950.78936768 3357739.19317627 14.03120422 57 66 71
245956.89105225 3357744.99249268 13.48729706 144 137 129
245949.67169189 3357735.93365479 14.84537792 74 92 116
245948.86187744 3357735.51831055 13.98482227 82 86 95
245948.86993408 3357735.65142822 13.83499718 64 71 77
245946.12524414 3357738.16754150 13.73618031 53 57 58
245950.31121826 3357739.59320068 13.99617195 54 64 73
245948.88385010 3357736.96990967 13.79437160 83 87 90
245949.51177979 3357735.39685059 14.61475849 168 178 190
245949.12872314 3357738.66168213 13.99989986 40 48 51
245948.82171631 3357738.03613281 13.70185757 51 58 64
245950.94519043 3357739.63189697 13.64244938 150 149 145
245947.24298096 3357737.31072998 14.76395416 126 147 164
245948.14770508 3357738.62860107 14.36598778 127 137 149
245947.65893555 3357735.73577881 13.86355877 17 22 25
245949.51269531 3357746.27069092 14.49658871 86 100 109
245949.22180176 3357737.06085205 14.82508087 1 2 4
245949.61535645 3357735.57232666 14.71614361 27 39 51
245948.14929199 3357738.60852051 14.34797382 123 137 146
245950.78479004 3357735.51446533 13.85861301 23 26 33
245950.54772949 3357746.01745605 13.69182873 37 45 47
245948.08129883 3357739.84283447 13.51669979 47 58 60
245956.78558350 3357744.94244385 13.68291664 147 142 136
245949.51800537 3357739.68652344 13.82659245 54 65 69
245955.30432129 3357745.23339844 13.68626690 211 207 206
245950.59777832 3357737.79766846 14.76552296 127 128 133
245953.86499023 3357739.66149902 13.39972591 81 87 87
245956.59948730 3357745.25616455 14.80153370 210 212 207
245950.74261475 3357746.15203857 14.26700306 143 147 150
245948.93890381 3357736.83294678 14.42995644 132 131 137
245949.36773682 3357739.20202637 13.96633816 48 57 62
245952.04101563 3357735.20404053 13.70714569 69 78 87
245953.77746582 3357739.38116455 13.42032623 94 98 101
245949.63549805 3357738.80682373 14.13777256 23 28 32
245949.38647461 3357738.51135254 14.38740635 124 127 134
245947.80450439 3357737.50793457 14.69405937 0 8 13
245950.71166992 3357734.83508301 13.63652420 62 69 75
245946.05993652 3357736.23651123 14.34924316 60 67 73
245957.11328125 3357746.02752686 14.39832497 34 36 33
245949.62725830 3357735.69714355 14.76840591 77 98 119
245947.38909912 3357735.10528564 13.99731255 42 52 61
245953.35534668 3357745.83624268 14.49387360 189 195 193
245956.42803955 3357745.65594482 14.89861870 186 188 187
245952.29650879 3357735.02453613 13.95248413 12 23 41
245946.67120361 3357734.79815674 14.05049801 22 45 63
245956.91961670 3357745.69531250 14.62638855 46 47 42
245948.56170654 3357740.39868164 13.41373444 68 73 76
245949.09381104 3357735.58911133 14.49531269 139 147 158
245947.17083740 3357737.98345947 14.76990891 90 103 109
245946.96282959 3357737.13031006 14.78050041 129 151 165
245948.17370605 3357737.24554443 13.64620399 39 43 52
245947.31341553 3357736.16296387 14.50170040 59 84 106
245953.82220459 3357746.74218750 14.41492653 0 2 5
245946.76348877 3357739.27746582 13.97315788 67 71 72
245946.33697510 3357738.26721191 13.83480358 38 40 39
245952.67651367 3357735.31988525 13.82030487 52 70 90
245948.85406494 3357740.29089355 13.46450996 84 91 97
245949.12835693 3357735.82861328 14.68541431 154 171 187
245948.02557373 3357746.65826416 14.46252251 11 19 22
245950.06915283 3357739.95794678 13.55059052 59 66 72
245948.81713867 3357740.05334473 13.52578449 60 69 74
245950.90576172 3357738.42474365 13.98281765 96 96 96
245956.71307373 3357744.91479492 13.56091690 106 105 100
245955.23242188 3357745.31317139 13.66132259 143 136 128
245947.33282471 3357736.79089355 14.83636189 154 180 197
245954.82641602 3357745.40020752 14.75860310 119 129 131
245950.77374268 3357736.76367188 14.08180332 71 71 69
245956.83166504 3357745.62158203 14.70516586 34 35 30
245950.36608887 3357740.65991211 13.40075302 93 94 89
245947.98431396 3357735.96069336 13.62584496 44 53 58
245956.04345703 3357745.79565430 14.88542271 187 195 197
245949.27478027 3357737.88439941 14.69677258 26 30 33
245951.65783691 3357734.89300537 13.45925713 76 85 90
245947.90899658 3357737.00329590 14.30309296 26 33 41
245947.87847900 3357736.68078613 14.03910351 30 39 46
245947.01489258 3357736.54077148 14.47104454 70 97 118
245947.45660400 3357746.14520264 13.71400356 50 51 55
245953.48577881 3357746.67071533 14.40388775 161 170 169
245947.64996338 3357736.63464355 14.64617348 13 20 26
245954.27337646 3357739.25659180 13.42217827 79 83 86
245948.61309814 3357737.57800293 13.67265129 60 67 73
245948.80554199 3357746.66778564 14.82841682 16 20 19
245955.73962402 3357745.08496094 14.66331577 102 108 108
245948.89532471 3357746.15997314 14.27060127 193 200 206
245949.74365234 3357736.59149170 15.03152943 75 84 93
245947.36895752 3357735.07403564 13.87865162 27 38 42
245950.64477539 3357746.84027100 14.45934963 39 49 48
245948.33404541 3357738.53326416 13.84866333 11 14 19
245950.42388916 3357738.49945068 14.56307602 103 104 109
245956.69128418 3357744.92498779 14.17564678 186 181 175
245947.80908203 3357738.42681885 14.58146763 10 18 20
245953.07342529 3357738.99407959 13.48189259 66 74 77
245953.48760986 3357745.45190430 13.49385262 51 56 59
245948.89715576 3357736.70660400 14.34066105 101 102 107
245953.51696777 3357736.88739014 13.62910271 49 77 99
245948.26245117 3357739.74743652 13.60444450 39 50 54
245956.84100342 3357745.40148926 14.43077278 80 81 76
245950.41320801 3357735.68597412 14.79053783 117 131 144
245949.60003662 3357734.99017334 14.35439873 167 179 193
245952.03259277 3357735.13342285 13.60621738 62 73 79
245950.80035400 3357735.94085693 13.96547031 21 24 29
245950.15289307 3357735.51818848 14.53528881 126 136 146
245953.71905518 3357737.85302734 13.53469276 74 83 88
245946.33117676 3357737.71026611 14.21889687 64 64 62
245949.21777344 3357736.06396484 14.84949684 112 134 157
245957.17498779 3357745.71142578 13.95333290 137 130 120
245947.61511230 3357739.31146240 13.91175461 17 21 20
245946.02783203 3357738.52429199 13.66444778 56 56 56
245950.86541748 3357738.76776123 14.00066853 28 38 40
245946.86413574 3357736.03497314 14.38825035 84 116 131
245946.36712646 3357736.54718018 14.34903336 125 161 175
245948.90209961 3357735.86291504 14.09846401 57 58 62
245948.89367676 3357736.93792725 13.83266640 87 88 90
245947.07940674 3357738.49591064 14.66561413 1 6 10
245948.24011230 3357739.97491455 13.50385475 52 63 65
245947.18646240 3357735.96270752 14.47306252 69 95 118
245950.41925049 3357738.44787598 14.62174320 113 114 118
245953.20471191 3357737.87567139 13.51542664 46 64 78
245948.56158447 3357746.29211426 14.46270657 97 114 122
245947.34979248 3357740.03869629 13.54140949 48 62 63
245953.54754639 3357735.43249512 13.88428783 25 35 45
245954.49066162 3357746.12310791 14.87133694 171 181 180
245953.85974121 3357745.32550049 13.49893570 46 55 54
245947.62030029 3357737.64935303 14.78456211 124 144 155
245949.55541992 3357734.67547607 13.81300068 117 126 135
245950.12548828 3357745.94372559 14.04696274 175 186 190
245949.82922363 3357734.84020996 14.30889320 156 169 185
245948.86071777 3357746.49407959 14.78104019 5 9 10
245947.06781006 3357747.13183594 14.07580090 36 45 44
245948.17498779 3357738.16619873 13.82331085 9 17 20
245952.79608154 3357746.58953857 14.18745804 170 182 178
245947.65753174 3357739.32647705 13.83118153 23 24 26
245946.45892334 3357737.71173096 14.58285618 38 42 43
245956.09191895 3357744.83593750 14.08888721 162 171 170
245946.88079834 3357736.67913818 14.43928432 60 91 111
245948.07720947 3357734.59893799 13.73636150 63 70 76
245950.13519287 3357737.74005127 14.94790745 173 180 196
245953.35357666 3357747.47631836 14.43564510 15 24 19
245950.90252686 3357738.67590332 13.90390968 26 34 37
245949.20922852 3357740.39819336 13.49782181 59 69 71
245948.90856934 3357736.51788330 14.33124065 104 105 107
245952.98291016 3357738.27282715 13.36960316 30 47 65
245948.35766602 3357739.85931396 13.55313015 48 59 65
245946.08740234 3357737.66839600 13.67122936 125 130 123
245948.97790527 3357738.80792236 13.83347416 48 57 62
245948.53039551 3357745.99377441 13.59074974 15 19 22
245956.70404053 3357745.11669922 14.40920639 168 157 151
245950.28997803 3357739.23541260 14.22947788 46 55 60
245948.92889404 3357737.05078125 14.26318836 101 100 105
245949.21081543 3357734.77050781 14.01559734 82 89 97
245950.78479004 3357736.78027344 14.17061615 73 73 73
245955.43847656 3357747.02081299 14.96793175 29 35 31
245954.48962402 3357748.01196289 14.48528576 21 31 22
245946.35546875 3357736.61016846 14.47732925 78 101 107
245947.66473389 3357736.03326416 14.14833736 18 27 36
245949.84454346 3357739.93127441 13.59670258 56 67 71
245953.04083252 3357746.21826172 14.38021278 183 195 191
245954.91766357 3357746.87396240 15.05776596 27 29 28
245954.78704834 3357746.28753662 14.89411354 16 22 20
245955.09088135 3357745.26574707 14.54271603 45 55 56
245947.89056396 3357739.91699219 13.45287037 56 64 67
245952.83990479 3357737.24023438 13.83218670 107 132 154
245949.10675049 3357736.12316895 14.67756462 155 165 177
245952.50439453 3357736.12255859 14.15410042 40 57 75
245954.39654541 3357747.10064697 14.63010025 22 28 26
245946.89270020 3357736.54766846 14.33854103 84 113 129
245946.79949951 3357736.04632568 14.37536144 91 124 139
245946.26354980 3357738.01617432 13.77359772 46 46 44
245950.41198730 3357739.90612793 13.57858753 76 84 86
245947.00732422 3357747.00415039 14.02318573 37 46 45
