245602.78570557 3357451.87927246 20.41111946 105 132 141
245604.98156738 3357452.29122925 20.19778633 235 237 236
245598.04870605 3357454.35238647 19.17519760 170 161 144
245606.69989014 3357451.79647827 19.69503403 31 44 52
245604.42651367 3357453.20404053 19.01768494 41 42 44
245599.24938965 3357449.64581299 19.48364258 31 36 40
245595.82775879 3357454.41580200 19.07642555 177 158 141
245598.81713867 3357453.61404419 20.10392380 251 250 248
245595.57379150 3357453.44830322 20.18631363 253 251 252
245604.02246094 3357453.72683716 19.95537949 33 44 50
245591.83270264 3357450.19784546 19.27308083 53 61 64
245598.61285400 3357452.81542969 20.37003899 49 51 50
245598.38665771 3357453.35504150 20.16937447 77 79 78
245603.77819824 3357453.88375854 20.07241821 122 138 154
245594.59356689 3357452.08078003 19.19044495 82 81 76
245594.72021484 3357450.46371460 19.26597786 57 63 63
245593.94970703 3357450.30926514 19.73597336 57 62 68
245591.65960693 3357453.31100464 19.09442902 153 149 140
245602.41308594 3357454.87908936 19.19738579 80 79 75
245598.38598633 3357454.02584839 19.26544571 52 49 42
245599.26898193 3357452.57904053 19.75016403 191 199 202
245605.74090576 3357452.61724854 20.59006882 22 34 46
245594.93072510 3357452.98937988 19.16202545 70 74 77
245591.81671143 3357451.29476929 19.20391846 78 77 82
245602.48510742 3357452.09295654 20.26261711 18 27 24
245592.46942139 3357453.34811401 20.16799355 18 20 17
245604.53009033 3357452.30099487 19.46757889 83 79 76
245596.06860352 3357450.52374268 20.15122986 82 98 113
245601.26275635 3357450.57125854 19.12580109 172 162 152
245596.70617676 3357450.67590332 19.99291801 215 223 225
245605.82000732 3357453.50616455 20.35882950 13 23 33
245596.98498535 3357453.51092529 19.51130104 43 47 46
245602.36944580 3357451.06234741 20.02986145 254 254 254
245595.51940918 3357454.13912964 19.10540581 159 147 133
245604.15661621 3357452.93255615 19.25800705 24 24 24
245594.93560791 3357452.72940063 19.16617775 102 108 108
245601.39581299 3357454.24380493 19.03598976 166 159 141
245598.08679199 3357451.56433105 20.50483704 51 56 59
245595.52233887 3357449.74276733 20.00409698 226 234 237
245603.44482422 3357451.35549927 20.23760223 69 97 111
245593.04522705 3357454.08605957 20.09196854 22 26 35
245598.14642334 3357450.97116089 20.27233505 64 86 110
245592.91314697 3357450.19717407 19.95011330 30 47 65
245599.23486328 3357452.11865234 19.87557220 189 198 205
245592.33618164 3357454.03506470 19.31117058 56 58 57
245593.18395996 3357449.38977051 19.76260185 51 71 96
245603.67651367 3357449.36981201 19.26786613 145 136 129
245604.88348389 3357453.20184326 19.57420731 33 38 41
245595.47479248 3357453.54321289 20.05995178 251 255 254
245606.68176270 3357451.32690430 19.82925415 97 106 121
245594.54400635 3357451.61428833 19.29298782 74 73 69
245606.40930176 3357450.21389771 20.16544151 131 141 150
245598.42901611 3357451.89929199 20.55019188 247 251 252
245606.10296631 3357449.26083374 19.82355118 179 178 183
245596.60015869 3357449.16860962 19.23372459 141 138 133
245597.41125488 3357451.33618164 19.62503815 195 195 193
245594.28997803 3357453.95742798 19.34360695 45 50 53
245599.51776123 3357450.73141479 19.81066132 35 39 42
245597.67272949 3357450.86206055 20.17828178 188 184 185
245596.64916992 3357449.90612793 19.85375214 208 217 222
245602.46118164 3357453.01651001 20.14738274 25 26 12
245595.64831543 3357452.89501953 20.39582634 37 53 68
245606.38842773 3357451.25030518 20.45691109 106 125 132
245605.74322510 3357449.19778442 19.71428299 182 188 200
245592.33929443 3357453.12536621 20.09466553 116 118 117
245602.33001709 3357453.72338867 19.32608414 130 126 115
245597.03454590 3357451.33557129 19.17108345 150 140 115
245595.90686035 3357451.10659790 20.43799210 48 62 71
245594.95587158 3357453.15176392 19.21091843 62 63 65
245594.73657227 3357451.00289917 19.72961044 73 77 76
245604.90179443 3357453.19390869 19.81822205 212 213 215
245597.37548828 3357450.72366333 19.54109192 71 72 67
245595.62390137 3357452.80169678 20.43523598 34 50 66
245596.42791748 3357449.46386719 19.82102776 189 203 212
245604.32232666 3357452.25238037 19.61008453 27 27 25
245603.88195801 3357450.78228760 20.04697227 142 155 171
245592.52355957 3357454.30014038 19.10446167 104 95 86
245599.29821777 3357451.32839966 19.67654610 88 95 103
245592.57312012 3357453.64489746 20.14933777 41 45 44
245606.89654541 3357450.92547607 19.42062759 23 24 29
245598.77484131 3357454.07611084 19.30755997 59 66 58
245592.89166260 3357450.23306274 19.97640038 30 47 65
245598.47357178 3357454.00125122 19.37817001 41 40 35
245594.76452637 3357451.05737305 19.81403160 76 77 79
245603.58258057 3357451.76684570 20.41944122 22 38 61
245596.30816650 3357453.33541870 20.19166374 240 244 243
245604.87335205 3357453.03576660 19.80867004 115 113 114
245593.47052002 3357449.10748291 19.28874016 72 79 85
245593.76165771 3357449.57415771 19.64943886 35 42 50
245593.44641113 3357449.41772461 19.60439873 9 18 25
245598.55401611 3357450.36425781 20.07230568 51 68 88
245596.35644531 3357452.38766479 20.48142433 247 251 252
245604.91613770 3357453.26388550 19.75678062 217 217 219
245593.91876221 3357452.03826904 20.07590294 106 107 111
245605.55035400 3357453.70254517 20.07358551 61 78 85
245595.43841553 3357449.48162842 19.90515137 233 234 238
245605.73840332 3357451.16870117 20.56801987 235 240 244
245604.51965332 3357450.34399414 19.17620850 51 51 49
245599.19866943 3357453.62081909 19.67128944 114 115 110
245594.01617432 3357454.36160278 19.43182564 32 37 40
245593.90826416 3357450.35272217 19.92415047 39 47 58
245595.43109131 3357453.66976929 19.85137749 107 105 108
245595.83477783 3357449.08789063 19.33374596 69 76 84
245595.90057373 3357453.84201050 19.66016769 72 81 86
245604.76757813 3357452.11547852 19.66229630 22 26 29
245605.15960693 3357450.58917236 20.19688225 134 172 183
245602.40753174 3357452.14788818 20.14294815 22 33 35
245595.31683350 3357452.30764771 20.26893234 35 41 37
245596.88647461 3357449.55783081 19.23778915 140 124 99
245596.69189453 3357450.92111206 20.13771248 223 227 230
245598.04022217 3357451.37432861 20.44893265 253 253 253
245594.67364502 3357453.79721069 19.15149498 56 60 63
245594.72454834 3357451.45773315 19.57129669 74 76 75
245594.01220703 3357449.66720581 19.40613937 54 59 63
245596.43975830 3357449.13168335 19.25735855 149 148 144
245602.00665283 3357453.41137695 19.02106857 149 142 123
245602.38690186 3357449.66735840 19.36466789 165 160 154
245600.91882324 3357453.73385620 19.04790688 149 140 131
245592.97393799 3357450.86532593 20.20078087 84 107 121
245593.90100098 3357454.27020264 19.45827675 40 48 50
245601.80200195 3357454.45794678 19.09331322 154 146 133
245604.25097656 3357452.65447998 19.31343651 65 67 66
245595.64617920 3357452.42575073 20.49459648 251 252 254
245595.16699219 3357452.12655640 19.97394943 246 246 244
245595.68774414 3357453.52062988 20.19912338 250 252 251
245595.10955811 3357452.19958496 19.71020126 233 232 230
245606.70019531 3357452.42675781 19.83670235 40 49 54
245604.15368652 3357450.54367065 19.54449654 21 22 26
245592.20275879 3357453.29440308 19.48177147 205 204 202
245601.72436523 3357450.05255127 19.13798141 157 149 138
245592.84057617 3357450.57006836 20.13227463 36 55 72
245596.30865479 3357453.82681274 19.51114655 74 78 79
245602.89434814 3357455.02890015 18.99261093 143 137 121
245603.56048584 3357453.72079468 20.14757919 44 44 44
245597.42755127 3357454.43133545 19.05206490 186 180 168
245603.37719727 3357454.19229126 20.03076553 77 88 92
245603.74920654 3357449.69836426 19.89521408 95 110 131
245606.50384521 3357453.00787354 20.35068321 19 30 34
245593.39434814 3357449.21740723 19.28998566 73 82 89
245606.25994873 3357453.54040527 20.22027397 37 49 61
245602.47436523 3357450.76336670 20.08900070 169 186 193
245604.10278320 3357453.53179932 19.72879982 15 16 20
245597.35034180 3357452.27447510 19.56645775 42 50 52
245604.72283936 3357449.86666870 19.72008705 115 115 113
245595.17224121 3357450.04364014 20.02217865 253 254 255
245592.75274658 3357453.20248413 20.33360863 180 187 179
245591.79693604 3357451.86660767 19.18693733 148 136 124
245597.52941895 3357451.27590942 19.95309067 253 253 251
245596.96984863 3357453.75131226 19.31664467 55 54 49
245596.47424316 3357450.84219360 20.24495316 57 67 76
245606.37475586 3357449.81130981 20.09780693 192 205 211
245605.29248047 3357451.25961304 20.56771088 249 251 250
245592.08532715 3357452.83334351 19.19417191 208 197 179
245602.78363037 3357450.03869629 20.05634880 128 143 164
245601.63928223 3357450.45654297 19.11809540 155 147 136
245602.85809326 3357451.18087769 20.12570953 87 126 141
245604.29870605 3357454.04086304 19.20510292 51 56 59
245596.52880859 3357451.16656494 20.41401482 186 195 194
245602.38757324 3357451.25561523 20.14051819 21 34 42
245595.86993408 3357449.53192139 19.95851898 239 247 250
245592.18328857 3357451.73602295 19.35870934 132 131 127
245594.97644043 3357450.50143433 19.72675705 51 55 56
245593.99371338 3357450.30783081 19.53236580 67 72 76
245604.72558594 3357449.58963013 19.28147125 137 130 124
245605.03411865 3357451.89852905 20.37410545 20 27 20
245606.43994141 3357450.57696533 20.22409248 72 75 80
245597.33013916 3357452.18734741 19.36811447 43 48 51
245597.64044189 3357451.54858398 20.19776535 46 47 42
245594.01934814 3357453.35797119 19.41730118 27 29 28
245598.66125488 3357452.29763794 20.46364021 252 253 255
245604.80932617 3357451.59408569 19.69799805 162 163 168
245597.60559082 3357450.79309082 20.11358261 208 204 203
245602.98626709 3357454.12771606 20.05533791 103 117 117
245591.79144287 3357450.35546875 19.26309776 53 63 64
245605.36718750 3357453.90640259 19.75709915 31 32 37
245604.83679199 3357452.78961182 19.28261566 21 24 29
245592.77978516 3357450.50964355 20.11459923 32 47 68
245604.23602295 3357451.37860107 19.53599548 31 35 38
245596.03448486 3357453.87982178 19.36951637 26 27 31
245598.28295898 3357452.59609985 20.43687057 253 255 254
245594.12255859 3357452.28228760 19.84102440 31 32 34
245595.15710449 3357452.65283203 19.71610260 223 222 220
245603.33624268 3357452.05328369 20.44621468 30 46 62
245592.95062256 3357449.51803589 19.87361526 74 85 103
245602.21575928 3357450.73876953 19.18703461 156 150 138
245605.51922607 3357453.73501587 20.01838303 104 117 125
245604.13562012 3357453.18319702 19.29619598 25 29 30
245604.93280029 3357449.34936523 19.54712868 199 199 191
245603.60662842 3357451.89956665 20.46121979 29 40 58
245605.33020020 3357449.25350952 19.77649307 150 151 156
245593.48773193 3357453.91116333 20.09941673 32 40 51
245605.40673828 3357449.03863525 19.31669807 152 144 133
245604.54455566 3357450.73431396 19.21740532 43 44 39
245593.78564453 3357449.28433228 19.34294891 74 81 87
245603.59234619 3357449.43063354 19.39037514 143 132 126
245604.17810059 3357450.96905518 19.35473061 31 32 36
245596.84448242 3357451.23489380 19.58586311 71 77 75
245606.68902588 3357450.07247925 19.82302475 30 35 41
245606.41833496 3357453.04788208 20.47933006 206 220 229
245602.93603516 3357452.14184570 20.45507622 16 39 57
245597.40917969 3357451.22082520 19.63194466 189 190 185
245602.31835938 3357453.38223267 19.72763634 52 51 56
245592.87036133 3357449.53866577 19.87112427 61 78 98
245595.20501709 3357451.80209351 20.10554123 235 235 233
245599.44763184 3357450.73333740 19.83401299 34 38 41
245604.17401123 3357452.81188965 19.37187195 41 43 42
245597.18353271 3357453.62319946 19.26721573 93 96 87
245602.70629883 3357452.63436890 20.37154770 112 134 155
245601.91632080 3357452.83029175 19.02579498 182 169 152
245603.34259033 3357451.16323853 20.07609177 77 113 125
245594.89660645 3357450.41949463 19.32765198 75 80 84
245601.58001709 3357451.59829712 19.09006882 169 159 147
245603.15350342 3357450.14700317 20.07295799 117 133 156
245596.69287109 3357451.04937744 20.10266304 211 216 219
245591.71496582 3357452.85363770 19.13069725 214 202 190
245604.72760010 3357453.33807373 19.16474915 31 36 32
245597.00933838 3357454.28289795 19.07721329 87 86 82
245602.89202881 3357451.82287598 20.41748047 19 44 64
245603.08489990 3357454.36346436 19.73079300 70 73 62
245604.02899170 3357452.30249023 20.07084656 19 24 28
245606.17639160 3357453.74838257 19.93098450 138 172 184
245606.17449951 3357450.89105225 20.30176163 46 67 84
245596.02032471 3357452.59030151 20.47109985 242 253 247
245604.42822266 3357449.35333252 19.15788460 205 185 150
245595.59765625 3357454.18286133 19.09907341 160 147 130
245595.19653320 3357452.02227783 20.04769707 244 246 243
245591.66546631 3357450.16387939 19.26886559 59 68 77
245602.13745117 3357454.39831543 19.10922623 173 157 142
245595.82928467 3357450.09283447 20.11549759 247 251 252
245604.87182617 3357453.72433472 19.48069382 34 39 42
245595.61413574 3357453.81484985 19.15391922 143 133 121
245596.22381592 3357453.68478394 20.12226486 231 233 232
245594.80957031 3357454.04257202 19.16176033 58 64 64
245591.33575439 3357452.53570557 19.13752556 161 149 135
245601.12542725 3357453.20919800 19.06240654 166 158 147
245598.56262207 3357450.08749390 20.05360985 120 169 212
245602.33282471 3357450.35809326 19.65512276 127 126 121
245595.72778320 3357453.80035400 20.00169373 81 86 90
245595.34454346 3357453.65313721 19.58271980 234 236 233
245604.18127441 3357453.88034058 19.40587616 36 40 39
245596.86883545 3357452.86050415 19.87742043 220 225 221
245602.26190186 3357451.35476685 19.91944313 54 52 53
245597.93151855 3357454.03271484 19.38487625 65 67 66
245604.06134033 3357454.31289673 19.27009964 26 30 33
245604.88226318 3357453.19500732 19.55572701 33 38 41
245604.65081787 3357454.29718018 19.03290176 58 64 64
245593.89276123 3357453.61630249 19.91840553 12 13 15
245606.06408691 3357451.14025879 20.52588463 184 203 210
245603.17828369 3357452.90585327 20.39988136 127 142 161
245606.43939209 3357452.55514526 20.50468636 131 149 169
245605.39282227 3357452.91894531 20.55952454 42 50 53
245602.69323730 3357449.94073486 19.97302818 121 134 151
245593.90710449 3357449.07760620 19.33359718 74 81 87
245604.80145264 3357451.29052734 19.86839485 210 210 212
245597.36688232 3357452.05737305 19.51152802 49 52 57
245604.72851563 3357449.98434448 19.37092018 159 159 157
245592.05804443 3357450.35314941 19.29797173 58 64 64
245597.21813965 3357451.77072144 19.12376404 96 100 103
245603.40789795 3357450.47625732 20.12397575 104 124 148
245594.51129150 3357453.22653198 19.11309052 60 60 58
245593.97882080 3357452.99319458 19.48782539 118 123 127
245595.31268311 3357452.75466919 20.23824501 249 249 247
245598.04852295 3357449.29736328 19.80512810 247 247 249
245591.13305664 3357453.66549683 19.11123085 150 149 147
245591.59222412 3357453.75363159 19.09313774 105 105 105
245594.08837891 3357449.44848633 19.34201813 75 80 84
245605.26251221 3357451.79409790 20.59158707 57 60 67
245598.57745361 3357449.20324707 19.40481567 137 141 144
245596.25872803 3357454.24609375 19.06402397 203 196 177
245596.15789795 3357450.33007813 20.14311981 208 208 208
245598.95849609 3357451.93438721 20.43574715 230 235 239
245600.96691895 3357453.95056152 19.04637527 186 177 162
245605.74865723 3357449.20700073 19.76346970 152 156 167
245597.01275635 3357453.40878296 19.56693459 61 66 62
245606.43194580 3357452.49505615 20.52390862 127 146 161
245596.74041748 3357450.04022217 19.74647141 115 120 123
245602.62921143 3357454.82589722 19.11365509 149 140 131
245599.28710938 3357451.23345947 19.68930817 106 113 121
245606.11108398 3357449.72113037 20.01171875 205 216 222
245604.59997559 3357451.64581299 19.38434219 35 37 36
245599.29577637 3357449.67642212 19.46113014 37 40 45
245596.00372314 3357453.80120850 20.00921059 98 103 106
245594.64916992 3357450.43191528 19.23768425 60 64 65
245598.38659668 3357449.26998901 19.68697357 99 104 124
245594.47802734 3357449.87622070 19.30226707 74 76 75
245595.13128662 3357450.91967773 20.19458961 143 142 140
245602.05401611 3357451.03018188 19.10764694 174 164 139
245594.05163574 3357454.03289795 19.47890663 43 47 48
245603.28350830 3357450.06161499 20.03100586 120 137 163
245593.49102783 3357449.78100586 19.93576241 42 57 80
245602.28002930 3357453.32580566 19.18313408 139 131 128
245596.84570313 3357450.05160522 19.35445213 65 64 59
245595.01452637 3357450.55789185 19.88479805 222 226 225
245591.86804199 3357452.81332397 19.13565063 215 199 184
245596.51568604 3357451.30651855 20.42081833 144 153 152
245599.38940430 3357453.70724487 19.43802643 36 41 44
245604.61456299 3357450.39547729 19.25788116 39 40 42
245598.08306885 3357449.23434448 19.50994873 214 212 215
245604.51049805 3357449.87344360 19.15511703 108 99 82
245601.69177246 3357450.15170288 19.12940598 150 144 132
245597.16156006 3357453.22210693 19.60361481 61 66 59
245594.18499756 3357452.43133545 19.56883430 38 42 45
245604.91943359 3357453.07357788 19.96738625 244 242 243
245596.13354492 3357449.51452637 19.98389626 254 255 255
245601.21679688 3357453.35150146 19.04942513 163 157 145
245596.83428955 3357450.34527588 19.42086792 54 56 53
245606.68896484 3357450.94277954 20.03930283 107 117 127
245594.79479980 3357452.32452393 19.29404831 62 62 64
245602.50646973 3357454.31155396 19.47710037 72 66 54
245597.25170898 3357452.54043579 19.56327629 82 83 85
245604.84155273 3357451.81259155 19.92798424 204 203 209
245606.57989502 3357452.74493408 20.20187759 5 6 8
245598.65869141 3357452.67025757 20.41203308 252 254 253
245604.10345459 3357449.84625244 19.42792892 40 39 37
245592.22436523 3357453.71133423 19.31288719 66 65 63
245606.88818359 3357450.79943848 19.48432541 19 22 27
245597.40423584 3357450.36672974 19.58052635 62 63 58
245606.38757324 3357450.53479004 20.21883965 115 119 128
245594.90087891 3357450.00299072 19.46770096 75 79 78
245602.87304688 3357449.97055054 20.02432060 134 147 166
245594.00628662 3357450.35507202 19.54289818 24 29 33
245591.83819580 3357454.21395874 19.07209206 87 91 94
245599.08197021 3357450.91598511 20.27200890 176 192 208
245599.00183105 3357452.31292725 20.34606171 154 158 159
245595.26831055 3357449.59558105 19.93383217 240 245 248
245594.11315918 3357451.43994141 19.94226837 36 37 42
245601.05749512 3357452.69717407 19.05761909 200 193 185
245596.75305176 3357453.74285889 19.50001335 80 81 63
245606.33843994 3357452.67962646 20.55164719 91 104 120
245596.79522705 3357453.53173828 19.85434532 140 136 135
245595.36645508 3357451.30651855 20.43222809 254 254 255
245605.33691406 3357449.57217407 19.94393539 229 234 238
245606.91278076 3357449.92520142 19.25579071 45 46 51
245592.38287354 3357454.43930054 19.11429596 88 87 82
245603.58874512 3357451.31826782 20.15411949 85 117 130
245604.25671387 3357452.52435303 19.46578026 34 34 36
245597.45648193 3357452.23614502 19.83234406 186 188 187
245592.78906250 3357451.10940552 20.24853516 71 94 110
245603.17761230 3357454.45852661 19.37815666 28 27 25
245598.16223145 3357449.87246704 19.90993118 88 144 191
245596.00671387 3357453.27865601 20.23791313 103 91 91
245595.04547119 3357453.42260742 19.31910706 62 66 65
245593.99853516 3357449.51235962 19.37406158 70 75 79
245602.64526367 3357454.72686768 19.17220497 187 180 170
245603.18261719 3357454.38549805 19.73508072 89 92 83
245604.24426270 3357454.20852661 19.14564514 32 38 38
245597.30554199 3357452.65640259 19.71215057 96 101 104
245606.32177734 3357449.07812500 19.20555305 151 141 131
245597.31243896 3357454.30230713 19.06763268 89 93 92
245595.57019043 3357451.06173706 20.40943336 49 68 83
245591.61901855 3357450.98822021 19.21005630 55 62 68
245592.18530273 3357451.55020142 19.38795090 83 84 86
245595.56579590 3357451.95477295 20.54396057 255 255 255
245603.03570557 3357452.58355713 20.42024994 21 40 57
245594.47088623 3357449.19482422 19.24222755 76 82 82
245605.05017090 3357454.06408691 19.49865532 55 57 56
245605.80853271 3357449.19372559 19.67978477 166 170 181
245593.65087891 3357449.19509888 19.31133270 69 76 84
245592.51971436 3357454.49459839 19.10154343 87 84 79
245594.27465820 3357453.11816406 19.12913704 42 46 45
245592.15264893 3357451.03533936 19.73983383 9 10 12
245595.05206299 3357452.04483032 19.70114326 218 218 216
245591.45935059 3357454.23544312 19.12017632 119 118 116
245604.72521973 3357449.87353516 19.45392799 130 127 122
245594.35864258 3357453.83670044 19.27323532 50 54 55
245598.99108887 3357452.35266113 20.35099983 214 218 219
245595.26971436 3357453.19769287 19.97084808 254 254 252
245592.19982910 3357451.97296143 19.72502327 37 39 38
245598.45526123 3357451.81033325 20.54450798 77 86 91
245598.81591797 3357452.89608765 20.30970001 61 65 66
245604.01501465 3357453.17297363 20.03164482 80 83 88
245593.25689697 3357452.06121826 20.52593994 40 49 66
245593.32452393 3357453.98034668 20.09535027 36 44 55
245602.03167725 3357452.13021851 19.05901909 147 139 120
245594.04357910 3357452.84793091 19.17453003 68 72 71
245603.16772461 3357451.20715332 20.12244987 80 115 134
245605.28515625 3357449.23211670 19.62939262 192 192 192
245599.04083252 3357451.55551147 20.32618904 24 28 27
245596.11340332 3357453.75427246 20.07539558 122 126 127
245594.98602295 3357452.37979126 19.43410683 64 64 64
245593.55938721 3357454.21099854 19.58306122 14 14 14
245605.23736572 3357449.95953369 20.05352211 221 224 229
245595.44647217 3357452.47796631 20.44235229 235 236 238
245605.63696289 3357450.97738647 20.46745110 76 92 107
245593.34503174 3357449.39843750 19.66189766 5 17 31
245597.46246338 3357452.91790771 19.87188148 241 240 245
245598.15252686 3357451.04623413 20.33180618 63 84 105
245593.49157715 3357452.98703003 20.33433342 30 35 38
245603.66143799 3357453.78604126 20.12734604 18 23 29
245594.65521240 3357452.73559570 19.13095856 107 104 95
245595.01855469 3357452.39837646 19.45302200 63 61 62
245603.55090332 3357451.21313477 20.06131172 83 117 129
245603.31298828 3357449.99853516 20.00748444 117 137 162
245593.87139893 3357452.46249390 20.10091400 138 142 143
245603.10687256 3357450.50451660 20.10810661 110 128 150
245605.19177246 3357452.52813721 20.55753899 255 255 255
245605.15203857 3357452.81137085 20.46166992 80 78 79
245603.97552490 3357449.75778198 19.78243446 39 46 54
245596.56854248 3357451.49090576 20.28983498 136 140 141
245603.56262207 3357453.28652954 20.30101585 34 48 61
245605.06677246 3357452.92605591 20.28214645 117 117 117
245603.93865967 3357454.22921753 19.59603691 32 26 26
245602.08221436 3357454.54983521 19.05849075 141 131 122
245606.78167725 3357450.26062012 19.69607925 39 48 57
245597.20971680 3357452.14077759 19.17075539 83 85 82
245594.84405518 3357449.95159912 19.46487999 113 117 118
245601.30487061 3357453.86148071 19.03961754 169 161 148
245593.89916992 3357450.01068115 19.81164742 0 3 11
245602.32189941 3357452.86352539 19.94003487 199 197 198
245597.94830322 3357449.38470459 19.79009438 210 213 218
245603.93353271 3357452.94320679 20.14588737 49 54 57
245595.35034180 3357452.97836304 20.24963570 255 255 255
245601.13507080 3357453.49868774 19.05501556 174 164 152
245602.48236084 3357452.48913574 20.25253296 3 13 15
245596.38104248 3357452.84393311 20.38953400 36 43 51
245606.38293457 3357453.52563477 20.12409782 117 123 137
245602.58142090 3357451.51602173 20.32219505 255 255 255
245598.75872803 3357452.21737671 20.46669579 243 247 250
245604.99664307 3357451.45782471 20.28060913 21 23 20
245604.79351807 3357451.05676270 20.14282417 230 231 233
245594.03118896 3357452.71563721 19.37049294 50 54 55
245596.49530029 3357449.11651611 19.23112297 148 147 143
245598.68206787 3357452.00625610 20.50769043 246 249 254
245593.14331055 3357454.33108521 19.33108521 24 24 24
245597.61804199 3357452.18075562 20.10538673 252 252 250
245592.35961914 3357453.49804688 20.04735374 22 23 25
245599.19305420 3357451.15734863 20.02833939 124 131 139
245594.60205078 3357454.28399658 19.21224022 62 68 68
245604.03869629 3357453.71905518 19.93060493 12 21 26
245591.43737793 3357452.85571289 19.12028503 221 207 196
245597.35070801 3357452.08917236 19.38631248 52 53 57
245602.88409424 3357452.94674683 20.37830544 83 107 131
245603.57519531 3357449.69732666 19.93918419 106 125 155
245606.80462646 3357450.51522827 19.65913963 28 35 43
245599.06512451 3357452.45141602 20.24074364 37 38 42
245592.21069336 3357452.29452515 19.48235512 51 51 49
245594.79711914 3357453.77471924 19.15013313 49 53 56
245603.40270996 3357454.39773560 19.76443100 34 35 30
245606.68377686 3357451.32376099 19.67741776 37 47 59
245602.34497070 3357450.31277466 19.39362144 138 140 135
245596.25286865 3357451.72357178 20.56294441 60 69 78
245592.17462158 3357449.64990234 19.40980911 63 70 78
245591.60742188 3357453.44729614 19.07927513 113 114 109
245606.22149658 3357450.04092407 20.15299225 181 191 200
245599.24298096 3357451.95889282 19.88294792 180 189 196
245597.29229736 3357450.21276855 19.26938629 76 78 77
245597.77789307 3357453.77841187 19.75921249 205 201 189
245601.87805176 3357451.47918701 19.08194351 158 145 128
245603.79052734 3357451.65289307 20.37133789 105 122 140
245605.94354248 3357452.45248413 20.58886528 39 56 66
245594.16882324 3357453.84353638 19.42466736 32 38 38
245602.25390625 3357451.26678467 19.18643951 140 132 121
245596.73754883 3357451.00036621 19.97463417 229 237 239
245597.71081543 3357450.66384888 20.12368584 222 228 228
245593.77532959 3357451.18002319 20.22065163 130 134 135
245591.46270752 3357452.38616943 19.14881516 170 156 145
245598.54302979 3357451.07577515 20.27875519 46 69 83
245606.59802246 3357451.19934082 20.11091805 189 187 200
245606.86456299 3357450.70336914 19.53326797 8 9 13
245603.96014404 3357450.03842163 19.93670082 165 173 186
245603.85504150 3357449.60958862 19.71139526 78 78 78
245598.06433105 3357450.92660522 20.23263359 49 70 87
245595.43414307 3357450.85528564 20.27096748 60 75 94
245594.95739746 3357449.90896606 19.69644547 201 210 215
245601.93768311 3357450.41024780 19.11624718 171 157 131
245602.32775879 3357453.05184937 19.53637123 79 78 74
245602.72882080 3357452.85534668 20.36132050 66 93 114
245602.37548828 3357452.66699219 20.07266808 173 176 181
245606.51300049 3357450.38897705 20.14246178 158 165 175
245603.34466553 3357450.19039917 20.09025574 107 129 152
245598.95886230 3357451.23690796 20.37420845 91 100 107
245598.68701172 3357451.01980591 20.11776161 65 90 110
245605.15350342 3357452.37265015 20.54938698 251 250 255
245603.45397949 3357454.13854980 20.06481552 75 85 95
245596.97137451 3357452.20193481 19.35909843 47 47 37
245595.81488037 3357453.83822632 19.89285278 99 109 111
245594.39807129 3357449.18496704 19.25482559 90 94 97
245595.41088867 3357451.26782227 20.45183945 238 239 241
245606.58203125 3357451.15728760 20.14121246 133 133 143
245593.20416260 3357452.04959106 20.52815247 37 49 65
245594.31359863 3357452.18041992 19.58287239 44 48 51
245594.74993896 3357451.21582031 19.75507355 64 68 69
245594.84954834 3357452.73422241 19.15523720 107 111 110
245600.98907471 3357453.57907104 19.06901360 180 171 162
245593.21099854 3357449.10531616 19.28609276 81 90 99
245602.32690430 3357453.55853271 19.64255905 39 41 40
245606.26159668 3357449.62899780 20.05472374 199 212 218
245602.64117432 3357453.31033325 20.28831482 71 74 53
245603.48175049 3357451.98498535 20.46334457 29 45 58
245602.40118408 3357452.28616333 20.12505722 84 92 95
245594.86462402 3357450.97732544 19.83268929 98 99 103
245605.17346191 3357454.03518677 19.61719894 51 50 55
245606.80145264 3357450.64666748 19.68413353 10 14 25
245598.07342529 3357449.62283325 19.83295822 97 155 205
245606.71856689 3357451.97860718 19.67978668 29 38 47
245602.83282471 3357450.42443848 20.09482384 122 140 160
245605.23602295 3357453.99114990 19.70067787 43 44 49
245605.67364502 3357449.00335693 19.30242538 149 140 131
245596.65789795 3357450.87295532 20.18731499 81 82 86
245593.02093506 3357450.73489380 20.16985130 89 115 132
245596.65185547 3357449.51651001 19.38872910 61 65 68
245605.73907471 3357449.42578125 19.95784187 225 230 236
245597.54467773 3357452.55749512 19.97501755 255 255 255
245602.21258545 3357450.66738892 19.17752647 146 140 126
245593.81091309 3357452.05419922 20.17401695 25 26 28
245595.01141357 3357453.08401489 19.22872734 63 64 66
245602.28253174 3357451.31210327 19.75181961 38 40 39
245602.22570801 3357450.55065918 19.15586281 143 139 128
245596.59954834 3357449.69665527 19.75655556 168 177 184
245594.83367920 3357452.83825684 19.13880348 102 108 108
245605.20617676 3357449.28063965 19.72834778 194 195 197
245592.21032715 3357452.21377563 19.75076485 38 38 36
245591.82275391 3357452.43035889 19.13171387 155 141 130
245603.57666016 3357451.56222534 20.41550446 112 136 164
245593.95428467 3357450.12683105 19.52089882 104 111 117
245602.61450195 3357451.12438965 20.09361839 104 118 127
245605.42285156 3357450.37994385 20.19202995 62 78 94
245592.20324707 3357450.84713745 19.59759521 16 20 23
245593.07562256 3357449.40243530 19.80739403 42 59 79
245606.68804932 3357451.62969971 19.70790291 51 61 70
245604.12664795 3357450.08425903 19.48394775 48 46 49
245595.45843506 3357451.14407349 20.44638062 64 78 87
245592.56835938 3357454.14437866 19.48835564 35 35 35
245602.13287354 3357451.64080811 19.10560608 155 142 123
245602.32507324 3357452.86376953 19.75544357 54 49 45
245603.48559570 3357451.96246338 20.46257973 30 46 59
245594.23791504 3357452.32876587 19.57051849 40 44 47
245593.81140137 3357451.59963989 20.14804649 42 44 43
245601.77874756 3357451.50765991 19.08510780 160 151 136
245597.86041260 3357450.90338135 20.20127678 60 65 68
245603.65325928 3357454.34921265 19.82471466 28 29 33
245596.50830078 3357453.52926636 20.12270164 247 251 254
245596.76983643 3357453.82400513 19.39389229 62 64 61
245594.22692871 3357451.09570313 19.94083023 40 45 48
245601.90441895 3357450.97177124 19.10149956 155 144 124
245593.01293945 3357454.25759888 19.72414398 11 15 16
245591.50695801 3357454.21118164 19.12655449 103 103 103
245595.07513428 3357451.39965820 19.96587372 248 250 247
245594.57861328 3357449.51132202 19.29676247 76 84 86
245596.88439941 3357452.07470703 19.54306030 49 58 57
245604.27539063 3357452.18447876 19.74313927 32 32 34
245604.12493896 3357453.67675781 19.56311417 19 20 22
245595.76354980 3357452.62591553 20.48489952 245 250 253
245596.16625977 3357452.40762329 20.47008324 251 252 254
245605.80883789 3357453.72238159 19.80044556 137 150 158
245599.45300293 3357450.55801392 19.78490067 31 32 36
245596.10021973 3357453.14450073 20.27765274 45 46 48
245592.46002197 3357449.72625732 19.91220474 72 84 98
245598.88140869 3357450.07919312 20.04398346 67 114 168
245606.43981934 3357451.25717163 20.32106400 68 81 87
245591.85742188 3357452.52349854 19.11878777 151 137 124
245594.01068115 3357452.84793091 19.22476006 62 63 65
245597.39306641 3357453.56332397 19.40802765 84 88 74
245592.63739014 3357452.73880005 20.34981346 44 53 62
245598.01354980 3357449.64025879 19.82338524 95 153 199
245594.66528320 3357453.31835938 19.13141251 56 58 53
245605.06677246 3357452.45367432 20.35177231 21 26 22
245605.34118652 3357449.03677368 19.31279373 156 147 138
245596.43487549 3357450.22546387 20.09043121 240 243 248
245592.55578613 3357454.14172363 19.48642349 40 38 39
245599.19073486 3357452.85598755 20.02028084 199 218 225
245592.81365967 3357454.23022461 19.17146683 41 34 28
245598.69073486 3357450.57968140 20.09827614 55 85 111
245605.12805176 3357450.64837646 20.19418335 130 166 182
245605.32672119 3357451.30215454 20.58079720 251 253 252
245599.23791504 3357453.59973145 19.64150238 32 36 37
245594.28576660 3357453.25344849 19.15438080 48 49 53
245606.29760742 3357451.57003784 20.58238220 134 133 141
245604.18627930 3357450.77935791 19.18000221 36 35 40
245603.30297852 3357452.67205811 20.39287949 27 43 59
245605.48400879 3357450.56161499 20.19495964 86 117 138
245602.03393555 3357451.25039673 19.09529686 191 184 158
245591.98126221 3357454.23141479 19.07832527 57 61 60
245597.62078857 3357450.32672119 20.03574944 240 251 253
245598.00280762 3357451.72689819 20.50336647 246 247 249
245592.17755127 3357450.42547607 19.51633835 96 99 104
245598.85144043 3357451.82745361 20.52479172 238 243 249
245594.35400391 3357450.48422241 19.30565643 44 48 49
245597.65325928 3357449.49014282 19.69371414 249 249 251
245601.38647461 3357451.23709106 19.10136032 172 162 150
245598.20965576 3357449.22009277 19.49271393 215 215 223
245606.02923584 3357453.79864502 19.97566795 167 185 197
245598.89172363 3357452.45599365 20.42099953 213 214 216
245593.00311279 3357450.37136841 20.03291702 27 43 59
245602.75482178 3357452.99932861 20.36783218 73 91 115
245605.33410645 3357449.24230957 19.73223114 177 178 182
245604.34576416 3357452.39886475 19.40046692 47 51 52
245594.55914307 3357450.34387207 19.23083496 66 70 69
245597.34442139 3357452.15563965 19.37575340 48 52 55
245597.42950439 3357450.37335205 19.68280029 107 108 102
245602.16455078 3357453.51293945 19.05980301 151 143 124
245594.97247314 3357450.42904663 19.46228981 152 161 166
245592.88897705 3357451.12503052 20.28389931 75 94 109
245601.71215820 3357451.36141968 19.09397888 155 145 135
245603.25775146 3357450.75646973 20.09076691 22 35 44
245607.04766846 3357450.21182251 19.27056503 47 51 54
245601.56573486 3357450.21554565 19.13122940 168 161 151
245596.43487549 3357453.44491577 20.15102005 243 249 249
245597.48596191 3357450.89071655 19.99941635 251 253 252
245605.37902832 3357449.36724854 19.97172356 230 230 238
245596.15051270 3357453.79486084 19.80279541 116 124 127
245597.51354980 3357451.49615479 19.88541985 254 254 252
245596.67120361 3357454.10684204 19.15433121 77 78 80
245596.89221191 3357452.49838257 19.67468262 125 129 130
245597.72747803 3357451.56765747 20.36658287 38 44 40
245606.46685791 3357453.08923340 20.42407608 155 168 176
245593.98931885 3357453.11822510 19.73021317 53 57 60
245605.70001221 3357450.33489990 20.19880486 48 58 70
245599.21966553 3357452.06402588 19.96386337 188 197 206
245597.70043945 3357451.97860718 20.27826691 57 57 55
245605.47833252 3357450.64474487 20.20532608 99 130 150
245604.99859619 3357452.48812866 20.19467735 249 249 251
245591.85998535 3357451.39480591 19.20410728 90 89 87
245594.67663574 3357452.56231689 19.15772057 62 63 58
245597.12371826 3357449.74246216 19.19347191 158 149 140
245593.79559326 3357452.42687988 20.18985939 85 87 86
245595.04730225 3357451.66870117 19.86839485 226 225 221
245602.05480957 3357452.67047119 19.04465103 231 216 187
245596.31433105 3357450.86965942 20.18781090 66 87 104
245606.26324463 3357449.52673340 20.02678299 215 222 228
245597.44281006 3357454.13888550 19.13548851 68 77 76
245597.21606445 3357451.14318848 19.22003746 145 138 132
245591.35839844 3357453.39254761 19.06598091 139 140 135
245592.18395996 3357450.42889404 19.71337509 56 60 63
245601.84259033 3357454.07571411 19.02550125 174 167 151
245604.79223633 3357451.15884399 19.83752251 202 206 209
245594.94659424 3357451.02972412 20.04089355 208 208 206
245596.21203613 3357453.79400635 19.69692230 138 145 151
245601.41809082 3357451.83062744 19.08764648 166 158 147
245596.84118652 3357451.02807617 19.48387146 51 57 57
245606.23559570 3357449.43713379 19.99491310 130 137 143
245596.05761719 3357453.80468750 19.88122368 91 99 102
245602.25396729 3357449.92828369 19.28040886 157 150 140
245603.64093018 3357451.77847290 20.43093681 57 74 100
245602.34167480 3357451.29251099 19.38922882 62 63 58
245596.77301025 3357450.03802490 19.55253410 50 58 60
245593.84179688 3357449.94955444 19.92182732 31 45 56
245593.77221680 3357450.48599243 20.05018044 28 41 58
245603.39910889 3357449.52819824 19.74433136 176 190 219
245595.95623779 3357450.05218506 20.10628128 249 255 255
245605.06433105 3357453.99258423 19.59788132 51 50 55
245602.93395996 3357452.33383179 20.44965363 22 45 61
245596.41729736 3357449.70025635 19.99162292 242 250 252
245593.83905029 3357453.85696411 19.89171219 17 15 16
245594.46740723 3357450.27230835 19.25568199 72 74 73
245598.63446045 3357451.87866211 20.53258324 222 227 231
245594.84893799 3357453.79040527 19.15704155 54 60 60
245592.66601563 3357453.41983032 20.28602219 147 150 143
245595.92004395 3357451.17446899 20.46653938 232 240 242
245595.30072021 3357449.40606689 19.76919937 237 242 246
245606.14562988 3357449.16445923 19.36755753 149 140 135
245602.29620361 3357452.68124390 19.20753860 168 164 153
245604.14758301 3357452.91287231 19.42854881 21 25 26
245592.85223389 3357453.25079346 20.32995987 175 184 167
245591.81774902 3357451.66351318 19.20450020 126 118 105
245596.26464844 3357453.62326050 20.13137817 242 244 243
245606.58160400 3357453.24246216 20.16395187 196 200 209
245595.13214111 3357450.21850586 20.04927826 253 255 254
245594.30426025 3357452.10842896 19.72165108 49 50 52
245594.68750000 3357451.99478149 19.32087326 70 70 68
245596.92535400 3357449.18676758 19.19980812 195 178 148
245599.10021973 3357451.11169434 20.29594612 62 67 73
245592.08685303 3357452.34823608 19.20160103 160 145 126
245599.31933594 3357449.86636353 19.62366676 55 56 61
245596.80834961 3357450.59268188 19.47120476 50 54 55
245593.17498779 3357454.16323853 19.95328331 57 64 74
245597.28979492 3357451.19839478 19.28388786 81 80 76
245596.45404053 3357449.17745972 19.28237534 147 146 142
245597.60656738 3357452.86175537 20.05880165 254 254 252
245592.24310303 3357449.45437622 19.39314651 63 72 77
245593.95703125 3357453.57238770 19.68100166 14 15 17
245596.75445557 3357450.98181152 19.91193390 237 242 245
245602.19219971 3357452.09298706 19.18639565 131 123 110
245602.69500732 3357454.24377441 19.78112984 69 66 61
245604.91040039 3357454.33425903 19.08000755 60 65 68
245597.24157715 3357451.78738403 19.12369156 96 100 103
245595.74279785 3357449.93307495 20.07189751 235 243 246
245606.61126709 3357451.00225830 20.13549805 144 148 157
245596.13690186 3357450.94528198 20.24494743 71 92 109
245595.56756592 3357453.54614258 20.14724350 254 255 255
245604.40985107 3357453.45095825 19.02239037 42 46 49
245604.96246338 3357454.20751953 19.23661804 59 63 66
245594.33117676 3357453.96496582 19.32649612 48 52 53
245605.14129639 3357451.24176025 20.50472641 224 225 229
245598.33837891 3357452.99444580 20.26663589 31 32 36
245604.24053955 3357451.13256836 19.28067970 37 37 39
245594.25762939 3357452.37921143 19.44061470 41 45 46
245595.23889160 3357452.05761719 20.13289452 196 198 195
245596.95520020 3357449.69766235 19.21827507 152 139 122
245594.61260986 3357449.42703247 19.28078270 75 84 83
245594.85955811 3357451.37512207 19.75877380 65 64 62
245601.49487305 3357453.25436401 19.03480721 164 156 145
245602.95123291 3357452.87701416 20.39318466 82 104 125
245603.62084961 3357454.11071777 20.05839539 71 93 114
245594.28723145 3357451.63577271 19.79960060 48 49 53
245595.88006592 3357451.69894409 20.56388092 57 66 83
245599.17846680 3357450.83306885 20.14391136 68 74 86
245603.25964355 3357450.07220459 20.03579330 116 136 163
245602.41766357 3357453.43814087 20.08743668 163 162 167
245596.30633545 3357450.41046143 20.13059235 121 122 127
245606.41796875 3357448.89257813 19.14225769 156 147 138
245602.04400635 3357454.50851440 19.07136726 144 134 124
245593.99591064 3357452.94720459 19.61711121 93 99 99
245597.34912109 3357451.66735840 19.32792473 54 56 55
245599.34484863 3357453.56295776 19.51857185 34 40 38
245594.30200195 3357451.38504028 19.79045677 43 47 50
245604.17559814 3357452.56314087 19.80204773 16 17 21
245595.21801758 3357451.18142700 20.24468040 44 43 41
245598.36791992 3357452.85223389 20.35563087 44 48 51
245606.73352051 3357449.92474365 19.59941101 34 39 43
245602.31372070 3357451.80398560 19.58568764 43 44 39
245605.01232910 3357449.81378174 20.06577682 230 231 235
245595.71307373 3357450.22354126 20.14882660 250 255 255
245604.25433350 3357452.71789551 19.24856377 58 59 61
245600.15673828 3357453.60540771 19.17121124 58 63 67
245593.11767578 3357454.17236328 19.94979477 12 21 30
245606.61285400 3357453.04144287 20.14113998 152 157 163
245601.73120117 3357451.69937134 19.07935905 152 142 130
245598.27148438 3357453.90591431 19.94461823 128 128 94
245593.29290771 3357452.92428589 20.34328651 19 24 30
245594.47564697 3357449.21560669 19.24336052 76 82 82
245595.62841797 3357453.50820923 20.19478989 251 251 251
245604.73809814 3357451.70956421 19.59978294 29 33 34
245596.66455078 3357449.87512207 19.79373741 194 202 205
245592.78417969 3357450.23007202 19.98585320 29 46 66
245595.27941895 3357452.80300903 20.16654015 252 252 250
245592.15533447 3357453.50698853 19.21779633 72 68 59
245592.77447510 3357450.74154663 20.18413734 82 115 130
245602.25201416 3357450.09716797 19.27199936 150 147 142
245605.58575439 3357451.23641968 20.57389069 239 242 247
245592.25872803 3357449.44168091 19.39521599 60 69 76
245594.20941162 3357450.61987305 19.53514671 39 42 47
245605.49548340 3357449.25543213 19.91179466 43 46 53
245602.33483887 3357451.18542480 20.07288933 182 190 192
245593.35699463 3357453.31262207 20.33712006 168 177 158
245603.34619141 3357449.48681641 19.67997360 56 70 105
245595.52502441 3357453.38198853 20.18092155 252 250 251
245594.82049561 3357449.70489502 19.45171165 118 124 124
245594.68005371 3357449.76708984 19.38025856 104 106 105
245599.29772949 3357449.87237549 19.66479874 57 56 62
245596.38537598 3357449.15377808 19.29156113 146 145 141
245593.82348633 3357454.06442261 19.70500565 20 18 21
245592.25671387 3357453.19909668 19.85289574 27 29 28
245599.54724121 3357450.63851929 19.77890968 63 67 68
245597.98962402 3357453.27233887 20.17878151 44 44 44
245598.76580811 3357452.65374756 20.40984535 253 255 254
245606.53527832 3357451.06713867 20.19607353 50 55 61
245599.07879639 3357451.18850708 20.30310631 54 57 62
245591.56481934 3357450.35748291 19.25711060 57 65 76
245591.94464111 3357454.32638550 19.08798409 62 66 65
245597.95294189 3357453.12164307 20.22318649 34 43 42
245604.06988525 3357449.83325195 19.76630402 35 36 38
245597.47058105 3357449.57369995 19.40753555 159 155 144
245606.69342041 3357449.51397705 19.19152641 50 50 52
245596.74804688 3357451.33999634 20.01301765 212 217 220
245602.61322021 3357454.95480347 19.07882118 124 118 106
245604.87597656 3357451.89151001 20.06485558 228 225 232
245598.55371094 3357451.81875610 20.54494095 72 79 87
245603.67559814 3357452.56335449 20.42364883 69 85 110
245595.90521240 3357451.65780640 20.55941772 59 65 79
245605.54400635 3357453.79421997 19.77712440 90 93 100
245596.70190430 3357449.17956543 19.23024940 138 133 129
245591.86712646 3357451.38931274 19.20433235 92 91 87
245591.86505127 3357450.16726685 19.27503204 55 63 66
245606.60766602 3357450.65133667 20.10798264 44 51 59
245597.42358398 3357453.54525757 19.44654846 92 96 81
245596.25390625 3357453.62020874 20.13339996 242 244 243
245592.60839844 3357454.14663696 19.85165787 38 28 27
245592.33483887 3357454.00985718 19.43293381 54 56 55
245606.73040771 3357450.02001953 19.68435669 30 35 41
245592.18695068 3357451.48004150 19.56217194 33 34 38
245597.71453857 3357453.24441528 20.11205864 251 251 251
245595.73028564 3357453.77328491 19.22655869 29 26 17
245599.22821045 3357453.67819214 19.54631424 28 30 25
245604.74755859 3357453.12521362 19.12491035 32 36 35
245597.19622803 3357452.47817993 19.46494865 76 75 73
245596.36291504 3357451.79385376 20.55983353 217 224 230
245602.22766113 3357452.80300903 19.10272026 153 145 124
245593.10748291 3357451.19097900 20.29833603 76 92 105
245598.58941650 3357454.01022339 19.36324692 35 36 31
245598.20739746 3357454.06481934 19.21535683 61 61 53
245596.74926758 3357450.25848389 19.75670433 63 69 69
245604.01507568 3357454.73370361 19.11350441 74 74 72
245603.48144531 3357451.40249634 20.30511093 49 75 90
245598.49761963 3357452.32672119 20.47616577 253 254 255
245596.06182861 3357453.79833984 19.93332100 88 96 98
245592.75097656 3357451.05517578 20.21204376 73 96 114
245604.71166992 3357450.15567017 19.88485146 162 162 162
245593.32812500 3357452.73806763 20.36024284 33 46 55
245602.32232666 3357451.28137207 20.09198189 118 127 134
245606.06225586 3357451.29132080 20.56655502 223 224 228
245601.65380859 3357450.78900146 19.10814095 161 151 141
245592.06829834 3357451.94076538 19.22945976 151 139 123
245593.18017578 3357449.38351440 19.62599564 89 107 131
245596.59954834 3357453.13107300 20.20503807 134 143 148
245602.63128662 3357453.69259644 20.13587952 38 44 34
245604.11517334 3357452.51239014 19.95141029 15 23 25
245601.61633301 3357454.43811035 19.16098785 200 193 183
245605.13275146 3357452.85821533 20.41566849 44 44 42
245593.92156982 3357450.06417847 19.76879120 0 1 8
245595.64654541 3357450.14190674 20.12625694 238 246 249
245594.73864746 3357451.89965820 19.39642143 76 76 74
245592.56933594 3357454.14474487 19.41404533 37 37 39
245606.35583496 3357449.42358398 19.49156380 133 137 138
245602.32696533 3357454.61343384 19.17620087 145 139 125
245605.80566406 3357450.72827148 20.22801208 74 95 114
245597.53259277 3357452.24261475 19.95411682 251 251 251
245596.08782959 3357453.87542725 19.41148376 26 27 31
245597.15942383 3357449.41790771 19.19571877 215 205 196
245597.22863770 3357449.57391357 19.23528671 180 171 162
245595.95172119 3357451.32565308 20.52483749 224 228 229
245595.26843262 3357449.46603394 19.82430267 156 164 167
245594.02032471 3357452.82589722 19.50243759 13 17 16
245604.37567139 3357451.87411499 19.59865379 53 53 53
245604.13024902 3357449.87219238 19.31550789 42 42 44
245592.19940186 3357451.86431885 19.49721527 43 42 38
245594.78051758 3357452.70794678 19.15066719 92 94 93
245593.01428223 3357454.41976929 19.11020088 55 54 49
245596.94720459 3357452.52923584 19.56637192 48 49 44
245604.13629150 3357453.21548462 19.62609673 45 44 50
245598.21496582 3357450.88946533 20.21104240 66 91 113
245601.99627686 3357450.05639648 19.14531136 173 160 144
245604.49212646 3357453.42236328 19.02846909 44 46 43
245602.59857178 3357454.48599243 19.36587715 112 105 97
245599.08331299 3357452.97637939 20.20900726 176 183 189
245594.41650391 3357451.70968628 19.40940094 56 56 56
245605.12347412 3357451.87063599 20.57683372 253 253 255
245606.50299072 3357452.70599365 20.37030220 5 10 13
245596.45147705 3357451.11367798 20.41901398 165 173 175
245606.16516113 3357450.87603760 20.28629875 39 64 84
245596.87457275 3357452.19308472 19.62090492 121 131 130
245597.44329834 3357451.57638550 19.78550529 190 192 189
245597.02868652 3357454.06161499 19.13493919 68 72 73
245605.99731445 3357449.33020020 19.97548866 139 142 147
245594.46942139 3357454.28524780 19.26174545 63 69 69
245606.71380615 3357452.75039673 19.82777977 35 42 48
245596.19006348 3357454.44088745 19.08051300 169 154 133
245594.21466064 3357453.33099365 19.22883224 44 48 49
245592.11657715 3357451.34423828 19.31035042 93 95 92
245602.53259277 3357453.84506226 20.03773880 176 188 186
245596.76715088 3357450.68536377 19.60885239 159 164 167
245594.93475342 3357452.80072021 19.16023064 103 108 111
245596.66638184 3357450.76736450 20.14787674 130 134 137
245605.30657959 3357453.80636597 19.92097092 33 38 41
245596.67706299 3357451.27142334 20.09589958 147 151 152
245597.40118408 3357452.47662354 19.76422691 70 80 81
245601.38519287 3357454.19815063 19.03493500 163 156 138
245592.78375244 3357449.45428467 19.80392075 87 102 121
245601.25219727 3357453.59475708 19.03169060 168 159 150
245597.57531738 3357452.57116699 20.02206993 254 254 254
245592.62677002 3357454.20462036 19.15760422 77 68 63
245593.74005127 3357450.55065918 20.07154846 24 40 55
245605.14361572 3357453.71124268 19.76594925 55 63 66
245603.87176514 3357454.35531616 19.59171104 38 42 41
245602.32403564 3357451.73141479 19.46126175 38 39 33
245603.12408447 3357454.86642456 19.07757950 139 136 121
245604.68859863 3357451.51089478 19.50677299 32 33 37
245605.23278809 3357454.13604736 19.54983139 53 53 51
245606.67272949 3357449.84689331 19.71013260 27 33 33
245602.38372803 3357453.83700562 19.75643539 53 40 49
245604.71026611 3357449.75030518 19.51795197 75 72 67
245596.67968750 3357451.19836426 20.09419250 191 197 197
245595.36828613 3357451.95327759 20.41727257 44 49 45
245602.34362793 3357453.75686646 19.37464523 91 91 83
245602.20623779 3357451.60836792 19.13878822 137 130 114
245604.67919922 3357453.18273926 19.07266426 32 37 33
