245620.93322754 3357440.87005615 20.39072227 39 39 37
245619.85815430 3357439.43109131 19.58540916 164 160 149
245622.86352539 3357440.20339966 19.99008560 88 91 84
245620.47387695 3357438.62390137 19.45467567 108 104 95
245619.30718994 3357430.18145752 20.30030251 0 10 30
245621.91503906 3357428.53829956 19.95492744 17 18 23
245623.52539063 3357435.92877197 19.34925270 139 133 99
245618.90661621 3357429.11447144 20.35623741 20 47 100
245621.36297607 3357437.84863281 20.39043617 173 176 181
245621.89727783 3357432.12646484 20.79251862 159 160 180
245620.16735840 3357429.16394043 20.56118393 128 156 168
245621.17907715 3357436.06015015 19.64340401 108 105 98
245619.33398438 3357439.70742798 20.43782616 38 46 49
245621.52947998 3357436.37194824 20.73681259 243 245 244
245622.28405762 3357428.32131958 19.36787796 44 41 36
245618.43988037 3357431.23065186 20.19879341 227 229 224
245620.74664307 3357436.33117676 20.74730301 39 41 40
245621.70751953 3357428.82009888 20.63989830 13 18 24
245623.51330566 3357436.37503052 19.44795990 131 133 83
245619.84362793 3357429.47583008 20.38692474 147 185 194
245618.94982910 3357428.48114014 19.95635986 24 25 30
245622.58300781 3357428.60726929 19.70864105 36 36 38
245618.58911133 3357443.93118286 19.27380943 233 224 217
245621.45983887 3357430.39923096 20.00205040 31 34 43
245621.15460205 3357439.69665527 20.56112099 40 44 43
245620.43743896 3357438.41668701 20.02272987 31 33 30
245619.86248779 3357429.34631348 20.33025169 154 194 202
245619.98590088 3357431.95190430 20.46816826 138 170 191
245622.91900635 3357437.49191284 19.84405708 53 52 48
245620.36389160 3357438.72268677 19.40415001 129 119 109
245619.72467041 3357440.22824097 20.52602386 22 35 43
245620.54699707 3357440.08963013 20.66467857 71 72 76
245618.71380615 3357437.61984253 20.26660347 157 163 175
245619.12335205 3357435.99539185 19.68927002 91 92 87
245618.42089844 3357440.55484009 19.82560539 96 102 102
245620.92596436 3357430.04718018 20.48682213 17 22 28
245622.93890381 3357432.34695435 19.23223877 34 35 37
245619.68414307 3357428.40957642 19.70301437 32 33 37
245619.98126221 3357443.93066406 20.12714005 27 27 29
245618.32873535 3357436.23684692 19.97684479 216 217 221
245618.63397217 3357435.33081055 19.41674042 147 138 129
245621.23962402 3357431.62014771 20.84635162 55 66 84
245619.32476807 3357441.74331665 19.23383713 171 163 152
245621.81481934 3357428.98153687 20.64521217 74 78 90
245620.35174561 3357431.13507080 20.64709473 4 14 23
245619.20135498 3357440.36505127 20.13589478 63 81 95
245621.21722412 3357431.61315918 20.85003471 57 69 85
245623.55212402 3357435.99038696 19.64450073 113 123 62
245621.86077881 3357442.59558105 20.38091087 4 8 9
245618.25714111 3357429.14965820 19.81543922 143 153 163
245620.85778809 3357438.64440918 19.65444946 18 20 17
245623.24603271 3357428.59652710 19.95032310 32 39 31
245622.37573242 3357431.74942017 20.54171181 169 170 174
245619.58209229 3357435.88464355 19.44542122 142 129 94
245620.37060547 3357439.42620850 19.93278694 1 1 1
245620.28198242 3357441.49914551 20.19666481 43 51 53
245621.87145996 3357429.68551636 20.78952789 29 53 101
245621.68151855 3357429.53427124 20.78930473 42 61 101
245622.60565186 3357437.82608032 20.04753494 31 30 28
245621.40075684 3357432.37152100 20.73600769 50 61 67
245623.07080078 3357443.99371338 19.29330063 101 101 93
245618.64538574 3357442.52841187 19.85481453 119 127 130
245618.93908691 3357436.14929199 20.14824295 199 200 204
245619.92449951 3357438.49328613 19.95079994 53 52 47
245621.03002930 3357429.60559082 20.85997772 50 66 89
245621.97460938 3357436.16943359 20.12131119 242 243 238
245623.23925781 3357428.65896606 19.44544029 40 44 47
245618.93621826 3357428.37896729 19.55055237 36 40 41
245622.65563965 3357439.37393188 20.04775429 131 131 119
245622.21539307 3357428.56765747 19.86337471 17 18 23
245622.10186768 3357429.86590576 20.80660057 72 76 103
245620.02624512 3357437.33346558 20.69756126 43 60 67
245620.24444580 3357440.74703979 20.36833954 44 53 50
245622.07629395 3357438.11041260 20.04732132 41 43 42
245623.57342529 3357444.26708984 19.16573334 98 97 95
245623.51959229 3357441.00445557 19.72196770 47 52 30
245619.92254639 3357431.85009766 20.56631279 121 158 176
245619.24871826 3357441.99307251 19.26275444 158 150 139
245623.24090576 3357428.95852661 19.72079277 21 27 23
245622.62609863 3357431.55270386 20.12532425 80 76 75
245623.34411621 3357442.72897339 19.53541183 21 21 19
245623.45129395 3357441.18875122 19.76336670 31 33 20
245622.17565918 3357440.15322876 20.21010208 35 37 32
245622.07855225 3357430.71340942 19.97618675 32 30 33
245622.89923096 3357435.97042847 19.21343231 111 102 85
245622.50793457 3357428.94616699 20.54863548 29 33 44
245619.46905518 3357436.51998901 20.41842651 128 150 161
245622.11419678 3357441.40069580 20.75112534 102 104 103
245618.98468018 3357440.66635132 20.14926147 39 61 74
245618.31054688 3357429.67831421 19.99852371 18 26 47
245619.87921143 3357444.29580688 19.44301796 74 75 79
245618.86090088 3357437.11865234 20.28835678 126 138 152
245619.76940918 3357432.02746582 20.33337212 121 171 194
245621.74005127 3357441.51809692 20.74515343 67 69 68
245620.56121826 3357436.29571533 20.65645790 24 29 25
245621.80603027 3357432.50506592 20.44771385 60 65 68
245622.27355957 3357432.22171021 20.60140228 145 147 146
245621.05200195 3357439.42886353 20.22776031 17 19 18
245622.00921631 3357438.55712891 20.10844421 57 55 43
245619.36389160 3357442.15484619 19.31645203 139 129 120
245619.59375000 3357428.52127075 20.31623459 19 22 37
245619.75250244 3357428.58789063 20.48831749 33 40 56
245619.99798584 3357429.35552979 20.51246071 142 180 191
245623.31518555 3357439.01553345 19.36824799 118 121 104
245621.23962402 3357440.93417358 20.44705772 42 44 41
245619.92553711 3357428.64138794 20.58692360 0 0 2
245619.11669922 3357443.02001953 19.76522827 29 42 59
245620.27697754 3357429.03018188 20.77380180 49 80 111
245620.96636963 3357428.70159912 20.51710510 1 4 13
245621.74987793 3357440.52047729 20.22098541 45 49 48
245619.20422363 3357429.72143555 20.40256500 23 46 96
245620.39910889 3357438.39120483 20.02872467 20 22 19
245623.15740967 3357443.77005005 19.63358879 26 30 31
245618.55035400 3357428.54577637 20.14895439 2 13 19
245622.76135254 3357443.14807129 19.93317795 32 36 39
245623.23516846 3357436.32461548 19.82699394 62 66 39
245620.26788330 3357428.20364380 19.43880463 114 112 89
245621.10076904 3357437.32388306 20.88230515 5 9 12
245622.09637451 3357442.04962158 20.70831299 127 122 116
245622.92932129 3357430.54815674 19.28092003 39 41 38
245621.73583984 3357442.97302246 19.73685074 17 18 20
245618.63464355 3357440.78829956 20.42682838 44 58 69
245619.86206055 3357437.87030029 20.45815659 62 61 69
245619.66638184 3357428.45169067 20.03166580 22 25 30
245621.89202881 3357443.53051758 20.21549416 63 70 78
245621.91491699 3357441.43759155 20.77370262 75 77 76
245619.98553467 3357429.54064941 20.63237762 141 175 187
245623.09741211 3357436.20645142 19.21840286 105 89 74
245623.54071045 3357436.04147339 19.67319107 101 111 50
245619.72814941 3357441.10153198 20.36738777 16 20 23
245620.77844238 3357436.12567139 20.26274300 246 245 241
245620.77441406 3357438.66696167 19.88405418 27 31 30
245621.17626953 3357441.13186646 20.59427452 43 45 42
245621.44964600 3357437.79135132 20.46646690 48 48 50
245622.18530273 3357429.06643677 20.60615540 131 136 155
245623.24920654 3357443.21334839 19.67109680 17 21 20
245619.74822998 3357438.48999023 19.52832603 47 46 41
245621.18103027 3357430.62426758 20.03727341 35 38 43
245620.76184082 3357429.65707397 20.86460876 30 49 66
245619.85864258 3357432.50454712 20.58663559 138 155 171
245622.75805664 3357437.46255493 20.02151108 52 51 47
245622.22760010 3357430.56710815 19.79272842 43 43 45
245620.04815674 3357436.11526489 20.08111191 226 227 222
245620.24304199 3357438.59036255 19.78863335 39 38 33
245620.86853027 3357428.55438232 20.27552795 12 13 18
245622.57354736 3357431.63119507 20.26878166 196 197 199
245622.14062500 3357439.22100830 20.07892990 45 44 39
245619.05609131 3357432.61022949 20.27932549 112 140 164
245621.18524170 3357436.39669800 20.79479980 254 254 255
245622.34399414 3357441.16525269 20.49373436 17 22 15
245618.65051270 3357442.21771240 19.21012497 199 192 184
245622.25878906 3357432.21014404 20.62845421 158 160 159
245618.75653076 3357435.93737793 19.55263710 133 126 116
245621.19384766 3357441.10232544 20.57028008 43 45 42
245620.40539551 3357438.47152710 19.96479416 41 42 37
245619.81072998 3357430.25640869 20.43271637 16 27 45
245619.34667969 3357442.66513062 20.07497025 44 51 61
245621.00982666 3357439.17935181 19.54685593 148 142 130
245619.77697754 3357438.36669922 19.92266846 34 35 30
245620.97277832 3357428.59609985 20.25276184 5 4 10
245618.70800781 3357430.27249146 19.91653061 34 45 47
245620.14916992 3357431.20199585 20.75439262 178 182 194
245621.54882813 3357430.16574097 20.40724945 98 101 110
245618.20477295 3357443.14175415 19.37888336 122 123 125
245619.62585449 3357439.15600586 19.38061523 161 149 135
245622.68707275 3357431.76342773 19.92962074 151 149 150
245621.80712891 3357428.34829712 19.39501953 45 45 45
245623.30834961 3357441.79620361 19.83510208 29 29 29
245618.61071777 3357438.48818970 19.31182861 144 134 122
245618.43164063 3357443.75140381 19.74223137 85 85 95
245620.17840576 3357436.08999634 19.81066895 239 243 242
245619.85473633 3357431.03118896 20.56539536 45 50 54
245618.73999023 3357437.69076538 20.28601265 150 157 167
245620.98199463 3357443.12155151 20.20638657 53 65 81
245619.05627441 3357439.49127197 19.55017090 122 123 117
245622.25402832 3357430.33135986 20.09330559 17 17 25
245618.14141846 3357437.50134277 19.93607140 248 246 251
245620.28039551 3357441.42169189 20.29010773 58 71 77
245620.63281250 3357432.45111084 20.67072678 24 34 35
245618.60559082 3357436.13021851 19.94795227 220 219 224
245622.75720215 3357430.12783813 19.43562508 23 28 31
245619.61657715 3357430.73898315 19.87008476 35 41 41
245619.54541016 3357444.10440063 19.70236778 22 23 28
245623.50689697 3357435.78118896 19.70880508 124 131 63
245619.90313721 3357438.56417847 19.73302650 42 39 30
245620.33477783 3357430.90344238 20.30912018 95 94 108
245621.61431885 3357428.53900146 19.96217537 14 15 20
245622.08856201 3357443.48773193 20.13574409 77 82 85
245619.03759766 3357439.05340576 19.32311058 153 145 132
245618.66857910 3357431.14447021 20.25940323 202 215 224
245620.12054443 3357443.91406250 20.13027573 17 21 22
245622.83367920 3357428.86788940 19.64638519 12 10 11
245619.79455566 3357441.16796875 20.34269333 22 26 29
245623.33099365 3357441.24023438 19.81220055 14 16 13
245620.62603760 3357440.93649292 20.44729614 28 28 26
245620.33728027 3357428.49270630 19.52390862 23 27 30
245623.21704102 3357430.18112183 19.32856178 36 40 41
245623.42901611 3357437.76977539 19.86559486 39 48 31
245620.74420166 3357439.44216919 20.22341537 6 8 3
245623.04113770 3357437.87554932 19.85211563 28 33 29
245622.16064453 3357430.14062500 20.54236603 52 59 67
245619.67700195 3357430.00292969 20.53442001 136 174 185
245620.61419678 3357438.98059082 19.36287498 145 132 116
245622.04333496 3357443.97811890 19.87627983 48 49 51
245622.90289307 3357439.96878052 19.95907784 56 58 53
245620.18133545 3357438.05648804 20.21187019 64 72 74
245619.50201416 3357441.41061401 19.93131065 18 22 25
245620.07092285 3357438.59799194 19.57276917 90 87 80
245620.73132324 3357440.85592651 20.39976501 38 37 35
245618.30450439 3357443.54867554 19.66452599 80 79 84
245619.51135254 3357428.35284424 19.54599571 35 34 32
245619.01098633 3357430.08184814 20.32365227 28 48 85
245622.54724121 3357442.78387451 20.18723488 41 42 46
245620.62109375 3357439.23739624 19.58875275 155 149 135
245622.17858887 3357431.95208740 20.74829865 176 178 190
245618.46032715 3357440.07504272 20.14770317 101 100 105
245619.77825928 3357438.96255493 19.33291626 154 145 130
245618.87286377 3357436.05722046 19.73351860 138 138 140
245618.83935547 3357437.96466064 19.47738838 48 49 53
245623.39953613 3357441.46835327 19.73641968 33 35 30
245622.75695801 3357443.30258179 19.91754913 31 36 42
245619.01538086 3357428.55557251 20.34007835 1 7 21
245621.94042969 3357444.29586792 19.55379295 55 60 64
245621.80346680 3357432.59884644 20.23439598 54 55 59
245618.57824707 3357439.74435425 19.98081589 69 70 72
245620.98693848 3357440.39932251 20.24734116 75 89 90
245623.09680176 3357439.65869141 19.68949890 49 51 48
245618.77239990 3357444.14215088 19.18342781 194 187 181
245621.83294678 3357437.12844849 20.79857635 24 25 19
245618.08514404 3357437.16845703 19.95787048 195 217 240
245620.38806152 3357428.19696045 19.43557930 120 118 97
245620.10729980 3357441.94763184 19.67778587 137 128 119
245620.61297607 3357437.83395386 20.43331337 116 115 120
245620.57556152 3357438.97210693 19.35848045 148 135 119
245619.69348145 3357438.06729126 20.12941360 0 1 2
245620.88787842 3357428.84921265 20.76440811 9 12 31
245618.41613770 3357440.43951416 20.06264877 155 181 170
245618.51593018 3357428.53253174 19.99079704 51 60 69
245622.22814941 3357442.71942139 20.24324226 108 110 105
245622.01837158 3357442.55380249 20.44168663 11 15 16
245620.81927490 3357437.78472900 20.61325645 13 14 16
245620.09057617 3357428.46353149 20.18354988 27 32 38
245623.53924561 3357439.39981079 19.51943970 58 67 24
245620.35748291 3357432.33489990 20.88647842 194 210 226
245620.16973877 3357443.56964111 20.33495140 101 117 132
245620.17309570 3357436.87084961 20.68842125 28 41 57
245623.46923828 3357440.00753784 19.68975258 28 39 7
245618.87884521 3357443.01229858 19.63041115 33 46 62
245622.87298584 3357428.80633545 19.44398117 27 28 22
245618.55969238 3357438.24530029 19.32247543 170 158 132
245623.28173828 3357438.83258057 19.43602943 25 27 14
245623.61730957 3357439.18310547 19.74660301 106 121 80
245618.82690430 3357438.46447754 19.31631851 143 131 117
245619.95965576 3357438.57272339 19.66841888 41 38 31
245621.00140381 3357439.59487915 20.46568298 12 15 8
245618.85693359 3357442.49432373 19.87631798 36 49 58
245621.67370605 3357428.68786621 20.50945663 57 60 65
245620.71368408 3357441.58743286 20.56948280 68 78 80
245622.54296875 3357430.56567383 19.48852539 41 43 42
245620.25457764 3357438.60903931 19.61069298 65 61 50
245622.20703125 3357430.77502441 19.75958252 53 54 56
245622.06072998 3357444.11761475 19.68149948 33 37 40
245621.42834473 3357441.43127441 20.77911949 47 53 53
245618.96087646 3357441.07647705 20.20958138 39 46 54
245622.59625244 3357431.41690063 20.14595222 53 43 44
245623.07342529 3357440.45822144 19.73153877 23 24 26
245621.49627686 3357430.31799316 20.06798553 15 21 35
245619.97283936 3357428.28308105 19.45361519 116 114 93
245619.42120361 3357439.12619019 19.35676193 175 166 151
245618.36547852 3357428.99865723 20.12745667 39 48 63
245621.98498535 3357442.76409912 20.19518852 110 110 110
245620.73205566 3357436.87561035 20.85224724 16 20 21
245621.31811523 3357443.01977539 19.90507507 39 46 54
245618.55035400 3357437.99658203 19.34372711 144 137 127
245619.36614990 3357432.16378784 20.48562813 135 175 200
245620.73229980 3357437.95736694 20.26490974 119 126 132
245623.14801025 3357430.38150024 19.30103874 53 57 58
245622.57806396 3357442.90313721 20.12896729 30 34 37
245619.08685303 3357428.67019653 20.41949272 27 50 92
245621.50817871 3357436.27078247 20.49330330 23 25 22
245620.58129883 3357430.85266113 20.23825264 45 50 54
245620.19940186 3357438.59255981 19.77221107 39 38 33
245618.26232910 3357443.14514160 19.81910896 181 183 196
245618.17578125 3357431.86282349 20.04970741 210 212 209
245621.93078613 3357442.25787354 20.75783157 110 108 109
245618.93212891 3357437.87664795 20.29507637 136 140 149
245623.49151611 3357441.56002808 19.60784531 43 46 35
245620.82647705 3357444.07119751 20.17180443 8 9 11
245620.06732178 3357428.48071289 20.05345917 24 29 35
245620.29418945 3357440.25942993 20.33299255 9 19 20
245619.67425537 3357441.01748657 20.41105652 33 38 44
245619.02520752 3357440.11474609 20.04374695 68 86 106
245621.59118652 3357440.22482300 20.31603813 16 21 25
245618.70971680 3357441.06732178 20.32328224 24 31 37
245620.74633789 3357442.08743286 20.35444450 173 166 156
245622.75543213 3357438.83679199 20.02396584 137 138 132
245622.94659424 3357439.27539063 19.88953018 81 78 71
245620.58880615 3357437.79614258 20.51872253 11 12 14
245619.45941162 3357441.99279785 19.28956223 173 157 142
245618.76501465 3357431.68911743 20.25200653 158 182 208
245620.82818604 3357443.02697754 20.33320808 54 66 80
245618.84680176 3357429.15951538 20.31778145 23 48 102
245618.64306641 3357441.06414795 20.26760101 110 113 118
245622.51434326 3357435.72656250 19.23729515 137 120 104
245618.85638428 3357442.46649170 19.88857841 44 54 64
245619.42486572 3357438.07028198 19.84135437 15 19 18
245621.51141357 3357443.60192871 20.13636589 35 40 43
245620.42559814 3357428.18045044 19.43482399 119 118 98
245622.06872559 3357431.37811279 20.73932266 174 187 206
245619.82928467 3357443.70220947 20.15575790 131 148 155
245618.56384277 3357440.96694946 19.92607498 114 118 119
245618.30493164 3357443.56015015 19.72607994 109 112 117
245621.83367920 3357442.92590332 19.90401459 37 37 35
245618.64544678 3357441.02081299 20.30590248 31 39 42
245623.25225830 3357430.97302246 19.37821960 60 64 63
245618.55047607 3357436.14187622 19.91126060 216 217 219
245618.54229736 3357439.87991333 20.30879784 119 120 122
245618.85559082 3357436.08941650 19.84643555 94 94 92
245618.28912354 3357429.60424805 20.02587318 45 55 80
245620.98449707 3357443.11041260 20.20238495 53 65 81
245618.62579346 3357437.94934082 19.94256210 17 16 21
245619.99078369 3357443.25302124 20.04917145 229 249 255
245618.40429688 3357440.27474976 19.69912910 138 138 136
245618.96783447 3357443.32373047 19.65015221 34 49 68
245621.88128662 3357428.27114868 19.37399292 44 41 26
245622.48992920 3357435.89627075 19.26144409 121 110 92
245620.91925049 3357439.19787598 19.56403732 138 132 120
245620.68560791 3357432.58987427 20.43994522 108 107 112
245621.73089600 3357437.90264893 20.24007607 89 97 99
245622.48645020 3357431.09448242 19.54554749 43 43 41
245620.08172607 3357442.91247559 20.24078751 124 143 158
245618.42913818 3357442.47308350 19.54174232 114 113 109
245621.46508789 3357443.36105347 19.91375351 22 31 38
245622.63909912 3357432.00689697 20.08547592 129 129 127
245622.50433350 3357440.76019287 20.10824776 17 19 18
245621.88208008 3357428.54364014 20.02658272 14 15 20
245620.50927734 3357431.15933228 20.72362900 1 9 22
245620.91802979 3357442.66101074 20.44817734 0 4 4
245618.73486328 3357428.41555786 19.56151390 50 55 49
245618.54583740 3357430.97369385 19.84062195 37 36 41
245620.13635254 3357428.34365845 19.48545837 42 41 39
245619.28955078 3357436.79504395 20.46488953 104 126 139
245618.65740967 3357443.91955566 19.44526291 160 152 150
245618.60156250 3357437.89160156 20.17340660 186 191 195
245621.25665283 3357439.26043701 19.77497292 58 55 50
245622.00531006 3357435.80828857 19.27595329 108 95 78
245620.07855225 3357428.82333374 20.62441826 117 136 150
245619.76123047 3357443.53921509 20.06628418 134 162 176
245619.33093262 3357429.30758667 20.46737099 25 44 87
245620.13574219 3357440.47433472 20.30022049 74 88 91
245619.79473877 3357436.17916870 20.44637299 138 142 143
245619.46868896 3357430.99383545 20.41981506 86 96 108
245619.96386719 3357432.35067749 20.51793480 151 177 192
245620.42120361 3357438.57345581 19.85290146 35 36 31
245619.41278076 3357443.51620483 20.01074409 58 75 85
245620.38452148 3357429.26077271 20.83688354 31 67 119
245620.96960449 3357442.38214111 20.50449944 126 130 131
245618.50640869 3357430.15478516 19.87144470 36 43 51
245621.72515869 3357438.87445068 20.31911278 87 92 85
245618.96130371 3357438.49700928 19.31144333 150 139 121
245619.29620361 3357432.28677368 20.49331856 104 136 159
245618.66113281 3357434.03903198 19.41357422 224 207 200
245619.95758057 3357431.45343018 20.72151375 203 221 235
245618.40972900 3357430.05380249 19.84750938 76 85 100
245621.55645752 3357428.26565552 19.37931252 61 57 32
245620.47747803 3357436.78021240 20.79197693 11 15 14
245623.52758789 3357436.14120483 19.69380760 100 108 49
245619.03692627 3357436.40136719 20.37951279 217 225 227
245621.71264648 3357436.12884521 19.87104988 99 99 97
245618.58056641 3357430.64093018 19.64178467 56 61 67
245622.68945313 3357429.56152344 20.33009911 52 53 58
245619.53387451 3357436.35806274 20.43457031 201 219 223
245619.72406006 3357441.70251465 19.52192116 52 54 51
245619.95849609 3357428.70501709 20.60823441 0 11 17
245621.90246582 3357440.00796509 20.19375229 24 26 25
245622.01159668 3357436.05645752 19.63521194 39 35 32
245621.80688477 3357432.31347656 20.78849030 163 164 168
245621.49273682 3357438.66354370 20.26801109 114 113 95
245620.41198730 3357444.09024048 19.95341301 23 24 28
245618.38208008 3357429.67227173 20.22946739 157 173 207
245623.20196533 3357439.62268066 19.62899780 33 36 29
245619.17071533 3357438.30184937 19.31995010 175 165 138
245618.52130127 3357431.79583740 20.11720657 198 211 220
245622.27923584 3357431.19049072 20.48252487 116 107 110
245620.67932129 3357428.16815186 19.41770172 100 97 88
245620.59155273 3357442.09649658 19.81059456 136 127 122
245619.70318604 3357429.90499878 20.52601814 146 175 183
245619.17864990 3357439.49966431 19.79854393 165 170 164
245619.53881836 3357442.52996826 20.11449623 188 187 192
245620.32562256 3357436.08300781 19.85414505 244 244 242
245619.98114014 3357430.40866089 20.31845093 18 25 35
245622.07379150 3357430.18148804 20.48001480 68 70 82
245618.39459229 3357442.95675659 19.83077812 128 139 157
245618.90679932 3357428.56716919 20.34576225 0 4 23
245618.49359131 3357428.51516724 19.67241669 48 53 57
245620.17260742 3357439.76510620 20.53151894 75 84 91
245618.56359863 3357430.05200195 20.26057625 180 197 223
245620.72650146 3357442.22500610 20.21469498 26 25 20
245620.41046143 3357432.51419067 20.51457214 30 31 35
245619.44335938 3357430.31900024 20.05201340 27 30 37
245622.99768066 3357428.97314453 19.45145798 58 61 54
245620.03839111 3357442.43795776 20.25148201 125 131 131
245622.91003418 3357432.19934082 19.27094269 26 26 26
245618.56494141 3357441.77456665 19.21678352 216 207 198
245622.09643555 3357441.41802979 20.76317596 99 101 100
245621.62506104 3357428.54272461 20.15269470 15 15 25
245618.95965576 3357442.70651245 19.82763481 32 45 61
245618.62628174 3357437.93328857 19.38481522 90 89 84
245620.33081055 3357442.30078125 20.05722046 62 66 65
245620.56201172 3357439.74459839 20.60778618 18 26 28
245622.41229248 3357431.44851685 20.45344162 163 161 166
245620.36651611 3357437.65631104 20.82048035 215 219 222
245620.46038818 3357439.22940063 19.57772064 163 151 135
245618.91540527 3357439.34542847 19.35294151 149 143 131
245620.22210693 3357438.59387207 19.75765991 40 37 32
245620.06488037 3357432.20800781 20.51743317 104 139 159
245619.22998047 3357431.83404541 20.50161362 119 142 158
245622.39379883 3357438.18478394 20.06881332 30 32 31
245619.96099854 3357430.24639893 20.47232819 75 87 109
245619.61444092 3357436.10684204 19.98423767 212 216 215
245623.30712891 3357443.42224121 19.62437248 17 19 18
245619.98425293 3357441.90130615 19.73943329 119 116 109
245622.12426758 3357441.77758789 20.73559952 103 105 102
245621.86627197 3357437.70672607 20.50082016 48 50 47
245619.67401123 3357443.70941162 20.10587502 239 250 252
245621.66271973 3357435.79940796 19.32648849 110 102 89
245619.33215332 3357437.71524048 20.41927338 130 141 147
245622.59887695 3357431.36315918 19.92854118 90 79 83
245619.54583740 3357438.60711670 19.31341743 148 139 124
245619.21295166 3357437.09597778 20.44136238 96 114 126
245618.42877197 3357437.83752441 20.10698509 222 225 232
245618.83898926 3357436.82159424 20.28302574 127 137 149
245618.61798096 3357440.29049683 20.36368370 94 113 128
245620.37634277 3357436.31237793 20.70549583 34 40 38
245620.41339111 3357437.57815552 20.84740639 157 163 163
245621.05578613 3357437.15597534 20.89418411 7 13 13
245619.47857666 3357442.26086426 19.72701645 21 21 21
245622.85894775 3357444.15527344 19.57268906 55 59 60
245619.38641357 3357436.47848511 20.44883919 169 178 183
245622.99511719 3357429.06256104 19.69414139 9 11 8
245620.92944336 3357443.50006104 20.30138588 38 47 54
245620.19146729 3357428.51406860 19.91612625 22 27 33
245618.86749268 3357437.97506714 19.57235527 46 50 53
245622.49139404 3357428.81051636 20.43454933 25 24 30
245623.49029541 3357439.62692261 19.60976982 96 102 68
245621.47979736 3357439.00137329 19.85537148 139 127 115
245618.92102051 3357443.95071411 19.65451622 33 34 38
245622.43841553 3357440.65093994 20.08535576 38 44 44
245622.04937744 3357429.13815308 20.57695770 82 93 115
245622.71014404 3357431.63983154 19.60914421 58 58 58
245622.87872314 3357429.11517334 19.90268135 0 1 3
245621.93304443 3357435.97689819 19.46468163 107 100 90
245622.50653076 3357431.89340210 20.36919785 166 167 169
245621.74682617 3357430.06951904 20.69464493 56 56 68
245622.36761475 3357430.28158569 19.96394157 14 15 20
245622.13739014 3357439.78955078 20.16389084 40 40 40
245621.72851563 3357436.19116211 20.22712898 243 244 239
245620.51397705 3357439.50888062 20.35663795 54 56 53
245619.37237549 3357431.40118408 20.44270515 159 195 211
245618.81683350 3357432.01123047 20.29183006 153 176 208
245620.58740234 3357436.43347168 20.82686424 214 218 217
245618.78649902 3357428.47906494 20.12028122 7 10 15
245619.67840576 3357439.44076538 19.55945587 152 148 139
245619.97375488 3357429.21969604 20.30397606 151 187 199
245622.33789063 3357431.10147095 20.31410027 84 87 96
245620.02618408 3357441.51495361 20.06854630 26 30 31
245622.61907959 3357439.14035034 20.03823853 160 157 148
245621.93670654 3357436.13525391 19.97052383 247 247 245
245623.46734619 3357441.72988892 19.64114571 50 51 43
245621.87152100 3357436.23519897 20.39864731 205 206 201
245618.49401855 3357428.69851685 20.24367714 64 74 84
245622.24468994 3357443.38702393 20.11606789 110 103 97
245621.20251465 3357430.00595093 20.63435364 85 88 97
245620.41827393 3357438.59808350 19.69763184 32 31 26
245621.75317383 3357428.54867554 20.16496468 11 12 17
245621.74658203 3357428.53750610 19.94877434 19 20 24
245619.23077393 3357440.29772949 20.17144394 63 80 96
245622.27124023 3357439.84329224 20.18941116 30 31 26
245619.65948486 3357444.20806885 19.50406647 48 51 56
245620.47229004 3357437.72177124 20.70798492 18 24 24
245623.18798828 3357436.14874268 19.18228149 120 101 86
245621.61096191 3357436.10595703 19.73433304 98 98 96
245623.51281738 3357435.76803589 19.60660934 141 145 86
245621.21307373 3357438.45288086 20.23707771 36 36 34
245619.17584229 3357439.37744141 19.44071960 131 128 119
245622.68261719 3357431.06842041 19.26445007 97 101 102
245619.06945801 3357438.00570679 19.99162865 20 21 23
245623.06030273 3357429.91995239 19.32992554 46 48 45
245621.37164307 3357444.09411621 19.84233665 26 25 30
245618.99957275 3357438.54586792 19.31136703 150 138 124
245618.34576416 3357429.06494141 20.12994385 84 91 107
245620.07586670 3357437.86260986 20.44394112 196 205 210
245622.68566895 3357431.48611450 19.59117317 32 32 34
245620.65399170 3357442.79016113 20.44788742 25 35 44
245620.88812256 3357438.63555908 19.47126198 68 64 61
245619.28216553 3357428.21896362 19.44320488 113 115 104
245622.08984375 3357431.10266113 20.57205582 83 83 95
245618.89086914 3357437.99267578 19.94669342 11 11 13
245622.77563477 3357428.92315674 19.95738983 86 84 89
245621.53564453 3357430.25433350 20.17627144 1 6 25
245621.93762207 3357443.91845703 20.09389114 52 51 49
245621.71032715 3357439.19030762 20.16887283 68 73 69
245620.51483154 3357439.27981567 19.59535599 164 155 140
245618.09143066 3357436.88726807 20.05089760 153 161 172
245619.19738770 3357437.94882202 20.14751244 55 56 60
245623.11059570 3357438.74627686 19.81504631 39 42 35
245619.50842285 3357441.35290527 20.09267235 1 4 9
245618.93603516 3357437.99346924 19.71965981 26 28 27
245619.23590088 3357437.91061401 20.20225906 58 62 65
245618.69238281 3357441.03854370 20.33146477 28 35 41
245621.31976318 3357441.62680054 20.75763321 76 82 82
245623.29089355 3357430.98452759 19.85153580 42 52 25
245623.25347900 3357429.93865967 19.86857796 12 22 14
245621.08905029 3357443.54888916 20.21696472 9 10 12
245618.57342529 3357441.46960449 19.22997284 221 211 201
245619.92767334 3357437.47546387 20.55075264 82 119 128
245619.90924072 3357439.83184814 20.57772827 77 85 96
245618.62200928 3357438.53717041 19.30963326 139 131 120
245619.06762695 3357442.07937622 19.29746628 162 155 147
245621.16229248 3357428.47592163 19.74623299 26 27 32
245621.59558105 3357441.52331543 20.75522041 64 68 69
245620.22418213 3357441.39648438 20.28988266 55 68 74
245622.36669922 3357430.83767700 19.54026985 85 86 88
245623.10992432 3357439.85635376 19.74241257 45 47 44
245620.29858398 3357430.32009888 20.20080948 8 14 26
245619.10156250 3357437.31707764 20.39865303 110 120 132
245622.18524170 3357432.54248047 20.32347870 74 74 76
245619.35321045 3357436.12976074 20.11017799 213 213 215
245620.38024902 3357430.99468994 20.43179703 196 198 210
245618.25994873 3357432.33694458 19.89101410 150 151 153
245618.38250732 3357441.22692871 19.27146721 230 220 211
245618.51599121 3357428.52276611 19.81200790 35 42 48
245620.64007568 3357438.21658325 20.12012482 14 13 18
245620.69427490 3357441.19152832 20.57735634 0 1 0
245619.39483643 3357440.22976685 20.46308136 80 96 109
245623.34631348 3357431.87118530 19.96432114 33 38 15
245621.02990723 3357442.13708496 20.58608818 116 120 121
245623.06768799 3357439.22003174 19.75405121 61 61 53
245620.98339844 3357441.96206665 20.62995338 177 176 171
245620.93054199 3357431.11712646 20.67594910 1 1 3
245619.24822998 3357428.37139893 19.52458382 34 34 32
245619.69543457 3357439.80554199 20.58100128 62 72 81
245622.01751709 3357431.69940186 20.74341393 143 151 174
245620.34863281 3357428.21362305 19.43644714 121 121 97
245618.26495361 3357436.52529907 20.13851547 241 242 247
245620.52764893 3357442.70495605 20.46015358 37 48 54
245618.73913574 3357441.21664429 19.88999557 46 49 54
245619.90161133 3357437.59381104 20.54076576 150 175 182
245619.56713867 3357436.76495361 20.40734291 105 143 164
245621.83642578 3357436.94143677 20.78128052 19 21 16
245618.70526123 3357442.87814331 19.68815041 32 45 62
245618.64837646 3357441.82626343 19.22067642 192 185 177
245621.20587158 3357437.82910156 20.46651459 81 82 86
245623.61151123 3357439.13241577 19.71352005 114 126 86
245620.30029297 3357441.14364624 20.41295815 199 197 202
245620.92462158 3357442.58184814 20.50832939 0 4 5
245619.61267090 3357436.45706177 20.39945412 143 173 184
245620.89208984 3357429.99624634 20.60847282 6 10 19
245623.22448730 3357435.83551025 19.13684273 133 115 93
245620.17596436 3357432.19213867 20.87896538 210 224 233
245621.67828369 3357428.54104614 20.09420395 12 15 22
245618.62170410 3357430.21112061 19.97901917 28 37 44
245621.64068604 3357437.48245239 20.78943634 28 29 24
245618.16534424 3357437.56445313 19.95148659 250 248 251
245620.74169922 3357428.60876465 20.45056915 60 59 67
245621.93652344 3357436.13854980 19.98390770 247 247 245
245620.96759033 3357435.82641602 19.32188606 142 121 92
245620.03118896 3357430.97204590 20.44508171 115 119 131
245622.45410156 3357436.36669922 20.36618996 137 142 138
245620.62817383 3357440.15069580 20.57649231 17 18 20
245622.45568848 3357437.95629883 20.09085083 29 30 32
245621.33569336 3357444.20455933 19.74105072 40 41 46
245618.71044922 3357439.10708618 19.31424904 151 145 133
245621.37493896 3357441.08380127 20.56659508 37 41 40
245619.72387695 3357431.82821655 20.35848427 137 182 205
245619.60748291 3357443.94766235 19.94327545 52 53 55
245619.06671143 3357441.31793213 19.96528816 11 12 16
245619.14025879 3357436.57934570 20.41882706 138 148 158
245619.05169678 3357436.09069824 19.82462692 143 143 143
245619.03552246 3357430.93164063 20.01524734 89 90 94
245620.95593262 3357442.25903320 20.51746750 112 113 115
245622.36566162 3357438.88009644 20.11360168 145 146 140
245618.92590332 3357431.68365479 20.38883400 149 173 207
245622.33862305 3357438.29037476 20.05531502 33 35 32
245620.41143799 3357439.43710327 20.14179420 0 0 2
245618.58746338 3357437.41281128 20.14728546 177 187 197
245621.83111572 3357441.41336060 20.77308273 67 67 67
245622.58666992 3357431.29669189 19.79941368 112 108 109
245623.52923584 3357438.98184204 19.33945084 133 140 96
245622.48181152 3357432.35833740 20.21449280 81 86 82
245619.44610596 3357438.68542480 19.30038452 158 151 135
245620.56549072 3357428.52398682 20.02883720 13 18 22
245620.70166016 3357429.86416626 20.91344833 56 72 98
245619.16027832 3357437.62145996 20.42463493 127 137 147
245618.81298828 3357441.25823975 19.58030701 34 36 35
245622.28881836 3357428.42880249 19.45196915 43 44 48
245620.34344482 3357430.74346924 20.13385201 54 55 60
245620.43743896 3357428.52886963 19.97566223 18 21 26
245618.37249756 3357442.83505249 19.84383774 189 197 208
245620.87359619 3357438.63674927 19.46123505 68 64 61
245620.77838135 3357430.53884888 20.04050636 33 34 38
245619.52124023 3357432.04376221 20.39078140 127 174 200
245621.40466309 3357432.38082886 20.72064018 50 61 67
245619.39147949 3357429.56317139 20.47834206 6 22 56
245620.62622070 3357436.13012695 20.25378799 250 250 248
245621.58044434 3357429.96691895 20.83889580 52 65 84
245619.92303467 3357438.57962036 19.87973404 42 41 36
245619.57757568 3357436.83755493 20.42032623 108 146 169
245623.07653809 3357439.45489502 19.70567322 62 65 56
245621.93957520 3357437.91549683 20.20147324 65 69 68
245619.07763672 3357441.35906982 19.70181656 23 24 28
245622.32928467 3357436.15856934 20.03816032 186 191 187
245621.99792480 3357435.81893921 19.27762413 108 95 78
245621.19366455 3357430.85433960 20.21176338 32 29 36
245621.89587402 3357436.00100708 19.50562286 89 86 79
245622.22827148 3357428.49822998 19.60112953 29 29 29
245622.11584473 3357443.85830688 20.12721825 49 49 49
245619.35449219 3357436.14035034 20.20001984 226 226 228
245621.38323975 3357439.03118896 19.50662804 138 126 112
245619.02734375 3357441.31192017 19.96240616 12 13 17
245621.74584961 3357441.15142822 20.59331512 24 26 25
245618.56646729 3357437.91961670 19.79095459 20 20 22
245621.52850342 3357443.30218506 19.82824516 23 32 41
245618.28460693 3357436.39831543 20.16722679 206 207 212
245622.64776611 3357428.67224121 19.84536743 53 54 56
245618.38598633 3357443.65737915 19.45922470 42 38 37
245620.20465088 3357439.90768433 20.58866882 76 85 92
245620.14514160 3357439.29803467 19.58611107 180 171 156
245621.70471191 3357430.55670166 19.95119476 43 44 49
245619.82781982 3357436.34536743 20.42382431 39 48 55
245621.36297607 3357436.10269165 20.10705566 241 240 238
245619.05633545 3357443.41873169 19.72335243 30 47 63
245618.55383301 3357443.03176880 19.71041489 51 68 88
245622.60632324 3357439.13629150 20.04279137 160 157 148
245619.71105957 3357437.56472778 20.43334198 137 169 182
245619.62268066 3357438.44580078 19.58867455 50 51 45
245623.32708740 3357430.34115601 19.53115845 32 43 35
245621.26489258 3357431.14202881 20.61084938 0 1 6
245619.18389893 3357440.56484985 20.13434219 42 60 72
245623.05541992 3357438.67962646 19.89187050 37 38 33
245618.69830322 3357439.49230957 19.34071159 144 136 125
245623.05505371 3357429.95498657 19.31258011 51 53 50
245620.87561035 3357431.72647095 20.85904312 44 54 66
245621.61340332 3357431.90130615 20.85358047 152 160 183
245619.85290527 3357442.56927490 20.14057541 243 244 246
245621.95776367 3357444.32974243 19.46240234 58 63 67
245622.22222900 3357436.65414429 20.68987083 242 244 243
245621.14245605 3357440.80020142 20.34790993 45 47 44
245618.44049072 3357431.23583984 20.19924164 227 229 224
245618.82464600 3357438.40921021 19.31517410 139 127 113
245622.49066162 3357431.80816650 20.41581917 160 164 165
245622.72637939 3357437.65289307 19.98334122 43 39 36
245618.92694092 3357428.46957397 19.82328987 20 24 25
245620.74938965 3357432.33999634 20.86102676 161 171 183
245620.68316650 3357437.28320313 20.84489059 11 15 16
245622.15692139 3357440.95260620 20.36303329 34 34 34
245618.41058350 3357441.41720581 19.23593521 231 218 209
245621.87084961 3357429.14172363 20.63747025 24 37 72
245623.02069092 3357444.17556763 19.32845879 42 43 45
245622.01812744 3357436.40518188 20.68278503 245 245 243
245622.39886475 3357432.62695313 20.05093765 49 51 50
245618.58142090 3357440.99487305 19.99485016 103 107 108
245621.36328125 3357428.67214966 20.37082481 64 67 74
245618.60412598 3357429.57388306 20.24512291 21 52 109
245621.26818848 3357438.13140869 20.19396019 29 39 40
245618.66967773 3357430.29730225 19.79064941 50 57 63
245621.09356689 3357430.26501465 20.24680901 9 19 29
245620.72619629 3357436.08663940 19.85518265 242 242 240
245620.13879395 3357439.71173096 20.43571663 55 63 74
245623.00726318 3357444.14889526 19.39606857 54 58 59
245620.98254395 3357441.36251831 20.73452950 49 58 57
245618.34533691 3357432.11416626 20.12905121 237 242 245
245620.65441895 3357442.21582031 20.11075020 49 46 41
245619.11053467 3357430.93872070 19.99293900 64 63 68
245622.84002686 3357444.04638672 19.72417831 37 41 42
245619.62829590 3357437.54730225 20.44586563 135 171 183
245619.82666016 3357436.75622559 20.37229919 81 118 137
245621.44122314 3357428.68917847 20.49033928 43 46 51
245620.26727295 3357430.58511353 20.10149384 27 30 35
245619.69732666 3357443.44885254 20.04580498 143 179 191
245621.56860352 3357431.69192505 20.83888435 100 111 133
245621.49481201 3357429.38192749 20.78913307 69 84 105
245623.08935547 3357428.72726440 19.32577705 37 38 30
245623.34710693 3357431.38168335 19.76442719 75 89 30
245619.56536865 3357436.89410400 20.42920113 106 147 169
245623.03143311 3357439.83020020 19.79932404 50 52 49
245621.38592529 3357429.22088623 20.79091263 59 71 85
245619.22436523 3357437.73721313 20.40818787 135 146 152
245622.11694336 3357436.38000488 20.65051651 89 89 87
245622.02117920 3357442.92919922 20.04604912 45 47 46
245620.77392578 3357436.10388184 19.99361420 220 221 216
245618.56549072 3357438.12829590 19.33037376 150 138 116
245619.90917969 3357444.28579712 19.51071930 64 68 71
245620.23663330 3357441.93820190 19.71585846 107 102 96
245618.93572998 3357431.71636963 20.39626694 148 171 203
245623.08892822 3357429.45977783 20.00092125 0 1 3
245618.69183350 3357442.30383301 19.35012436 129 124 118
245622.81884766 3357431.43402100 19.27282333 28 32 33
245623.73364258 3357444.18731689 19.37655640 129 138 83
245619.75799561 3357431.46594238 20.32503319 135 176 198
245621.07568359 3357441.65936279 20.71976662 78 84 84
245618.80969238 3357428.76980591 20.34593773 11 37 86
245623.10821533 3357441.15457153 19.96655655 17 18 20
245622.54443359 3357440.07485962 20.12405014 110 112 101
245619.37640381 3357441.74975586 19.23478127 172 164 153
245619.01306152 3357430.96551514 20.18002129 16 21 27
245619.67547607 3357443.60989380 20.10597992 106 125 132
245622.30670166 3357439.43960571 20.12013245 86 87 81
245622.68249512 3357428.83679199 20.13757515 6 0 0
245620.15979004 3357428.25976563 19.43808174 121 116 94
245621.05303955 3357436.40121460 20.81676674 197 201 200
245623.50469971 3357436.24606323 19.32239914 137 131 97
245621.69787598 3357442.62103271 20.35314560 21 22 24
245621.50030518 3357439.38751221 20.18869781 20 21 23
245621.07080078 3357443.14678955 20.12746811 51 64 73
245618.91210938 3357441.56497192 19.25160789 140 136 127
245621.81329346 3357430.57574463 19.96702957 43 44 48
245619.07604980 3357442.27944946 19.95281219 9 12 19
245622.67712402 3357431.65899658 19.83129311 171 170 168
245619.36859131 3357442.64157104 20.08618927 54 58 67
245619.53643799 3357429.45147705 20.52154541 149 173 183
245619.60510254 3357440.32580566 20.45326996 106 122 135
245623.54650879 3357436.15588379 19.64057922 97 105 48
245623.32824707 3357431.15716553 19.46483612 127 129 118
245622.24725342 3357441.14953613 20.49378014 30 32 31
245621.51458740 3357444.28536987 19.54327583 61 66 69
245620.08197021 3357436.87527466 20.66321754 54 72 86
245620.59448242 3357438.50601196 19.98126793 43 45 40
245623.57940674 3357440.82409668 19.70850372 84 90 54
245623.16204834 3357436.43582153 19.36785889 85 77 64
245620.81445313 3357428.54025269 19.91811562 20 21 26
245623.53448486 3357441.46307373 19.61997032 84 90 62
245620.08709717 3357443.80422974 20.22528267 51 52 54
245623.34655762 3357432.13180542 19.90324020 32 35 14
245621.52978516 3357439.28704834 20.18878746 66 76 75
245621.63909912 3357442.78643799 20.12004280 81 82 86
245620.69775391 3357440.79837036 20.36487389 39 39 37
245622.63787842 3357432.03857422 20.06931305 132 132 130
245618.55871582 3357443.86856079 19.31962013 217 208 201
245619.61132813 3357437.86770630 20.35438538 190 191 196
245618.30505371 3357436.25479126 20.03168678 237 240 247
245620.99493408 3357431.29290771 20.92452049 178 184 196
245622.73791504 3357432.29595947 19.70111656 60 61 63
245621.39129639 3357438.11578369 20.20881844 25 33 35
245620.83026123 3357439.35180664 19.85293961 40 41 36
245619.26336670 3357438.76867676 19.30953789 162 153 144
245619.38848877 3357430.96011353 20.20268250 18 25 33
245619.55944824 3357436.31439209 20.43660164 164 182 186
245621.05865479 3357430.00967407 20.75366974 133 141 152
245619.67510986 3357435.98550415 19.58962250 126 117 112
245618.51904297 3357440.09689331 20.42721748 85 92 98
245619.45904541 3357441.85998535 19.24784660 160 150 140
245621.09973145 3357436.38491821 20.79358482 227 231 232
245618.48791504 3357440.75552368 20.45276070 42 53 57
245620.07189941 3357431.37103271 20.82836723 220 227 237
245622.29681396 3357443.71292114 20.12354279 24 25 29
245622.79260254 3357430.88784790 19.25858688 78 81 86
245620.32623291 3357441.96389771 19.70791626 137 134 127
245623.12176514 3357429.06692505 19.87704086 23 28 24
245623.06085205 3357430.63848877 19.29071426 96 98 97
245618.48864746 3357440.29306030 20.45571327 33 43 52
245620.06024170 3357436.11291504 20.00654221 229 229 227
245620.38745117 3357436.05932617 19.73637009 176 175 170
245623.43902588 3357443.04016113 19.59416771 34 35 30
245618.20635986 3357431.59854126 20.05349350 155 157 156
245620.79882813 3357428.51742554 20.10887527 19 18 24
245620.09979248 3357430.52679443 20.21284676 47 50 55
245619.82904053 3357436.44250488 20.39195824 157 177 186
245623.45434570 3357439.17242432 19.34542084 132 132 104
245618.72424316 3357439.23428345 19.31552315 143 135 124
245618.64288330 3357442.13946533 19.20782089 191 184 176
245620.08081055 3357432.25024414 20.79116058 137 158 177
245620.04626465 3357428.80584717 20.61693764 113 132 146
245621.33599854 3357432.01785278 20.84990883 35 47 63
245619.98413086 3357443.33554077 20.07914734 119 151 164
245621.60357666 3357438.87658691 20.31770325 167 172 166
245618.53955078 3357437.91296387 19.80409050 14 15 17
245622.18658447 3357440.07983398 20.20791245 13 15 10
245620.05834961 3357439.14801025 19.47925186 167 155 139
245619.94403076 3357431.25332642 20.61385536 161 170 185
245620.98461914 3357429.91729736 20.95428276 90 99 132
245621.66845703 3357437.65734863 20.62763405 113 115 114
245621.51947021 3357442.61895752 20.44831657 13 15 14
245621.73461914 3357444.32711792 19.40148163 60 61 65
245619.16387939 3357428.37548828 19.51921654 37 39 38
245621.74316406 3357429.39627075 20.73316383 41 63 102
245619.29992676 3357431.97006226 20.48601341 117 145 166
245623.45660400 3357435.86486816 19.22826195 186 171 152
245620.21313477 3357430.19482422 20.37928772 45 52 62
245619.96594238 3357429.44866943 20.58196831 141 175 187
245622.86151123 3357439.34884644 19.93847847 102 102 92
245621.55767822 3357444.24838257 19.58776855 57 60 65
245621.77117920 3357429.70297241 20.80724335 32 55 107
245618.94763184 3357432.07070923 20.37839699 147 167 200
245619.58221436 3357430.47784424 19.89490700 40 41 43
245622.30957031 3357428.26187134 19.35128403 48 41 25
245621.83795166 3357430.13891602 20.53771973 19 22 31
245619.00341797 3357437.28854370 20.35807419 119 131 145
245620.87213135 3357436.03237915 19.55837250 115 112 105
245618.41351318 3357431.05920410 19.70532990 131 130 135
245619.38671875 3357429.71658325 20.45357704 13 36 68
245621.31085205 3357439.73538208 20.42288589 14 15 17
245623.22717285 3357439.21569824 19.54134178 56 57 51
245621.45404053 3357430.84747314 20.08028793 27 32 35
245619.71960449 3357444.10327148 19.87197685 23 24 28
245623.25878906 3357440.72360229 19.58982277 0 1 0
245623.34381104 3357438.97753906 19.33626366 101 104 87
245621.90209961 3357443.03555298 19.91369438 37 33 34
245622.59777832 3357431.21762085 19.46453857 37 37 37
245622.61029053 3357437.56649780 20.41194725 81 76 70
245618.90405273 3357431.80822754 20.36470222 145 168 200
245620.72552490 3357428.86831665 20.81528664 43 44 62
245623.38616943 3357442.80444336 19.52003288 36 36 34
245618.69042969 3357430.54757690 19.73696518 51 54 59
245623.50531006 3357435.75759888 19.36255264 131 123 84
245619.48077393 3357438.82458496 19.29348755 161 153 140
245619.70422363 3357438.48065186 19.39660454 104 101 92
245622.40582275 3357432.35974121 20.30987930 175 180 176
245621.54180908 3357432.45318604 20.60965538 19 22 29
245619.14038086 3357443.95611572 19.58648109 54 53 59
245619.60766602 3357436.07852173 19.81887436 224 224 222
245622.30767822 3357428.31054688 19.36369133 42 38 35
245618.71185303 3357430.12072754 20.27765846 187 199 225
245619.34167480 3357430.42993164 19.71657753 36 37 39
245622.37591553 3357437.75799561 20.24581337 43 43 45
245622.23675537 3357435.92254639 19.29208183 115 101 88
245621.73681641 3357439.68844604 20.11510277 17 21 20
245623.15228271 3357444.06936646 19.18268776 29 29 27
245623.05133057 3357444.32397461 19.24342918 48 49 51
245622.09057617 3357443.45315552 20.12421227 123 124 126
245621.32690430 3357431.59057617 20.84045219 51 62 80
245623.26562500 3357428.66198730 19.67617607 19 26 19
245622.22845459 3357436.11776733 19.83329773 172 171 167
245621.47180176 3357439.78408813 20.28949738 63 67 66
245619.92053223 3357437.59988403 20.57157326 147 172 179
245618.08526611 3357437.08636475 20.02108574 130 157 176
245618.19238281 3357443.14218140 19.58899689 226 239 255
245622.79101563 3357440.20050049 20.02635384 124 125 117
245621.77856445 3357443.93188477 19.88053703 20 20 20
245619.14367676 3357439.45782471 19.52244186 247 248 242
245620.85510254 3357435.92266846 19.38777733 134 120 107
245618.45867920 3357440.25436401 20.37335396 63 77 80
245620.34027100 3357439.43011475 20.05318069 0 0 0
245619.64764404 3357442.26275635 19.73750687 31 31 33
245619.03649902 3357430.39385986 19.87995911 40 44 43
245621.71667480 3357437.74041748 20.48436546 23 23 21
245622.50030518 3357439.07507324 20.06907272 152 149 140
245619.99224854 3357443.40933228 20.13640213 118 149 167
245619.77099609 3357429.27224731 20.38925934 150 184 193
245620.33178711 3357442.00726318 19.68978882 156 150 138
245620.97601318 3357432.44888306 20.57899475 15 15 17
245618.62683105 3357438.45230103 19.31227684 143 128 121
245622.06683350 3357438.26660156 20.04967499 55 57 52
245620.89501953 3357439.87512207 20.67317963 20 29 28
245622.75354004 3357430.39425659 19.37107658 37 38 40
245620.93353271 3357440.11038208 20.58429527 31 35 38
245623.17797852 3357439.14141846 19.62290955 30 30 22
245621.61376953 3357443.83908081 20.16397095 39 43 44
245620.84429932 3357429.38534546 20.84138298 52 68 91
245622.61047363 3357429.78637695 20.47704697 49 49 51
245623.04437256 3357439.70190430 19.74809647 54 56 53
245623.07635498 3357429.78308105 19.74011230 30 39 38
245619.43664551 3357436.10733032 19.97866058 211 211 213
245620.67199707 3357432.56088257 20.47990227 28 28 30
245620.74365234 3357443.90728760 20.33482170 32 34 33
245621.05090332 3357437.04751587 20.90383720 5 9 8
245619.13500977 3357440.79122925 20.22637749 34 53 67
245622.33270264 3357430.09121704 20.43526077 26 28 40
245619.70581055 3357431.16876221 20.27194405 181 197 210
245620.49108887 3357438.29745483 20.07146072 15 17 16
245618.48382568 3357440.39532471 20.46344566 36 50 59
245623.28778076 3357430.98718262 19.88119316 40 51 21
