246105.50341797 3357596.87341309 13.40070343 186 176 174
246106.80175781 3357596.50823975 13.39091873 195 189 175
246107.55139160 3357597.35772705 14.66194153 93 34 52
246108.78222656 3357597.26165771 14.00130939 122 97 100
246108.00390625 3357596.24920654 14.30158901 174 106 119
246107.05688477 3357596.80487061 13.57531166 124 58 68
246105.75170898 3357598.10382080 13.92421913 121 28 47
246105.97033691 3357596.77929688 13.53290367 165 137 133
246108.49951172 3357596.72253418 14.43314934 32 35 44
246107.94909668 3357596.66149902 14.51700687 145 33 55
246105.60449219 3357598.59881592 13.89599228 33 28 34
246106.96813965 3357596.82501221 14.61090469 179 77 101
246107.80322266 3357598.10076904 13.97509289 51 51 51
246106.27294922 3357596.65997314 13.39409351 195 183 171
246109.06823730 3357597.22521973 13.71860027 176 168 166
246106.78930664 3357597.57745361 14.38428211 117 135 145
246105.20166016 3357597.15167236 13.93426323 238 212 221
246105.56298828 3357598.73077393 13.36526108 183 176 166
246107.63061523 3357596.40936279 14.38654423 26 15 19
246108.23193359 3357597.60913086 14.26302338 22 8 7
246106.51855469 3357598.09283447 14.23916435 77 93 108
246105.24621582 3357597.47601318 14.05009460 171 51 78
246107.10839844 3357597.21429443 14.71067524 34 22 34
246105.75378418 3357598.82757568 13.62089062 160 152 139
246107.53869629 3357596.39392090 14.31612873 48 15 22
246108.59545898 3357596.52056885 14.39793491 75 68 76
246106.51586914 3357596.63073730 13.78596115 152 107 110
246106.40563965 3357596.81616211 14.35317993 137 106 121
246108.89904785 3357596.17700195 13.50123310 92 71 68
246107.27136230 3357596.57720947 13.76335907 162 107 113
246107.15161133 3357596.74389648 13.60730934 115 41 54
246106.63964844 3357598.32501221 14.20072746 39 19 21
246105.18664551 3357597.06439209 13.59502411 127 105 108
246106.42102051 3357596.96002197 14.32116222 128 152 178
246109.42675781 3357596.68994141 13.52989006 113 107 109
246108.69592285 3357597.64300537 13.97099113 58 42 43
246106.67114258 3357597.81652832 14.17913532 46 73 92
246107.50842285 3357596.50439453 14.46899033 26 15 21
246107.19128418 3357596.64080811 14.52931499 91 65 76
246107.97180176 3357596.47845459 14.55063915 129 46 66
246108.06713867 3357596.33953857 14.48331356 109 42 59
246108.12939453 3357596.91162109 14.40482807 133 45 61
246105.76855469 3357596.90039063 14.08165169 194 88 111
246106.15698242 3357596.72204590 14.15909672 170 94 107
246106.50854492 3357596.61676025 13.94282055 140 78 89
246105.60852051 3357598.67913818 13.55263615 53 49 48
246107.08496094 3357596.87359619 13.62265778 187 177 168
246107.63452148 3357597.06146240 14.53942204 135 25 52
246106.05761719 3357597.55798340 14.24031353 52 64 86
246107.63952637 3357598.06396484 14.01611900 45 40 44
246109.03112793 3357596.69146729 13.63729095 101 82 88
246106.71630859 3357598.49963379 13.94738388 55 50 54
246107.35595703 3357597.86749268 14.59521389 39 7 8
246106.18029785 3357598.48168945 13.89511871 37 12 16
246106.92980957 3357596.87536621 13.51342392 157 116 122
246106.77709961 3357598.12451172 14.40015411 46 23 29
246107.15686035 3357598.24499512 14.01873589 46 44 45
246108.49023438 3357597.74560547 14.03594017 46 31 34
246107.53344727 3357598.12084961 13.99980450 53 44 47
246106.20397949 3357597.31689453 14.23148823 99 146 172
246107.31115723 3357596.51910400 14.39710903 23 16 23
246107.41711426 3357596.85168457 14.68446255 118 33 52
246108.36145020 3357596.11853027 13.98956490 124 48 60
246105.53710938 3357596.89941406 13.85522461 135 57 70
246105.45141602 3357596.92413330 13.76857662 146 78 89
246107.45288086 3357597.24920654 14.71328163 58 31 46
246107.04602051 3357598.01684570 14.50322151 27 9 9
246108.88208008 3357596.03179932 13.38790131 180 183 166
246105.19067383 3357597.49810791 14.03716564 180 55 89
246107.59838867 3357598.14727783 13.97289276 52 50 51
246109.36035156 3357596.96923828 13.59332848 116 105 109
246106.88696289 3357596.75683594 13.74031067 159 133 132
246108.29443359 3357597.72601318 14.23055172 41 29 31
246107.47131348 3357598.05767822 14.09721470 35 20 25
246106.29064941 3357597.86236572 14.22703362 61 92 110
246105.21313477 3357597.73486328 13.88146877 176 53 84
246106.92358398 3357597.78985596 14.50997639 64 50 65
246107.28808594 3357596.49310303 14.34960938 26 15 21
246107.59436035 3357597.94897461 14.25300407 38 27 31
246108.58581543 3357596.59661865 14.39610767 47 45 56
246109.07873535 3357597.36151123 13.87590313 114 102 102
246105.36499023 3357596.93719482 13.48883724 148 116 117
246107.46740723 3357596.55767822 14.52700615 67 34 43
246105.50671387 3357597.25061035 14.20382118 154 40 66
246109.43786621 3357596.90802002 13.56276608 117 108 109
246107.29687500 3357596.59338379 13.65804577 167 110 117
246105.35034180 3357597.83813477 13.85948753 147 35 60
246106.38793945 3357596.67529297 13.70395088 166 125 129
246105.40563965 3357597.00830078 13.92221355 156 75 94
246105.60949707 3357598.17980957 13.87838173 119 26 45
246106.09704590 3357596.76342773 13.67952728 169 122 128
246105.29565430 3357597.97698975 13.84294415 139 36 57
246105.40649414 3357596.94958496 13.75026321 140 80 88
246108.63671875 3357597.52044678 14.08369160 46 24 26
246105.50830078 3357596.87310791 13.43042088 187 177 175
246106.12646484 3357597.59204102 14.25172329 79 119 144
246105.60095215 3357598.66821289 13.59721375 55 51 52
246106.39624023 3357597.77496338 14.20146179 62 93 113
246106.04846191 3357597.58856201 14.24042606 49 57 78
246106.95996094 3357596.52416992 14.29151249 132 95 103
246106.96594238 3357597.75805664 14.55091763 89 38 55
246105.39636230 3357597.23846436 14.19012642 139 25 51
246107.58703613 3357597.64569092 14.65949059 145 62 80
246108.25976563 3357596.03485107 13.75107002 160 135 131
246107.67065430 3357597.35034180 14.54192257 125 29 56
246106.84643555 3357596.56359863 14.13082695 162 113 119
246105.91796875 3357597.02551270 14.21937084 130 89 107
246106.20886230 3357598.01611328 14.24260235 66 48 62
246108.54687500 3357597.56732178 14.13778114 46 30 31
246108.07373047 3357597.83990479 14.16164398 24 12 16
246108.52795410 3357595.96301270 13.37558174 178 176 164
246107.02673340 3357597.02520752 14.68299580 56 24 39
246108.02246094 3357597.53808594 14.32525444 127 47 60
246108.74279785 3357596.58142090 14.06519890 145 88 94
246105.33264160 3357597.10571289 14.05994701 168 66 90
246108.28210449 3357596.04132080 13.62175655 198 193 190
246108.50085449 3357597.08850098 14.24382591 134 114 115
246106.39514160 3357598.39715576 14.03039360 46 17 19
246107.51953125 3357596.31219482 13.50223827 158 125 120
246107.72741699 3357597.89990234 14.26362801 39 33 33
246108.13024902 3357597.47399902 14.25539875 136 55 70
246105.58996582 3357598.00256348 13.85439873 118 26 47
246107.65649414 3357596.30993652 13.63011932 145 93 95
246108.20166016 3357597.89160156 14.07771778 51 46 52
246108.75781250 3357596.43353271 13.86796379 112 65 75
246108.06250000 3357597.86547852 14.13633919 26 17 18
246106.09179688 3357598.46105957 13.96954441 62 17 24
246106.73730469 3357598.16821289 14.36541939 34 3 8
246108.69311523 3357596.61645508 14.18819904 130 93 100
246107.61828613 3357596.33081055 13.73994732 138 71 78
246108.73120117 3357596.52191162 14.07322979 152 90 95
246106.33593750 3357596.82983398 14.30734444 187 153 169
246105.57409668 3357597.56506348 14.01722145 140 32 56
246107.52587891 3357597.23004150 14.67101288 108 33 56
246107.21447754 3357596.75817871 14.63120556 162 62 86
246108.17285156 3357596.85833740 14.44848824 107 47 59
246108.59265137 3357596.16821289 13.73400116 110 59 66
246107.46630859 3357596.65539551 14.62055016 160 60 84
246105.30651855 3357597.78820801 13.87177086 159 45 71
246105.41589355 3357596.92193604 13.60185242 147 105 109
246107.09753418 3357596.52911377 14.06694889 154 112 114
246106.47961426 3357597.73706055 14.18156433 58 89 109
246106.90612793 3357596.93310547 14.63713264 168 54 79
246107.22949219 3357597.46130371 14.71278954 28 27 35
246105.78161621 3357598.59014893 13.79171467 40 30 29
246105.50561523 3357597.02227783 14.12219334 192 99 120
246106.86547852 3357596.58666992 14.06297016 161 119 121
246106.04077148 3357596.77856445 13.69355869 169 120 124
246105.86218262 3357597.68231201 14.11672783 130 33 53
246107.96350098 3357597.05493164 14.33778477 140 23 49
246106.51306152 3357597.21130371 14.30269527 95 125 151
246107.10803223 3357596.68469238 13.79893970 179 139 139
246105.13549805 3357597.28527832 14.04312801 167 99 124
246106.39990234 3357598.56396484 13.72875214 50 49 54
246107.22338867 3357596.51824951 13.94337749 149 97 101
246106.41625977 3357597.48510742 14.21763802 98 132 159
246108.64575195 3357596.20214844 13.86018276 94 33 40
246108.44433594 3357597.65551758 14.19219589 47 32 35
246109.55078125 3357596.83203125 13.50678253 120 120 118
246106.71972656 3357597.44885254 14.41590786 50 67 83
246106.95666504 3357598.16412354 14.25989532 64 43 48
246105.04895020 3357597.19049072 13.63895893 186 167 169
246106.05444336 3357598.22827148 14.12328148 133 40 61
246108.72155762 3357596.33734131 13.67630959 92 36 47
246106.79431152 3357596.66137695 13.55058002 173 145 144
246107.67614746 3357597.50103760 14.56857872 115 26 44
246106.08410645 3357598.49871826 13.86134148 34 5 10
246106.33911133 3357596.61499023 14.04988289 122 62 70
246105.56701660 3357596.96905518 14.06755924 180 91 111
246107.74121094 3357597.18206787 14.42870903 138 28 53
246106.41198730 3357597.52191162 14.21981812 97 131 158
246106.62658691 3357598.32525635 14.19073200 39 19 21
246106.37182617 3357596.66955566 13.74965000 155 108 114
246107.42517090 3357596.75018311 14.66421795 130 28 50
246107.92102051 3357597.43798828 14.35998344 150 39 58
246106.00146484 3357596.81256104 14.10302353 176 93 109
246104.95251465 3357597.35662842 13.45232773 177 163 162
246105.68481445 3357597.08514404 14.23189545 144 35 58
246105.76562500 3357596.84307861 13.89669704 125 33 48
246108.15588379 3357597.71746826 14.26478481 17 8 13
246106.67944336 3357598.17913818 14.34335995 41 6 12
246105.72875977 3357597.53814697 14.07227898 134 34 58
246108.28869629 3357596.02655029 13.54688740 209 214 208
246105.77062988 3357596.94464111 14.19102955 197 104 125
246107.34033203 3357598.05065918 14.22544765 55 43 43
246107.41149902 3357597.82635498 14.59739780 55 14 20
246106.45507813 3357596.65222168 13.57995796 180 152 148
246107.40185547 3357597.90875244 14.50213242 25 15 13
246105.14636230 3357597.91851807 13.87904072 142 47 71
246106.59570313 3357597.87438965 14.16004562 54 79 99
246109.47998047 3357596.80505371 13.54128551 117 113 114
246108.78076172 3357597.21533203 13.99949169 120 98 100
246108.04870605 3357596.12341309 13.83944416 134 79 84
246107.36877441 3357597.55706787 14.71425247 27 20 28
246106.47485352 3357596.60949707 14.11162663 123 63 73
246105.35559082 3357597.09844971 14.08445072 171 67 92
246108.69055176 3357596.34802246 13.98250198 108 42 52
246105.93212891 3357598.26434326 14.06097317 137 42 64
246106.88146973 3357597.91424561 14.46204853 81 83 98
246107.25781250 3357596.36468506 13.46201801 184 162 151
246108.33178711 3357596.04113770 13.73800945 105 81 81
246108.63879395 3357596.48913574 14.29960728 94 61 68
246109.10449219 3357597.24493408 13.70224857 175 166 167
246109.01184082 3357597.28033447 13.84833050 133 121 121
246104.90881348 3357597.43695068 13.44336796 180 166 165
246109.14086914 3357596.60595703 13.59342003 97 75 78
246107.11767578 3357596.48889160 14.22990799 171 126 131
246108.26318359 3357596.22760010 14.33193874 146 49 69
246108.21130371 3357597.33032227 14.21512032 128 25 46
246106.65332031 3357598.13256836 14.32741833 93 80 89
246106.98425293 3357597.04461670 14.67625332 123 50 69
246107.20239258 3357596.74920654 13.59782410 110 36 49
246106.91674805 3357596.70532227 13.56126022 137 88 94
246108.31677246 3357597.05120850 14.34368229 68 32 46
246106.55017090 3357596.65795898 14.28469086 102 69 78
246106.68664551 3357596.85015869 14.50529575 168 123 143
246106.02124023 3357596.76977539 13.54546833 166 136 134
246108.33862305 3357596.11712646 13.99392700 126 50 62
246106.08117676 3357596.75531006 13.82862282 142 76 86
246106.78369141 3357596.47875977 13.37150288 201 195 181
246106.31091309 3357597.75286865 14.22655392 67 99 120
246109.43798828 3357597.06060791 13.56395340 106 100 102
246107.08496094 3357596.52276611 14.11783123 171 126 129
246105.39196777 3357597.79260254 13.88036060 146 34 59
246108.59570313 3357596.10540771 13.51630592 122 111 107
246107.31103516 3357597.66479492 14.69122887 97 43 57
246106.42687988 3357597.86437988 14.18855095 59 86 107
246105.53869629 3357598.55505371 13.92516232 106 101 105
246108.52587891 3357596.67468262 14.42483616 48 51 60
246106.95336914 3357596.55267334 13.52212429 163 128 124
246108.50097656 3357597.06811523 14.26266861 118 99 103
246107.12353516 3357596.71081543 14.58259010 162 91 109
246104.97570801 3357597.69946289 13.90440369 168 107 125
246106.02160645 3357598.58178711 13.63996220 54 44 45
246105.56225586 3357598.62463379 13.47167301 47 42 38
246105.96325684 3357596.77813721 13.52730083 168 140 136
246105.05566406 3357597.55688477 13.97967911 218 96 135
246107.31579590 3357597.73077393 14.68174648 111 34 52
246108.42956543 3357596.93249512 14.42059422 39 42 51
246108.56445313 3357597.07196045 14.20820999 119 97 99
246105.60473633 3357598.24688721 13.89934826 126 37 55
246105.73779297 3357597.07977295 14.22834396 150 42 66
246107.90698242 3357596.91363525 14.38555431 150 31 59
246106.73999023 3357596.58551025 13.44881535 182 168 157
246107.87097168 3357596.21612549 13.76752949 131 72 76
246108.17456055 3357596.08062744 13.84125423 117 57 65
246105.83923340 3357596.87438965 14.08361530 190 84 107
246107.23132324 3357596.49664307 13.59258080 146 94 98
246107.47229004 3357596.60198975 14.58108997 141 69 89
246107.32470703 3357597.05456543 14.72809601 42 28 43
246107.87951660 3357596.66247559 14.51607227 148 36 61
246107.75390625 3357596.27819824 13.74821758 142 77 85
246109.01538086 3357596.35430908 13.55471039 75 52 58
246106.41577148 3357597.63214111 14.20836449 69 101 126
246108.76477051 3357597.17559814 14.00468826 115 96 98
246108.56945801 3357596.93347168 14.29129887 43 36 44
246106.78527832 3357598.34735107 14.25299263 69 37 42
246106.69702148 3357598.01965332 14.30999947 86 98 112
246108.61608887 3357596.12994385 13.54378986 130 115 110
246105.36083984 3357597.07049561 14.01281071 163 71 92
246107.29565430 3357597.96685791 14.46921539 16 6 5
246108.50891113 3357597.61181641 14.14561462 49 33 34
246104.91113281 3357597.54553223 13.59532928 164 152 154
246108.89379883 3357596.51519775 13.66416836 85 43 53
246105.31774902 3357596.92669678 13.40537071 203 175 174
246108.21325684 3357596.21362305 14.25545883 178 80 103
246107.50158691 3357596.93298340 14.65424252 122 28 52
246105.72119141 3357596.83636475 13.83224297 121 48 59
246106.94555664 3357597.61700439 14.60200787 135 46 66
246106.83752441 3357597.82775879 14.34648800 53 74 95
246107.33728027 3357596.75170898 14.66101456 148 44 69
246107.64184570 3357597.55334473 14.60611820 113 32 49
246107.54174805 3357597.58978271 14.69163132 97 34 51
246108.81335449 3357596.47930908 13.70058250 89 42 52
246107.84436035 3357596.49346924 14.53908920 144 52 73
246108.11718750 3357596.57690430 14.54577637 110 49 64
246105.48840332 3357597.77807617 13.90349674 138 35 56
246105.88122559 3357598.64953613 13.53989601 81 71 72
246106.17895508 3357596.68170166 13.98321152 146 83 92
246108.67749023 3357596.11260986 13.46740246 116 112 100
246107.66369629 3357597.64648438 14.59679604 144 64 77
246107.23022461 3357598.12768555 14.10805225 34 24 25
246106.94592285 3357597.34381104 14.68286133 153 36 62
246109.17687988 3357597.20367432 13.60983849 168 164 163
246107.31701660 3357596.84082031 14.69908905 118 33 52
246107.33972168 3357596.75531006 14.66350937 148 44 69
246105.87536621 3357597.21069336 14.20467663 138 89 111
246107.94458008 3357597.94781494 14.07274723 47 42 46
246105.39599609 3357597.08361816 14.12123680 188 86 110
246106.11828613 3357598.66900635 13.51182747 66 66 64
246107.91467285 3357596.43273926 14.53309631 123 52 70
246105.57214355 3357596.89184570 13.87373066 131 44 60
246108.09887695 3357597.78308105 14.21778011 44 33 39
246105.60205078 3357597.46453857 14.06877708 147 38 61
246105.16516113 3357597.56945801 13.98119736 189 57 94
246105.55505371 3357596.99896240 14.12699986 197 109 131
246108.45446777 3357596.08422852 13.71327972 128 92 94
246106.20263672 3357596.72619629 13.75740623 151 101 110
246105.16137695 3357597.06231689 13.51885986 149 117 122
246108.10888672 3357597.67608643 14.28117275 14 0 0
246106.33471680 3357596.64611816 14.23102570 106 52 65
246105.81384277 3357596.86853027 14.02193451 154 46 69
246107.87158203 3357597.55163574 14.41735744 184 85 105
246108.19677734 3357597.00262451 14.35929680 111 36 56
246106.66369629 3357597.49243164 14.20143604 96 118 142
246106.40161133 3357597.05895996 14.27503204 121 155 183
246105.85498047 3357597.91900635 14.03031731 125 30 52
246107.03918457 3357598.35803223 13.96902561 53 43 44
246108.77307129 3357595.98645020 13.36137199 185 192 174
246105.16430664 3357598.00799561 13.88386154 144 47 66
246106.66638184 3357597.41705322 14.28119946 87 109 133
246105.65417480 3357598.13183594 13.88332367 117 22 46
246105.79919434 3357597.07867432 14.22005749 148 50 75
246106.78234863 3357596.67669678 13.85746384 155 109 112
246107.56701660 3357596.77746582 14.60581112 142 29 57
246106.75573730 3357598.47979736 14.02243710 55 55 57
246105.77575684 3357597.48583984 14.10158062 143 37 59
246105.52734375 3357598.27880859 13.89663124 127 40 57
246107.32055664 3357597.89526367 14.59265041 30 9 8
246106.85498047 3357596.78979492 13.58650112 170 149 148
246106.07543945 3357597.70068359 14.24949551 41 44 61
246108.22814941 3357597.88281250 14.07600117 55 49 53
246106.63513184 3357597.35083008 14.31063175 81 105 129
246108.62878418 3357597.71295166 13.96699619 55 43 43
246107.32812500 3357596.93713379 14.71552277 82 38 53
246108.72302246 3357595.99700928 13.37423611 185 192 174
246105.77209473 3357597.40155029 14.13079166 148 41 61
246108.71337891 3357597.11395264 14.05076599 121 111 110
246107.15307617 3357596.66314697 14.54015064 127 80 96
246105.55615234 3357596.87591553 13.80847263 123 51 63
246107.30761719 3357597.77685547 14.66827106 112 31 46
246108.87695313 3357596.59521484 13.74631882 124 100 113
246107.28771973 3357596.55932617 14.45698547 27 24 31
246107.89819336 3357596.53979492 14.53081799 134 34 58
246106.68908691 3357597.98828125 14.27115345 100 113 130
246108.61315918 3357596.18170166 13.89159584 106 36 46
246107.28991699 3357597.86010742 14.63550186 67 18 24
246109.07751465 3357597.18792725 13.69062710 169 164 161
246109.56738281 3357596.94702148 13.49951839 123 124 126
246106.39904785 3357597.76116943 14.20131493 65 96 116
246108.33959961 3357596.78216553 14.50873947 75 75 87
246105.53833008 3357596.99133301 14.08649731 180 89 107
246105.93090820 3357597.88421631 14.10536098 118 27 45
246108.96374512 3357597.09399414 13.78614235 161 153 151
246108.86145020 3357596.31506348 13.56062317 87 48 51
246106.59106445 3357597.22192383 14.36609364 88 118 142
246108.71704102 3357597.07269287 14.06306553 121 109 109
246106.70507813 3357596.63946533 13.96231842 178 120 132
246105.26818848 3357597.01318359 13.59390259 138 108 110
246106.13781738 3357597.63909912 14.25553608 71 105 130
246106.63476563 3357597.26531982 14.41846466 78 104 127
246106.67346191 3357597.19409180 14.49450302 99 114 135
246105.07934570 3357597.12475586 13.58414841 126 101 105
246105.62768555 3357598.95306396 13.40872955 169 157 141
246107.28393555 3357596.62646484 14.55144596 82 41 57
246107.15161133 3357597.11053467 14.70774174 30 27 38
246107.66357422 3357596.30859375 13.68985939 143 84 88
246107.53991699 3357596.94891357 14.63790417 129 27 51
246108.18334961 3357597.72436523 14.25874805 31 22 27
246108.47924805 3357597.30572510 14.16044235 68 54 54
246108.78222656 3357596.88543701 13.96529961 89 66 74
246106.53564453 3357598.59637451 13.72666073 47 48 50
246107.57409668 3357596.35284424 13.80183220 135 64 72
246108.78002930 3357596.44665527 13.73971748 86 36 47
246108.23828125 3357596.90563965 14.44219017 82 41 55
246108.52929688 3357596.47644043 14.41994381 71 61 69
246107.28112793 3357597.27972412 14.72836971 25 25 35
246108.46118164 3357596.28973389 14.29975033 135 54 69
246107.71716309 3357596.47570801 14.50484371 79 31 43
246107.99023438 3357597.32940674 14.29857445 144 33 52
246106.63879395 3357597.76623535 14.16073799 52 80 102
246108.65441895 3357596.25390625 13.73015785 98 49 55
246107.38696289 3357596.42034912 14.07289982 160 84 96
246105.81359863 3357596.89062500 14.11440659 195 91 114
246106.88183594 3357598.01928711 14.46676064 68 48 59
246108.10754395 3357597.04187012 14.34119320 133 27 50
246105.80786133 3357596.81231689 13.76431751 124 71 77
246106.49243164 3357597.29144287 14.25770378 88 122 149
246105.04028320 3357597.26922607 13.87564278 254 255 255
246106.30041504 3357597.07800293 14.24153423 135 170 198
246109.35278320 3357596.90911865 13.59650993 116 105 109
246105.67773438 3357598.73278809 13.70842457 52 48 45
246107.44226074 3357597.43450928 14.72963810 24 16 27
246106.74938965 3357598.37359619 14.22058392 54 34 35
246105.77062988 3357597.51983643 14.08833790 140 36 61
246107.17004395 3357596.90100098 13.51410961 127 55 69
246107.69018555 3357596.78106689 14.52915668 143 28 59
246106.82348633 3357597.34802246 14.63646126 153 53 79
246108.14904785 3357597.38403320 14.23395538 134 31 50
246106.36816406 3357596.72937012 14.31028843 73 31 43
246107.96276855 3357597.42895508 14.33365345 148 40 56
246107.58068848 3357596.29736328 13.50812531 164 134 126
246105.36437988 3357596.93548584 13.47676468 148 116 117
246107.05371094 3357597.21093750 14.70276546 54 22 35
246105.17761230 3357597.55664063 13.99203873 186 58 93
246106.29577637 3357598.61614990 13.62726498 55 54 59
246107.27233887 3357596.83715820 14.68703365 114 33 50
246105.69323730 3357598.58294678 13.88645363 32 26 30
246105.98852539 3357598.14599609 14.11087227 122 27 47
246109.42785645 3357597.04217529 13.56874847 107 98 101
246105.44030762 3357597.30657959 14.16788578 163 46 73
246105.74169922 3357597.78094482 13.98890305 125 27 50
246107.64660645 3357596.30297852 13.55402279 149 110 105
246107.57946777 3357596.34356689 14.04601383 133 51 65
246106.71142578 3357597.63525391 14.20488834 92 117 137
246105.59655762 3357596.85913086 13.71050644 178 138 146
246105.15979004 3357597.65124512 13.91940594 188 61 91
246106.85083008 3357597.87274170 14.39345169 46 64 84
246107.40319824 3357598.14672852 14.00057507 45 37 35
246106.17492676 3357597.01800537 14.23287678 169 192 210
246107.05004883 3357596.77880859 13.71639729 187 141 144
246107.67163086 3357596.51397705 14.52469540 72 24 36
246108.26904297 3357597.37103271 14.20257473 138 57 72
246106.84448242 3357596.55841064 14.21449661 163 122 128
246106.82409668 3357596.82464600 14.54538822 172 90 112
246106.88439941 3357598.24169922 14.26848698 53 18 25
246105.53063965 3357598.38293457 13.94046402 71 13 28
246107.16735840 3357596.91918945 13.53612518 188 173 166
246106.86132813 3357596.56066895 14.14541626 170 125 130
246106.92675781 3357596.92053223 14.64247513 165 48 75
246105.50756836 3357597.15594482 14.19432068 134 24 51
246105.58239746 3357598.19006348 13.86849117 119 26 45
246107.75695801 3357598.11895752 13.96789742 50 50 50
246107.33557129 3357597.75421143 14.67515278 114 36 50
246109.25695801 3357597.01940918 13.61862946 133 123 124
246108.73107910 3357596.44171143 13.98424721 98 40 52
246105.93090820 3357597.76422119 14.14980030 127 32 56
246106.38452148 3357596.63378906 13.40233707 201 187 178
246107.18139648 3357596.52185059 14.37173080 42 40 43
246106.85009766 3357597.09094238 14.65043259 175 42 73
246105.66796875 3357598.35479736 13.95927238 92 15 31
246107.00952148 3357597.18920898 14.69468689 119 50 69
246108.14294434 3357596.67016602 14.51940918 101 47 63
246108.33776855 3357596.05700684 13.82156944 122 77 82
246108.58752441 3357596.13757324 13.59056950 126 100 99
246108.73522949 3357596.46954346 14.01499844 98 38 50
246105.05297852 3357597.14959717 13.48904228 198 186 188
246106.63269043 3357596.62762451 13.96230698 148 91 100
246106.95275879 3357597.49792480 14.65322876 154 35 63
246107.74206543 3357597.61199951 14.52109432 162 78 94
246106.67138672 3357596.66357422 13.79779243 164 122 124
246106.47814941 3357597.69238281 14.18616867 63 95 116
246107.83862305 3357597.38183594 14.39522266 134 25 48
246107.61352539 3357596.33239746 13.72087765 138 71 78
246105.94555664 3357598.55334473 13.76534081 27 5 7
246107.17614746 3357596.92828369 14.69665337 35 24 30
246106.93652344 3357597.95227051 14.52151775 94 82 94
246108.34265137 3357596.88653564 14.48555565 73 71 84
246107.43994141 3357596.41070557 13.99063301 132 55 65
246108.44616699 3357597.81365967 14.02710724 63 53 54
246105.41003418 3357596.89520264 13.43879414 190 172 168
246107.21191406 3357597.86523438 14.64101028 84 28 37
246106.05810547 3357597.05255127 14.22326374 185 211 234
246107.39062500 3357596.75183105 14.66456985 131 29 51
246107.02429199 3357598.10327148 14.32882118 31 17 17
246108.04162598 3357597.16473389 14.29358101 137 25 47
246106.11767578 3357598.50152588 13.84882927 31 9 12
246107.25683594 3357597.51873779 14.70721054 26 20 30
246107.48474121 3357596.37170410 14.15061951 171 93 107
246106.94860840 3357598.04217529 14.45843506 51 30 37
246108.70690918 3357596.24884033 13.58288288 101 54 62
246105.64099121 3357598.58276367 13.90307140 29 24 28
246105.66931152 3357598.81811523 13.52547836 135 128 112
246108.49731445 3357597.57061768 14.17270660 31 17 17
246108.61767578 3357596.76879883 14.28249073 48 42 54
246107.86389160 3357596.40698242 14.48992634 77 37 46
246108.68750000 3357597.37884521 14.05386353 71 32 35
246106.89404297 3357597.39672852 14.65764046 163 43 71
246105.92321777 3357596.78723145 13.72064686 157 107 110
246107.76965332 3357597.89971924 14.23002911 45 36 37
246106.85742188 3357597.95343018 14.44506073 99 98 114
246105.48999023 3357597.44848633 14.07265663 149 35 61
246108.41784668 3357596.72021484 14.47704601 50 50 60
246106.14892578 3357596.73724365 13.53219700 174 146 143
246106.07995605 3357598.01904297 14.19767570 118 35 55
246105.05786133 3357597.14959717 13.53910637 193 177 180
246108.79357910 3357597.13433838 13.98179913 122 102 103
246105.64611816 3357597.18267822 14.21425533 153 43 68
246105.04309082 3357597.55499268 13.97521305 229 117 155
246106.93371582 3357596.75469971 13.78487778 170 131 132
246105.55566406 3357598.63830566 13.63977051 51 47 48
246107.61083984 3357596.30322266 13.53510857 154 119 113
246107.54394531 3357597.31152344 14.66374874 93 36 53
246107.50988770 3357597.47442627 14.70710182 71 35 49
246105.39941406 3357598.11572266 13.82831192 129 32 51
246107.16064453 3357596.69195557 13.70078754 179 137 139
246105.40844727 3357597.31158447 14.16294193 160 42 68
246106.69323730 3357597.10119629 14.55952072 123 87 113
246108.40283203 3357597.79675293 14.06567955 52 40 42
246108.62426758 3357596.19390869 13.73885822 101 48 56
246105.60375977 3357596.85595703 13.67803383 179 148 154
246107.39270020 3357596.81994629 14.68406391 112 29 49
246107.22753906 3357597.19921875 14.72595978 30 27 38
246108.04479980 3357596.36126709 14.50664997 108 44 60
246108.29772949 3357596.00689697 13.49488926 215 218 211
246108.27978516 3357597.86267090 14.06761456 55 49 51
246107.02551270 3357596.80975342 14.62423515 164 64 90
246106.59167480 3357597.93652344 14.18324947 66 87 106
246107.73718262 3357597.83966064 14.39061356 15 11 8
246104.92883301 3357597.46783447 13.69955158 130 107 115
246106.04321289 3357597.85107422 14.20962620 90 38 50
246105.95178223 3357598.75769043 13.43102551 116 112 109
246106.71313477 3357597.17791748 14.55767250 98 74 96
246106.91003418 3357597.09039307 14.66375160 163 46 73
246105.73046875 3357598.00061035 13.89871788 118 25 46
246105.87377930 3357597.05377197 14.21233177 129 67 88
246107.12268066 3357596.55627441 14.39757156 72 67 74
246108.75305176 3357596.43853760 13.89456367 126 76 87
246106.34631348 3357596.67352295 13.53281879 181 153 150
