246104.60949707 3357412.65969849 15.74675751 177 197 198
246112.03100586 3357414.10336304 14.76904392 20 21 25
246102.04577637 3357412.59963989 15.36194229 123 50 59
246103.54638672 3357412.68444824 15.89697647 21 31 32
246111.45300293 3357412.45111084 15.22449398 12 16 19
246111.81750488 3357413.57586670 15.47649670 61 78 86
246105.26342773 3357413.84207153 15.49985123 221 228 236
246120.81152344 3357413.61788940 15.00756264 139 176 169
246112.00195313 3357412.95867920 15.46611118 48 64 79
246110.77661133 3357414.08468628 14.48317146 119 120 114
246104.25280762 3357414.03182983 15.72655582 15 19 22
246121.43395996 3357413.67575073 14.56791878 45 55 57
246103.02685547 3357414.01898193 15.00591850 131 137 135
246104.00085449 3357413.94030762 14.73052979 93 97 98
246104.49987793 3357414.10327148 15.59291267 13 17 18
246102.10961914 3357414.16299438 15.12420845 142 141 139
246103.89599609 3357412.70138550 15.92749119 16 27 31
246102.37500000 3357413.82110596 15.93743896 227 237 239
246112.99230957 3357413.48034668 15.64493275 31 45 58
246121.69628906 3357413.23800659 15.73254395 32 40 51
246110.43200684 3357413.19595337 14.98498249 39 44 47
246113.60766602 3357412.34091187 15.06434059 15 22 32
246101.64404297 3357412.59912109 14.57093048 139 138 133
246105.29553223 3357413.95806885 15.47202969 220 229 236
246113.16394043 3357414.16873169 14.70245075 45 49 52
246121.47668457 3357413.49810791 14.57788467 35 44 49
246110.66040039 3357413.85980225 14.99503231 55 55 57
246120.59863281 3357413.49877930 15.78507042 141 156 177
246104.27087402 3357412.95648193 14.57628632 146 147 152
246111.70629883 3357412.40078735 15.11761665 8 12 13
246103.57031250 3357413.33178711 16.05789185 31 38 44
246121.75134277 3357413.51004028 15.70560741 200 211 231
246102.33508301 3357414.09857178 15.52738953 214 215 210
246121.77050781 3357413.24624634 15.70539474 39 47 60
246101.84277344 3357412.93820190 15.26877594 144 143 138
246122.17272949 3357413.84149170 15.40363598 221 234 242
246103.27087402 3357413.56503296 14.70817375 179 179 179
246110.55371094 3357414.20236206 14.40807438 113 114 109
246112.55578613 3357413.95620728 15.43377209 29 37 40
246112.64074707 3357414.05395508 15.26955509 15 22 30
246115.32897949 3357412.68859863 14.83935356 32 37 41
246101.55053711 3357413.43429565 14.51128864 136 137 131
246121.17883301 3357413.39089966 15.06635952 131 128 123
246102.74499512 3357414.22851563 14.75179100 145 147 142
246103.11425781 3357413.09176636 15.03289795 163 160 151
246103.10559082 3357413.11474609 15.02500248 162 160 148
246105.74694824 3357412.73629761 15.19387817 211 220 225
246120.71252441 3357413.33963013 14.72102737 115 126 118
246122.07226563 3357413.55166626 14.83411312 75 92 99
246120.63037109 3357413.69387817 14.81978989 48 58 60
246103.22558594 3357413.88385010 15.23737144 207 209 198
246122.71337891 3357413.99801636 14.44242477 97 102 96
246102.46228027 3357412.95242310 15.92091274 233 237 240
246103.19079590 3357413.29364014 14.49086285 160 158 159
246121.01330566 3357413.69107056 15.41222763 50 50 58
246122.06958008 3357413.55392456 15.56598663 103 120 138
246104.14416504 3357413.49978638 16.01415062 206 216 226
246103.72741699 3357412.70166016 15.19447136 164 163 161
246104.19482422 3357412.87863159 15.99525833 209 219 229
246113.56201172 3357412.55795288 15.49476814 38 60 81
246105.96276855 3357414.31045532 14.62782669 71 74 81
246105.46118164 3357414.18841553 14.83297539 118 123 129
246114.26757813 3357414.05291748 14.93061066 30 35 38
246104.17578125 3357412.55303955 15.61046314 46 41 47
246121.69335938 3357413.53213501 15.72537899 206 221 240
246102.55212402 3357412.66506958 15.79710484 18 28 27
246115.26440430 3357414.03329468 14.70419312 66 71 74
246114.63537598 3357412.31771851 14.86741257 15 18 25
246121.19531250 3357413.49279785 15.80811787 176 191 214
246121.70642090 3357413.57034302 15.05333805 145 154 151
246115.34326172 3357413.97036743 14.67993736 54 62 64
246112.05383301 3357414.10739136 14.82140636 21 22 26
246103.51489258 3357413.76193237 15.30745125 150 149 144
246103.90625000 3357412.79275513 15.12914753 164 165 160
246122.07702637 3357413.70492554 14.55735970 46 51 54
246112.62829590 3357412.74337769 15.58087063 36 48 60
246122.72009277 3357413.70956421 14.93318367 35 54 61
246104.78833008 3357412.67355347 14.93877983 97 103 103
246121.28454590 3357413.40606689 15.07972336 137 134 125
246115.35681152 3357413.29956055 14.80305958 37 51 64
246114.68786621 3357412.54440308 15.09886265 37 49 63
246111.88403320 3357413.67874146 15.50169563 46 60 69
246121.16503906 3357413.42962646 15.13161373 120 119 114
246103.86950684 3357413.80242920 15.16417789 136 136 134
246110.47863770 3357413.13961792 15.29485607 66 73 79
246102.69860840 3357413.34805298 15.90059853 227 232 236
246113.51647949 3357413.00845337 15.60660648 73 102 120
246102.53405762 3357413.36492920 15.95032883 213 221 224
246104.50195313 3357413.05050659 15.74831200 106 133 142
246122.25927734 3357413.66775513 14.65612698 46 56 55
246110.42919922 3357412.99890137 14.86408806 81 83 82
246123.17944336 3357413.80541992 14.59539986 48 55 61
246111.25964355 3357413.02163696 15.36576843 90 107 117
246112.77111816 3357413.52978516 15.60521603 37 49 61
246103.37451172 3357413.97711182 15.38698483 172 171 169
246113.05541992 3357412.89703369 15.64802647 31 43 57
246106.47314453 3357414.04428101 14.81563282 74 83 92
246101.91113281 3357413.06967163 15.49735451 248 244 243
246102.17480469 3357413.52166748 15.82468891 178 188 190
246105.01550293 3357413.81878662 15.55741215 123 144 147
246102.65075684 3357413.08529663 15.89981842 228 236 239
246121.24291992 3357413.57296753 15.71140480 71 103 116
246104.29504395 3357414.08502197 15.23030663 173 178 174
246110.75341797 3357413.95755005 14.85671902 33 33 33
246103.11865234 3357413.38525391 15.04447174 133 129 118
246120.68408203 3357413.67544556 14.92288780 28 60 59
246121.72216797 3357413.70074463 14.50524139 41 45 48
246103.55590820 3357412.64614868 14.69165039 92 94 93
246114.01501465 3357413.33392334 15.37521935 79 102 116
246113.37402344 3357413.79040527 15.61311245 39 49 59
246104.65759277 3357412.65756226 15.72088242 169 184 189
246115.18884277 3357412.51425171 14.91499901 9 13 22
246120.87976074 3357413.34237671 14.45608711 29 53 55
246104.81494141 3357413.32257080 15.46565151 133 167 169
246105.07641602 3357414.25222778 14.91165638 28 33 36
246112.53906250 3357412.91302490 15.52530766 42 54 66
246114.16931152 3357413.05276489 15.36553574 15 35 46
246111.92639160 3357413.59500122 15.49720478 51 64 73
246106.26208496 3357413.56961060 14.98611450 91 98 108
246119.79040527 3357413.73721313 15.31396008 81 125 154
246101.87866211 3357413.53778076 15.44432545 203 204 206
246113.59338379 3357413.13467407 15.54583359 39 67 89
246104.33532715 3357413.00772095 15.94744682 20 38 48
246101.88244629 3357412.99395752 15.41510391 165 162 157
246112.09729004 3357414.11273193 14.85194397 20 21 25
246113.85510254 3357414.11242676 15.23453426 23 28 32
246103.28820801 3357412.54287720 15.59592342 196 187 188
246115.28466797 3357412.96218872 15.07978725 198 206 227
246121.18994141 3357413.44891357 15.81074905 93 104 126
246120.81481934 3357413.49371338 14.51555347 39 50 52
246105.02575684 3357412.57070923 15.21705723 185 193 196
246114.71813965 3357412.24386597 14.79020882 10 14 17
246102.21569824 3357412.62454224 15.63844585 200 179 176
246114.23291016 3357414.01239014 14.67696667 17 20 25
246112.86132813 3357412.92578125 15.59613991 33 45 59
246110.48486328 3357414.06280518 14.42831516 109 111 108
246121.69702148 3357413.20635986 15.73211288 2 10 21
246120.82189941 3357413.70562744 15.24632359 186 209 215
246103.77185059 3357413.07125854 16.05281830 38 52 61
246104.66662598 3357413.44668579 15.51445007 136 167 172
246120.66979980 3357413.65014648 14.67664051 54 58 59
246102.78698730 3357413.18389893 15.87385464 228 236 239
246103.52331543 3357414.01068115 15.75444031 18 26 28
246114.68261719 3357413.62606812 15.25363827 36 49 55
246113.74792480 3357412.84783936 15.41973686 83 117 142
246104.96459961 3357412.99816895 15.51885891 123 152 158
246113.78942871 3357414.14572144 15.17221832 21 24 31
246121.96350098 3357413.88607788 14.50162792 78 80 77
246101.96582031 3357412.68002319 14.77631950 112 111 106
246110.60192871 3357412.58740234 14.80349350 62 58 57
246113.67614746 3357412.38937378 14.74526882 17 22 26
246102.17138672 3357413.20529175 15.85856724 167 172 175
246120.05639648 3357413.87942505 14.86738491 31 36 39
246120.60595703 3357413.22430420 15.54016113 61 74 93
246104.54565430 3357412.67089844 15.79843807 176 191 196
246103.82263184 3357414.12170410 15.32318592 168 172 171
246102.55163574 3357412.91421509 14.98591709 155 152 145
246120.26940918 3357413.31997681 15.58851910 97 104 130
246110.84960938 3357413.95800781 14.96584511 28 26 29
246103.44750977 3357413.70095825 14.86874199 201 203 200
246104.94726563 3357412.55673218 15.39901352 220 224 227
246102.93969727 3357412.93670654 15.96107674 207 217 218
246110.84277344 3357413.29766846 15.46216297 61 75 86
246112.75012207 3357412.79400635 15.58899212 35 47 59
246104.51953125 3357413.34579468 15.72660637 121 150 156
246111.08679199 3357414.31826782 14.42595100 132 134 123
246113.24414063 3357412.62161255 15.59594917 35 45 57
246102.55798340 3357414.10360718 15.56553555 146 147 149
246103.35656738 3357413.32937622 15.98727894 225 232 238
246105.27526855 3357412.52197266 14.84006786 53 58 61
246103.70361328 3357413.70016479 14.80237579 208 210 209
246113.55004883 3357414.15908813 15.08971119 21 26 29
246121.93408203 3357413.39364624 14.57652473 58 77 81
246102.75451660 3357412.61657715 15.73393440 25 26 28
246122.39367676 3357413.71505737 15.46059036 63 78 99
246104.64697266 3357413.61187744 15.56208515 138 171 176
246111.53210449 3357414.05007935 15.07464027 21 26 30
246103.54602051 3357413.40646362 14.55774021 143 144 139
246102.67419434 3357414.21957397 14.76111126 160 163 156
246102.04614258 3357414.44201660 14.46788216 139 139 131
246103.04553223 3357413.96664429 15.00439644 135 144 139
246112.64562988 3357413.37472534 15.56986046 36 48 60
246120.84692383 3357413.45431519 15.78484249 60 68 91
246114.41589355 3357412.42675781 14.93655586 23 28 34
246120.26293945 3357413.70108032 15.47504997 67 91 117
246112.40527344 3357412.37539673 14.87609196 14 15 20
246120.47363281 3357413.14093018 15.45682716 67 80 97
246120.65905762 3357413.68911743 14.74075031 54 58 59
246103.13635254 3357413.34323120 14.47356987 237 236 232
246102.11828613 3357413.98553467 15.60185051 206 202 203
246105.70141602 3357414.13113403 14.93347359 87 91 100
246105.19128418 3357414.35629272 14.63809013 57 62 66
246111.20666504 3357413.68115234 15.37709332 102 119 127
246104.13476563 3357412.84539795 15.08576965 153 155 144
246114.22888184 3357413.06558228 15.35595608 12 29 39
246122.66467285 3357413.65231323 15.33442783 97 127 151
246103.67651367 3357413.66821289 14.78339005 207 209 206
246105.18640137 3357413.73068237 15.51764107 219 224 228
246120.63879395 3357413.85040283 14.51580715 35 42 48
246103.74682617 3357413.63088989 16.06405830 38 55 63
246111.21789551 3357412.47027588 14.96658230 15 19 22
246121.06311035 3357413.70800781 14.57827473 40 45 49
246113.77514648 3357412.34588623 14.77070236 14 19 25
246113.42089844 3357412.53533936 15.55023384 29 43 52
246112.63159180 3357414.04727173 15.28067303 14 21 29
246121.87634277 3357413.51638794 14.95174026 142 144 141
246102.56555176 3357412.93582153 14.98140812 154 151 144
246119.35766602 3357413.45257568 15.31970119 125 156 177
246111.04614258 3357413.83291626 15.30126667 54 66 80
246113.15429688 3357412.84429932 15.66861820 35 51 64
246104.61840820 3357413.17611694 15.53606224 116 147 152
246114.80224609 3357414.02166748 14.92766285 14 25 29
246112.68029785 3357412.97509766 15.55899620 33 45 59
246106.61706543 3357414.04040527 14.81449413 79 88 95
246111.76367188 3357412.41113281 15.27308083 20 25 31
246101.77478027 3357413.29205322 14.59771061 106 106 104
246114.29125977 3357413.72311401 15.32304859 42 55 63
246102.84948730 3357413.29696655 14.94943619 160 156 145
246103.48620605 3357413.66204834 14.82740307 193 193 191
246102.83398438 3357414.40167236 14.54603577 78 82 85
246123.28967285 3357413.84399414 14.51910782 41 46 50
246102.51110840 3357413.09576416 15.90340233 228 236 239
246121.88903809 3357413.84439087 14.48087597 69 71 68
246105.45397949 3357414.18658447 15.00346184 62 67 73
246121.68811035 3357413.41479492 14.53880882 38 51 59
246104.05041504 3357414.32302856 14.67745399 59 63 66
246102.80456543 3357412.84655762 15.97289371 200 208 210
246115.28698730 3357412.65615845 15.05310154 70 79 88
246101.87670898 3357413.18988037 15.47967720 242 240 241
246111.69738770 3357412.61660767 15.44474506 58 63 67
246120.13073730 3357413.15872192 15.41566944 111 125 152
246113.39697266 3357414.13314819 15.16120338 18 26 29
246122.03662109 3357413.49060059 14.54707909 47 57 59
246104.40502930 3357413.80737305 14.79053020 154 159 153
246104.18688965 3357413.07693481 14.97532082 134 138 123
246114.79357910 3357413.89535522 15.18974972 22 32 41
246103.16162109 3357414.00982666 15.78617859 16 27 33
246105.27526855 3357413.91482544 15.49243164 222 231 238
246111.77355957 3357414.11685181 14.56168842 87 93 93
246102.76196289 3357413.57952881 14.74165916 154 157 150
246114.66662598 3357412.85424805 15.22724819 38 54 69
246122.39562988 3357413.47415161 15.41681194 92 118 143
246104.71728516 3357413.89480591 15.62015057 162 187 192
246114.56982422 3357412.28158569 14.77836418 65 64 69
246112.35400391 3357412.40313721 15.36242962 95 99 102
246110.56604004 3357412.84875488 15.13751793 108 110 109
246112.08532715 3357414.09384155 15.02079487 24 25 29
246112.62792969 3357414.11410522 14.73190022 40 44 47
246119.58691406 3357413.76489258 15.11328697 43 68 75
246102.89343262 3357413.32559204 15.87014580 224 232 235
246101.80993652 3357412.85089111 15.03031635 61 59 60
246103.16076660 3357413.57763672 15.11254883 187 181 169
246112.83227539 3357412.38641357 14.83773804 11 16 20
246111.70153809 3357412.32232666 14.63714409 122 123 125
246102.66137695 3357412.58184814 15.59073353 195 189 189
246106.29345703 3357413.81192017 14.94326401 39 43 52
246103.99560547 3357413.90008545 15.95044804 222 227 233
246102.21350098 3357412.65673828 14.80626202 143 142 138
246103.34240723 3357413.07653809 14.58484173 199 203 202
246103.65405273 3357413.54043579 14.67810822 144 145 139
246122.64440918 3357413.65612793 15.32866669 139 170 191
246115.43908691 3357413.63552856 14.65532017 37 47 49
246104.49768066 3357414.09851074 14.93465710 94 100 98
246121.93676758 3357413.43530273 14.73859692 96 114 118
246102.32360840 3357413.09097290 14.68267536 168 164 155
246103.75561523 3357413.39602661 16.04188347 34 50 63
246120.33752441 3357413.81436157 15.27635098 86 127 157
246111.70275879 3357412.30343628 14.62756252 81 81 81
246106.46911621 3357413.62606812 14.91945267 55 64 73
246105.32312012 3357413.35369873 15.42685795 221 230 237
246101.79809570 3357413.68621826 14.99268055 135 135 137
246105.83178711 3357412.72198486 15.19285393 193 204 210
246123.65307617 3357413.37518311 15.05995083 49 97 137
246119.54968262 3357413.77380371 15.03607655 43 60 68
246102.58850098 3357414.23056030 14.79763031 143 150 143
246102.51281738 3357414.04840088 15.68583965 64 73 78
246112.28723145 3357412.69894409 15.54075813 29 33 42
246113.89001465 3357412.36260986 15.06052589 16 22 34
246106.25244141 3357413.74359131 14.94547367 56 60 69
246111.38134766 3357413.32290649 15.38514137 90 108 122
246110.86474609 3357414.02215576 14.63522053 85 81 78
246120.37731934 3357413.22381592 15.51986217 57 65 88
246104.28723145 3357412.95242310 15.02623463 136 144 120
246115.40808105 3357413.28421021 14.64722729 23 30 40
246112.99377441 3357412.37069702 15.05463600 10 17 25
246101.79345703 3357413.90786743 14.77807140 115 116 110
246105.57031250 3357412.46020508 14.64200783 103 104 106
246106.46130371 3357413.79742432 14.94305801 56 65 74
246112.91943359 3357412.33825684 14.72208405 19 22 27
246111.79431152 3357412.77987671 15.44548130 58 71 80
246104.34936523 3357413.66848755 14.67101669 155 160 154
246104.21728516 3357413.42898560 14.89389515 104 104 102
246103.98071289 3357412.55825806 15.35631847 164 165 167
246113.89526367 3357413.94329834 15.36119080 54 64 73
246123.01696777 3357413.79583740 14.62054157 22 32 34
246102.46936035 3357413.14410400 15.91876698 229 237 240
246114.57019043 3357412.66625977 15.20810127 32 48 63
246120.48913574 3357413.30520630 15.59888840 49 60 82
246102.71813965 3357414.24063110 14.70813370 150 152 149
246111.95019531 3357413.77734375 15.52626228 50 63 71
246121.66821289 3357413.14990234 15.73850441 22 32 41
246104.58557129 3357412.84707642 14.86698437 144 147 140
246121.08532715 3357413.18579102 15.77382183 40 50 62
246102.06884766 3357412.98828125 14.78543568 165 158 150
246112.84387207 3357414.11770630 14.74779510 37 40 45
246119.57775879 3357413.73214722 15.28744316 47 89 113
246112.08190918 3357413.71887207 15.54007149 48 58 67
246121.09155273 3357413.21774292 14.80631638 89 92 97
246112.19213867 3357414.03952026 15.29964638 15 28 34
246104.96313477 3357412.54913330 15.28457165 187 192 195
246103.59643555 3357413.67800903 15.28859997 211 213 210
246102.65856934 3357412.78332520 15.93590546 223 235 235
246103.71948242 3357413.00503540 14.62628937 200 198 201
246110.74816895 3357412.60079956 15.10669136 39 22 28
246111.54699707 3357414.29141235 14.46091652 97 99 94
246119.53076172 3357413.58953857 15.36769199 112 159 185
246102.18261719 3357413.45370483 15.86546898 158 166 169
246104.31323242 3357413.17239380 15.97019863 176 191 198
246112.75317383 3357412.87649536 15.57298851 36 48 60
246110.96301270 3357412.55014038 15.12920284 20 19 24
246119.26928711 3357413.60671997 14.99084568 81 98 106
246121.72375488 3357413.58404541 15.65358925 49 86 105
246112.61840820 3357412.36227417 15.30350304 41 44 49
246103.17712402 3357413.99459839 15.81384182 14 27 35
246110.61755371 3357412.78549194 15.20856953 43 43 45
246111.38977051 3357412.44531250 15.02024555 11 15 18
246104.39318848 3357412.80346680 14.74012184 86 88 87
246119.59704590 3357413.74703979 15.27244949 35 71 93
246119.53723145 3357413.17889404 15.44714165 50 76 93
246104.41198730 3357412.71823120 14.77166271 85 85 85
246114.61694336 3357414.03414917 14.99923325 29 36 44
246103.22705078 3357413.58462524 14.72971535 189 189 191
246121.84033203 3357413.69183350 14.46756458 48 52 53
246101.90612793 3357413.25219727 14.63459206 88 88 88
246103.51892090 3357414.04931641 15.54487419 89 85 86
246123.09191895 3357413.68670654 15.19526958 113 164 207
246122.17285156 3357413.59539795 14.76083851 55 64 63
246114.84960938 3357414.12527466 14.68269920 49 53 56
246103.06347656 3357414.28454590 14.73690033 29 34 38
246102.23742676 3357413.25668335 14.74176598 170 168 156
246101.72448730 3357413.14642334 14.79771996 115 111 108
246101.79736328 3357412.79241943 14.88705158 91 87 84
246121.29272461 3357413.64099121 15.53629971 27 39 35
246114.26440430 3357412.34402466 14.78329086 14 17 22
246113.54089355 3357412.93511963 15.57977295 72 103 124
246105.36987305 3357414.12078857 15.24144936 180 191 197
246122.87487793 3357413.75225830 14.96822834 32 54 77
246114.87707520 3357412.89367676 15.16979694 35 46 64
246102.23828125 3357412.79510498 14.95495701 168 164 153
246111.62414551 3357412.41653442 15.14759350 11 15 18
246104.49047852 3357412.62216187 14.83736897 86 88 87
246122.16845703 3357413.65628052 15.07979107 107 121 122
246104.42932129 3357414.08474731 15.62104702 12 16 19
246103.32006836 3357413.92926025 15.91971397 69 92 98
246114.75732422 3357414.00799561 14.96731663 19 28 33
246102.17553711 3357413.36318970 15.87522984 150 158 161
246103.75207520 3357412.74343872 16.01012802 155 175 174
246104.42309570 3357412.92642212 15.86825371 102 126 138
246102.85205078 3357413.69378662 14.77827835 145 147 142
246120.15161133 3357413.23916626 15.47597027 113 122 151
246121.55700684 3357413.55892944 14.54902840 36 44 47
246115.03283691 3357413.03829956 15.12135696 26 42 57
246112.65234375 3357413.37026978 15.57090855 37 49 61
246104.25146484 3357413.08792114 14.96597767 131 134 113
246104.79003906 3357413.74667358 15.54408550 144 180 180
246114.46997070 3357412.36193848 14.83445644 20 21 25
246105.82556152 3357413.10971069 15.23398972 211 221 230
246101.73706055 3357413.21176147 14.80086803 120 116 113
246104.63427734 3357412.54244995 15.27023315 136 137 139
246115.08813477 3357413.88546753 14.97770977 28 38 47
246111.53527832 3357414.06909180 14.88971710 32 36 39
246119.97338867 3357413.82281494 15.17826271 27 60 79
246121.93823242 3357413.09616089 15.58416271 67 77 87
246112.64941406 3357414.35409546 14.43687630 86 88 87
246119.62109375 3357413.65997314 15.36082745 108 155 181
246102.55102539 3357412.50634766 14.66827583 128 130 127
246102.87976074 3357413.07894897 14.60344315 187 187 187
246112.97180176 3357412.38137817 14.98766804 11 18 26
246112.94360352 3357414.09844971 14.86762238 22 28 28
246113.07495117 3357414.17379761 14.66613293 51 55 56
246111.65039063 3357414.06030273 15.07928848 21 25 28
246101.85742188 3357412.64215088 14.73157883 119 118 113
246111.11914063 3357412.81738281 15.40349770 96 110 121
246114.85607910 3357413.97979736 15.05146790 15 25 35
246120.23254395 3357413.28701782 15.54736233 98 103 132
246105.38244629 3357412.48260498 15.08146763 64 74 76
246113.25573730 3357412.41381836 14.95051575 12 19 29
246111.20166016 3357412.56802368 15.33653736 30 37 45
246103.97827148 3357412.62237549 15.75750065 14 19 22
246121.67761230 3357413.10140991 15.73850822 43 53 63
246103.35974121 3357414.52124023 14.58441734 81 85 88
246106.18286133 3357413.86264038 14.99408531 65 72 80
246121.64916992 3357413.21423340 15.73708916 30 38 49
246122.47094727 3357413.68008423 14.67266560 49 54 58
246104.22021484 3357414.23236084 14.67423630 48 53 56
246104.27258301 3357413.23507690 15.99373817 208 222 231
246105.42687988 3357414.31646729 14.59059048 51 56 60
246121.74340820 3357413.54083252 15.70756340 202 221 238
246112.29797363 3357412.88568115 15.48972416 50 58 69
246105.34216309 3357412.64379883 15.29323196 216 223 229
246112.04675293 3357413.32107544 15.46855068 50 62 76
246103.64306641 3357412.93139648 14.65702820 164 166 163
246102.74511719 3357413.04751587 15.90649033 229 237 239
246120.66735840 3357413.79263306 14.52033234 28 37 42
246115.33227539 3357412.70858765 14.84318829 28 33 37
246102.86645508 3357413.52508545 14.71294594 212 211 206
246104.02001953 3357413.13568115 14.95919895 149 150 142
246114.14001465 3357413.70394897 15.34516239 22 35 41
246113.67138672 3357412.78723145 15.45472050 72 106 133
246102.08093262 3357414.02493286 15.50960445 191 144 150
246103.67395020 3357412.60888672 15.72143078 26 30 31
246122.02111816 3357413.51498413 14.49052906 47 55 57
246104.28051758 3357412.51333618 14.66388321 46 48 47
246112.22717285 3357413.25030518 15.48202896 46 58 70
246115.35974121 3357413.22750854 14.88291264 32 48 63
246112.86022949 3357413.12527466 15.60083294 29 43 56
246105.07165527 3357412.56204224 14.92155075 56 60 61
246112.51403809 3357412.37155151 15.14646339 11 16 20
246101.77490234 3357413.46960449 15.07300758 132 134 133
246104.37023926 3357413.61911011 14.79058266 130 135 129
246120.08459473 3357413.67007446 15.48095798 81 131 154
246110.47424316 3357412.95397949 14.99885178 55 56 58
246122.30590820 3357413.65664673 14.67023182 46 54 56
246115.07348633 3357412.42486572 15.03101158 99 103 114
246120.79992676 3357413.69134521 15.44204903 7 8 28
246111.73217773 3357414.24383545 14.45522785 84 86 85
246112.00256348 3357414.10974121 14.57191372 34 35 37
246110.42724609 3357413.04833984 14.91294003 64 66 65
246104.67980957 3357412.89340210 15.61282253 123 152 158
246105.38256836 3357412.49731445 14.86385345 92 98 98
246101.95764160 3357412.79629517 15.56339741 252 242 240
246106.05993652 3357413.99087524 15.04423809 127 137 147
246112.58227539 3357413.88571167 15.53650951 13 21 24
246101.88513184 3357412.67697144 15.09321499 108 106 107
246121.67626953 3357413.66763306 15.23271942 150 161 167
246112.20263672 3357412.79843140 15.51883221 47 55 66
246104.77612305 3357414.49511719 14.55727291 71 75 78
246103.00170898 3357412.60366821 15.73459053 17 21 20
246114.78405762 3357414.02740479 14.90958691 22 30 33
246103.92407227 3357412.72067261 15.97276592 109 122 128
246115.19555664 3357412.98800659 15.08474636 16 28 44
246111.60839844 3357413.21740723 15.43952084 87 103 116
246103.50732422 3357414.05633545 15.66919136 30 30 32
246104.75122070 3357413.00183105 15.50403023 123 154 159
246103.67419434 3357414.08285522 15.58656597 49 47 48
246104.57763672 3357412.67486572 15.77326298 153 170 177
246112.33239746 3357412.27474976 14.54272842 68 67 65
246113.75292969 3357412.39639282 14.83836555 17 24 30
246120.80444336 3357413.39477539 15.77137566 47 53 77
246104.34631348 3357412.53253174 15.56163120 114 109 113
246111.90502930 3357413.13275146 15.45176125 54 70 83
246115.35351563 3357413.64157104 14.72962379 12 21 26
246114.66345215 3357412.23641968 14.76960754 21 25 28
246104.20080566 3357413.80947876 14.57112503 92 98 98
246121.58496094 3357413.67248535 14.54178715 42 49 55
246119.47998047 3357413.50219727 15.38028622 111 151 177
246111.47521973 3357412.43414307 15.11138725 11 12 16
246104.50878906 3357412.80227661 15.78274822 107 126 133
246105.10864258 3357414.13583374 15.35693169 197 204 212
246106.32421875 3357413.34826660 14.83401489 62 70 83
246121.02062988 3357413.78417969 14.54255581 36 44 46
246104.04614258 3357413.73394775 16.02930069 216 225 232
246122.27636719 3357413.42904663 15.42799091 76 104 128
246102.98498535 3357414.12683105 15.34213448 150 159 154
246123.44946289 3357413.12139893 15.10036945 70 115 156
246114.94860840 3357412.23333740 14.57793522 27 31 34
246101.71679688 3357413.09762573 14.70209503 116 115 111
246112.44677734 3357412.35925293 14.74676800 16 17 22
246105.54797363 3357412.95776367 15.21977329 216 226 235
246106.40551758 3357414.23889160 14.60404778 80 87 95
246120.40454102 3357413.52368164 15.72786617 226 245 243
246103.99035645 3357413.94265747 15.15912056 112 112 112
246120.15270996 3357413.29092407 15.51659870 115 121 147
246104.73339844 3357412.88513184 15.58198261 122 155 160
246103.93200684 3357413.34826660 16.03070641 31 44 52
246104.89904785 3357413.57577515 15.50485611 145 179 180
246119.27758789 3357413.66143799 14.85845375 86 97 101
246102.66308594 3357412.67837524 15.83671761 14 28 28
246111.45825195 3357412.43777466 15.12082958 11 12 16
246111.40502930 3357414.01257324 15.17399883 17 24 30
246112.99707031 3357412.28378296 14.62590790 40 44 47
246122.29748535 3357413.69531250 15.07906437 82 99 107
246104.45300293 3357413.66793823 15.80132008 126 151 158
246111.45715332 3357412.79275513 15.37754917 85 99 108
246102.29345703 3357414.21234131 15.07727909 142 144 139
246101.71997070 3357414.25137329 14.45789146 139 139 131
246102.68444824 3357414.06979370 15.66504860 28 35 41
246113.27270508 3357414.33532715 14.45274448 86 92 92
246119.62854004 3357413.51815796 15.44276524 128 166 185
246121.13024902 3357413.70147705 15.40054893 67 66 71
246110.62194824 3357413.85162354 14.94868565 57 58 60
246105.17004395 3357414.21810913 15.04367065 49 52 59
246122.38562012 3357413.62072754 15.45135784 140 156 172
246113.30664063 3357412.43179321 14.87226582 12 17 23
246114.03308105 3357412.35021973 14.80437565 14 17 24
246104.28698730 3357412.64053345 14.68223190 93 95 94
246119.62573242 3357413.33914185 15.47615242 80 102 116
246103.74353027 3357414.09231567 15.49504566 157 153 152
246106.09680176 3357413.99667358 14.98415852 75 84 93
246103.31030273 3357412.53875732 15.43092060 182 181 179
246113.65222168 3357412.68350220 15.45872402 79 109 137
246120.05615234 3357413.42770386 15.58175373 207 214 233
246104.15454102 3357413.00003052 16.00569534 207 217 227
246114.24426270 3357412.42306519 15.15976524 25 35 45
246123.07556152 3357413.60015869 15.24046040 113 164 207
246103.48901367 3357413.82250977 14.95591354 206 207 209
246112.94726563 3357414.13900757 14.71966457 41 45 48
246101.76574707 3357412.80032349 14.78668880 107 106 104
246121.97680664 3357413.43682861 14.69229221 76 95 99
246113.16931152 3357413.90451050 15.46152592 19 26 34
246121.83972168 3357413.58102417 15.48844147 22 48 63
246102.32092285 3357413.31018066 15.96107388 226 236 238
246103.73278809 3357412.72705078 15.97391891 67 87 85
246113.27709961 3357413.24166870 15.64982891 34 48 61
246104.82812500 3357413.41613770 15.47867489 139 173 175
246114.31909180 3357414.17874146 14.50131607 77 81 82
246102.51708984 3357412.63510132 15.22260284 158 155 148
246113.25305176 3357413.99114990 15.34358215 62 76 79
246113.35827637 3357412.44625854 15.43579865 9 13 16
246112.75524902 3357413.14730835 15.58324528 26 40 53
246103.31005859 3357414.01901245 15.41862679 213 212 210
246104.59130859 3357413.33752441 15.57227516 121 152 157
246123.19897461 3357413.76791382 14.72364140 62 66 75
246103.10827637 3357413.33267212 15.03129292 136 132 121
246121.71813965 3357413.62445068 15.35473251 46 58 70
246103.80749512 3357413.16168213 16.04681969 37 47 59
246102.28417969 3357413.78433228 15.91468716 171 180 185
246114.72338867 3357414.09820557 14.58642387 48 56 58
246102.66784668 3357414.23156738 14.72299576 150 155 149
246115.42089844 3357413.42388916 14.64012432 27 32 38
246105.84277344 3357413.47027588 15.27010536 209 222 231
246119.57836914 3357413.80435181 14.93168545 33 46 52
246112.32348633 3357412.82968140 15.50905228 45 54 63
246110.74865723 3357414.01968384 14.51093674 107 110 103
246103.74719238 3357413.54232788 15.12723732 195 191 190
246120.00781250 3357413.60894775 15.54896927 96 140 151
246102.04760742 3357412.94265747 15.63170242 142 142 142
246123.05578613 3357413.76605225 15.01259995 19 45 62
246112.19702148 3357413.81176758 15.57243633 15 22 28
246102.09777832 3357414.16110229 14.66151810 104 104 96
246101.95690918 3357414.09405518 15.22001171 164 154 152
246104.13525391 3357412.63482666 15.79744625 20 25 29
246112.25524902 3357414.13388062 14.65261650 44 46 45
246112.58935547 3357414.11718750 14.75987720 38 42 45
246105.56933594 3357413.07446289 15.21253395 216 225 234
246115.36437988 3357413.36087036 14.82550240 26 36 48
246102.66259766 3357413.29830933 14.62769032 227 222 218
246101.82946777 3357413.30035400 15.41143513 190 195 201
246102.30957031 3357412.98916626 14.87628078 168 166 154
246112.61230469 3357413.19778442 15.55524921 31 45 56
246120.91320801 3357413.62332153 15.17153168 192 202 203
246104.14929199 3357413.86776733 15.97714710 205 215 217
246101.97436523 3357414.10842896 15.07990551 102 102 104
246110.80261230 3357413.11270142 15.43082905 62 75 84
246113.64758301 3357412.42367554 14.80285454 20 25 29
246121.35925293 3357413.17083740 15.72429562 38 48 60
246112.23156738 3357413.43399048 15.50617504 49 61 73
246103.18066406 3357413.14855957 15.94787788 228 233 239
246112.16406250 3357412.73727417 15.51742935 36 40 51
246102.63928223 3357412.66561890 15.81526470 9 23 23
246104.66906738 3357412.75134277 15.68290329 110 134 138
246115.22680664 3357412.27719116 14.41798687 66 70 73
246105.22558594 3357413.01715088 15.45854473 225 232 238
246114.39685059 3357412.41305542 14.91190529 22 25 30
246121.09265137 3357413.60287476 15.64573669 7 25 39
246105.70458984 3357414.18045044 14.74519920 21 24 29
246103.47106934 3357413.48022461 14.60720444 142 143 138
246102.77038574 3357413.65441895 14.75862980 139 141 138
246119.81665039 3357413.41690063 15.51223660 131 140 145
246103.28698730 3357413.61535645 15.22250271 115 110 106
246105.41381836 3357414.18380737 14.79069805 108 113 119
246102.17956543 3357414.17013550 15.24787712 136 131 127
246112.05517578 3357412.82635498 15.49231815 47 57 69
246111.38928223 3357413.36965942 15.38665771 91 109 123
246112.39916992 3357412.98831177 15.49341679 39 51 65
246114.78295898 3357412.83856201 15.19331932 36 49 66
246102.29223633 3357413.05285645 14.69337845 164 159 153
246103.45983887 3357412.74777222 14.72627449 92 96 95
246104.18005371 3357412.89761353 14.60609245 113 117 120
246114.90454102 3357413.42642212 15.18510914 34 47 56
246122.46679688 3357413.65042114 14.86195564 50 61 67
246101.86987305 3357412.67965698 14.98096752 109 98 96
246112.34973145 3357413.33831787 15.50865841 41 53 65
246121.71228027 3357413.64865112 15.21587849 149 164 169
246112.09008789 3357414.12985229 14.55053329 49 50 52
246103.04882813 3357413.85818481 15.08838558 165 168 157
246105.09667969 3357413.26669312 15.51824665 54 67 73
246121.68237305 3357413.40493774 14.65001392 80 101 106
246111.74255371 3357414.14627075 14.51153183 74 78 79
246112.21899414 3357413.94750977 15.44992065 31 39 42
246113.32568359 3357412.35556030 15.33461475 69 74 80
246122.11328125 3357413.72525024 15.24943447 121 132 134
246102.21081543 3357412.60681152 15.58937263 156 114 118
246112.95104980 3357413.09353638 15.61573792 29 43 56
246106.11718750 3357412.86611938 15.14086533 149 154 160
246123.85400391 3357413.15454102 14.90975094 19 33 42
246113.66418457 3357413.79373169 15.47342205 58 73 80
246123.29077148 3357413.92071533 14.45374489 76 80 83
246102.52331543 3357413.33355713 15.94886494 218 226 229
246103.67114258 3357414.04782104 14.91084385 96 102 102
246112.48571777 3357412.51828003 15.50918865 9 13 16
246104.14990234 3357412.51550293 14.62732697 49 51 50
246102.01110840 3357412.81726074 14.76154804 156 146 136
246104.43005371 3357414.02105713 14.88436508 109 114 110
246112.66650391 3357414.36578369 14.43892097 84 86 85
246102.52880859 3357413.59899902 15.95549393 225 232 238
246103.55932617 3357413.03839111 15.03791523 210 212 207
246111.48046875 3357413.22714233 15.41137314 90 107 117
246120.60253906 3357413.50366211 15.78204441 158 177 192
246103.68750000 3357412.65905762 15.82849884 23 33 35
246111.09387207 3357413.82220459 15.37031746 53 70 80
246120.52307129 3357413.64950562 15.55831051 33 35 48
246103.90380859 3357414.07418823 14.80288506 92 96 97
246102.01354980 3357412.81640625 14.76203156 156 146 136
246105.85119629 3357413.24081421 15.25109577 213 223 233
246102.10314941 3357413.46502686 15.74384785 196 201 207
246115.35522461 3357413.28717041 14.91594219 39 52 68
246105.07556152 3357414.22448730 15.05830288 73 81 84
246104.36096191 3357413.81341553 14.62950134 110 114 113
246114.94958496 3357413.64993286 15.17096710 38 51 59
246103.30895996 3357414.22039795 14.86890507 72 76 79
246103.91772461 3357414.16723633 14.77970982 81 85 88
246110.40795898 3357413.53244019 14.82008362 93 94 96
246120.76037598 3357413.72158813 15.30442810 174 199 206
246105.53149414 3357412.73532104 15.23451519 215 226 230
246102.16308594 3357412.66909790 15.68419647 210 189 186
246123.46496582 3357413.14401245 15.09905243 70 115 156
246121.50158691 3357413.49154663 14.56821251 38 48 50
246104.38708496 3357412.78491211 15.06655312 180 189 162
246104.88342285 3357412.58480835 15.54668522 179 187 190
246103.17553711 3357412.56439209 15.64452171 69 65 66
246115.06665039 3357413.62658691 15.13457966 25 41 56
246114.52770996 3357413.96554565 15.22159195 36 49 58
246105.20458984 3357413.31500244 15.50112629 228 231 238
246101.74316406 3357414.27786255 14.45184135 141 141 133
246111.30358887 3357414.27957153 14.45448017 107 108 102
246121.66796875 3357413.51119995 15.73235512 204 215 233
246101.77075195 3357413.86630249 14.79588032 113 112 107
246113.60021973 3357413.22091675 15.52956295 36 64 85
246110.57409668 3357413.73965454 15.07682514 86 88 87
246111.82910156 3357413.61019897 15.48314667 56 73 81
246111.99584961 3357412.38583374 15.08531570 15 20 23
246103.80468750 3357413.40051270 16.03811073 34 50 63
246112.92285156 3357414.04525757 15.27402878 20 29 34
246114.98144531 3357413.62622070 15.16124535 36 49 58
246102.83154297 3357414.13922119 14.90606976 47 53 53
246110.46960449 3357412.83081055 14.83867645 58 60 59
246105.50451660 3357414.19219971 14.84580326 100 103 108
246121.34851074 3357413.54434204 15.19660568 133 130 123
246103.93823242 3357413.46340942 14.53750229 152 154 151
246102.88525391 3357412.54028320 15.45078659 182 178 177
246103.66516113 3357413.95520020 15.84914112 26 41 48
246101.71472168 3357413.64038086 14.78702927 101 102 97
246104.29833984 3357413.46273804 15.99819374 201 215 224
246111.84851074 3357414.01483154 15.37019539 39 52 60
246102.41394043 3357413.06509399 14.68347359 173 168 164
246110.82128906 3357413.26242065 15.46375084 67 81 92
246112.72680664 3357414.07635498 15.01366520 22 25 30
246104.39074707 3357412.86715698 15.90984344 65 83 93
246113.82238770 3357414.27172852 14.48478031 87 91 92
246112.05065918 3357414.07595825 15.19033051 24 29 33
246103.79125977 3357413.36520386 16.04041481 36 50 61
246103.33032227 3357412.67144775 15.90825176 13 23 25
246102.48181152 3357412.70947266 15.85406876 195 205 204
246105.33581543 3357413.13644409 15.38182640 218 227 234
246121.24218750 3357413.30218506 14.88927174 114 116 115
246102.42407227 3357414.02664185 15.71754360 150 162 162
246119.58386230 3357413.75576782 15.13764572 42 69 80
246104.48168945 3357412.82873535 15.82221508 113 132 139
246121.67236328 3357413.60809326 15.47995281 30 49 56
246103.96704102 3357413.46514893 15.01009655 126 126 124
246103.22790527 3357412.97427368 14.66461086 154 159 155
246102.88549805 3357414.15390015 15.24515438 144 147 140
246105.46911621 3357412.47323608 14.93014622 64 73 72
246102.01464844 3357413.06976318 14.68459129 160 151 142
246102.92578125 3357414.27929688 14.71819878 43 44 49
246102.33435059 3357412.57791138 15.27367210 143 144 136
246102.25109863 3357413.04501343 14.83412075 167 165 153
246102.45861816 3357414.12454224 15.45946693 194 199 193
246104.93029785 3357412.61669922 14.97863293 131 140 139
246104.01855469 3357413.71929932 14.61868477 121 132 128
246101.65295410 3357413.28393555 14.54332447 131 132 126
246121.98352051 3357413.50225830 14.45808411 45 53 55
246111.91638184 3357412.33630371 14.69988346 15 16 18
246104.87023926 3357413.61413574 15.50988197 146 182 182
246102.02990723 3357413.01794434 14.76235962 164 157 149
246102.28674316 3357412.60934448 14.81568623 132 133 127
246119.35681152 3357413.38925171 15.32656574 123 154 175
246105.62341309 3357413.47842407 15.28518009 215 225 234
246107.09301758 3357412.41354370 14.55251026 120 124 127
246113.81372070 3357414.21517944 14.55584717 67 71 74
246104.59191895 3357414.44345093 14.53856087 64 68 71
246111.15014648 3357413.54418945 15.39363861 106 123 131
246121.64270020 3357413.85623169 14.52437973 62 67 63
246110.56188965 3357412.88000488 15.17642784 60 61 63
246102.74829102 3357412.71893311 15.17884064 138 137 135
246103.20434570 3357412.78656006 14.79233074 116 118 117
246121.57312012 3357413.60577393 15.56581306 16 34 38
246121.04467773 3357413.51785278 15.78024483 173 194 215
246103.20312500 3357413.70446777 15.99496937 220 229 234
246102.59472656 3357412.70190430 15.85809422 130 144 144
246112.46435547 3357412.93881226 15.50605488 45 57 69
246104.86499023 3357414.42242432 14.64046574 64 69 73
246110.77087402 3357413.87765503 15.09762383 44 35 38
246121.86340332 3357413.48324585 14.90075207 133 139 135
246103.28588867 3357412.57455444 15.67512131 29 27 28
246113.68847656 3357412.37063599 15.00109482 12 19 29
246121.02136230 3357413.33087158 14.98318863 130 133 124
246113.76818848 3357413.38024902 15.42389870 64 93 109
246103.39904785 3357414.29919434 14.80235863 46 51 54
246104.77038574 3357414.18243408 15.41348648 122 127 131
246103.09460449 3357414.31369019 14.71171951 46 51 54
246105.63134766 3357412.77450562 15.19382191 217 228 232
246122.95336914 3357413.50219727 15.31475544 117 165 203
246103.89538574 3357413.79083252 15.14820099 130 130 128
246123.26989746 3357413.76242065 14.82680416 18 20 33
246105.34069824 3357413.87139893 15.48127079 219 228 235
246112.99523926 3357413.40411377 15.63637352 28 42 55
246102.97570801 3357413.94973755 15.05093575 149 150 142
246104.92639160 3357413.01193237 15.50852394 126 157 162
246102.77709961 3357413.38754272 14.91568851 166 164 152
246111.44860840 3357413.91644287 15.42652130 29 38 47
246102.16259766 3357412.99517822 14.70950985 158 151 141
246103.65429688 3357413.92608643 15.37290192 199 198 194
246103.65075684 3357412.53833008 15.57078648 148 149 151
246113.20446777 3357413.44198608 15.65881252 34 44 54
246103.49853516 3357413.49691772 16.05116463 233 238 242
246114.67810059 3357412.42007446 15.02328396 33 42 49
246105.73852539 3357414.24847412 14.66343212 34 37 42
246105.21301270 3357412.64364624 15.38014603 205 212 220
246104.39916992 3357412.87738037 15.90544701 103 125 138
246104.81994629 3357413.80877686 15.56182575 152 180 183
246120.20373535 3357413.75659180 15.38715363 112 163 194
246103.96569824 3357413.47952271 16.02922440 42 59 66
246112.45239258 3357412.36871338 15.27139282 16 20 23
246104.04016113 3357413.86581421 15.99521923 194 199 203
246102.43737793 3357413.10150146 14.87088203 166 164 152
246114.32336426 3357414.05337524 15.18644238 22 33 39
246104.05029297 3357413.33065796 14.51372433 150 150 150
246105.71301270 3357414.02099609 15.29874516 194 210 223
246121.76013184 3357413.39462280 14.64193821 85 104 108
246105.47473145 3357414.01620483 15.39123917 202 212 222
246115.16064453 3357413.39407349 15.10613346 19 32 49
246101.72473145 3357413.40341187 14.87422752 87 86 84
246102.55187988 3357412.87261963 15.94744873 210 213 218
246121.78027344 3357413.39877319 14.56869602 48 66 70
246102.92138672 3357412.79220581 15.14509773 147 142 138
246102.93688965 3357413.40393066 14.94682503 164 157 147
246102.62817383 3357412.60287476 15.67141819 43 39 40
246122.14489746 3357413.65359497 15.10244751 112 126 127
246110.61145020 3357414.26428223 14.40126514 133 135 130
246103.23889160 3357413.13220215 15.97256374 224 231 237
246101.91259766 3357412.68847656 15.30395508 214 193 198
246103.03869629 3357413.25677490 14.98229027 143 139 130
246104.47644043 3357414.07229614 15.67007256 7 11 14
246105.88684082 3357414.05279541 15.00248909 98 112 125
246121.57165527 3357413.37365723 15.76095867 27 29 44
246102.02246094 3357413.93655396 15.57647324 239 238 234
246102.76098633 3357414.05328369 15.71470642 34 43 50
246120.55957031 3357413.74148560 15.41177464 96 113 141
246112.30712891 3357412.93218994 15.47905254 47 57 67
246102.10375977 3357414.30624390 14.53347778 132 133 125
246112.74926758 3357412.92953491 15.57276249 31 45 58
246120.82812500 3357413.56201172 15.71416569 77 102 107
246113.33374023 3357414.20278931 14.64133167 58 59 63
246112.25170898 3357414.19143677 14.49959755 71 73 68
246105.95642090 3357412.97387695 15.26466274 207 216 223
246103.92675781 3357414.01123047 15.22933483 121 121 119
246123.12951660 3357413.77444458 14.71509743 58 65 73
246104.85803223 3357414.12176514 15.47115898 151 152 157
246113.48571777 3357413.63998413 15.60388947 44 57 66
246111.43688965 3357414.02777100 14.95888996 19 22 27
246113.08764648 3357413.73602295 15.63163853 49 59 68
246102.47387695 3357412.73782349 14.80070019 138 137 133
246105.43554688 3357413.23208618 15.32676315 219 228 237
246105.94616699 3357413.39306641 15.29186916 208 221 230
246122.20214844 3357413.43533325 15.46401501 77 101 127
246112.97448730 3357414.15090942 14.69613838 43 47 50
246103.10192871 3357414.51193237 14.54805565 83 84 88
246111.49365234 3357412.35330200 14.63682270 119 120 122
246101.59399414 3357412.58062744 14.54131413 133 134 128
246111.97326660 3357414.14736938 14.52602386 49 50 52
246112.42761230 3357413.09185791 15.50584984 37 49 63
246101.79821777 3357413.10211182 15.20881557 140 140 140
246122.63818359 3357413.70880127 15.03629589 32 61 75
246123.22119141 3357413.76702881 14.82642555 23 25 37
246111.63598633 3357414.01550293 15.38362789 33 44 48
246102.20495605 3357414.17974854 14.67127800 87 88 83
246106.08166504 3357413.54605103 15.29520607 187 199 211
246103.89965820 3357414.52371216 14.59141350 83 88 91
246110.89782715 3357413.68704224 15.39225006 66 78 90
246115.21606445 3357412.76785278 15.09009171 97 106 121
246122.26855469 3357413.62646484 14.72745132 47 56 55
246111.14965820 3357413.94030762 14.99950695 21 24 29
246112.26330566 3357413.73983765 15.57331276 31 41 50
246103.03967285 3357412.71163940 14.86375141 106 106 106
246113.38537598 3357412.30993652 14.64977551 18 22 25
246115.29345703 3357413.54516602 14.96899033 67 73 87
246112.80346680 3357412.53448486 15.52534962 5 10 16
246111.46472168 3357412.72732544 15.39328480 65 78 86
246115.23999023 3357412.36065674 14.45230865 50 58 61
246104.14013672 3357412.48278809 14.59890366 55 57 56
246102.29492188 3357413.80801392 15.91733456 154 163 168
246113.33410645 3357414.12155151 15.18219662 19 27 30
246104.68188477 3357414.44625854 14.55919075 69 74 77
246110.58398438 3357412.60382080 14.82573509 62 58 57
246111.77539063 3357413.54766846 15.46561241 73 85 97
246103.60559082 3357414.03253174 14.94564152 99 105 105
246105.56616211 3357412.47052002 15.01819611 40 50 51
246103.58715820 3357414.00573730 15.42994499 168 164 165
246111.90869141 3357412.41961670 15.31432629 19 26 34
246104.40014648 3357413.86230469 15.87689781 99 114 119
246102.27478027 3357414.21957397 14.99132156 110 115 111
246111.74414063 3357413.60116577 15.46949482 74 87 96
246102.48144531 3357412.63336182 14.81469345 57 56 52
246119.27087402 3357413.62142944 14.95148659 126 139 147
246105.27844238 3357414.40701294 14.59523773 61 69 72
246105.34204102 3357414.14022827 15.22322178 178 189 195
246111.22534180 3357413.50146484 15.37680531 103 120 130
246121.14855957 3357413.38446045 15.80213928 64 75 95
246123.59594727 3357413.25973511 15.07124996 57 109 148
246102.57263184 3357412.96124268 14.97314262 157 154 147
246122.10278320 3357413.65231323 15.49908447 9 26 42
246114.02612305 3357413.70684814 15.37686443 46 60 69
246102.79357910 3357412.85140991 14.78898048 146 148 147
246123.19616699 3357413.10580444 15.20749187 82 130 170
246120.77197266 3357413.71017456 15.10784817 105 149 148
246113.58581543 3357414.30099487 14.48166943 83 87 88
246112.65332031 3357414.08007813 15.09564304 17 22 25
246121.69079590 3357413.31088257 15.73298264 30 36 48
246103.48791504 3357414.05905151 15.66452122 31 31 33
246102.02917480 3357414.67968750 14.43117046 143 144 139
246119.18444824 3357413.38220215 15.13959122 204 209 212
246104.21948242 3357413.10845947 15.99896622 205 219 228
246115.14221191 3357413.71099854 15.09968376 106 119 128
246114.88952637 3357412.33789063 15.02283287 195 194 200
246121.73034668 3357413.17254639 15.71987915 2 12 21
246102.51599121 3357412.61618042 15.69137287 37 33 32
246101.60974121 3357413.49328613 14.55943489 129 130 124
246113.65991211 3357414.23620605 14.52598572 80 81 83
246119.17382813 3357413.36895752 15.09704494 82 93 95
246113.97912598 3357412.38217163 15.02477264 11 18 28
246104.16174316 3357413.20239258 14.91900253 123 124 116
246103.08312988 3357414.04046631 15.02376938 120 125 121
246103.68920898 3357413.58923340 14.71594334 185 185 183
246123.29895020 3357413.65036011 15.08346367 103 157 203
246104.15100098 3357413.56402588 16.01945877 208 218 227
246119.99792480 3357413.84246826 15.11407089 39 57 69
246103.91076660 3357412.60064697 15.30077267 160 160 162
246104.40625000 3357414.09725952 15.22660828 153 159 155
246111.48608398 3357412.36614990 14.66112804 126 127 129
246112.48034668 3357414.01553345 15.32876492 35 44 49
246104.23925781 3357412.53881836 15.37187481 151 151 151
246111.75646973 3357412.54406738 15.44920349 6 11 14
246111.85046387 3357413.73510742 15.50406361 44 57 65
246104.31799316 3357413.19995117 14.90980244 121 126 106
246104.19384766 3357413.37387085 16.01051712 205 215 225
246104.59985352 3357413.19363403 15.56079578 117 146 152
246115.20129395 3357412.26184082 14.41394424 65 69 72
246103.59875488 3357414.59823608 14.56350803 86 90 93
246122.60595703 3357413.69583130 15.25729656 113 160 178
246102.01733398 3357414.12249756 15.00669098 62 62 62
246101.97094727 3357412.59976196 15.20112610 166 148 148
246120.36035156 3357413.89306641 14.68270874 50 55 58
246103.94165039 3357413.01727295 15.01910591 164 165 159
246114.63513184 3357412.60977173 15.15441799 33 49 62
246104.79467773 3357412.53970337 15.52728748 126 131 135
