246160.28833008 3357684.17376709 12.84248447 80 82 81
246159.01184082 3357685.60455322 12.20608234 32 41 38
246161.58630371 3357683.50158691 12.37111378 25 35 24
246158.82202148 3357683.92279053 12.70650864 122 115 123
246161.85791016 3357683.60406494 12.04531384 25 40 21
246161.42712402 3357682.31109619 11.67184448 40 50 51
246158.47473145 3357684.81323242 12.39165878 98 112 115
246160.48059082 3357682.20904541 11.58958530 93 98 101
246157.99560547 3357684.96203613 12.32302284 71 89 91
246158.51855469 3357686.07421875 11.73874474 46 56 48
246158.06469727 3357684.18225098 12.17877102 86 108 119
246159.95056152 3357682.59655762 11.97683716 47 61 62
246161.60302734 3357683.62756348 12.29405785 29 40 24
246160.16979980 3357682.47131348 12.31424522 95 112 119
246157.70739746 3357684.92382813 12.28761673 101 110 115
246162.26049805 3357683.55987549 11.83859921 30 45 26
246161.57470703 3357682.82843018 12.04242516 59 72 80
246158.56359863 3357686.25531006 11.56504059 62 69 61
246158.87390137 3357685.50573730 12.19188213 36 46 45
246160.18371582 3357682.39746094 11.68821144 49 57 59
246161.09020996 3357682.05548096 11.60821819 64 72 74
246159.26721191 3357683.48590088 12.71015453 72 101 107
246159.38342285 3357683.09686279 11.90994835 104 103 98
246162.07836914 3357683.18847656 11.76228237 28 29 31
246160.32751465 3357682.31427002 11.72703648 23 33 35
246158.79382324 3357683.58654785 11.89988995 147 151 152
246161.35986328 3357683.64489746 12.43007660 30 38 27
246161.20666504 3357682.26251221 12.01917458 55 65 67
246160.62817383 3357682.13403320 12.16575623 61 65 74
246158.93981934 3357684.85180664 12.43483925 12 21 20
246161.90466309 3357683.58856201 11.99649906 26 39 22
246158.95141602 3357683.93444824 12.75517178 36 36 38
246158.35437012 3357683.95007324 12.19496632 115 133 137
246159.33398438 3357683.13177490 11.80859852 144 138 124
246158.36401367 3357683.93115234 12.20890427 115 133 137
246160.71704102 3357682.06817627 11.92919350 57 63 63
246161.57153320 3357683.11132813 12.30600357 58 76 80
246160.10205078 3357682.46649170 11.80382061 59 69 70
246159.44702148 3357683.39575195 12.78394699 215 237 248
246160.13598633 3357682.45617676 12.17420673 93 108 113
246160.55468750 3357683.63977051 12.78721237 70 81 85
246161.75732422 3357682.65972900 11.66464520 54 62 64
246158.77880859 3357683.78302002 12.51525402 38 26 30
246158.94299316 3357685.15954590 12.34638786 16 26 27
246161.76611328 3357682.99328613 11.94441605 59 69 71
246161.10998535 3357682.43414307 12.29607296 77 92 99
246157.85144043 3357684.45904541 12.21437073 185 212 223
246157.89257813 3357685.20373535 12.25235081 53 67 70
246158.50769043 3357683.79870605 12.35295773 167 184 191
246160.40917969 3357682.32397461 12.33650589 119 136 146
246159.71716309 3357684.56097412 12.73063946 22 26 27
246161.42517090 3357681.97143555 11.47043514 95 105 107
246161.88793945 3357683.19970703 11.90052795 19 26 19
246158.59521484 3357685.19665527 12.30169392 47 57 59
246161.12329102 3357683.44854736 12.45346355 7 16 15
246158.08459473 3357684.87292480 12.33884430 72 87 92
246158.43371582 3357685.82226563 11.89504623 62 71 70
246158.95263672 3357686.10797119 11.79709339 23 30 23
246158.67468262 3357684.73510742 12.40795422 0 5 7
246158.55920410 3357684.08209229 12.52529812 59 60 65
246159.66528320 3357682.98016357 12.34097862 181 203 216
246158.17089844 3357685.32385254 12.23995590 54 65 67
246159.14367676 3357683.27935791 12.01831245 121 121 119
246158.61523438 3357685.60815430 12.03825474 56 64 66
246159.24194336 3357683.67614746 12.84249783 135 126 129
246159.39819336 3357683.08642578 11.94393635 89 90 85
246157.96337891 3357684.25036621 12.10678101 45 69 81
246161.15795898 3357682.36761475 12.18745422 65 79 82
246158.45385742 3357685.41998291 12.14714813 58 69 71
246159.07275391 3357684.02160645 12.79537678 9 15 13
246158.29870605 3357685.88049316 11.85673618 55 60 64
246159.27148438 3357683.81176758 12.84587479 13 11 14
246158.30871582 3357685.32019043 12.24103451 57 67 68
246158.72705078 3357685.78894043 11.99613762 37 43 41
246158.85473633 3357683.82360840 12.68187237 158 171 177
246158.99340820 3357683.37921143 11.93382168 146 143 138
246157.81665039 3357684.40740967 12.08473015 78 102 114
246160.81896973 3357682.25341797 12.40868282 147 161 170
246160.32202148 3357683.79547119 12.84285164 101 108 114
246157.96093750 3357684.46704102 12.34251022 186 203 213
246158.99694824 3357685.39062500 12.28140259 29 41 37
246160.94750977 3357682.09478760 11.87427902 75 80 84
246159.96826172 3357684.00390625 12.77886486 14 16 15
246157.93261719 3357685.52752686 12.10343742 29 41 41
246162.05688477 3357683.58319092 11.93722916 25 40 21
246159.65747070 3357682.90014648 12.10793877 70 85 90
246160.80468750 3357682.88769531 12.50564003 7 12 15
246158.41418457 3357686.12188721 11.66494560 50 56 52
246159.01464844 3357683.48034668 12.31943226 207 217 227
246159.13806152 3357683.76788330 12.85997200 25 23 24
246161.26647949 3357682.33050537 11.98123550 43 54 56
246159.39843750 3357683.09545898 11.64861012 200 189 169
246158.07177734 3357685.40612793 12.19240570 50 64 65
246160.01599121 3357682.54193115 11.86459923 46 55 54
246158.52844238 3357683.75695801 12.16630745 103 113 115
246161.39514160 3357682.59893799 12.05441284 58 77 84
246160.28662109 3357683.13873291 12.73143291 73 91 95
246158.14135742 3357685.24884033 12.27742100 54 68 71
246161.40039063 3357682.19488525 11.58473110 67 79 79
246161.80444336 3357683.54119873 12.09135628 25 37 25
246161.28918457 3357682.63610840 12.23416233 74 97 105
246159.59533691 3357682.94183350 11.93405151 84 85 79
246160.41015625 3357682.61328125 12.61759472 94 103 112
246159.62316895 3357682.92480469 11.77982903 117 115 102
246161.67687988 3357683.67895508 12.20803452 31 44 26
246160.96472168 3357682.90759277 12.45349979 7 12 15
246159.69482422 3357683.28521729 12.81618977 147 166 173
246161.63122559 3357683.21405029 12.32087421 58 72 73
246161.66821289 3357682.34722900 11.56250381 73 84 86
246158.36743164 3357685.12365723 12.33855343 60 70 71
246161.17163086 3357683.66546631 12.49752617 37 47 38
246161.29833984 3357682.39160156 12.00198174 51 62 66
246158.36352539 3357683.93212891 12.20058823 115 133 137
246158.41284180 3357685.40698242 12.16310596 61 72 74
246158.36279297 3357684.74224854 12.36921692 109 123 126
246158.32556152 3357684.70867920 12.36754227 101 116 119
246158.11804199 3357685.45098877 12.16365337 47 58 62
246159.81347656 3357682.73913574 12.22512054 148 171 179
246159.00036621 3357683.92651367 12.79152203 23 23 25
246160.41381836 3357682.57739258 12.59452534 127 140 148
246159.28088379 3357683.17565918 11.90010071 126 126 116
246159.12316895 3357683.29248047 11.70833778 197 189 178
246158.64233398 3357686.34545898 11.54632759 22 32 21
246158.62829590 3357685.50390625 12.10602570 52 60 63
246159.85192871 3357682.69171143 12.02703476 62 78 77
246159.40429688 3357684.94073486 12.53553677 10 19 16
246161.12719727 3357682.18121338 11.90327740 61 69 72
246161.96020508 3357683.02770996 11.76073647 32 36 35
246158.14367676 3357685.64520264 12.01429272 47 57 58
246160.07482910 3357683.69024658 12.83990860 73 84 88
246160.16162109 3357683.25335693 12.80492973 75 93 95
246160.86230469 3357683.62902832 12.68129253 3 11 13
246157.54089355 3357684.92578125 11.95630836 82 92 94
246158.86108398 3357683.63024902 12.35795975 231 238 246
246158.41430664 3357685.87145996 11.86218262 60 69 68
246161.30078125 3357681.85131836 11.43109035 104 115 117
246158.65979004 3357684.77093506 12.40274620 2 12 13
246161.03051758 3357683.53466797 12.52522373 9 10 14
246160.01489258 3357682.54083252 12.17595959 77 95 97
246158.33837891 3357685.41424561 12.17061615 62 73 75
246158.97570801 3357683.40533447 11.82859707 194 190 187
246161.05175781 3357682.07476807 11.68109035 56 65 64
246160.96313477 3357683.62017822 12.60522842 7 11 12
246159.81787109 3357684.03656006 12.75550270 16 22 20
246161.01000977 3357682.35406494 12.37580395 77 90 96
246158.32214355 3357683.97906494 11.65839005 96 100 99
246160.47106934 3357682.72277832 12.63741016 8 12 15
246160.78149414 3357683.77929688 12.75572681 63 75 75
246161.50012207 3357683.15716553 12.39149761 59 73 74
246158.66345215 3357683.96185303 12.59427643 212 214 226
246161.92309570 3357683.53302002 11.97977352 26 38 26
246161.00207520 3357683.31188965 12.47399998 10 14 17
246162.14624023 3357683.33721924 11.82052612 15 27 15
246160.72253418 3357683.01562500 12.60042191 12 17 21
246157.56384277 3357684.73077393 11.83811951 63 72 77
246160.08984375 3357682.62915039 12.43802071 143 163 170
246160.28710938 3357682.67535400 12.63027191 151 168 175
246158.67346191 3357683.96459961 12.60637760 223 230 240
246159.55224609 3357683.22601318 12.62868118 15 26 28
246158.47265625 3357684.37536621 12.44004536 1 11 12
246160.13208008 3357682.82916260 12.68466473 155 172 182
246160.12231445 3357683.45452881 12.87486935 47 62 65
246159.19519043 3357684.07324219 12.78184891 10 20 19
246160.10937500 3357683.45208740 12.87360668 47 62 65
246159.32910156 3357684.53057861 12.66638470 3 9 9
246159.17956543 3357683.27954102 12.22598076 90 109 115
246160.35864258 3357682.29412842 11.79386520 40 45 49
246158.70202637 3357683.65380859 12.16369247 161 172 178
246158.32116699 3357684.06103516 12.39523411 176 193 200
246161.88195801 3357682.91973877 11.79444504 29 33 34
246158.84216309 3357683.57043457 12.26041031 180 201 206
246161.47595215 3357682.60534668 11.95529175 64 79 86
246160.09265137 3357683.36987305 12.86809349 60 78 80
246160.31762695 3357682.30578613 11.91519833 33 43 44
246159.78588867 3357683.29321289 12.81933784 114 125 131
246159.28991699 3357683.27386475 12.34874630 190 210 217
246159.57165527 3357683.40533447 12.83439636 97 112 115
246161.21337891 3357682.28625488 12.05525112 56 66 68
246160.59448242 3357683.32800293 12.72228336 9 19 21
246158.84265137 3357685.18591309 12.30338001 38 50 50
246160.60168457 3357682.13934326 11.80182362 65 70 73
246159.44201660 3357685.17645264 12.45508862 39 48 45
246158.86877441 3357683.62670898 12.36128235 231 238 246
246159.90063477 3357682.64685059 11.85596848 41 49 51
246159.57116699 3357682.95971680 11.94710445 87 87 79
246160.41076660 3357682.30804443 12.29780006 90 108 118
246158.25695801 3357684.41168213 12.42418385 105 123 127
246159.80285645 3357683.52154541 12.84708214 1 1 3
246160.69335938 3357682.10607910 12.20259857 24 21 28
246160.35815430 3357683.93597412 12.85112858 94 98 101
246160.39135742 3357682.27679443 11.63290787 51 56 59
246157.80273438 3357684.51245117 12.19236279 197 220 228
246161.34716797 3357682.46160889 11.99063110 70 85 92
246157.88464355 3357684.48022461 12.29215336 181 199 211
246159.88916016 3357682.66772461 11.60286331 55 59 58
246160.07531738 3357682.93750000 12.69410610 176 196 205
246161.12719727 3357681.95300293 11.50904560 101 111 113
246161.29797363 3357682.25067139 11.72188950 37 47 49
246157.94335938 3357684.43768311 12.31795025 182 200 212
246158.47607422 3357683.78759766 11.65948963 95 97 94
246160.31335449 3357682.48828125 12.49060535 110 127 134
246158.23107910 3357684.93664551 12.34242058 76 90 91
246160.51635742 3357682.17596436 12.01832104 61 69 72
246159.96520996 3357682.60382080 12.27176285 84 104 111
246157.55419922 3357684.74017334 11.75251865 71 80 85
246158.78210449 3357686.12188721 11.77084732 31 41 32
246158.66687012 3357683.70465088 12.03997326 128 138 140
246160.51855469 3357682.20306396 12.18288136 67 84 92
246158.65356445 3357685.47454834 12.12676716 50 58 61
246159.38159180 3357685.26556396 12.41552734 26 35 32
246162.02026367 3357683.24182129 11.81629753 26 32 28
246158.19104004 3357684.09143066 11.66528130 49 49 49
246159.09667969 3357683.30059814 11.90468311 152 145 137
246161.25305176 3357683.04681396 12.40516472 6 11 14
246158.74694824 3357683.69982910 12.36352253 236 239 248
246160.84216309 3357682.41070557 12.47188950 70 75 81
246157.91735840 3357684.42810059 12.28911114 179 199 210
246159.39245605 3357683.09692383 11.66744518 190 182 161
246159.72692871 3357684.74188232 12.67775631 11 15 16
246158.53308105 3357684.75463867 12.39017677 97 111 114
246161.68103027 3357682.52508545 11.63189602 54 64 65
246160.14892578 3357682.43530273 12.07442284 66 77 79
246160.87939453 3357682.07733154 11.90113449 70 75 79
246160.35485840 3357683.71813965 12.84986687 92 101 106
246160.76977539 3357682.22283936 12.37239838 187 207 218
246157.62231445 3357684.61633301 11.89659405 66 75 82
246160.46228027 3357683.47332764 12.77658081 43 54 58
246158.03674316 3357685.15344238 12.30203629 60 75 78
246161.54650879 3357682.53625488 11.76006794 34 45 47
246160.90124512 3357682.40606689 12.46514225 82 89 95
246161.57641602 3357682.26007080 11.55632210 75 86 88
246160.00720215 3357684.04620361 12.78954887 17 18 20
246158.51257324 3357683.90039063 12.43107224 109 122 128
246161.70056152 3357682.63769531 11.68229389 46 54 56
246160.33923340 3357682.41693115 12.44425011 184 202 214
246162.11389160 3357683.08941650 11.69107533 31 35 34
246161.29956055 3357681.97735596 11.48569298 99 109 111
246159.22033691 3357684.45758057 12.67362881 10 19 18
246159.24255371 3357683.47106934 12.64217567 10 29 35
246160.07165527 3357683.02954102 12.71342182 134 152 162
246161.18688965 3357681.90698242 11.47240162 103 114 116
246158.06762695 3357684.65728760 12.37581062 99 114 119
246158.97888184 3357685.52697754 12.22531891 40 50 49
246159.48095703 3357684.74993896 12.63020039 11 17 15
246158.34680176 3357684.26898193 12.42693806 6 11 14
246158.02575684 3357684.70166016 12.37245941 84 99 102
246159.99267578 3357682.57281494 11.62999821 39 45 45
246159.73657227 3357683.00012207 12.45211029 22 22 22
246159.79772949 3357682.75347900 12.13611317 100 119 126
246158.92004395 3357685.48272705 12.22207832 46 58 54
246160.60998535 3357683.28717041 12.71406841 2 12 13
246158.18029785 3357685.78411865 11.92198181 50 56 56
246159.01660156 3357685.36883545 12.29135036 29 41 37
246158.99951172 3357685.50909424 12.24245358 30 41 37
246158.78479004 3357685.03759766 12.37784481 53 63 64
246160.07214355 3357684.19268799 12.82107353 24 26 25
246158.87670898 3357684.55065918 12.52597713 3 12 9
246159.27307129 3357683.30792236 12.38551617 214 228 237
246161.73974609 3357682.66387939 11.67695427 43 51 53
246161.30847168 3357682.22918701 11.68668938 45 55 57
246157.92529297 3357684.29290771 11.71709061 47 48 52
246161.44177246 3357682.88208008 12.30135822 95 120 124
246159.31335449 3357684.93859863 12.51313019 15 21 19
246161.33496094 3357682.38995361 11.90948200 49 60 64
246159.07885742 3357683.32568359 11.75775433 200 193 185
246158.52636719 3357683.71948242 12.30721664 97 111 114
246161.55993652 3357683.07031250 12.26117134 62 79 87
246159.48449707 3357683.03631592 11.63013649 223 208 177
246160.43298340 3357683.09429932 12.73437309 14 25 27
246159.76379395 3357683.21270752 12.79878139 164 187 195
246160.27868652 3357682.80090332 12.70190716 24 34 35
246159.45556641 3357683.86706543 12.81088066 11 17 15
246160.74401855 3357683.85272217 12.76866245 95 105 104
246160.29113770 3357683.94573975 12.84633446 93 97 100
246161.04150391 3357682.67956543 12.41008568 20 28 31
246160.99768066 3357683.70910645 12.62161255 21 25 24
246161.19750977 3357681.85217285 11.44639874 107 118 120
246160.35083008 3357682.98168945 12.71938705 8 20 20
246159.21813965 3357683.21936035 11.79577446 151 144 128
246159.72473145 3357682.82855225 11.67221069 91 96 92
246159.95788574 3357683.24682617 12.80978012 87 106 112
246158.41162109 3357684.96887207 12.39762402 63 74 78
246158.73718262 3357683.65063477 11.98359585 136 141 144
246159.26733398 3357683.18731689 11.90962601 126 126 116
246158.37219238 3357683.92993164 11.69299889 108 114 112
246161.30566406 3357682.65051270 12.23143005 75 100 107
246159.09057617 3357683.97210693 12.82124329 4 8 7
246158.88024902 3357683.49035645 11.63770199 174 169 165
246157.78198242 3357684.68023682 12.32188320 163 175 187
246159.68627930 3357683.00109863 12.39872265 181 190 197
246161.41162109 3357683.70068359 12.40451241 30 41 27
246158.17797852 3357684.08666992 12.01374722 85 100 103
246160.44677734 3357683.10101318 12.73250866 3 13 15
246158.43798828 3357684.09570313 12.47331333 100 105 109
246161.76965332 3357683.36877441 12.10771370 29 38 33
246159.19433594 3357683.25604248 12.13315582 88 100 100
246160.41748047 3357683.91070557 12.83331871 87 92 95
246157.58581543 3357684.91186523 12.11639881 62 72 73
246161.57275391 3357683.24249268 12.41113186 61 73 73
246159.71386719 3357682.85192871 12.10181522 80 95 98
246158.85559082 3357686.06726074 11.83019447 32 39 32
246158.50781250 3357686.08050537 11.72869301 46 56 48
246157.90454102 3357684.73846436 12.36736584 72 86 89
246158.84973145 3357684.56561279 12.50818539 6 15 14
246160.07373047 3357683.55505371 12.85177708 60 75 78
246159.59765625 3357682.94482422 11.71863174 136 131 112
246158.55371094 3357684.63171387 12.40516472 0 9 10
246161.08020020 3357682.05255127 11.60920429 68 76 78
246158.16308594 3357684.48742676 12.40888119 82 97 102
246161.91162109 3357683.66857910 12.00877857 26 41 18
246160.86376953 3357682.19195557 12.34514332 194 208 219
246161.60998535 3357682.90734863 12.06546402 56 69 78
246158.63635254 3357686.01806641 11.83012009 47 53 49
246162.05322266 3357683.30908203 11.84167385 17 27 19
246160.46142578 3357682.22180176 11.79718208 55 63 65
246158.45617676 3357683.83392334 12.34133244 209 226 233
246161.24243164 3357682.49670410 12.15205002 73 87 98
246159.87902832 3357682.67407227 12.25223064 82 102 111
246160.38317871 3357682.29595947 12.18149757 79 92 98
246161.13427734 3357683.59716797 12.49010086 16 22 18
246160.67138672 3357682.76281738 12.53991508 11 16 22
246159.84497070 3357684.54376221 12.77142048 26 27 29
246161.41992188 3357682.55090332 11.98056030 61 78 85
246158.16894531 3357685.58618164 12.04980469 48 60 60
246158.58728027 3357683.69079590 12.26883030 128 137 142
246159.21948242 3357683.22314453 11.86526966 133 130 115
246159.20935059 3357685.20721436 12.39870453 7 13 11
246158.52893066 3357683.93243408 12.46257496 93 104 110
246160.16735840 3357682.43676758 12.19347668 91 106 111
246161.53967285 3357682.69329834 11.95354557 70 87 94
246159.81994629 3357683.75994873 12.80087471 15 19 20
246158.73303223 3357684.31793213 12.54506969 18 27 26
246160.98510742 3357682.10144043 11.79852676 52 57 61
246159.91284180 3357682.69213867 12.31315613 116 138 151
246158.70361328 3357683.68450928 12.02378750 128 138 140
246159.67285156 3357683.70373535 12.81264210 8 12 13
246159.52648926 3357684.63684082 12.68181038 6 10 11
246160.99047852 3357681.97570801 11.55535507 96 106 107
246160.35278320 3357682.92315674 12.71300411 5 15 16
246160.28271484 3357682.92761230 12.71933365 8 20 20
246157.61975098 3357684.65039063 11.96740723 73 87 90
246158.80151367 3357683.56121826 11.74478912 185 190 193
246158.96032715 3357683.49560547 12.28364658 178 192 201
246157.90539551 3357684.38275146 12.21985054 180 206 221
246161.11779785 3357682.20159912 12.04051495 44 53 52
246159.98608398 3357684.01983643 12.78391075 18 20 19
246159.21057129 3357684.00933838 12.81250668 17 25 27
246159.84777832 3357683.91906738 12.78261662 6 10 11
246161.87561035 3357682.78009033 11.69281960 44 49 52
246160.82312012 3357682.06317139 11.95152187 69 74 80
246161.03540039 3357682.62347412 12.40895081 37 47 49
246159.28112793 3357683.18457031 12.03119373 97 101 102
246160.61523438 3357682.13861084 11.73988724 69 77 79
246158.12854004 3357684.13476563 11.79275608 43 48 51
246159.26452637 3357683.99432373 12.81009102 20 28 30
246161.83740234 3357683.39465332 12.03842545 20 30 22
246158.29187012 3357684.15142822 12.42275715 154 164 174
246161.95092773 3357682.93969727 11.74191570 34 35 37
246160.74658203 3357683.11010742 12.61413956 7 12 15
246160.46374512 3357684.08215332 12.85289764 81 85 86
246158.28527832 3357685.65014648 12.00826359 49 60 62
246158.00158691 3357684.21923828 11.90223312 52 56 59
246160.10888672 3357683.48760986 12.86515141 49 64 67
246160.83349609 3357682.29699707 12.45251274 95 104 111
246159.73461914 3357683.91741943 12.77024746 16 22 22
246158.23315430 3357685.66156006 12.00240612 47 58 60
246160.22143555 3357682.36389160 11.61144257 46 54 56
246161.02893066 3357683.33770752 12.46145248 8 12 15
246159.71423340 3357684.35345459 12.76486397 16 20 21
246158.13183594 3357685.28338623 12.26499081 58 69 71
246158.91662598 3357683.58648682 12.35769176 217 232 239
246158.76513672 3357684.49017334 12.49584198 7 16 15
246159.24829102 3357683.20391846 11.92524910 114 114 104
246159.18676758 3357683.27685547 12.22987747 90 109 115
246161.52978516 3357682.34515381 11.61561489 51 62 64
246158.94848633 3357685.59924316 12.17943001 43 49 49
246160.23034668 3357683.46942139 12.84768105 57 72 75
246159.55786133 3357682.97314453 11.72037697 152 142 117
246157.49255371 3357684.78240967 11.64994335 142 149 159
246159.32116699 3357683.15161133 11.64585304 192 180 166
246161.46643066 3357682.71307373 12.07254887 73 96 104
246161.86242676 3357682.64373779 11.60132694 64 67 72
246159.30029297 3357684.53869629 12.66074848 5 11 11
246158.77392578 3357685.14208984 12.32913303 46 56 57
246161.88757324 3357682.82836914 11.72540855 38 42 45
246159.43395996 3357684.87707520 12.57105446 14 23 20
246158.58752441 3357683.70147705 12.31143475 135 146 150
246158.94934082 3357685.92657471 11.99268055 23 30 23
246157.93273926 3357684.74371338 12.36631870 78 89 93
246158.71301270 3357685.93054199 11.91256237 42 48 46
246161.56262207 3357682.48669434 11.69487858 36 47 49
246161.09729004 3357682.26348877 12.19900894 69 80 82
246159.63598633 3357684.27398682 12.76489067 12 16 17
246158.45776367 3357683.82281494 12.22024345 142 163 166
246161.84008789 3357683.04882813 11.88659477 40 46 46
246158.97497559 3357684.15307617 12.71024036 7 15 17
246157.63525391 3357684.65466309 12.05564880 82 100 102
246160.69104004 3357682.11633301 12.22449589 22 21 29
246160.97814941 3357681.97253418 11.55607224 96 106 107
246160.19140625 3357683.27972412 12.81459904 71 86 89
246161.02514648 3357682.23944092 12.27846241 84 93 100
246161.81079102 3357683.21936035 11.99962044 25 34 31
246159.94360352 3357684.38391113 12.81651402 10 10 8
246161.43298340 3357683.64099121 12.39472103 31 39 26
246158.86950684 3357684.07440186 12.69705677 14 18 19
246159.44348145 3357684.94177246 12.54512215 7 16 13
246161.03613281 3357682.14978027 12.00141430 79 87 90
246161.44494629 3357683.56262207 12.39139652 23 31 20
246161.27490234 3357682.29467773 11.83361530 53 64 68
246160.44335938 3357682.55139160 12.57822514 127 137 146
246158.28674316 3357685.06549072 12.35001469 60 72 72
246160.36083984 3357682.27606201 11.99136543 72 86 87
246160.28710938 3357682.62994385 12.59363747 125 140 147
246161.50646973 3357682.72930908 12.03413391 57 76 83
246158.52478027 3357684.49359131 12.42486382 0 10 11
246158.35791016 3357685.72784424 11.95877075 52 62 64
246161.26843262 3357681.78601074 11.41563129 106 117 119
246158.64709473 3357686.37622070 11.53734398 20 31 17
246159.06628418 3357683.74053955 12.78259182 217 226 235
246159.39001465 3357683.64025879 12.86067963 35 29 29
246161.18225098 3357682.49108887 12.23517132 72 86 95
246159.52075195 3357683.26751709 12.66619587 15 32 40
246162.01721191 3357682.86334229 11.64149952 47 51 52
246158.52709961 3357686.17913818 11.63181305 56 63 56
246159.23706055 3357684.89703369 12.51227760 11 17 15
246159.30749512 3357683.45526123 12.71570492 33 60 71
246161.69921875 3357683.10723877 12.07581425 54 68 69
246158.20312500 3357685.04162598 12.32515621 70 86 86
246158.58154297 3357684.40161133 12.45807171 12 22 23
246161.32421875 3357683.32458496 12.41448402 14 24 26
246161.03088379 3357683.58703613 12.54796600 11 12 14
246157.90075684 3357684.65167236 12.37407303 105 115 124
246160.24353027 3357684.04846191 12.84667492 17 17 17
246161.31750488 3357683.63354492 12.45063782 37 47 38
246159.62561035 3357683.27697754 12.81326866 148 172 182
246161.10351563 3357682.99035645 12.42718315 8 13 16
246157.98840332 3357685.20904541 12.28098488 64 78 81
246159.03637695 3357683.52703857 12.41666222 191 193 205
246161.14379883 3357682.18927002 11.86497116 58 67 72
246157.77905273 3357684.41864014 11.88479424 46 54 65
246157.78967285 3357684.66650391 12.32744789 163 175 187
246160.60119629 3357682.08160400 11.55578709 102 107 110
246158.12902832 3357684.11560059 12.19165802 86 106 117
246159.91162109 3357682.62982178 12.02777576 44 58 59
246160.39306641 3357683.93731689 12.83303452 84 89 92
246161.48327637 3357683.58197021 12.37080193 28 36 23
246158.70764160 3357685.45153809 12.14879131 43 53 54
246159.76257324 3357684.45739746 12.75933170 16 20 19
246157.82849121 3357684.58251953 12.31174183 178 195 203
246158.58422852 3357685.88909912 11.88095188 53 59 59
246161.99462891 3357682.84466553 11.64308071 47 52 55
246161.24108887 3357682.26269531 11.85175419 54 63 68
246159.58251953 3357683.15588379 12.54094219 11 12 14
246157.65502930 3357684.54833984 11.89746857 40 50 52
246158.92236328 3357684.62194824 12.52283287 6 12 10
246160.15100098 3357682.42572021 11.71477509 40 48 50
246158.34143066 3357683.97436523 12.33356953 192 205 213
246158.09985352 3357684.14343262 11.95258236 42 52 53
246158.09094238 3357685.30566406 12.26152992 52 66 67
246160.38012695 3357682.42486572 12.47194004 146 163 173
246160.91137695 3357683.49273682 12.58951378 8 9 13
246161.33911133 3357683.38958740 12.41958714 17 26 25
246160.19323730 3357683.96484375 12.83952904 16 16 16
