246088.75073242 3357630.64855957 15.41488552 31 42 36
246092.31176758 3357665.61029053 13.00011444 129 139 141
246088.31140137 3357629.60931396 14.36371231 29 38 35
246091.25927734 3357665.44799805 14.05934238 93 101 103
246091.82360840 3357665.81115723 14.03023529 230 241 243
246091.34887695 3357627.66040039 13.29267693 25 26 31
246089.79553223 3357664.25427246 16.89539909 57 81 47
246090.96875000 3357666.50537109 12.87150955 100 115 120
246089.70178223 3357650.15441895 13.73396206 17 22 25
246091.68518066 3357640.01818848 13.54244328 149 150 152
246087.32031250 3357638.95617676 12.93694305 26 34 36
246090.16076660 3357639.28424072 13.33240128 56 59 64
246087.79211426 3357629.12396240 14.62965965 74 82 84
246089.03283691 3357629.23028564 14.38542175 130 133 142
246088.90979004 3357632.32446289 14.37366581 29 38 43
246088.37255859 3357638.99017334 13.62342072 144 165 170
246090.95874023 3357632.07922363 14.00867081 15 35 60
246089.81445313 3357628.54138184 14.27954769 51 69 89
246089.58569336 3357631.87274170 14.43391991 4 14 16
246087.72192383 3357637.13275146 13.71063519 46 59 52
246090.96069336 3357630.76647949 13.83073997 20 27 43
246090.21850586 3357628.71069336 14.49810028 85 110 130
246087.87597656 3357630.06121826 13.92159367 39 45 45
246088.13769531 3357667.32415771 13.46260834 140 113 106
246092.31652832 3357664.37432861 14.88993645 163 189 204
246090.37182617 3357640.48425293 14.17519379 11 29 51
246090.75427246 3357630.71905518 13.49149609 85 88 93
246088.31713867 3357629.69366455 14.26824284 27 37 36
246089.95727539 3357649.79321289 13.95941639 39 47 58
246092.87084961 3357664.10333252 13.30249500 89 93 96
246090.31262207 3357657.24938965 13.33138084 41 47 47
246087.82263184 3357630.04339600 14.08300877 36 42 42
246092.09729004 3357638.09594727 13.56662273 175 212 231
246087.73974609 3357638.12817383 13.32392406 16 27 23
246089.68994141 3357637.49438477 14.11443615 9 14 20
246090.71142578 3357630.50811768 12.99692059 49 51 48
246088.24609375 3357648.59637451 13.63247108 39 41 40
246092.21765137 3357655.30859375 12.81878853 27 34 40
246091.33056641 3357637.22357178 13.10094643 66 67 69
246089.21264648 3357648.39025879 12.82259083 126 122 113
246088.30957031 3357665.24719238 15.61135769 229 222 196
246088.65136719 3357638.88787842 13.95033550 176 186 196
246088.22216797 3357666.48303223 13.86478519 104 115 75
246092.41003418 3357649.04919434 13.19010162 50 51 56
246088.59692383 3357632.95202637 13.60353088 21 25 24
246089.91186523 3357664.44763184 17.31539345 175 188 168
246089.46862793 3357629.65008545 14.05172825 0 1 4
246092.76416016 3357664.18737793 13.68043041 71 88 98
246088.89184570 3357664.48559570 15.02189350 158 170 166
246091.98303223 3357640.87023926 13.67794514 98 121 135
246091.04150391 3357632.10778809 13.98694324 19 35 61
246089.20654297 3357632.63421631 14.24673271 28 32 33
246087.88000488 3357638.50469971 13.46777153 165 178 168
246090.46557617 3357629.70892334 13.40798092 27 32 35
246089.24072266 3357638.93579102 13.85393906 158 170 186
246091.97741699 3357666.90484619 13.21279430 140 62 84
246092.16394043 3357666.25665283 12.47816277 35 41 41
246089.32629395 3357637.50427246 14.22209454 62 70 72
246092.24060059 3357631.83648682 13.27347469 19 29 39
246088.97167969 3357631.59899902 14.37478638 31 45 48
246090.23706055 3357628.99682617 14.46971989 58 76 88
246089.97644043 3357674.39575195 12.92363548 48 51 56
246092.12951660 3357638.77423096 13.21506786 105 123 135
246091.68530273 3357667.35552979 13.44718742 199 59 96
246090.32592773 3357673.76538086 13.92619228 9 17 20
246089.87219238 3357639.85302734 13.35583401 37 45 48
246092.51123047 3357656.88006592 12.64144230 51 52 44
246090.97412109 3357667.62597656 13.48705387 30 62 85
246092.42504883 3357668.01385498 12.94884586 152 158 172
246087.66674805 3357640.25170898 13.95296669 121 113 111
246089.71704102 3357664.33264160 16.91644859 67 91 57
246089.09033203 3357629.54821777 14.24211025 6 10 11
246089.44238281 3357630.93066406 13.88826466 24 31 37
246091.31018066 3357628.17694092 13.41825390 63 78 97
246090.59387207 3357648.92938232 13.87588882 196 205 210
246088.86950684 3357632.86157227 13.80533791 23 28 31
246088.40820313 3357666.14202881 14.43546963 25 38 21
246089.95410156 3357648.78063965 13.51366997 13 14 18
246092.37329102 3357665.60046387 13.80275536 87 96 101
246092.24609375 3357648.50946045 12.94791603 43 42 37
246092.10266113 3357667.23260498 13.31264114 142 45 80
246091.62866211 3357665.85363770 13.93336868 236 246 248
246090.80371094 3357666.46429443 13.19921207 122 132 141
246091.61169434 3357674.33770752 13.20749283 72 73 78
246088.13891602 3357630.30371094 13.61175060 58 58 50
246087.33154297 3357637.70635986 13.31650639 22 26 25
246090.80163574 3357667.99212646 13.41034412 22 39 55
246091.27990723 3357639.04736328 13.17809963 58 72 75
246087.66674805 3357637.17230225 13.43391132 43 56 49
246088.60864258 3357674.09277344 13.06738758 28 32 31
246091.79418945 3357649.66589355 13.69604301 64 75 107
246087.43212891 3357639.35308838 12.90816021 52 56 55
246087.77172852 3357636.99993896 13.17673874 38 44 42
246088.95568848 3357638.82769775 14.05674458 16 26 38
246091.79516602 3357673.08581543 12.99461174 60 67 77
246091.62048340 3357638.85479736 13.64456558 159 186 205
246091.46411133 3357637.35003662 13.49394798 152 176 188
246092.17858887 3357641.06207275 13.16365242 31 39 42
246091.51757813 3357638.99627686 13.40239143 120 147 166
246090.21215820 3357628.29876709 14.32513237 97 132 154
246091.24243164 3357631.74133301 13.74143600 60 89 119
246090.97399902 3357639.60839844 12.88463402 46 53 63
246087.82214355 3357638.12121582 13.47556591 104 113 112
246091.97216797 3357641.87158203 12.98166275 46 51 54
246088.89855957 3357665.23114014 15.09154320 238 236 223
246088.31091309 3357630.74212646 15.05856323 28 37 32
246088.85778809 3357665.98992920 14.60956478 62 77 74
246091.57897949 3357639.85986328 13.09784794 6 10 13
246091.92858887 3357649.16339111 13.49079704 55 68 102
246091.90551758 3357672.85021973 14.15575027 19 25 25
246090.67419434 3357649.63409424 14.05279446 33 53 77
246091.75146484 3357674.29571533 13.10006142 67 74 80
246086.81518555 3357640.56304932 13.17215919 90 115 49
246089.31335449 3357664.63305664 15.09187603 180 184 183
246091.63745117 3357630.16387939 13.01029396 50 52 49
246092.13183594 3357655.40704346 12.86721039 19 30 34
246091.87890625 3357674.18347168 13.30191898 80 91 109
246091.42065430 3357674.29766846 13.39955997 80 82 94
246087.57983398 3357640.48406982 13.95566750 184 184 176
246092.01391602 3357668.50048828 13.10260296 50 50 62
246087.64196777 3357638.52954102 13.10897350 47 54 46
246089.18920898 3357664.34759521 16.54992485 72 91 63
246088.62463379 3357637.26287842 13.82305908 98 103 99
246089.95800781 3357628.22583008 14.43356323 27 43 58
246089.46240234 3357666.91094971 13.55556965 3 7 8
246092.17492676 3357673.45794678 13.10139942 89 95 117
246088.87451172 3357633.30358887 14.00266838 80 88 77
246088.43652344 3357665.32739258 15.56291294 231 224 198
246091.84326172 3357640.57659912 13.72938824 156 178 191
246089.71032715 3357650.03601074 13.83357239 33 37 38
246090.69445801 3357649.28839111 13.89127350 43 67 95
246091.50622559 3357656.23181152 13.59695435 136 159 173
246088.49023438 3357630.47753906 13.73794937 89 88 83
246089.63293457 3357639.48675537 12.93293381 70 74 60
246088.10144043 3357639.20727539 13.00358295 50 56 54
246092.31579590 3357656.30133057 12.77494335 26 37 41
246092.02587891 3357654.99438477 12.73064423 20 27 33
246090.07128906 3357630.45080566 13.52184772 30 31 33
246091.04333496 3357649.51855469 13.85191822 28 63 95
246090.38586426 3357657.27850342 13.16835785 30 35 38
246088.19921875 3357667.28179932 13.44310093 92 75 65
246091.28930664 3357641.44958496 13.85313988 157 185 206
246090.28186035 3357667.96661377 13.85411835 61 30 45
246089.94775391 3357638.44714355 14.32482624 52 58 72
246088.40991211 3357666.93194580 13.52092361 212 65 91
246088.05834961 3357666.83599854 13.71622658 125 126 95
246089.50158691 3357666.50634766 13.41901779 29 30 32
246090.23046875 3357630.06427002 13.19418430 27 33 33
246091.37438965 3357672.98071289 13.42495155 136 150 163
246087.02880859 3357638.02520752 13.11342812 69 72 63
246090.88598633 3357639.93603516 13.52503014 53 69 82
246091.26013184 3357628.25897217 13.41096497 63 79 95
246090.69897461 3357631.31512451 13.99050426 77 99 122
246091.97741699 3357637.88403320 13.56117535 171 204 221
246092.09326172 3357674.35919189 12.88269997 30 38 40
246088.80419922 3357629.69445801 14.06509495 0 0 4
246092.36755371 3357665.83105469 14.60144806 114 128 137
246093.17785645 3357664.55780029 13.45101738 130 139 146
246092.64929199 3357665.77093506 14.68126297 84 94 103
246089.76464844 3357632.22656250 14.42762947 18 25 31
246090.33166504 3357630.77233887 13.78172302 3 12 19
246091.83007813 3357641.60925293 13.41514492 21 39 41
246092.67431641 3357664.39025879 14.30803490 39 54 57
246089.03491211 3357630.71179199 13.75273800 34 34 34
246092.59399414 3357664.92047119 14.28523159 34 48 49
246087.02783203 3357640.70104980 13.11452198 103 120 52
246089.52258301 3357649.40930176 14.07225132 104 117 125
246088.02416992 3357666.85949707 13.72223282 109 106 87
246091.21789551 3357656.80389404 13.28528595 23 31 34
246089.09240723 3357666.12463379 13.74682999 72 74 71
246090.27075195 3357632.70532227 13.63033390 11 16 20
246087.82653809 3357638.73455811 13.32351398 105 120 87
246088.58178711 3357639.02075195 13.47655487 57 70 78
246088.62145996 3357638.59375000 14.29401970 187 205 207
246090.56164551 3357664.23461914 14.88450241 111 124 133
246091.06787109 3357665.98565674 13.12197399 131 139 150
246089.13354492 3357628.12500000 14.38168716 31 33 32
246087.18652344 3357637.73767090 13.28983116 31 31 33
246091.07470703 3357629.09436035 13.58236504 96 123 144
246090.50976563 3357665.66064453 14.97815990 165 175 184
246089.32739258 3357639.21771240 12.96690655 37 43 43
246090.57763672 3357630.41577148 12.99137974 72 74 69
246091.20092773 3357665.51068115 14.96799088 160 181 198
246089.05859375 3357630.41455078 13.71154881 61 61 63
246091.60070801 3357672.97210693 13.12745953 51 52 57
246089.44665527 3357674.37969971 12.71052551 33 41 44
246091.64306641 3357639.89276123 13.17716789 40 41 45
246088.00866699 3357667.09179688 13.53944016 131 88 82
246088.48059082 3357639.10943604 13.07513905 34 42 44
246089.57189941 3357649.83392334 14.08100986 45 50 56
246091.01306152 3357657.01904297 13.03020954 25 33 36
246091.37438965 3357632.49084473 13.49157047 30 40 49
246091.91430664 3357665.99645996 12.61224937 32 41 46
246088.82507324 3357648.46588135 12.94402027 114 105 96
246092.07409668 3357665.71051025 12.85868073 96 110 119
246088.74194336 3357628.58099365 14.41430092 36 40 43
246090.84338379 3357648.36999512 12.93652630 251 232 173
246089.77746582 3357639.88452148 13.41682816 86 96 105
246087.88488770 3357640.94348145 14.06779861 241 242 246
246089.83325195 3357637.56347656 14.16108608 0 3 15
246091.61975098 3357655.67730713 15.42096615 53 64 48
246092.85571289 3357665.72039795 13.98136139 48 60 60
246090.40686035 3357638.13256836 14.26340771 87 109 130
246091.02648926 3357629.19201660 13.62437916 134 162 183
246091.95471191 3357649.92181396 13.58034134 26 33 39
246091.10571289 3357656.78479004 13.38685894 20 27 33
246092.09399414 3357673.66436768 13.09696865 105 110 132
246090.95166016 3357674.43756104 12.81586552 57 67 69
246089.11840820 3357648.63580322 13.28964424 40 40 40
246090.54150391 3357630.68041992 13.07643414 56 60 61
246088.83227539 3357648.89605713 13.73419762 16 20 23
246088.11779785 3357664.75543213 15.11824322 236 233 226
246090.44958496 3357631.56860352 14.00519180 48 76 98
246089.35864258 3357629.09490967 14.16490078 107 118 122
246090.42395020 3357673.45385742 13.91519451 59 67 80
246091.60742188 3357674.41339111 12.61243820 106 115 122
246087.63256836 3357641.04010010 13.73276329 234 231 216
246090.37573242 3357665.75268555 13.78580761 145 153 155
246090.72595215 3357632.57836914 13.79131126 5 17 29
246093.16125488 3357665.65692139 13.42165661 121 132 136
246090.58984375 3357628.50878906 14.20580006 164 186 199
246089.39062500 3357665.51147461 15.02902699 191 190 186
246088.03320313 3357639.93121338 13.64811897 108 118 110
246091.56860352 3357649.14672852 13.50940800 52 64 102
246091.80273438 3357638.97991943 13.48431778 89 115 132
246091.51025391 3357640.35437012 13.81102943 138 160 174
246092.23498535 3357656.60693359 12.75645065 30 37 43
246088.09606934 3357638.05932617 13.97751808 196 201 204
246091.48645020 3357655.73748779 15.30920792 53 63 54
246089.70568848 3357674.36596680 12.85573006 44 52 54
246090.62292480 3357638.89080811 13.43554783 112 136 146
246088.19152832 3357664.63580322 15.56939411 252 252 244
246086.79406738 3357639.90069580 13.11858177 34 54 27
246090.20483398 3357674.35577393 13.33944511 54 59 63
246089.45629883 3357630.82421875 13.69724274 20 25 31
246092.58435059 3357666.80889893 12.63933277 38 48 50
246089.74926758 3357665.82232666 13.92103672 24 29 32
246091.67297363 3357638.88269043 13.62377644 165 192 211
246092.33801270 3357674.18908691 12.75320911 34 41 51
246091.08764648 3357665.67962646 13.49418736 174 182 185
246088.86633301 3357674.09429932 13.36854935 63 65 64
246089.65478516 3357666.10296631 13.44540787 81 95 98
246091.35290527 3357668.20001221 13.31092739 62 22 33
246092.64648438 3357665.37695313 14.29822445 24 34 36
246089.34313965 3357649.96545410 14.14202785 50 59 64
246087.15942383 3357639.84991455 13.02741528 30 40 32
246090.86547852 3357638.93286133 13.62149906 55 53 58
246091.81945801 3357639.06805420 13.01705933 22 37 40
246088.80859375 3357674.11614990 12.97791862 40 45 48
246091.71118164 3357673.31994629 13.02956390 117 123 139
246088.12231445 3357633.05065918 13.05867577 54 56 55
246089.25781250 3357668.02551270 14.19048977 72 66 50
246091.62634277 3357628.50408936 13.46116161 54 69 88
246092.38708496 3357648.88275146 12.93317032 32 33 28
246090.36242676 3357639.27673340 13.51742840 55 68 74
246090.41198730 3357666.18933105 13.26848030 18 28 29
246092.06738281 3357656.91455078 12.73569965 30 39 44
246088.90441895 3357640.39813232 14.37984943 163 199 223
246086.73144531 3357640.09307861 13.13216877 60 78 30
246088.55078125 3357629.56323242 14.36963272 40 50 51
246093.11193848 3357664.19622803 13.78503132 33 43 45
246089.30004883 3357640.26568604 14.35626888 139 174 194
246091.22277832 3357656.81567383 13.25444317 28 36 39
246090.60681152 3357656.00292969 13.88340759 21 35 36
246087.99182129 3357629.17315674 14.40353680 49 65 65
246089.19396973 3357666.01037598 14.30099392 30 34 33
246089.62438965 3357648.34686279 12.82470417 156 153 120
246087.95642090 3357639.71929932 13.12299728 24 30 28
246091.37207031 3357631.24969482 13.85636044 80 109 143
246089.63830566 3357639.80834961 13.11379433 41 45 44
246089.78637695 3357631.61700439 14.35391331 23 32 37
246091.09106445 3357666.42565918 12.51474380 73 75 72
246092.09948730 3357637.45355225 13.17621708 30 43 52
246090.94738770 3357655.58917236 14.50617409 14 18 17
246090.33251953 3357665.71417236 13.86061954 194 202 205
246092.12976074 3357673.58032227 13.10653210 98 104 126
246090.29296875 3357639.89331055 13.46469212 139 153 156
246091.90222168 3357664.34558105 14.94843769 162 184 198
246088.95153809 3357637.21960449 13.75191784 86 96 95
246092.05590820 3357648.28594971 12.93840885 33 22 16
246090.78955078 3357665.71868896 13.79293442 137 156 160
246088.29443359 3357667.12933350 13.47890568 133 78 73
246090.92395020 3357639.69470215 12.90112400 42 49 57
246091.41882324 3357630.72894287 13.05677223 62 67 73
246089.40576172 3357637.28686523 13.82735538 104 118 119
246090.65332031 3357639.12152100 13.66743183 114 124 134
246089.90405273 3357666.29199219 13.18047619 28 32 33
246091.70471191 3357630.92407227 13.55915165 53 77 103
246090.95422363 3357648.70465088 13.54739666 19 27 30
246090.17077637 3357637.15118408 13.47258568 66 75 80
246090.39355469 3357630.21453857 13.04021454 37 41 42
246091.91833496 3357656.45147705 12.87938499 12 23 25
246091.40454102 3357648.89056396 13.63699913 58 67 98
246092.41027832 3357664.96881104 14.88362026 164 193 211
246089.48266602 3357638.69775391 14.28788853 211 224 232
246090.37622070 3357648.99871826 14.04002285 25 40 59
246090.17297363 3357638.16906738 14.37257385 180 199 214
246087.98657227 3357639.98345947 13.88908482 97 104 97
246092.40795898 3357673.09735107 13.02391338 29 38 43
246088.36254883 3357631.01287842 14.02956486 37 44 37
246088.66662598 3357637.02062988 13.40966415 39 45 45
246091.93151855 3357674.29418945 13.24100018 118 127 142
246091.94482422 3357665.80694580 13.17557144 147 165 177
246090.45690918 3357674.16864014 13.77413559 32 35 44
246093.03991699 3357665.79443359 13.58422470 35 43 45
246091.35937500 3357666.53076172 12.59286404 29 34 38
246088.88452148 3357628.99896240 14.44489861 3 4 6
246088.75561523 3357638.35565186 14.32302284 210 219 224
246088.94750977 3357667.42065430 13.72666836 22 6 7
246090.05432129 3357637.96813965 14.33334064 42 54 70
246090.84606934 3357648.77380371 13.08497334 3 5 4
246090.38122559 3357638.18206787 14.27586842 151 168 188
246090.15844727 3357630.49560547 13.47774506 26 30 33
246089.79614258 3357629.17449951 14.18523407 70 89 103
246089.99975586 3357674.39544678 12.96243763 52 55 60
246088.12609863 3357639.73803711 13.14799976 63 65 64
246091.72167969 3357665.90386963 13.60273170 213 222 227
246090.28308105 3357639.97442627 13.86083508 190 202 216
246092.51843262 3357665.78900146 12.77734089 125 135 137
246088.43762207 3357640.55706787 14.35436916 219 223 232
246087.20739746 3357638.36340332 13.08301830 63 71 73
246091.50134277 3357640.16436768 13.77201366 110 129 143
246089.46838379 3357640.67114258 14.43494225 155 194 223
246089.56616211 3357629.96832275 13.71910858 30 35 38
246088.66601563 3357666.61541748 13.51928711 34 33 31
246090.26025391 3357637.30468750 13.76462078 137 150 158
246089.33056641 3357630.06555176 13.77321148 30 36 34
246089.99450684 3357628.59448242 14.46116734 30 43 62
246089.17980957 3357640.85693359 14.41565228 183 206 222
246090.96813965 3357632.50708008 13.87063980 0 16 32
246092.16503906 3357638.67523193 13.20249367 126 135 144
246089.20764160 3357648.48388672 12.91418552 75 81 71
246087.98791504 3357628.93090820 14.58327961 42 52 53
246089.21813965 3357650.36621094 14.22001648 8 14 12
246089.36108398 3357674.24810791 12.87791538 48 53 56
246089.55603027 3357639.21148682 13.10038280 46 58 58
246090.65698242 3357650.25262451 13.85549545 22 27 30
246092.18115234 3357631.43975830 13.26720047 5 21 44
246090.05212402 3357673.54406738 13.91129208 16 17 22
246087.76843262 3357638.06622314 13.40611458 59 70 66
246091.30517578 3357632.38171387 13.86843967 47 74 104
246088.83825684 3357632.30718994 14.37475586 42 51 56
246091.99792480 3357665.74639893 14.06354523 227 238 240
246091.19580078 3357639.34893799 12.87848759 160 154 140
246086.84191895 3357638.68469238 13.09857082 21 40 20
246090.91674805 3357641.24139404 13.93127537 21 34 43
246090.93835449 3357648.76739502 13.22184944 13 17 18
246090.21557617 3357674.18322754 13.82519913 31 38 44
246090.90930176 3357629.30340576 13.74468136 205 232 251
246092.38403320 3357666.52130127 12.50783062 34 39 42
246088.52978516 3357628.61865234 14.44775200 38 46 49
246090.66857910 3357638.95996094 13.56392384 114 134 145
246090.97424316 3357640.05273438 13.79800224 137 155 167
246087.83154297 3357629.80718994 14.27144241 71 75 76
246088.17419434 3357640.63836670 14.29041100 230 233 240
246092.10217285 3357648.42163086 13.29711914 39 42 49
246089.63171387 3357666.37597656 13.36524582 38 42 43
246088.80957031 3357648.55810547 13.39142609 42 41 46
246087.37219238 3357640.73010254 12.99083328 92 90 78
246090.60693359 3357664.21795654 14.84464645 102 115 121
246090.70312500 3357629.61901855 13.59097958 79 96 106
246091.08215332 3357664.96612549 15.01177979 156 174 188
246091.19909668 3357656.31701660 13.69886589 218 228 230
246087.29833984 3357637.88830566 13.13868141 32 33 35
246090.32861328 3357657.13305664 13.47317982 71 75 76
246090.10681152 3357649.83197021 13.94675350 30 37 53
246092.31689453 3357672.89324951 12.90340233 12 17 21
246089.38916016 3357649.86907959 14.17908192 51 60 65
246089.54016113 3357639.89312744 13.29902935 29 36 44
246092.06811523 3357649.98974609 13.31247234 13 23 24
246092.57897949 3357667.90509033 12.79862213 27 31 40
246092.65649414 3357664.97424316 14.81727505 170 189 204
246090.24218750 3357656.53607178 14.00162029 72 82 81
246089.55578613 3357639.91815186 13.62221909 109 126 134
246091.68493652 3357637.35705566 13.25367737 86 104 114
246089.87829590 3357666.88024902 13.61537743 17 18 22
246089.67687988 3357628.45898438 14.17783070 70 86 109
246089.97534180 3357632.33856201 14.34811497 77 81 92
246091.80261230 3357655.34039307 13.45608234 144 170 185
246088.68615723 3357664.52374268 16.19287491 100 106 78
246092.71374512 3357665.22888184 14.63999462 34 43 50
246090.90319824 3357673.68341064 13.62041378 59 90 119
246088.95434570 3357639.62866211 13.03139305 60 65 61
246090.77343750 3357639.16632080 12.89387035 72 79 87
246089.55688477 3357629.65930176 13.99558544 86 93 103
246090.35400391 3357631.32574463 14.01256752 74 99 121
246091.71594238 3357630.88623047 13.55105209 55 75 100
246089.53381348 3357649.39245605 14.05161476 103 116 124
246091.54296875 3357665.57983398 14.71767616 84 98 107
246090.47839355 3357656.15612793 13.89643383 49 59 61
246090.14550781 3357632.54943848 14.09771824 19 24 28
246088.95605469 3357629.75140381 13.92146873 57 60 67
246088.64270020 3357638.41632080 14.31087780 221 229 231
246091.00085449 3357665.86138916 13.48082829 151 158 164
246087.65490723 3357640.15490723 13.67662716 206 214 191
246091.11901855 3357639.59368896 12.89015198 46 51 57
246092.01025391 3357674.41857910 12.64651012 39 48 53
246091.51538086 3357666.44647217 12.46469784 61 65 64
246091.37670898 3357656.85266113 12.98072433 27 38 40
246090.75708008 3357657.08477783 13.05457497 25 33 36
246087.99987793 3357640.01806641 13.96848774 35 39 40
246088.25012207 3357629.79656982 14.15470982 25 34 33
246089.91638184 3357665.91644287 13.44693851 142 153 155
246088.49182129 3357638.90795898 13.89331055 201 219 223
246089.43395996 3357640.85693359 14.47346878 156 193 222
246091.71911621 3357648.75231934 13.27039909 51 60 93
246089.27075195 3357674.22009277 12.91073990 53 57 56
246091.21337891 3357656.69335938 13.45384216 85 99 102
246091.91613770 3357655.24133301 13.03672409 15 32 39
246090.12927246 3357667.27966309 13.87219334 63 13 25
246093.14428711 3357665.11273193 13.81277657 28 39 41
246092.08715820 3357629.34405518 13.38523769 21 29 32
246087.36035156 3357638.92193604 12.93167973 35 40 43
246092.47839355 3357649.44421387 13.11926460 23 33 35
246092.00854492 3357641.44006348 13.21150875 43 48 52
246092.67675781 3357664.68536377 14.50117683 37 51 62
246091.46289063 3357637.27075195 13.05456924 35 42 50
246091.03491211 3357665.37115479 13.95794010 80 98 108
246089.78845215 3357668.21282959 13.88849545 25 13 13
246086.91418457 3357639.33514404 13.15343094 39 56 50
246089.83764648 3357639.06188965 13.39608383 79 98 104
246089.24279785 3357648.64758301 13.19833374 25 25 23
246090.20422363 3357668.29467773 13.93624687 17 14 21
246088.37536621 3357674.48052979 12.42993069 62 69 75
246089.80981445 3357631.82348633 14.34217453 0 9 14
246092.02648926 3357655.80432129 13.06994724 49 68 82
246091.06726074 3357665.31933594 13.79836655 66 83 90
246091.90148926 3357631.54449463 13.54381180 46 78 116
246090.94262695 3357631.90185547 14.01642132 21 41 66
246090.00463867 3357639.84729004 13.54008675 148 163 168
246087.72192383 3357630.29199219 14.29406261 32 38 36
246090.92211914 3357667.32342529 13.47172737 75 105 129
246091.76586914 3357672.83032227 14.59220028 37 49 35
246090.11718750 3357630.27374268 13.44289207 54 58 59
246091.36633301 3357640.60913086 13.87252808 152 177 199
246091.48803711 3357667.24078369 13.48197079 213 66 108
246092.45776367 3357673.90246582 12.57715702 29 43 56
246090.72583008 3357666.60876465 13.43058586 15 15 15
246088.17810059 3357639.92797852 13.73950577 152 160 162
246090.96728516 3357664.79809570 15.01834202 158 175 185
246090.73242188 3357665.34930420 15.03836441 170 180 190
246089.01184082 3357639.73474121 13.19392681 58 59 61
246087.63854980 3357640.98504639 13.82182598 159 157 132
246090.57421875 3357657.31567383 12.71076679 22 27 21
246091.64367676 3357641.63037109 13.64924431 99 116 124
246090.71362305 3357641.46539307 13.95557022 38 57 63
246091.86621094 3357631.46832275 13.54006863 42 74 112
246091.19519043 3357665.16162109 15.02149963 163 181 195
246089.39843750 3357639.91992188 13.47804070 123 138 145
246090.57690430 3357674.16955566 13.72426987 28 35 43
246087.26257324 3357638.40045166 13.06028366 14 20 20
246090.49218750 3357629.69921875 14.08379078 166 187 204
246090.76953125 3357638.45593262 13.84801006 33 63 89
246090.03869629 3357649.83197021 13.94864464 29 35 49
246091.05090332 3357630.10986328 13.05894375 50 54 53
246091.24975586 3357664.13214111 14.76377773 84 93 102
246091.22985840 3357638.03747559 13.85431480 19 41 54
246089.66027832 3357639.21539307 13.13643074 53 61 63
246087.70507813 3357637.93603516 13.42844296 66 77 73
246091.68945313 3357666.41143799 12.46118069 83 88 84
246091.44372559 3357640.54443359 13.84661007 146 171 191
246091.93713379 3357629.71191406 13.03415585 85 80 74
246089.07531738 3357631.56811523 14.41416931 31 42 46
246089.06994629 3357648.94171143 13.70631695 15 19 22
246091.44323730 3357655.94580078 13.61832523 190 200 209
246089.58911133 3357673.65625000 14.03874588 37 39 36
246090.01525879 3357664.36059570 17.35450745 59 80 47
246088.53210449 3357667.20294189 13.56622124 196 175 174
246091.66528320 3357665.96417236 12.78869247 33 40 48
246090.03735352 3357637.41448975 13.85877609 84 89 95
246090.33532715 3357640.16705322 14.18211555 185 204 218
246089.73986816 3357631.78228760 14.34882736 8 16 19
246092.00097656 3357667.14880371 13.33674622 144 39 72
246088.48461914 3357674.41448975 12.48219490 62 69 75
246089.04174805 3357666.19830322 13.65406704 54 59 52
246091.57934570 3357640.79510498 13.79448223 134 161 178
246088.78771973 3357629.69403076 14.07332993 0 0 4
246088.44787598 3357639.87121582 13.31486225 15 19 22
246089.86914063 3357637.24664307 13.78700542 124 133 140
246091.11083984 3357648.80541992 13.81878567 33 56 62
246089.94946289 3357649.64105225 13.93708229 65 82 98
246093.14001465 3357665.66107178 13.34108353 123 132 137
246091.79443359 3357649.12786865 13.44549179 55 68 102
246089.46997070 3357664.55548096 15.11856461 193 195 194
246090.90319824 3357629.26452637 13.79814053 206 229 245
246090.47937012 3357665.84301758 14.55224514 176 190 199
246091.27905273 3357628.74816895 13.43446827 67 84 104
246087.98291016 3357630.79254150 13.85553551 29 34 37
246089.77124023 3357639.58160400 13.00991631 53 55 52
246092.79492188 3357665.48602295 13.98593903 22 32 31
246090.58410645 3357648.96856689 13.90047741 205 212 220
246088.32910156 3357638.51098633 14.22740936 206 210 209
246091.56225586 3357637.13140869 12.94654274 56 57 62
246092.23474121 3357640.94451904 13.11485386 29 36 44
246091.28466797 3357668.42858887 13.28864098 23 24 26
246089.75158691 3357665.42205811 15.05850410 155 165 167
246091.05078125 3357629.25390625 13.55289173 126 153 172
246091.28161621 3357639.56292725 12.89091301 58 63 67
246090.97912598 3357628.95904541 13.79617691 211 232 249
246090.79003906 3357673.68682861 13.77273178 42 71 101
246092.10217285 3357665.60443115 14.77258205 136 159 173
246091.55908203 3357674.38214111 12.68903351 84 93 98
246089.07238770 3357637.37854004 13.98516178 156 162 158
246089.98803711 3357665.67047119 13.97457504 211 214 219
246089.18835449 3357665.96905518 14.55810833 65 80 83
246091.75708008 3357655.12744141 13.35617638 144 158 161
246089.51037598 3357648.88159180 13.66618538 13 17 20
246088.20141602 3357674.21801758 12.67571068 20 26 26
246089.43054199 3357648.47564697 12.94975471 31 26 20
246092.77001953 3357664.26385498 14.05342960 20 34 34
246089.58337402 3357666.11175537 13.53686237 87 98 100
246089.43896484 3357648.36968994 12.85203362 197 189 166
246091.56665039 3357638.88739014 13.66088772 152 175 193
246091.40417480 3357639.88842773 13.24117374 5 10 16
246088.66870117 3357629.84863281 13.91063309 35 43 45
246091.82189941 3357648.10198975 12.76467896 99 98 94
246087.34265137 3357637.54327393 13.51710129 18 27 26
246089.31884766 3357674.20239258 13.48612213 75 76 78
246089.33020020 3357632.79870605 13.62842751 14 22 25
246088.57385254 3357629.73645020 14.11981678 0 0 2
246087.94018555 3357629.36730957 14.35076904 69 81 81
246090.24438477 3357627.73254395 13.52582169 37 39 36
246091.50195313 3357637.35656738 13.46727753 162 185 199
246090.50720215 3357629.99011230 13.03726768 47 52 56
246089.11962891 3357630.39508057 13.68020821 54 54 56
246091.92370605 3357641.82452393 13.01531982 37 42 45
246090.68420410 3357667.16973877 13.57374954 37 63 90
246089.21557617 3357667.67687988 13.93003082 141 114 97
246090.16235352 3357674.43164063 12.96712399 43 50 56
246091.16052246 3357674.52947998 12.52926922 70 79 84
246090.78112793 3357632.67895508 13.08590794 12 20 23
246091.35351563 3357650.06024170 13.71007633 9 10 14
246091.97900391 3357639.78009033 12.89732361 78 79 81
246089.06909180 3357638.78289795 14.19600105 84 109 129
246088.22521973 3357630.50122070 13.65073490 70 69 64
246088.85412598 3357638.10198975 14.33854961 199 210 216
246090.64428711 3357665.77307129 14.22346115 112 134 155
246088.43444824 3357648.78192139 13.78776646 17 21 22
246088.76025391 3357633.14147949 13.85270023 108 122 87
246090.02734375 3357639.83294678 13.54548740 154 169 174
246092.37011719 3357663.89691162 14.62593842 21 41 30
246092.65039063 3357665.37457275 14.26721668 21 32 34
246091.98510742 3357634.31689453 13.04795933 36 39 44
246088.53820801 3357631.48437500 14.30575371 86 90 93
246088.26831055 3357664.90686035 15.08289146 234 234 222
246090.16088867 3357664.21881104 17.42082977 55 79 43
246091.92468262 3357628.14465332 13.42161560 50 59 68
246088.40405273 3357638.46002197 14.26395988 246 248 247
246087.06140137 3357640.93591309 13.08078098 98 115 45
246092.57971191 3357666.96490479 12.70404720 31 40 45
246089.29418945 3357628.77392578 14.27001381 65 75 85
246087.91552734 3357641.17858887 14.06209373 225 226 231
246089.71520996 3357648.75189209 13.39655304 20 21 16
246089.39697266 3357639.01708984 13.48434067 96 114 124
246091.54626465 3357640.10943604 13.70882034 157 174 182
246089.35900879 3357637.57861328 14.29759502 117 122 126
246089.23535156 3357666.94183350 13.53867245 8 8 10
246092.24841309 3357640.76403809 13.11643219 17 27 39
246091.01330566 3357665.83044434 13.48576260 161 169 172
246091.30139160 3357632.32781982 13.89546013 58 84 119
246092.60876465 3357665.63830566 13.75805473 98 100 99
246089.79187012 3357649.36273193 13.88440895 46 62 75
246091.67053223 3357638.18029785 13.52359581 175 206 224
246090.77136230 3357637.37426758 13.87305069 54 62 75
246088.53552246 3357674.15582275 12.87449169 30 35 38
246089.70617676 3357628.13659668 14.37300396 24 29 33
246088.20385742 3357628.87298584 14.52671337 156 161 165
246089.29675293 3357640.23309326 14.33032322 169 204 223
246089.60766602 3357648.79718018 13.68568039 13 17 20
246088.10595703 3357638.14544678 13.95622158 106 119 112
246092.55871582 3357668.27960205 12.84127808 30 35 41
246089.84875488 3357664.18688965 14.79133511 110 119 114
246090.37329102 3357632.62286377 13.89075756 9 18 25
246087.96997070 3357630.03094482 13.85884380 30 41 35
246090.20629883 3357674.32830811 13.44964218 70 71 76
246088.56506348 3357664.46051025 15.94321823 97 99 77
246089.56213379 3357674.49316406 12.61331272 42 52 54
246091.28820801 3357666.94897461 13.42330933 188 73 104
246089.15710449 3357639.68377686 13.05629349 44 46 45
246089.15649414 3357637.50952148 14.24219608 60 66 66
246089.98962402 3357639.87823486 13.61643028 129 146 156
246089.95971680 3357630.54534912 13.58565617 13 16 21
246092.00537109 3357667.13085938 13.32843018 145 41 74
246089.75793457 3357628.15008545 14.39348507 28 33 37
246091.90002441 3357674.16778564 13.29201126 75 86 104
246090.21972656 3357629.26367188 14.41967487 71 87 100
246090.43359375 3357629.50280762 14.26595020 162 184 205
246091.64758301 3357673.74456787 13.24300194 123 130 148
246091.28186035 3357630.58135986 13.00501537 37 41 44
246088.43029785 3357665.38476563 15.29259109 227 229 208
246091.73449707 3357641.65093994 13.30140400 83 95 95
246092.39880371 3357658.27355957 12.60104847 39 47 49
246089.05090332 3357648.67309570 13.46040249 24 25 27
246090.33959961 3357665.69604492 13.95321655 136 145 150
246091.67272949 3357637.95227051 13.53231335 174 207 226
246089.45947266 3357637.26336670 13.80181980 105 119 122
246088.40747070 3357629.75463867 14.17290688 27 38 34
246091.78564453 3357630.19287109 12.99483395 38 40 35
246092.45043945 3357665.52386475 14.82753372 165 188 206
246088.99487305 3357665.18072510 15.09427738 198 201 194
246089.83715820 3357639.14276123 13.24381256 16 26 27
246089.41064453 3357650.22534180 13.81912327 33 38 42
246092.33227539 3357665.78442383 14.09735298 47 58 62
246090.11730957 3357673.65997314 13.90375328 11 16 19
246091.78991699 3357640.18994141 13.67165089 161 176 183
246087.52563477 3357639.97186279 12.96441364 69 73 72
246088.46081543 3357665.30773926 15.45711327 225 223 202
246090.75683594 3357655.56292725 13.98873615 19 29 31
246088.86657715 3357667.18859863 13.59811020 185 146 149
246089.16699219 3357640.25073242 14.33342457 141 177 203
246092.79150391 3357665.76867676 13.80928516 128 128 126
246089.61718750 3357628.90032959 14.15202522 54 69 76
246089.49743652 3357674.05694580 14.05595398 161 162 167
246090.96130371 3357640.00103760 13.69505310 119 141 155
246090.64672852 3357632.35345459 13.97246742 29 51 74
246088.32446289 3357666.85845947 13.56188488 181 92 88
246090.65161133 3357639.93902588 13.73336029 141 160 175
246090.49731445 3357640.18341064 14.09804440 147 160 177
246092.47595215 3357649.39392090 13.15922260 16 26 28
246090.77246094 3357631.10748291 13.97171593 20 47 68
246089.32897949 3357665.91772461 14.41652584 134 135 140
246090.88854980 3357638.70385742 13.88160419 14 34 41
246090.24780273 3357648.25360107 12.84237289 75 77 55
246090.24023438 3357640.24334717 14.24430466 123 142 159
246091.95837402 3357640.20245361 13.59448910 121 126 130
246091.64147949 3357665.85351563 13.93712044 236 246 248
246092.09338379 3357656.53002930 12.79980278 26 35 42
246089.96520996 3357664.25976563 17.05392075 56 82 47
246089.45715332 3357639.92022705 13.49748230 116 134 138
246088.32263184 3357630.79974365 13.88349819 23 23 23
246090.01721191 3357638.80609131 14.00947285 13 22 37
246087.49035645 3357640.63903809 13.74281693 215 216 200
246090.75268555 3357632.66192627 13.50504208 9 17 20
246090.96813965 3357668.42633057 13.36654949 14 17 22
246090.46337891 3357641.00891113 14.02436543 10 28 38
246087.11743164 3357638.07434082 13.08415031 76 82 78
246092.01025391 3357641.35668945 13.57405949 50 59 66
246091.92712402 3357631.51165771 13.53530502 40 72 110
246088.09875488 3357674.28613281 12.55999088 49 54 58
246088.89172363 3357633.25177002 14.20437908 63 68 64
246090.92102051 3357640.03308105 13.76493168 130 154 166
246089.81921387 3357666.27947998 13.24743080 37 41 42
246092.78222656 3357665.71099854 13.67580700 129 131 130
246092.06286621 3357648.68035889 13.34204865 45 55 80
246091.56188965 3357632.46514893 13.30754757 43 53 55
246089.57788086 3357664.12908936 14.75775433 45 50 44
246088.81494141 3357639.95794678 13.84107876 142 163 180
246090.96228027 3357631.85961914 14.01862335 21 41 66
246088.42089844 3357666.52478027 13.63578510 19 30 14
246091.36560059 3357632.49346924 13.47456169 30 40 49
246090.12841797 3357637.43292236 13.87342548 67 75 78
246091.46337891 3357656.72998047 13.23442936 15 27 27
246089.14343262 3357637.91876221 14.35396767 181 191 193
246090.98449707 3357665.54193115 13.71469498 123 143 150
246091.69592285 3357640.23699951 13.71925926 125 145 156
246090.75842285 3357665.80499268 14.80906773 84 103 117
246091.90222168 3357673.95690918 13.20312500 122 125 142
246088.09045410 3357638.32073975 13.91868305 139 143 144
246092.57751465 3357665.01177979 14.86985874 165 188 206
246088.70214844 3357664.87103271 15.04092598 172 174 171
246091.04467773 3357649.43084717 13.83772469 16 55 86
246089.42272949 3357674.13873291 13.90511608 36 40 41
246091.39306641 3357630.78564453 13.37913227 12 19 27
246089.26171875 3357639.26312256 12.93407726 39 45 45
246088.70874023 3357648.51977539 13.32658958 78 79 84
246092.44323730 3357664.04364014 14.70370007 2 14 14
246090.26879883 3357637.60424805 14.19669724 124 136 160
246090.48852539 3357665.34234619 15.03675938 186 193 201
246092.95507813 3357664.39147949 13.84603405 34 49 52
246089.97497559 3357665.83819580 14.72127628 83 96 102
246091.94055176 3357655.93151855 13.37456989 66 99 118
246089.99584961 3357664.52514648 15.08798122 187 191 194
246088.76367188 3357639.08648682 13.11272049 43 54 58
246090.56030273 3357649.97186279 13.91276073 39 48 55
246088.90905762 3357637.58843994 14.28304005 128 138 139
246091.43115234 3357665.97039795 13.01906776 42 53 59
246092.41796875 3357667.03234863 12.96639347 6 10 22
246090.71789551 3357637.27075195 13.79267597 119 126 132
246088.54248047 3357638.35791016 14.30806828 231 233 230
246090.04150391 3357628.42456055 14.51929569 22 47 69
246088.55493164 3357631.36505127 14.28606033 21 25 28
246091.99536133 3357665.73156738 13.99593353 215 229 232
246091.99475098 3357649.83673096 13.66499424 47 54 73
246090.48754883 3357637.72052002 14.04896736 42 62 87
246088.91235352 3357631.52459717 14.35467815 32 41 46
246089.96777344 3357637.72845459 14.26754284 184 198 211
246092.11950684 3357641.18249512 13.44534969 127 136 143
246089.38220215 3357649.41540527 14.18202877 134 142 145
246092.38220215 3357649.55187988 13.40860558 19 29 38
246089.25549316 3357631.71447754 14.46531391 24 34 43
246089.29602051 3357648.63928223 13.17570782 20 19 15
246090.22192383 3357629.11334229 14.43452358 73 92 106
246090.15539551 3357664.49700928 15.04771042 185 192 198
246092.76416016 3357668.21527100 12.67738247 32 39 45
246090.85168457 3357628.97454834 14.08340645 199 220 237
246091.98937988 3357648.35400391 13.12232876 37 35 40
246090.85852051 3357664.22021484 14.85828209 107 120 126
246090.59594727 3357640.49609375 14.01242447 26 57 86
246089.31701660 3357639.64208984 12.97852421 40 42 41
246088.63085938 3357639.91882324 13.71828651 125 142 158
246089.27539063 3357632.24609375 14.42615986 44 55 59
246090.81713867 3357630.72729492 13.10781956 68 72 75
246088.17211914 3357638.27087402 14.06901550 53 64 56
246092.46350098 3357667.35101318 12.85362434 62 71 86
246089.60473633 3357639.22674561 13.10795212 52 62 64
246093.18395996 3357665.17639160 13.49776649 110 124 124
246092.38867188 3357668.03356934 12.98912144 38 27 43
246090.68713379 3357668.43444824 13.98678493 95 96 101
246091.86328125 3357639.55865479 12.85746002 72 78 74
246090.61547852 3357627.65270996 13.27850437 40 45 49
246091.93957520 3357640.74084473 13.70076275 133 159 174
246091.13549805 3357674.39166260 13.24147129 36 44 47
246089.31616211 3357665.51202393 15.03238487 219 220 215
246088.56054688 3357629.73303223 14.13483906 0 0 2
246088.62939453 3357631.95281982 14.34233189 45 56 60
246088.77331543 3357638.98553467 13.34065533 9 19 28
246091.27343750 3357673.45867920 13.46579742 35 51 67
246088.47827148 3357666.11541748 14.56236076 39 52 34
246089.23925781 3357637.07281494 13.50375271 30 36 36
246088.22314453 3357640.39874268 14.33762264 229 234 238
246091.01782227 3357665.70916748 14.51561832 0 26 39
246089.83850098 3357637.16796875 13.61001205 80 91 93
246090.01208496 3357648.94049072 13.88865376 52 57 63
246090.76855469 3357631.52630615 13.97524166 122 142 166
246091.11279297 3357648.17877197 12.81704617 194 187 168
246091.75219727 3357674.47784424 12.56358051 54 64 73
246089.57873535 3357673.70050049 14.05333519 39 39 37
246090.48596191 3357637.39044189 13.88333702 95 104 113
246091.84533691 3357628.11535645 13.50016308 69 79 89
246089.70825195 3357648.70159912 13.32491875 16 12 9
246087.71557617 3357630.29766846 14.03329945 56 60 59
246087.45593262 3357640.59814453 13.58619022 228 236 223
246090.06970215 3357639.51403809 13.24428558 120 125 121
246089.63793945 3357637.70965576 14.31905842 180 197 207
246092.14306641 3357640.91021729 13.50447941 79 82 91
246089.95800781 3357674.32336426 13.20453548 63 66 71
246089.11865234 3357648.83123779 13.58251667 23 21 26
246087.81982422 3357629.50274658 14.36745548 58 68 69
246091.26916504 3357638.35516357 13.82433701 85 113 127
246087.27563477 3357638.94598389 12.95264053 23 31 33
246092.21838379 3357649.76104736 13.50487137 36 46 56
246090.48046875 3357665.84985352 14.62084103 166 179 188
246089.04833984 3357628.30932617 14.30752945 98 102 105
246089.20104980 3357648.58483887 13.12285519 45 54 53
246090.64135742 3357638.10504150 13.90700531 28 54 81
246089.87255859 3357665.69879150 13.96936226 112 116 117
246090.63476563 3357657.34045410 12.67039013 37 40 33
246090.91210938 3357673.79180908 13.58649540 51 85 112
246091.73815918 3357641.42437744 13.73311710 156 164 175
246091.64343262 3357655.94909668 13.51634789 163 185 199
246092.49609375 3357673.56994629 12.95404530 39 52 71
246089.13403320 3357674.20733643 12.88650799 50 54 55
246093.17773438 3357664.41998291 13.64422512 82 93 95
246089.06347656 3357632.10931396 14.37508392 35 47 59
246092.07470703 3357641.38739014 13.14964581 40 48 51
246090.85412598 3357629.30584717 13.90094852 204 221 239
246088.27954102 3357637.18151855 13.69996452 43 49 49
246090.35046387 3357629.15710449 14.26573944 149 174 194
246090.60327148 3357649.63421631 14.13157082 19 41 62
246088.96752930 3357632.58575439 14.30847168 24 30 30
246089.35314941 3357668.07751465 14.04276085 68 42 41
246091.77111816 3357655.70025635 13.48538494 145 174 192
246089.10839844 3357664.39257813 14.98677158 139 154 147
246090.13122559 3357630.36437988 13.46567726 61 62 64
246089.99804688 3357667.20428467 13.84895325 95 41 55
246090.41662598 3357628.76367188 14.25474548 144 175 195
246086.89453125 3357639.79943848 13.11377621 32 55 29
246091.72070313 3357629.89862061 13.10156822 35 34 39
246090.38391113 3357632.32122803 14.06507683 26 41 64
246090.22192383 3357638.69165039 14.25711441 186 211 231
246091.76062012 3357628.23022461 13.49477005 42 55 71
246091.55151367 3357655.80285645 15.34962940 65 75 66
246092.51245117 3357665.61938477 13.77482414 92 96 99
246092.45556641 3357656.50531006 12.71632385 30 39 44
246091.13342285 3357637.21343994 13.43350029 41 46 50
246086.92956543 3357639.27209473 13.13352108 34 55 48
246090.51635742 3357650.05767822 13.85615063 14 19 25
246089.12268066 3357631.39733887 14.42686939 39 47 50
246087.99194336 3357638.07916260 13.81557655 238 239 244
246089.04846191 3357649.13684082 13.91870308 43 47 48
246092.64758301 3357664.43756104 14.26400375 34 49 52
246090.01281738 3357648.56268311 13.10860920 27 28 32
246092.46081543 3357656.38745117 12.71898079 25 36 40
246086.90002441 3357638.94500732 13.10387993 23 47 21
246090.07080078 3357664.29315186 17.24470901 49 73 37
246093.20251465 3357665.58386230 13.59025192 108 124 123
246089.98742676 3357664.64208984 15.10184956 182 183 187
246090.02221680 3357629.67364502 13.77545929 63 76 84
246091.02062988 3357630.78070068 13.82058048 22 34 48
246088.31872559 3357637.10815430 13.58674622 41 45 44
246091.64611816 3357640.43994141 13.77710438 130 152 166
246092.02648926 3357649.92877197 13.48186588 29 39 41
246090.56896973 3357656.23925781 13.81826019 43 57 58
246090.04174805 3357639.99963379 13.88889217 191 200 207
246087.70422363 3357639.66357422 12.93592262 54 58 57
246091.18054199 3357673.19915771 13.47009945 63 82 99
246092.16320801 3357674.32641602 12.85979939 25 35 37
246091.43408203 3357641.03320313 13.83804989 158 175 191
246090.93457031 3357639.73815918 12.90862465 40 47 55
246091.94665527 3357632.35998535 13.17494392 17 24 32
246092.60681152 3357665.19683838 14.30552292 35 49 49
246088.51306152 3357629.72961426 14.17226601 0 2 1
246091.58020020 3357664.48638916 14.96873760 156 175 189
246089.87976074 3357630.77349854 13.79405785 11 18 26
246091.08374023 3357655.79705811 13.71429634 223 233 234
246091.34729004 3357630.70416260 13.06930351 50 55 61
246088.98547363 3357664.30261230 14.95984268 150 163 153
246091.73059082 3357674.27374268 12.92716217 81 91 92
246092.07287598 3357665.66369629 13.80087090 239 255 255
246090.62512207 3357666.02227783 13.04034996 12 17 23
246091.93261719 3357665.74493408 13.39484978 204 219 224
246090.10437012 3357632.38763428 14.29322624 11 17 29
246088.10778809 3357638.40478516 13.91522121 148 149 151
246089.79931641 3357649.11907959 13.85707855 23 30 36
246091.56481934 3357639.88922119 13.17078304 18 21 28
246089.73144531 3357630.60620117 13.55504799 16 19 24
246088.24084473 3357637.75048828 14.10908127 163 161 164
246089.73596191 3357632.48272705 14.25178146 20 28 30
246090.77563477 3357637.94177246 13.89121437 24 54 78
246092.74255371 3357664.62927246 13.86217308 19 33 36
246088.59851074 3357664.24407959 14.93973827 108 118 110
246088.75805664 3357665.47607422 15.85540104 112 120 69
246088.21875000 3357667.38403320 13.49912834 185 175 166
246090.66870117 3357649.62683105 14.06461143 33 53 77
246088.15026855 3357664.51300049 15.13909721 180 182 177
246092.13684082 3357646.77862549 12.73489666 110 114 115
246091.81970215 3357630.13659668 12.99771976 44 45 40
246089.73205566 3357631.09381104 14.26106548 11 16 19
246091.64074707 3357649.41741943 13.62359238 57 70 104
246092.74072266 3357665.70385742 13.49140739 98 100 99
246091.81469727 3357665.85479736 13.23527050 110 127 135
246090.46020508 3357630.87701416 13.90488815 0 8 18
246092.33520508 3357649.44140625 13.45102215 28 35 51
246090.10363770 3357640.54449463 14.26827049 12 27 48
246091.31066895 3357637.40795898 13.62120819 166 192 209
246088.93041992 3357648.62634277 13.51677418 26 26 28
246089.87036133 3357667.53894043 13.98126793 25 20 24
246089.72424316 3357666.60211182 13.42901611 17 18 20
246092.30957031 3357644.85821533 12.82378769 47 52 55
246091.31542969 3357640.46380615 13.88199711 149 176 195
246090.98535156 3357639.38903809 12.84529591 156 153 138
246087.77734375 3357640.08428955 13.22529411 10 15 11
246092.51269531 3357666.87585449 12.72855854 28 39 41
246088.31738281 3357637.37164307 13.99110317 69 74 70
246091.57189941 3357666.62841797 12.70970631 28 38 40
246088.31103516 3357639.28015137 12.97536182 40 45 41
246091.33166504 3357641.14831543 13.87168407 159 175 191
246088.46838379 3357641.07440186 14.30755901 191 202 208
246092.15039063 3357665.61962891 13.21568966 124 142 156
246090.55957031 3357648.68200684 13.07727146 32 31 36
246091.89538574 3357628.26617432 13.46907711 38 48 57
246090.53149414 3357638.95214844 13.85198402 9 12 21
246091.88562012 3357666.59985352 12.60129166 22 27 31
246090.06262207 3357637.53265381 14.04248047 2 6 15
246091.56005859 3357638.92169189 13.63416576 150 173 191
246090.25634766 3357631.55395508 14.09535599 36 63 84
246090.05895996 3357639.59704590 13.07802105 73 75 74
246087.92382813 3357630.81103516 13.95049381 27 35 37
246091.24560547 3357666.48925781 12.55431366 40 42 41
246090.84289551 3357668.61419678 13.57792377 6 13 19
246089.53588867 3357632.65142822 13.97989082 25 30 33
246090.61328125 3357631.57958984 13.99212933 77 107 133
246092.10217285 3357664.09680176 14.75978374 118 131 137
246092.14636230 3357667.58673096 13.18783283 130 45 76
246090.13720703 3357631.40802002 14.18161106 57 84 103
246089.67578125 3357629.64440918 13.92261600 90 103 112
246090.56665039 3357639.07513428 13.76845455 113 119 131
246090.65112305 3357628.24011230 14.17332649 152 168 181
246089.04614258 3357630.04376221 13.77288342 27 33 33
246091.33923340 3357641.63262939 13.76043987 122 136 149
246089.30700684 3357665.03338623 15.07947636 138 146 148
246090.67016602 3357638.89868164 13.50102997 118 142 154
246092.02758789 3357629.42071533 13.50271320 11 19 21
