245801.25445557 3357642.00701904 15.91168880 70 83 91
245802.38604736 3357646.65826416 16.30351257 141 149 138
245801.75683594 3357642.77899170 16.52318382 63 86 102
245802.24060059 3357641.60559082 16.45460129 43 56 62
245802.88903809 3357646.25555420 16.82031441 135 168 187
245803.75250244 3357645.39270020 16.78441048 38 47 54
245803.21032715 3357647.11657715 16.44831085 150 177 186
245801.94696045 3357642.11535645 16.48769188 59 66 72
245800.54516602 3357638.83721924 17.07119370 19 20 22
245801.41033936 3357641.75085449 16.39665985 35 49 58
245801.63732910 3357642.05895996 16.59461021 53 64 70
245801.37420654 3357639.17816162 17.31231880 28 38 40
245801.69464111 3357642.03735352 16.59321785 63 72 77
245801.53607178 3357641.92718506 16.46727562 55 68 76
245801.03265381 3357639.16009521 17.03399086 21 30 35
245801.50372314 3357642.94293213 16.55932617 16 28 52
245804.27929688 3357646.43365479 16.22049522 26 34 37
245802.20593262 3357641.11651611 16.85152435 49 69 80
245801.38836670 3357640.83959961 16.67073631 65 92 119
245802.10870361 3357645.31549072 16.96156883 1 0 0
245802.25634766 3357641.95703125 16.38767624 60 71 75
245802.70648193 3357646.75799561 16.76927757 86 103 119
245802.75585938 3357642.28131104 16.75872231 51 61 52
245803.38500977 3357645.66168213 16.74733543 26 35 42
245802.30963135 3357646.82507324 16.23666191 32 45 51
245802.65075684 3357645.14544678 17.29587936 18 32 43
245800.49957275 3357639.62420654 16.01109123 67 77 79
245802.55200195 3357644.23095703 17.21989632 19 24 30
245802.85070801 3357647.08154297 16.65821266 127 146 160
245802.73052979 3357644.39080811 17.18839455 19 28 33
245801.03149414 3357642.24755859 15.76946545 71 84 90
245801.03881836 3357639.17297363 17.02952003 21 30 35
245801.93225098 3357640.38500977 17.14537430 44 63 70
245802.32098389 3357644.03015137 17.22580719 33 47 60
245801.64129639 3357643.67614746 16.83190155 149 169 180
245800.82897949 3357639.53131104 16.70829773 44 52 55
245802.58251953 3357646.96667480 16.44691849 107 118 120
245800.44396973 3357638.85833740 17.34818077 64 67 72
245803.79602051 3357644.98205566 16.86674881 36 42 42
245801.60888672 3357643.18444824 16.74926376 133 155 169
245801.23980713 3357642.76556396 15.72159767 72 78 74
245803.23266602 3357644.39697266 17.14156151 157 175 179
245801.36083984 3357643.90289307 16.09353065 58 69 73
245802.11309814 3357645.55114746 16.60011673 165 176 180
245803.32098389 3357644.26159668 17.07697105 55 65 66
245803.00335693 3357647.17718506 16.39169502 128 141 150
245802.30438232 3357643.21496582 17.14647675 137 169 192
245802.34674072 3357645.81530762 16.79954338 19 29 38
245801.72454834 3357641.75903320 16.48221016 46 60 69
245802.29791260 3357640.78521729 17.02492905 29 38 43
245803.64959717 3357646.55682373 16.66273689 140 172 187
245803.68707275 3357646.15106201 16.67889786 156 187 208
245801.34295654 3357641.99206543 16.14888382 65 76 82
245802.75030518 3357642.37640381 16.96335220 43 50 42
245802.11077881 3357645.15020752 17.11288261 0 0 0
245803.85296631 3357645.07568359 16.79834747 29 34 37
245800.56567383 3357638.97595215 16.78346825 15 18 23
245800.27795410 3357638.89678955 16.88959122 68 73 77
245802.27514648 3357643.65179443 17.10695076 155 186 206
245802.07531738 3357644.93798828 17.07859993 1 6 10
245804.27557373 3357645.67291260 16.10580254 31 41 33
245803.90826416 3357645.52416992 16.64593887 11 29 31
245802.12353516 3357645.80462646 16.47542953 127 134 126
245802.68859863 3357642.45642090 17.54349136 25 35 27
245800.53546143 3357638.90179443 16.76853943 18 23 26
245800.88421631 3357640.82879639 16.56950760 14 35 52
245801.56848145 3357643.80096436 16.53556633 113 133 144
245800.64172363 3357639.48559570 16.15322495 79 83 92
245801.77239990 3357640.11853027 17.04130936 75 102 123
245802.93090820 3357642.98748779 16.92967796 111 114 119
245800.61669922 3357639.90100098 15.94453526 56 63 71
245800.77813721 3357640.32745361 16.06455803 17 28 30
245800.70306396 3357638.85882568 17.16051483 7 11 14
245803.35595703 3357644.03100586 17.00892639 28 26 29
245801.66705322 3357641.47131348 16.52176857 104 136 161
245801.00909424 3357639.42059326 16.93034935 0 5 15
245800.74395752 3357639.93359375 16.16023636 35 45 47
245800.99713135 3357641.26983643 16.52064896 14 47 62
245801.60620117 3357639.90936279 16.93194580 78 106 127
245800.95715332 3357641.25958252 16.44354439 24 42 52
245802.93725586 3357645.02728271 17.17935753 12 22 24
245801.12695313 3357642.06762695 15.81173134 54 68 77
245804.25317383 3357645.83166504 16.16522217 13 22 19
245801.73394775 3357643.73852539 16.90236282 3 14 18
245800.83825684 3357640.80670166 16.46459961 20 33 42
245801.02416992 3357639.28094482 16.96111107 21 30 37
245801.33544922 3357642.33837891 15.88051605 64 71 79
245803.66418457 3357646.75933838 16.58441162 144 175 195
245803.55554199 3357644.96856689 16.97307968 45 54 59
245801.87835693 3357640.71453857 16.74054146 22 47 51
245801.22686768 3357640.23657227 16.97018051 128 159 188
245802.05126953 3357643.20605469 16.99456406 145 179 204
245801.66015625 3357643.15539551 16.76212692 149 167 181
245803.63116455 3357645.57061768 16.73264503 4 8 17
245801.33605957 3357643.12384033 16.17508507 53 62 69
245801.24871826 3357642.03594971 15.88839817 69 84 91
245800.64196777 3357639.49188232 16.15003586 79 83 92
245803.20587158 3357645.42645264 16.93903732 22 36 45
245802.52087402 3357645.12414551 17.28894997 88 100 116
245803.19995117 3357644.84735107 17.17829704 6 14 16
245803.89526367 3357646.19610596 16.55285835 145 167 178
245802.85711670 3357643.61773682 17.18034554 152 168 181
245802.71972656 3357642.17907715 16.87103271 41 51 42
245802.23394775 3357644.25292969 17.27033615 42 60 74
245800.94592285 3357639.03002930 17.10476303 14 25 27
245801.12109375 3357641.56036377 16.15902901 43 56 62
245800.66198730 3357639.48663330 16.23881531 44 53 60
245802.75323486 3357642.38867188 16.44562912 54 65 51
245802.84240723 3357642.74096680 17.47796440 25 36 30
245801.65460205 3357639.58551025 17.22133064 0 7 17
245800.67816162 3357638.99633789 16.97276306 6 11 15
245802.76794434 3357643.13159180 17.05960464 131 150 167
245801.07177734 3357640.00708008 16.99523163 7 28 55
245801.94189453 3357645.19439697 16.10658073 73 86 94
245802.39825439 3357643.29785156 17.14406013 142 174 195
245803.85205078 3357645.70483398 16.62264061 132 156 168
245803.01062012 3357647.50244141 15.67333603 74 78 89
245802.79241943 3357643.59381104 17.19422340 144 170 185
245800.80584717 3357639.05346680 17.03143120 6 14 17
245802.70043945 3357642.35461426 17.41093063 19 30 22
245803.60815430 3357645.36743164 16.82542419 15 20 26
245803.34515381 3357644.71099854 17.12473679 149 162 170
245802.21661377 3357640.79687500 16.90163231 22 35 41
245802.74523926 3357642.31347656 16.89347458 42 52 43
245801.83612061 3357644.91442871 16.03143501 70 83 91
245802.65179443 3357647.10101318 16.18797874 56 74 84
245803.94842529 3357645.14160156 16.68556786 29 37 39
245801.58044434 3357639.65734863 17.10442924 36 48 60
245802.48870850 3357641.90972900 16.45010948 57 66 71
245802.03375244 3357644.87304688 17.02777672 15 25 27
245803.73065186 3357645.90655518 16.65989685 159 186 205
245801.26422119 3357639.14581299 17.18368912 18 28 30
245803.90728760 3357645.13342285 16.74753761 31 35 38
245802.62408447 3357645.79736328 16.86721611 128 137 152
245801.54254150 3357643.66711426 16.62602806 128 155 166
245800.88500977 3357641.01068115 16.48171806 23 37 46
245801.52587891 3357641.64550781 16.46462631 54 73 88
245801.09271240 3357640.70806885 16.81637764 45 62 78
245801.69299316 3357644.18646240 16.55698204 131 149 159
245802.58197021 3357642.06384277 16.38272476 52 62 64
245801.71014404 3357641.31896973 16.53932381 88 120 141
245804.14880371 3357645.25512695 16.17234802 34 42 29
245802.57745361 3357645.90826416 16.80633736 28 35 41
245803.07495117 3357647.17700195 16.32864380 122 139 149
245802.46044922 3357644.51898193 17.32316780 13 20 28
245800.78485107 3357639.07733154 17.00017738 5 13 16
245803.26446533 3357647.20800781 16.19162750 23 40 48
245800.88476563 3357639.79174805 16.76343727 1 10 9
245801.27990723 3357639.66571045 17.03988647 55 71 87
245804.06335449 3357646.18103027 16.43782616 100 116 116
245802.94311523 3357645.50933838 16.99667358 73 85 101
245803.17529297 3357647.41552734 15.75636864 54 69 72
245800.94036865 3357640.56451416 16.71869850 124 133 140
245802.72003174 3357644.06805420 17.20253944 5 14 19
245801.04913330 3357641.44580078 16.24966621 28 41 50
245803.11340332 3357645.63330078 16.87889671 34 51 58
245800.60754395 3357638.84063721 17.03302193 3 7 10
245802.09301758 3357645.61712646 16.35216141 126 136 137
245803.31695557 3357643.54852295 16.79426003 34 38 37
245801.75402832 3357643.85760498 16.92222404 10 19 24
245801.87536621 3357640.34741211 17.07901573 66 90 102
245800.55932617 3357638.91564941 17.47611809 20 25 28
245802.47650146 3357642.52661133 16.31964684 131 141 143
245801.43212891 3357639.65283203 17.03497696 55 72 88
245803.20605469 3357647.30651855 15.87830162 60 71 75
245802.71697998 3357642.21643066 17.00682831 37 47 38
245801.27911377 3357639.10784912 17.40876389 20 28 30
245802.28082275 3357642.66040039 16.70420265 140 149 158
245801.11828613 3357640.06280518 17.02367401 141 172 200
245802.36053467 3357646.19812012 16.57721329 43 46 35
245801.29675293 3357643.00067139 15.86586380 88 91 84
245802.18902588 3357642.37188721 16.27291870 51 55 56
245804.02435303 3357645.13269043 16.48547173 33 42 41
245801.85681152 3357640.56213379 16.75856972 31 51 58
245801.49615479 3357641.15338135 16.58980370 79 107 131
245801.82952881 3357644.80926514 16.06050682 70 83 91
245801.79522705 3357641.68609619 16.45399857 42 52 62
245801.35638428 3357641.00177002 16.66049767 63 90 120
245802.58087158 3357646.81372070 16.53374290 45 59 60
245801.99218750 3357645.19915771 16.35158920 130 143 149
245801.61810303 3357642.53387451 16.33581543 44 54 55
245801.14062500 3357639.73297119 17.04648399 115 136 155
245800.76385498 3357641.11706543 16.03683281 40 50 52
245800.80877686 3357640.89843750 16.00834846 25 34 39
245802.37860107 3357644.11663818 17.23314857 26 37 41
245800.96624756 3357639.70367432 16.90948296 7 12 18
245801.88079834 3357640.05737305 17.27025795 60 86 101
245804.13244629 3357646.57196045 16.34288216 23 31 33
245802.95501709 3357644.07354736 17.18375206 0 1 6
245801.35131836 3357641.98950195 16.18548965 68 79 85
245801.99005127 3357643.48797607 16.88231850 165 193 214
245802.69995117 3357647.04144287 16.53679848 103 126 132
245803.38690186 3357645.81048584 16.71006393 211 224 240
245803.17285156 3357645.47344971 16.93777084 31 44 53
245800.71569824 3357639.49639893 16.46140862 59 66 72
245802.86419678 3357645.27490234 17.12706184 44 52 65
245802.31420898 3357642.65368652 16.70025063 141 150 159
245803.29003906 3357645.32617188 16.94622040 13 26 32
245801.99182129 3357645.85394287 16.12511444 101 109 112
245803.03259277 3357642.86541748 16.96100426 15 24 21
245802.53649902 3357646.78021240 16.44179535 95 105 97
245800.47448730 3357638.96527100 16.53609085 43 50 56
245800.92456055 3357639.85351563 16.82691765 7 13 9
245802.86474609 3357646.15972900 16.80231094 149 178 196
245802.50054932 3357646.53454590 16.46576118 59 63 62
245803.07318115 3357647.44293213 15.73182774 56 69 77
245803.77062988 3357646.80798340 16.53039360 152 174 188
245800.52050781 3357638.91156006 16.72415352 19 27 30
245801.79327393 3357644.57867432 16.40191841 115 134 141
245801.02453613 3357641.30456543 16.52260208 2 37 56
245803.14459229 3357647.11877441 16.48445129 155 179 189
245801.96386719 3357644.61920166 17.00433350 8 23 28
245802.88964844 3357646.78350830 16.77991295 151 177 212
245801.18041992 3357641.43597412 16.58877373 125 166 194
245800.66510010 3357638.84039307 17.31546974 8 13 16
245801.12536621 3357639.99908447 17.02136040 135 169 196
245802.85186768 3357647.30883789 15.70621490 53 59 59
245800.95623779 3357640.49078369 16.75123787 39 46 54
245802.45050049 3357644.96301270 17.30364227 81 91 101
245801.68566895 3357643.42102051 16.83533669 134 156 177
245800.57202148 3357639.20611572 16.40022659 14 22 24
245803.42828369 3357646.04931641 16.70954704 155 184 200
245803.70648193 3357646.11462402 16.67542648 157 188 209
245803.96118164 3357645.80541992 16.55390549 75 94 100
245802.01300049 3357643.39874268 16.89928818 145 176 197
245801.13989258 3357642.01904297 15.82437229 60 74 83
245801.23474121 3357640.52093506 16.90527534 23 51 75
245800.68811035 3357639.64508057 16.24142075 25 32 38
245801.80053711 3357644.44061279 16.72382545 182 196 205
245801.90295410 3357641.49468994 16.41381264 87 108 127
245801.51800537 3357642.60565186 16.08959961 59 69 70
245803.92462158 3357646.14270020 16.53929329 142 164 175
245800.69207764 3357640.11627197 15.95200539 39 49 51
245801.77551270 3357640.91833496 16.67689133 19 47 51
245802.76782227 3357647.24200439 15.72288227 45 51 49
245802.48602295 3357646.35919189 16.67074966 22 29 35
245801.41906738 3357640.52850342 16.78597069 20 44 68
245801.25537109 3357641.95190430 15.94357872 65 75 84
245802.20532227 3357643.69042969 17.09464645 156 189 206
245802.68969727 3357646.90155029 16.67912102 53 71 81
245802.19073486 3357645.92852783 16.53022385 120 122 109
245801.50006104 3357641.44708252 16.57957268 121 151 179
245801.80767822 3357644.15881348 16.91717529 10 21 27
245801.97497559 3357644.90484619 16.89171982 8 17 26
245803.68054199 3357645.70336914 16.65297699 174 196 210
245803.19458008 3357647.07385254 16.52787781 147 179 192
245801.38055420 3357643.35913086 16.36137199 87 102 109
245801.71295166 3357644.35198975 16.10412407 75 90 93
245800.90179443 3357640.53063965 16.66569328 72 82 91
245801.34246826 3357642.33673096 15.88952923 64 71 77
245804.29821777 3357646.49066162 16.18300056 26 34 36
245802.66217041 3357647.25494385 15.68625164 74 80 70
245802.95355225 3357646.86474609 16.74700928 153 176 210
245803.54858398 3357645.31060791 16.87776375 6 10 19
245803.67602539 3357647.07928467 16.33128166 27 48 51
245801.56976318 3357643.75799561 16.60882759 123 145 158
245804.14935303 3357646.79577637 16.19396400 43 56 62
245801.26660156 3357642.15014648 15.86162281 61 74 82
245801.15887451 3357639.56091309 17.02415657 75 92 102
245802.03503418 3357645.36645508 16.30896568 110 121 127
245803.44659424 3357644.93884277 17.06964302 145 154 161
245804.09729004 3357645.27075195 16.25404930 45 52 44
245802.99554443 3357646.82885742 16.74309731 135 159 195
245800.62823486 3357639.20086670 16.61519051 12 22 24
245801.76922607 3357639.78631592 17.22621155 69 88 102
245803.46612549 3357644.38616943 16.98705864 49 61 57
245802.50347900 3357646.52197266 16.52865791 48 57 54
245802.62084961 3357643.04742432 17.12176704 148 171 187
245801.80078125 3357640.42083740 16.85411644 64 84 95
245802.75952148 3357647.02087402 16.63318634 112 134 145
245802.08282471 3357643.42034912 16.92693520 155 186 206
245801.53179932 3357643.70776367 16.47483253 114 136 149
245802.68939209 3357646.75616455 16.76259232 86 103 119
245803.74822998 3357645.55999756 16.70168686 157 167 176
245800.58557129 3357638.90625000 17.45351982 20 25 28
245801.90509033 3357644.90429688 16.52020264 141 154 162
245802.23992920 3357646.68627930 16.23100662 60 70 80
245801.53100586 3357642.09222412 16.48961258 51 62 66
245802.10522461 3357645.49566650 16.67462730 130 141 145
245801.28784180 3357641.16198730 16.66727829 142 172 200
245802.41198730 3357644.30316162 17.27555656 25 34 41
245802.50268555 3357646.51818848 16.53109932 48 57 54
245804.12280273 3357645.46447754 16.42066383 19 30 26
245801.27270508 3357640.51965332 16.88176537 34 60 85
245800.79357910 3357640.11596680 16.43651962 22 36 45
245801.00500488 3357639.99945068 16.91612244 13 21 34
245801.36499023 3357640.37646484 16.83459282 133 162 192
245801.97888184 3357644.71441650 16.99697495 12 27 32
245802.65045166 3357646.49786377 16.82174301 45 58 64
245801.96020508 3357644.08807373 17.15549660 173 187 196
245802.41790771 3357645.72137451 16.95532417 41 50 55
245803.55389404 3357644.76300049 16.93788719 126 137 141
245803.74182129 3357646.70349121 16.57919312 146 175 193
245800.51251221 3357638.83770752 17.10803795 38 39 41
245800.93719482 3357640.43011475 16.72251129 81 86 92
245804.01995850 3357645.15295410 16.52052879 34 43 40
245803.43499756 3357644.36529541 17.00629616 49 61 57
245804.52239990 3357646.26672363 15.86619663 28 32 33
245800.71911621 3357640.91479492 15.92923450 58 66 69
245801.26959229 3357642.47216797 15.80929375 62 71 76
245801.96612549 3357644.84851074 16.90123367 5 16 22
245801.34173584 3357642.09185791 16.05517197 63 74 80
245801.88189697 3357644.89300537 16.19153214 74 87 95
245802.19464111 3357644.62719727 17.27371407 200 214 217
245800.41510010 3357638.86962891 16.56037521 54 59 65
245803.24572754 3357647.33642578 15.84533405 56 65 72
245800.82458496 3357639.79516602 16.59292603 70 83 91
245803.45324707 3357645.35321045 16.87889099 12 21 28
245802.81671143 3357643.38732910 17.12119293 144 169 189
245801.17626953 3357641.55938721 16.40876389 32 52 63
245803.04565430 3357644.52496338 17.16126442 7 17 19
245801.93054199 3357644.08605957 17.12765884 113 123 132
245802.19140625 3357642.07940674 16.35395432 58 67 72
245802.70117188 3357644.87658691 17.29221344 49 58 67
245802.12017822 3357640.66058350 16.82347870 28 43 46
245801.82379150 3357639.83978271 17.27392006 67 89 102
245803.19744873 3357645.99932861 16.71437073 170 197 214
245801.83056641 3357644.70697021 16.45173836 116 133 143
245802.25201416 3357640.70056152 16.91386604 14 23 28
245802.57086182 3357644.04016113 17.21479034 19 28 35
245802.92333984 3357646.99035645 16.72998047 130 150 174
245801.75701904 3357644.14392090 16.81172752 176 193 201
245802.31921387 3357645.32226563 17.18075180 70 84 95
245801.76300049 3357640.27545166 16.93044662 74 101 122
245801.31823730 3357641.49572754 16.57445526 152 183 212
245803.07226563 3357643.63018799 17.05158043 83 90 98
245801.26324463 3357643.36840820 16.01170731 54 63 68
245802.15655518 3357640.60064697 16.87899971 26 40 41
245802.81402588 3357646.21594238 16.82876205 142 170 191
245800.93261719 3357641.62066650 15.87893105 56 69 77
245802.16687012 3357645.17163086 17.14498520 74 80 80
245800.32537842 3357638.91394043 17.36369896 66 71 77
245802.47882080 3357643.50921631 17.13112831 146 176 200
245802.56567383 3357642.49157715 16.27979660 103 110 116
245802.66186523 3357647.07366943 16.31882858 83 101 113
245801.74774170 3357644.74108887 15.99998569 121 135 136
245801.35797119 3357642.91143799 15.89529991 53 55 50
245802.99291992 3357647.44268799 15.69781303 61 68 78
245802.52337646 3357646.13824463 16.75263023 26 31 34
245804.07550049 3357646.73095703 16.32853127 53 58 64
245803.06347656 3357644.59423828 17.17700958 10 15 18
245804.03125000 3357646.09149170 16.46863365 124 139 142
245804.41925049 3357646.53002930 16.01643181 35 39 42
245801.91369629 3357644.92645264 16.52775002 137 150 158
245800.81323242 3357640.54730225 16.14451027 17 24 30
245800.86401367 3357640.54223633 16.58329773 104 117 125
245802.61059570 3357645.59753418 17.13880730 183 190 208
245801.73620605 3357640.17987061 16.93877983 74 102 126
245802.64990234 3357645.90124512 16.79563904 95 112 122
245800.70513916 3357639.82440186 16.12369156 38 48 50
245802.06176758 3357642.93041992 17.00953102 6 15 24
245801.36804199 3357641.90893555 16.27219772 53 62 69
245801.55328369 3357643.98901367 16.33151436 86 104 108
245802.76727295 3357642.52532959 17.40057373 39 49 40
245802.05786133 3357642.18109131 16.40194321 52 59 65
245802.23468018 3357644.94299316 17.22666550 217 226 233
245801.35223389 3357641.00158691 16.66321754 63 90 120
245803.72442627 3357645.70544434 16.64538574 168 191 205
245804.07495117 3357646.69079590 16.34891891 66 73 81
245800.84954834 3357641.01867676 16.27606583 17 24 32
245802.23876953 3357642.65496826 16.63568306 127 135 148
245801.37322998 3357643.57733154 16.23901367 3 14 20
245802.37310791 3357643.22601318 17.15748596 139 171 192
245802.45227051 3357642.90051270 17.08244133 23 42 49
245802.58135986 3357642.02569580 16.42110443 48 57 62
245803.67126465 3357646.34777832 16.67813492 148 177 195
245800.82025146 3357639.15637207 16.95437431 6 14 17
245800.75592041 3357640.04382324 16.14603806 24 33 38
245802.09869385 3357645.89294434 16.36891747 116 121 114
245800.95324707 3357641.19976807 16.50170898 14 42 56
245803.28039551 3357645.00561523 17.11979294 3 13 12
245801.05621338 3357639.37915039 16.95276451 69 83 92
245802.46685791 3357646.24993896 16.71816444 12 22 23
245804.12103271 3357645.21826172 16.20371628 44 52 41
245800.74761963 3357639.86767578 16.30218315 25 36 42
245804.51434326 3357646.29736328 15.88744068 35 39 40
245802.42321777 3357642.49450684 16.27131081 73 83 84
245803.38543701 3357647.23028564 16.10341835 51 64 72
245802.87597656 3357642.83117676 17.50586128 26 37 33
245801.82440186 3357644.54754639 16.72422409 178 195 205
245803.31591797 3357645.00482178 17.10740662 0 4 7
245801.25152588 3357639.54479980 17.03846550 18 27 32
245802.24481201 3357646.02453613 16.55486870 100 100 92
245801.66729736 3357644.84783936 15.93192863 31 43 43
245804.18127441 3357645.30560303 16.13688660 38 49 32
245802.72631836 3357642.34136963 17.24506378 39 49 41
245804.00494385 3357645.81469727 16.52745247 8 23 26
245803.16717529 3357644.41973877 17.16051674 115 130 135
245803.60186768 3357646.10150146 16.68576050 160 191 211
245801.89025879 3357645.06176758 16.07254410 61 74 82
245802.57885742 3357642.56622314 16.56874275 87 94 104
245801.72814941 3357644.33416748 16.33459091 113 128 135
245800.88000488 3357639.68585205 16.78008080 0 5 5
245801.90588379 3357645.62786865 16.00517464 89 99 101
245801.38665771 3357640.93859863 16.65317726 61 88 117
245803.16931152 3357645.03070068 17.12863731 6 14 16
245801.91381836 3357641.84527588 16.47792816 55 68 76
245803.69616699 3357645.62298584 16.68801498 165 179 190
245803.42199707 3357647.22369385 16.10226822 50 63 71
245804.21081543 3357645.99810791 16.24615097 18 24 24
245801.95483398 3357641.84570313 16.46224403 56 69 77
245801.93133545 3357640.93908691 16.74556351 25 46 49
245801.14428711 3357641.54663086 16.30072975 43 60 67
245800.81903076 3357640.87615967 16.07186317 29 36 42
245803.48999023 3357647.21020508 16.10349655 57 68 74
245801.18652344 3357640.99719238 16.72640038 30 57 78
245801.48132324 3357643.50982666 16.56104660 115 144 150
245802.36474609 3357642.47894287 16.23995018 56 68 64
245800.62103271 3357639.37451172 16.17186737 58 61 66
245802.17266846 3357642.24060059 16.29557037 57 64 70
245802.18969727 3357642.59893799 16.44449234 127 140 149
245800.88867188 3357640.69378662 16.61355972 12 30 40
245801.43872070 3357643.88092041 16.20764923 11 25 26
245802.40484619 3357647.04528809 16.10665321 39 49 61
245801.35308838 3357642.81768799 15.79353523 72 72 64
245802.25164795 3357645.80114746 16.72083473 42 53 59
245802.71014404 3357644.64770508 17.26396751 25 35 44
245802.68170166 3357645.73876953 16.89552689 96 109 125
245803.02905273 3357647.62707520 15.65948391 59 68 75
245803.06079102 3357644.44146729 17.16053391 10 20 22
245802.17761230 3357643.71661377 17.09755707 162 193 211
245801.01403809 3357640.08081055 16.92100334 1 12 30
245801.45587158 3357642.40783691 16.21146011 62 72 74
245801.34716797 3357640.65753174 16.76820946 64 92 114
245804.17425537 3357645.68676758 16.37875938 29 40 34
245802.25463867 3357646.19897461 16.42630196 135 134 106
245801.40795898 3357642.15734863 16.26833534 57 66 73
245801.29290771 3357640.11132813 16.92856979 112 146 173
245802.57489014 3357645.52935791 17.21384621 181 184 201
245802.06854248 3357642.17260742 16.39827538 54 61 67
245803.48785400 3357644.20855713 17.02969170 33 42 37
245801.86737061 3357644.80175781 16.53926086 132 150 160
245802.24060059 3357643.59912109 17.04914284 154 187 206
245801.30688477 3357642.37811279 15.83960629 69 74 80
245802.58251953 3357645.53131104 17.20815468 181 184 201
245803.03619385 3357647.54473877 15.67475986 62 69 77
245802.88122559 3357647.19409180 16.35486031 123 132 139
245802.29888916 3357642.84716797 17.02089310 11 21 23
245803.09936523 3357646.20300293 16.75759888 144 173 187
245802.47058105 3357642.59838867 16.65665054 113 120 126
245802.51892090 3357644.20568848 17.22139168 20 27 33
245800.87322998 3357641.05407715 16.38161850 33 42 51
245802.02691650 3357643.14263916 17.03068161 143 175 198
245800.99572754 3357641.79693604 15.83127975 61 76 83
245801.79223633 3357640.26269531 16.99209976 72 99 120
245801.65771484 3357642.59899902 16.28745079 50 60 61
245801.90795898 3357644.23767090 17.10037994 4 15 21
245803.99645996 3357646.00256348 16.50155449 114 133 137
245801.60986328 3357643.72277832 16.78811073 147 169 182
245802.96154785 3357647.03405762 16.70989418 128 149 166
245800.79370117 3357639.03509521 17.03633690 7 15 18
245801.92864990 3357645.10101318 16.14620209 75 88 96
245801.54705811 3357641.18548584 16.57860756 114 140 163
245801.19500732 3357642.85247803 15.73260498 59 71 69
245801.18841553 3357641.13128662 16.72352791 129 160 188
245801.57733154 3357640.76739502 16.66197777 26 53 62
245801.78509521 3357643.87066650 16.95793533 5 14 21
245801.67010498 3357641.65106201 16.46767998 67 83 96
245802.73199463 3357646.08496094 16.81004906 142 165 181
245803.26141357 3357646.90472412 16.62997818 128 161 178
245802.07763672 3357644.44757080 17.22929192 188 201 209
245803.05401611 3357647.42065430 15.73495102 54 64 74
245802.01745605 3357641.27178955 16.48122978 68 94 111
245803.44439697 3357646.48657227 16.74978065 139 168 184
245801.84197998 3357644.11932373 17.02045059 10 23 29
245802.41436768 3357646.85443115 16.31974983 130 141 143
245800.54022217 3357639.09405518 16.49496269 24 34 35
245803.74340820 3357645.74975586 16.65049553 161 187 202
245802.60882568 3357646.47778320 16.80192757 28 35 43
245803.55285645 3357646.20703125 16.70738029 154 185 203
245803.37036133 3357646.47491455 16.77254486 134 163 179
245802.51556396 3357645.91986084 16.78554535 24 27 34
245802.75549316 3357647.60760498 15.64297199 116 114 102
245801.92828369 3357641.29809570 16.48042107 76 105 123
245802.31518555 3357643.16363525 17.14666748 141 173 196
245803.42968750 3357643.94891357 16.99420357 36 40 39
245800.94604492 3357639.86926270 16.85514069 8 14 14
245804.19165039 3357646.62585449 16.24383736 30 37 43
245803.03192139 3357643.08691406 16.89140511 109 113 116
245801.71234131 3357642.73046875 16.29626656 105 118 126
245802.75134277 3357642.34039307 16.88473701 39 49 38
245801.28662109 3357640.58068848 16.84808731 61 87 110
245802.12585449 3357644.19201660 17.24014664 93 110 118
245802.77020264 3357642.44378662 17.28519630 50 60 52
245800.54620361 3357639.15509033 16.40383339 19 27 29
245801.96533203 3357645.23889160 16.14566231 80 93 99
245800.99902344 3357641.67987061 15.86625290 58 68 77
245801.89929199 3357644.80255127 16.77982140 174 189 196
245803.27697754 3357645.53271484 16.85713959 26 41 46
245802.65979004 3357642.07446289 16.47286987 57 67 66
245800.54724121 3357639.05798340 16.58489990 15 25 26
245802.58209229 3357646.44519043 16.77518654 22 29 35
245803.08056641 3357643.24688721 16.88158417 107 110 115
245801.78637695 3357644.95550537 15.98072433 111 124 130
245802.74206543 3357642.39904785 16.41724396 55 66 52
245803.30859375 3357644.72729492 17.15343857 138 148 157
245801.10009766 3357641.57165527 16.04549408 42 53 59
245802.38775635 3357645.64855957 17.01906586 50 60 69
245802.52258301 3357642.34448242 16.22874069 70 77 70
245801.51416016 3357642.98895264 16.60532761 118 130 154
245800.80364990 3357639.53674316 16.66947365 75 83 86
245802.79125977 3357647.62988281 15.64444923 119 115 103
245802.35327148 3357642.29699707 16.24805260 44 49 52
245801.89099121 3357645.37304688 16.00277519 108 118 120
245802.71276855 3357642.81030273 16.93797302 24 38 47
245801.98352051 3357643.62841797 16.94803619 164 191 210
245802.30999756 3357645.53515625 17.08231735 60 73 81
245801.37152100 3357639.36364746 17.10259247 3 8 14
245802.90063477 3357647.48510742 15.63690853 70 72 71
245801.15509033 3357641.31762695 16.62411499 132 175 207
245802.41711426 3357646.43371582 16.38119698 80 84 67
245802.28570557 3357646.42639160 16.32777786 122 123 107
245801.97027588 3357644.60089111 17.02884674 3 17 20
245802.34240723 3357645.64990234 16.97891045 53 66 74
245800.66717529 3357639.34527588 16.47291565 10 15 18
245802.06884766 3357643.13842773 17.05924797 140 172 195
245801.41918945 3357644.25177002 15.92554283 67 78 80
245802.95404053 3357645.05334473 17.17211342 11 19 22
245800.40802002 3357638.92797852 17.50501251 59 64 68
245801.28649902 3357642.03070068 15.93868732 61 74 82
245802.00921631 3357645.78466797 16.16476822 98 107 106
245804.26354980 3357646.67016602 16.13845062 42 49 55
245801.03771973 3357639.88000488 16.97932243 0 13 32
245802.04168701 3357645.34942627 16.40584755 129 144 149
245801.34997559 3357643.18859863 16.35145187 79 92 98
245800.77227783 3357640.82812500 16.00302505 23 30 36
245802.63781738 3357643.18518066 17.14171982 144 175 195
245801.99780273 3357645.11083984 16.77568054 153 163 172
245803.88018799 3357645.60949707 16.62040520 35 53 57
245800.81317139 3357640.53454590 16.15282631 17 24 30
245803.46893311 3357644.54833984 16.97994995 91 105 106
245801.84442139 3357640.57336426 16.75041008 31 51 58
245801.35491943 3357642.99182129 16.11280251 46 55 60
245801.49468994 3357642.73126221 16.01651764 57 63 59
245800.77087402 3357640.64605713 15.99046707 26 31 37
245802.34783936 3357644.53479004 17.34317589 65 78 86
245803.87542725 3357645.54376221 16.65370941 33 51 53
245803.39984131 3357644.80841064 17.09325409 136 147 153
245802.23864746 3357643.77978516 17.15353203 162 197 217
245802.41693115 3357646.33563232 16.52156258 45 48 41
245801.85247803 3357644.69018555 16.67633438 152 166 175
245801.43273926 3357643.82037354 16.22268867 5 21 21
245802.01495361 3357645.18316650 16.65142632 164 177 185
245803.34826660 3357644.33477783 17.06168175 12 27 30
245802.71325684 3357645.44110107 17.20193481 62 78 101
245802.32824707 3357645.36724854 17.16798782 47 61 70
245801.51214600 3357641.46319580 16.57542610 113 143 169
245803.65197754 3357645.52288818 16.75160217 7 11 20
245803.27117920 3357643.48120117 16.80419731 51 55 56
245800.66986084 3357639.58447266 16.20489693 34 41 49
245801.84143066 3357643.14239502 16.85568237 3 20 38
245801.51037598 3357643.60089111 16.55343056 117 146 154
245801.80883789 3357644.58642578 16.57365990 136 154 164
245804.24102783 3357646.35986328 16.26931190 31 39 42
245800.74688721 3357639.92584229 16.20629311 35 44 49
245802.57940674 3357646.92504883 16.46190643 84 95 97
245801.10076904 3357639.66412354 17.02427673 107 124 140
245801.21551514 3357642.52429199 15.76015091 53 66 72
245801.78771973 3357642.94982910 16.78383827 0 8 11
245800.84466553 3357639.98699951 16.64133263 96 105 112
245800.84045410 3357640.41198730 16.50023842 40 53 61
245803.38873291 3357646.68597412 16.67612839 136 164 186
245803.05718994 3357643.04864502 16.87849426 52 56 59
245802.11700439 3357645.39031982 16.87526131 0 1 0
245801.36962891 3357643.32366943 16.34290695 88 103 108
245801.76617432 3357640.81317139 16.70551109 22 51 57
245802.41827393 3357645.63702393 17.05717850 40 49 58
245802.54779053 3357643.10565186 17.14237022 139 167 188
245800.75225830 3357639.41027832 16.59580803 22 29 35
245802.19580078 3357641.45440674 16.50238037 56 74 84
245800.83245850 3357640.70593262 16.43200874 23 31 42
245803.90631104 3357646.29699707 16.54125404 146 173 182
245802.67016602 3357642.39703369 17.54024315 17 28 20
245803.71319580 3357644.67419434 16.91096687 20 29 28
245802.48425293 3357645.69476318 17.04017830 45 50 54
245804.07000732 3357645.15155029 16.28156281 42 51 48
245800.79473877 3357639.62689209 16.60556221 33 40 46
245801.92352295 3357643.00054932 16.94895935 16 23 31
245801.88977051 3357644.42272949 16.94569397 4 15 17
245804.41925049 3357646.18347168 15.93904114 22 26 29
245800.83514404 3357640.35839844 16.47813797 28 41 49
245803.51593018 3357644.31146240 17.00780296 42 53 49
245802.76727295 3357645.79309082 16.83084106 86 105 120
245803.92120361 3357645.50292969 16.64925385 15 31 31
245802.82287598 3357644.83215332 17.25062752 8 15 23
245802.52917480 3357645.48577881 17.23390770 81 91 103
245804.29602051 3357645.47631836 16.01456642 33 43 32
245803.88366699 3357645.89825439 16.57531357 138 162 174
245802.01159668 3357645.25970459 16.36761475 136 151 156
245803.40069580 3357647.06079102 16.46099663 130 159 167
245803.41864014 3357645.83306885 16.70465469 188 207 224
245803.45977783 3357644.84228516 17.04414749 69 78 85
245802.13885498 3357640.95782471 16.86792755 24 41 48
245801.83636475 3357644.69042969 16.22747612 92 109 117
245802.88140869 3357646.72344971 16.79084396 143 166 197
245802.07946777 3357641.41851807 16.42866898 64 87 105
245802.34478760 3357646.41632080 16.33869934 131 131 107
245803.76062012 3357645.03912354 16.87708092 22 30 32
245803.20458984 3357643.60998535 16.87114906 100 97 104
245802.79815674 3357647.18493652 16.02891731 132 143 147
245801.17907715 3357641.48370361 16.57541084 57 92 114
245800.93426514 3357641.29797363 16.22052002 27 34 42
245802.84893799 3357646.35260010 16.85305023 148 178 202
245801.67382813 3357644.61676025 15.98093700 113 128 125
245800.86804199 3357640.60272217 16.58733177 32 47 54
245802.09729004 3357645.22784424 17.05664063 1 0 0
245802.65283203 3357646.84100342 16.66633606 38 55 63
245801.78082275 3357642.33636475 16.52387810 50 54 63
245800.81958008 3357640.54937744 16.32665443 20 29 34
245802.75311279 3357647.19580078 15.85484600 146 155 160
245802.82177734 3357642.81353760 16.85670090 94 109 116
245802.00396729 3357646.03466797 16.15132332 83 93 95
245801.25939941 3357641.77380371 16.12931633 49 62 68
245803.72479248 3357644.93975830 16.89212990 25 35 34
245803.12634277 3357644.76177979 17.18929863 6 11 14
245802.18457031 3357643.12359619 17.12518883 141 173 196
245802.47869873 3357646.90600586 16.34976387 138 148 149
245801.33123779 3357640.67578125 16.76856232 65 93 117
245802.67285156 3357644.80261230 17.30647469 74 82 93
245804.05206299 3357645.31018066 16.45159149 16 25 20
245801.43200684 3357642.76757813 15.91754723 66 67 61
245802.68908691 3357646.17681885 16.82468796 106 124 138
245801.38116455 3357639.47839355 17.05423737 0 7 13
245802.68756104 3357644.29931641 17.20369339 26 33 39
245801.62573242 3357642.48754883 16.38508987 41 51 53
245802.99487305 3357643.53497314 17.08741379 135 143 154
245801.87005615 3357644.75732422 16.66697311 154 168 179
245802.56329346 3357642.01348877 16.41129112 48 57 62
245800.42968750 3357639.30798340 16.07760429 87 90 97
245802.06219482 3357642.66729736 16.59760094 109 123 134
245802.28942871 3357642.39996338 16.23883247 65 70 64
245802.39715576 3357643.68975830 17.17254639 151 186 206
245800.91577148 3357641.15588379 16.46791458 23 39 52
245803.25469971 3357646.01214600 16.71323967 163 190 207
245802.65722656 3357644.78656006 17.31298065 84 96 108
245803.36401367 3357646.91253662 16.59756660 133 165 180
245802.71801758 3357642.29113770 17.19154167 36 43 36
245804.13684082 3357646.59790039 16.32229042 27 35 38
245801.95507813 3357645.03546143 16.53904915 144 157 165
245800.58923340 3357638.84118652 17.11963463 8 9 11
245802.15704346 3357640.47003174 17.33130074 19 31 29
245802.45611572 3357642.67749023 16.84967422 74 82 85
245802.01354980 3357642.57647705 16.41324806 61 75 78
245801.83728027 3357640.33087158 17.02754211 67 92 112
245804.51849365 3357646.22039795 15.84593773 23 27 28
245801.46862793 3357643.74530029 16.31004143 48 63 68
245803.34234619 3357643.97686768 16.98090363 38 34 35
245802.17968750 3357642.63916016 16.55167770 120 132 146
245801.97296143 3357645.06842041 16.67813873 164 177 185
245802.06365967 3357645.81262207 16.30328560 101 110 105
245802.60864258 3357647.11358643 16.04781151 135 145 154
245800.93829346 3357640.56329346 16.71661758 124 133 140
245804.28710938 3357646.43908691 16.21075821 26 34 37
245802.82800293 3357642.54156494 17.12945747 38 47 44
245802.88281250 3357644.22723389 17.18234634 18 26 28
245803.26403809 3357644.27758789 17.11464882 70 85 92
245802.67663574 3357642.52746582 16.70850754 55 65 67
245803.99743652 3357645.68591309 16.55859566 15 29 29
245803.56134033 3357644.56964111 16.94789886 39 51 49
245803.05078125 3357643.42150879 16.98225021 79 81 94
245800.68902588 3357639.86541748 16.06223869 39 50 52
245803.07629395 3357644.09503174 17.16306877 141 155 164
245801.45202637 3357642.86169434 16.25939941 64 78 81
245803.31433105 3357647.36035156 15.81959915 57 67 76
245801.20794678 3357643.14416504 15.83324146 54 66 64
245801.89691162 3357645.31146240 16.01497459 112 126 129
245802.75061035 3357645.29138184 17.21566391 43 58 79
245803.27880859 3357647.40277100 15.77103901 58 71 79
245801.97052002 3357645.15966797 16.28214455 117 132 137
245801.52246094 3357642.08740234 16.48028946 51 62 66
245801.41760254 3357643.45635986 16.36563301 95 115 122
245802.13427734 3357645.78894043 16.51225471 123 130 123
245802.71405029 3357642.08825684 16.67446899 44 53 48
245802.17919922 3357645.65032959 16.79871559 7 14 20
245802.25823975 3357645.43518066 17.09081650 136 145 152
245803.20660400 3357645.67224121 16.82601929 32 47 52
245801.04510498 3357639.15991211 17.03885078 19 30 34
245804.57250977 3357646.33703613 15.86130524 27 31 30
245801.43103027 3357643.15588379 16.57320404 15 34 48
245804.21856689 3357646.01812744 16.23254395 17 23 23
245802.02661133 3357642.03271484 16.45163536 60 71 77
245801.41503906 3357640.11822510 16.81001472 97 133 159
245801.94519043 3357645.35711670 16.07089615 78 89 95
245801.85681152 3357643.90270996 17.04113579 21 31 40
245802.14068604 3357645.06201172 17.15401459 38 42 45
245800.86193848 3357640.29962158 16.58871269 16 29 38
245802.11254883 3357642.76611328 16.81962204 26 33 41
245800.87005615 3357641.14544678 16.30605507 25 33 44
245803.53607178 3357647.16418457 16.19653511 51 60 65
245801.81628418 3357641.79479980 16.49353218 48 61 70
245802.17572021 3357641.17388916 16.75691414 62 84 97
245800.70593262 3357639.59075928 16.35520363 24 31 39
245802.14349365 3357643.82476807 17.13696480 176 207 225
245803.22686768 3357643.46984863 16.80252075 46 50 53
245800.31347656 3357638.88659668 16.92555618 64 67 74
245804.00329590 3357645.82525635 16.52549171 5 23 25
245801.43450928 3357642.41271973 16.09985542 65 75 76
245800.35003662 3357638.88348389 17.17349625 64 69 75
245802.19421387 3357642.75219727 16.84069061 2 9 15
245802.11505127 3357644.07336426 17.21516800 89 117 129
245802.22436523 3357641.16479492 16.80709648 56 76 85
245801.61755371 3357643.97283936 16.48148346 143 162 169
245801.53192139 3357641.62811279 16.47964668 38 57 74
245802.77020264 3357645.65472412 16.96632385 124 135 153
245802.16156006 3357641.29675293 16.59226418 63 82 96
245800.76519775 3357639.22625732 16.84261322 21 31 32
245801.29388428 3357641.45422363 16.58563042 141 176 206
245803.81915283 3357646.07794189 16.60531807 160 186 201
245802.59948730 3357646.41076660 16.81769371 18 25 31
245801.54382324 3357639.84741211 16.94609642 79 108 126
245802.33990479 3357645.25091553 17.22689247 47 59 71
245801.33666992 3357643.14135742 16.25492287 69 80 86
245800.77679443 3357639.08868408 16.98666573 7 15 18
245801.09875488 3357641.42370605 16.52308846 4 43 60
245803.11041260 3357644.64990234 17.18438911 5 10 14
245801.83001709 3357640.02593994 17.19274330 63 90 107
245800.54205322 3357639.60479736 16.03455925 63 73 75
245801.27929688 3357643.04174805 15.87509060 83 88 84
245801.22717285 3357641.69366455 16.16406250 48 61 67
245801.87780762 3357641.27233887 16.51708794 81 109 130
245801.58148193 3357642.82537842 16.39853096 128 139 157
245802.04315186 3357645.35107422 16.41595650 135 150 155
245801.42749023 3357642.23840332 16.27623558 56 67 69
245800.98760986 3357639.01220703 17.16059875 18 29 31
245802.93231201 3357644.45892334 17.14660645 5 15 17
245800.85363770 3357639.14996338 16.97058868 7 17 19
245802.49542236 3357642.83410645 17.03185844 8 21 27
245803.22045898 3357647.02410889 16.55031967 141 174 189
245801.01708984 3357641.75622559 15.84657192 64 77 85
245801.36730957 3357642.10577393 16.14760971 67 76 83
245801.81933594 3357644.84692383 16.03427887 70 83 89
245802.27203369 3357645.77416992 16.76679993 36 46 55
245801.15356445 3357642.42089844 15.75732231 54 68 71
245801.45227051 3357643.35131836 16.60721779 102 130 134
245801.64489746 3357643.71661377 16.83731842 162 180 190
245802.71545410 3357645.10192871 17.27322197 56 68 82
245803.31768799 3357647.24481201 16.04876900 42 57 64
245800.43176270 3357639.03833008 16.33464813 62 70 73
245803.51538086 3357644.24450684 17.02357674 36 45 42
245801.61706543 3357644.36737061 15.98180389 51 62 64
245801.31579590 3357643.12652588 15.98813248 51 57 57
245802.80230713 3357644.85333252 17.25693130 7 11 20
245801.35455322 3357641.63897705 16.44704437 49 71 84
245801.32043457 3357642.25195313 15.89181805 67 76 83
245802.68334961 3357642.31054688 17.41858482 24 33 28
245803.46917725 3357647.01501465 16.48653793 151 180 186
245803.16235352 3357645.47650146 16.94220924 31 44 53
245800.98150635 3357641.02423096 16.66123199 121 159 182
245800.92541504 3357640.74432373 16.66393471 61 79 89
245803.26733398 3357647.42047119 15.75289154 62 72 81
245802.49029541 3357646.47308350 16.54271698 42 51 46
245802.56701660 3357642.67675781 16.87738037 50 59 66
245803.00457764 3357647.17089844 16.41499901 137 150 158
245800.55706787 3357639.31854248 16.15176964 48 51 56
245802.43603516 3357643.98327637 17.22722244 35 49 58
245803.83477783 3357646.14508057 16.59166718 159 185 200
245803.84747314 3357646.77276611 16.50817490 153 172 186
245801.45617676 3357644.00445557 16.18936729 9 23 26
245803.61950684 3357646.63433838 16.64342880 141 172 190
245801.59112549 3357640.19830322 16.75918007 96 126 152
245801.99700928 3357640.46142578 17.05142784 14 27 33
245800.74493408 3357641.12011719 16.01542664 46 57 61
245800.56201172 3357638.85827637 16.92250252 3 7 10
245804.09649658 3357645.83679199 16.43118095 23 38 35
245801.27899170 3357643.25695801 15.99743652 50 60 61
245802.63848877 3357645.57366943 17.14390945 161 173 189
245802.18365479 3357642.88677979 17.01430702 4 14 23
245803.28521729 3357645.62072754 16.81776619 33 48 55
245802.26226807 3357642.70550537 16.80371284 81 88 98
245802.38598633 3357646.22888184 16.57235146 39 45 35
245800.99487305 3357639.83489990 16.92354774 5 9 18
245803.44281006 3357646.25170898 16.73918343 153 184 204
245804.55224609 3357646.41687012 15.87606144 27 33 31
245800.59350586 3357638.89270020 16.91761971 4 8 11
245803.79742432 3357645.29992676 16.80702591 141 146 152
245803.00622559 3357645.57183838 16.93698502 78 91 100
245802.71008301 3357647.43200684 15.62502956 95 99 85
245800.49810791 3357639.90319824 15.91138935 63 72 79
245802.71112061 3357642.44482422 16.77602577 51 58 51
245802.93133545 3357644.28582764 17.16856766 7 15 18
245801.89245605 3357640.17608643 17.22950554 65 91 106
245803.07995605 3357647.22796631 16.04730034 57 74 81
245803.32635498 3357647.03527832 16.51450157 137 169 180
245804.39648438 3357646.06152344 15.86082840 17 21 24
245801.77770996 3357640.13348389 17.04342461 73 100 121
245802.83081055 3357642.58020020 17.05309868 39 45 45
245801.29534912 3357641.73162842 16.28037643 42 57 64
245801.43402100 3357642.85839844 16.01852608 41 52 48
245803.71575928 3357646.59710693 16.62738991 147 176 194
245801.91351318 3357642.47912598 16.43828011 52 57 60
245802.81414795 3357647.12322998 16.51279068 135 148 156
245801.98510742 3357644.14099121 17.19862175 182 194 206
245804.30041504 3357645.59790039 15.97858810 28 38 29
245801.74554443 3357644.32983398 16.60698700 137 156 163
245801.70959473 3357641.22070313 16.54986191 110 135 157
245802.91094971 3357645.20068359 17.14104080 4 8 17
245802.87872314 3357642.61132813 17.10006905 30 41 35
245801.64605713 3357639.81115723 17.03834534 68 93 113
245802.62500000 3357646.04559326 16.78419495 83 98 103
245801.58959961 3357643.96673584 16.39099121 105 124 130
245801.18463135 3357641.92272949 15.88438129 66 79 87
245803.11444092 3357644.49542236 17.16278839 13 22 27
245802.28930664 3357644.53643799 17.32994461 81 102 107
245801.84417725 3357644.14086914 17.01131439 12 25 33
245800.92852783 3357639.69665527 16.84441948 2 6 9
245802.01824951 3357645.10394287 16.87159729 26 35 40
245804.12365723 3357645.31719971 16.23577690 40 48 37
245801.23657227 3357640.82769775 16.74130821 52 76 100
245802.80957031 3357642.93768311 16.95638275 112 121 130
245801.84759521 3357642.71704102 16.49614525 122 140 154
245801.88818359 3357645.18945313 16.02688408 90 105 112
245802.57037354 3357647.00433350 16.40399170 113 126 132
245802.73040771 3357645.56896973 17.07611847 67 79 103
245803.41864014 3357644.84643555 17.08271217 132 143 149
245801.70904541 3357644.76617432 15.97237587 102 116 117
245801.63372803 3357644.49029541 15.96570206 48 60 58
245802.06829834 3357642.94348145 17.02998543 6 15 24
245804.12609863 3357645.95025635 16.38633347 17 29 29
245803.05566406 3357646.69866943 16.75317764 117 147 175
245801.27111816 3357643.25799561 15.98594189 50 60 61
245801.78955078 3357644.68377686 16.05478859 65 80 85
245801.98498535 3357640.24444580 17.35206604 55 75 86
245800.71539307 3357639.67199707 16.34064102 30 37 45
245804.01257324 3357645.22558594 16.57839394 31 37 37
245802.09320068 3357645.45635986 16.62772179 149 160 166
245802.11859131 3357644.69952393 17.20279503 197 204 214
245802.61798096 3357642.50634766 16.30553436 130 137 143
245803.65087891 3357646.13677979 16.67914009 157 188 209
245801.90496826 3357640.17523193 17.25309372 62 88 101
245802.04754639 3357642.45678711 16.34605408 64 70 70
245802.90222168 3357647.11395264 16.65312004 136 153 163
245801.12524414 3357641.57714844 16.07814407 34 47 53
245801.64404297 3357640.75860596 16.66220093 31 61 69
245802.78485107 3357643.73101807 17.20485687 147 165 175
245802.01239014 3357642.87030029 16.90547562 8 13 19
245803.44427490 3357646.67144775 16.67120743 136 165 183
245800.73437500 3357639.65270996 16.43536949 17 26 35
245800.78234863 3357639.60272217 16.58882523 23 30 36
245801.10589600 3357640.59332275 16.87066078 34 56 70
245803.18060303 3357644.69335938 17.17761803 0 5 11
245801.78161621 3357644.15454102 16.86085701 29 39 48
245800.36370850 3357638.87310791 17.02787781 61 64 71
245802.35321045 3357646.15472412 16.62210655 40 43 36
245802.84436035 3357646.15936279 16.80698776 150 177 194
245802.81323242 3357645.90130615 16.78456879 23 41 53
245802.24090576 3357640.55889893 17.32722282 38 48 47
245802.74200439 3357647.20690918 15.76478291 109 119 118
245802.19677734 3357641.08361816 16.86474609 36 54 64
245802.47143555 3357644.16906738 17.22348785 18 27 32
245801.84814453 3357644.73681641 16.55519104 131 148 158
245803.43231201 3357644.88201904 17.07498932 144 155 161
245801.08801270 3357639.67352295 17.01816177 107 124 140
245802.08032227 3357640.83905029 16.82625389 23 38 43
245804.18634033 3357645.51409912 16.27687836 35 48 31
245800.89886475 3357640.04699707 16.73320770 24 34 36
245802.27581787 3357646.47625732 16.31815529 102 105 98
245801.64068604 3357642.43054199 16.44804192 50 57 63
245802.50183105 3357641.74584961 16.58424377 60 71 75
245802.79315186 3357642.53314209 16.94920921 36 42 42
245800.33178711 3357638.88476563 17.01682091 64 67 74
245800.89459229 3357638.99230957 17.11914063 12 21 26
245802.23657227 3357640.62249756 16.92362976 18 30 30
245801.35003662 3357642.79638672 15.79350090 71 72 66
245803.09014893 3357643.30718994 16.89769363 94 99 105
245802.19219971 3357640.61199951 16.87068748 22 36 37
245801.35217285 3357643.69079590 16.16525650 32 48 48
245800.93627930 3357639.41552734 16.87450409 5 12 18
245802.70739746 3357642.46209717 16.74424553 55 61 59
245803.34631348 3357646.92285156 16.59433556 135 168 183
245802.72747803 3357642.29620361 17.08060455 43 50 42
245802.84783936 3357645.36627197 17.09574509 13 25 37
245804.35815430 3357645.97094727 15.83302307 17 23 23
245802.78216553 3357643.15332031 17.05743599 131 152 169
245800.86462402 3357640.25549316 16.62124634 81 92 98
245800.80932617 3357640.41870117 16.22131538 23 32 39
