246145.39746094 3357423.13372803 15.04202652 48 56 69
246144.34118652 3357424.13110352 15.27523899 5 15 17
246151.96594238 3357423.66125488 14.82543087 221 239 251
246143.96386719 3357423.80017090 15.62190151 44 53 70
246147.92968750 3357423.20458984 14.67536640 255 255 255
246146.52148438 3357424.04458618 14.16644478 64 66 65
246153.30676270 3357424.27593994 14.10111141 46 57 41
246142.06213379 3357422.47778320 15.15319347 114 18 30
246143.37341309 3357424.19390869 15.14585876 19 24 28
246149.15014648 3357423.20617676 15.44066143 255 255 255
246142.52050781 3357423.48944092 15.57273674 80 96 111
246153.12280273 3357423.53210449 14.13209629 74 75 79
246153.07849121 3357423.98156738 14.02239704 87 91 92
246150.59045410 3357423.23049927 15.31682491 39 62 94
246152.66516113 3357422.29638672 14.04412460 207 183 137
246141.76013184 3357422.79708862 14.40249729 148 128 103
246141.92700195 3357422.59689331 15.04738998 123 43 54
246144.29455566 3357424.10046387 15.30920601 5 19 19
246144.59362793 3357424.26766968 14.36360455 38 42 45
246141.86987305 3357422.56695557 14.36694145 159 138 107
246141.85144043 3357422.74749756 14.72648048 164 145 141
246143.67614746 3357423.27365112 15.63228607 54 67 84
246143.40698242 3357424.13244629 14.80394363 14 22 25
246152.45617676 3357423.39752197 14.68797684 213 231 241
246149.47827148 3357423.97528076 15.35078239 202 203 197
246152.50256348 3357423.56982422 14.22964764 51 54 63
246152.44189453 3357423.25408936 14.70887375 213 237 249
246152.35449219 3357422.55511475 14.52383423 142 155 164
246152.19848633 3357424.10427856 14.35977268 41 52 48
246150.83007813 3357422.36285400 14.63065910 239 235 224
246148.32336426 3357422.57885742 14.48516369 253 253 245
246150.47705078 3357423.97219849 15.19904995 136 139 144
246148.68200684 3357422.75848389 15.18137169 250 255 251
246152.93725586 3357423.59933472 14.04213524 66 70 71
246142.64135742 3357424.07077026 15.06091881 23 26 31
246149.74353027 3357422.44491577 14.49332809 240 239 235
246149.06628418 3357423.20791626 15.40748310 255 255 255
246146.35656738 3357423.71081543 14.65804005 47 48 50
246151.89331055 3357423.48568726 14.85118771 229 246 254
246142.78613281 3357423.32095337 15.71033287 71 78 94
246144.01269531 3357424.01644897 15.63407421 91 106 113
246152.10620117 3357423.55084229 14.77542686 213 235 248
246150.04211426 3357423.63809204 15.43609333 44 53 68
246150.57800293 3357422.46865845 15.08525562 245 238 232
246149.70227051 3357422.52709961 15.00229073 255 253 246
246152.76660156 3357423.26809692 14.04236412 138 135 116
246149.10107422 3357422.72583008 15.22088814 58 58 58
246150.30737305 3357422.39004517 14.52710724 234 231 222
246151.56958008 3357422.30572510 14.73053455 244 252 254
246152.92272949 3357423.27639771 14.03645515 73 77 76
246151.62780762 3357422.30728149 14.73615932 243 253 252
246146.11523438 3357423.45526123 14.87049389 42 41 46
246149.10974121 3357423.90417480 15.40280437 250 249 247
246152.19287109 3357422.63058472 14.73148537 208 228 237
246142.61022949 3357422.37979126 14.52153206 193 178 175
246149.42138672 3357422.51443481 14.90576935 255 253 246
246151.80895996 3357422.98397827 14.86211300 244 254 255
246150.62500000 3357422.76052856 15.21776485 53 89 115
246148.78491211 3357422.74600220 15.19792461 253 253 251
246142.23937988 3357423.50518799 15.47350883 179 185 185
246141.84680176 3357422.78317261 14.84722137 165 149 152
246144.22229004 3357422.79501343 15.63914204 54 64 74
246150.42895508 3357423.36157227 15.39410400 223 247 249
246149.64038086 3357422.57495117 15.08966064 127 82 87
246150.87634277 3357422.45153809 15.03719902 200 201 203
246149.55651855 3357423.68533325 15.43667126 253 251 252
246146.60070801 3357424.06579590 14.13334560 70 75 71
246142.54919434 3357422.63189697 15.48803997 203 199 200
246148.51318359 3357422.85894775 15.18452740 255 254 253
246144.66650391 3357424.03991699 15.25178337 61 75 78
246152.81933594 3357423.91317749 14.03621769 94 94 86
246143.03356934 3357423.17675781 15.65215111 61 70 87
246146.60827637 3357424.20812988 14.10368729 70 74 73
246151.93005371 3357423.65286255 14.83818436 223 241 253
246150.58666992 3357422.44674683 15.04460812 255 252 247
246146.35485840 3357423.24426270 14.67516327 52 55 62
246148.02453613 3357424.11874390 14.42579365 115 113 101
246148.09655762 3357423.74438477 14.97997093 254 254 252
246144.35595703 3357422.72109985 15.45869827 12 21 26
246142.44201660 3357423.72589111 15.57825375 80 86 100
246152.26843262 3357423.17199707 14.72300625 210 234 246
246144.86853027 3357424.14727783 15.18995571 28 39 43
246151.40417480 3357424.10766602 14.74443531 30 38 41
246146.45568848 3357423.30102539 14.56712818 44 47 52
246146.59411621 3357423.24090576 14.44902802 51 52 56
246146.21044922 3357423.87054443 14.88393211 81 83 80
246142.42077637 3357423.93615723 15.47443104 22 33 37
246143.01879883 3357424.00741577 14.59508324 51 60 65
246152.01220703 3357422.47485352 14.75658894 225 238 244
246142.00244141 3357422.48535156 14.72449780 71 51 42
246152.10168457 3357424.11648560 14.48420715 49 58 57
246143.62988281 3357423.48275757 15.61084270 47 60 76
246149.07287598 3357423.99203491 15.37791443 233 226 220
246149.89733887 3357424.00817871 15.27021503 86 87 89
246143.91503906 3357422.66369629 15.48681641 16 20 23
246143.69958496 3357424.21728516 14.52681732 23 24 29
246147.78015137 3357424.19213867 14.26593304 61 61 51
246144.11352539 3357424.05285645 15.38252640 10 26 26
246146.56457520 3357422.81652832 14.27156067 63 64 68
246153.34265137 3357424.28311157 14.10476112 45 53 38
246148.32189941 3357423.97796631 15.05134583 250 252 251
246141.81164551 3357423.67864990 14.78985214 103 93 92
246141.97229004 3357423.89657593 14.93672943 136 56 67
246149.81945801 3357422.75598145 15.41529655 236 245 244
246149.10363770 3357423.47183228 15.40719604 255 254 255
246152.51342773 3357423.26522827 14.46169567 71 76 96
246145.66784668 3357423.19223022 14.93909168 62 71 86
246142.08410645 3357422.62927246 15.26527119 152 123 128
246143.46252441 3357422.56372070 15.46811676 25 26 28
246144.59289551 3357422.89093018 15.42093372 66 90 102
246149.92651367 3357423.15377808 15.46404266 62 81 98
246142.18054199 3357423.98931885 15.11633110 16 18 17
246148.74584961 3357423.66424561 15.15884304 40 42 41
246146.33166504 3357423.88723755 14.59533215 34 36 35
246150.83825684 3357423.20046997 15.07135391 38 86 126
246142.37817383 3357422.77438354 15.51991177 90 101 105
246145.62219238 3357423.21090698 14.95222569 65 74 89
246146.19384766 3357424.24023438 14.35435104 30 34 33
246151.39135742 3357423.31430054 15.00007248 246 250 251
246143.71826172 3357422.86569214 15.75501537 124 128 140
246148.51123047 3357423.30584717 15.09740829 68 66 67
246144.73620605 3357423.20797729 15.26055813 50 63 69
246148.96765137 3357423.23757935 15.36858273 219 221 220
246151.56433105 3357422.58349609 14.86438274 253 254 255
246147.89099121 3357423.34988403 14.58583546 251 251 251
246151.00146484 3357423.01428223 15.04842567 44 93 133
246143.36096191 3357423.69558716 15.67014599 56 63 79
246147.85900879 3357423.99563599 14.36522293 81 81 73
246143.89379883 3357423.95101929 15.68226814 170 179 188
246148.43847656 3357423.68835449 15.14780712 59 61 58
246152.60620117 3357423.86999512 14.09553242 63 62 67
246152.02551270 3357424.24978638 14.44648838 42 55 46
246147.98901367 3357423.02764893 14.78606796 255 255 253
246144.57824707 3357423.44247437 15.30198383 29 38 45
246142.13757324 3357422.46893311 15.16755962 79 14 22
246148.17138672 3357422.71145630 14.82321644 253 252 250
246151.19335938 3357422.81634521 15.01525307 24 54 80
246144.63391113 3357423.18002319 15.32175255 41 56 63
246152.49865723 3357423.25253296 14.29071903 127 131 143
246152.70288086 3357422.68902588 14.04656792 153 152 131
246149.14819336 3357422.48196411 14.59345436 241 243 240
246143.68334961 3357424.18487549 15.25749016 47 50 55
246151.54724121 3357422.28305054 14.53754044 88 93 87
246142.15808105 3357422.44689941 14.92550468 44 33 29
246142.48132324 3357423.12234497 15.60796452 92 106 117
246144.33923340 3357422.70126343 15.39307880 18 23 29
246151.42285156 3357423.72534180 14.98782635 245 249 252
246142.00390625 3357424.05859375 14.58397293 49 41 38
246149.88952637 3357424.12915039 15.04653168 152 150 155
246148.62341309 3357423.01577759 15.12398720 115 90 94
246148.69995117 3357422.51284790 14.35859585 161 162 156
246150.41711426 3357422.38095093 14.68559170 240 233 223
246151.46008301 3357423.67858887 14.97983742 240 248 251
246152.88745117 3357423.93786621 14.02629471 76 78 77
246142.51538086 3357423.51187134 15.57599449 81 94 111
246148.36328125 3357423.60644531 15.15501022 215 217 214
246146.49011230 3357423.03588867 14.49561119 47 48 52
246151.81030273 3357423.75216675 14.87558270 225 244 251
246144.09094238 3357423.49957275 15.62685871 48 65 83
246144.38793945 3357422.60040283 15.24603844 74 83 82
246141.92321777 3357422.58282471 14.81316853 90 75 70
246145.37426758 3357423.73742676 14.99225807 90 99 116
246151.58618164 3357422.33767700 14.75936031 247 255 255
246144.86645508 3357423.22671509 15.26043415 30 40 41
246148.12414551 3357424.04458618 14.80524921 242 243 238
246149.59289551 3357424.15115356 15.09058189 164 167 150
246145.08959961 3357424.27416992 14.51824474 25 29 30
246146.64843750 3357423.85348511 14.18873692 62 66 67
246142.92675781 3357422.39129639 14.76200008 27 27 25
246145.52539063 3357422.91088867 15.03175831 61 70 85
246151.29821777 3357423.94046021 14.96429729 228 233 236
246148.66601563 3357423.68640137 15.13567924 44 46 43
246150.33032227 3357422.38888550 14.53012085 234 231 222
246148.12194824 3357424.08496094 14.72025299 254 253 251
246144.11914063 3357423.03302002 15.66410542 44 57 73
246148.29040527 3357424.20611572 14.75937843 227 223 220
246141.83435059 3357422.44134521 14.21320343 186 156 106
246148.18737793 3357423.96789551 14.98844147 246 246 244
246143.36291504 3357423.21591187 15.66335869 56 65 80
246149.73974609 3357422.64321899 15.24006939 41 46 49
246149.23889160 3357422.82925415 15.37772751 253 255 254
246153.03283691 3357423.72546387 14.05848026 77 82 85
246146.18566895 3357424.22271729 14.38816833 30 34 35
246152.16003418 3357422.33908081 14.42376518 157 161 164
246146.45300293 3357422.89270020 14.40869617 52 53 58
246142.09875488 3357423.03533936 15.34514999 221 222 227
246141.93701172 3357422.90292358 15.20845604 238 222 225
246142.43408203 3357422.43487549 14.86974335 34 33 29
246146.59069824 3357423.67776489 14.37505913 55 56 60
246142.11206055 3357422.45205688 14.91371632 58 38 31
246150.59838867 3357422.36468506 14.51345730 237 233 224
246148.15942383 3357423.20016479 15.07925797 253 253 253
246150.91809082 3357423.94494629 15.06535435 143 150 156
246151.05993652 3357422.31155396 14.44509602 231 231 219
246151.39599609 3357422.29602051 14.64729500 186 191 194
246145.09106445 3357424.20321655 14.81597328 18 32 33
246144.19201660 3357423.26974487 15.60569477 39 55 71
246142.85522461 3357422.37942505 14.92558670 31 29 30
246149.02563477 3357423.39828491 15.39471531 254 255 255
246144.44250488 3357423.25750732 15.43180466 53 65 77
246150.37109375 3357422.38177490 14.47498798 233 233 225
246143.01135254 3357424.13345337 14.91062737 84 88 91
246141.94970703 3357423.92626953 14.80115700 62 38 34
246149.35925293 3357424.09048462 15.28726101 106 106 98
246142.60351563 3357422.43969727 15.20246029 32 32 32
246143.23156738 3357422.48782349 15.25390625 29 30 34
246148.75451660 3357422.53219604 14.60637283 107 109 104
246146.29382324 3357423.67111206 14.83595943 33 34 36
246144.29797363 3357422.50140381 15.18083763 22 23 27
246144.11596680 3357422.75775146 15.69115734 80 90 100
246144.24108887 3357423.45281982 15.57958508 39 52 69
246147.90637207 3357423.22543335 14.59715843 255 255 255
246151.74645996 3357423.54006958 14.90352535 234 249 254
246142.24658203 3357424.01239014 15.14153957 10 14 15
246148.17065430 3357424.16906738 14.69407368 251 251 251
246148.69934082 3357423.52569580 15.08460903 44 46 45
246149.09533691 3357423.50372314 15.40657616 253 253 251
246145.88439941 3357423.64257813 14.85464096 48 54 66
246143.88354492 3357424.04614258 15.55062199 2 26 26
246151.82910156 3357422.31015015 14.69673538 189 204 201
246149.30639648 3357422.65579224 15.15108109 65 41 39
246149.83996582 3357423.08312988 15.47439766 85 106 109
246146.61657715 3357423.84417725 14.22127819 61 65 68
246143.24328613 3357424.14508057 14.79804420 13 22 21
246149.87512207 3357422.85864258 15.45267010 244 248 247
246152.04309082 3357422.32894897 14.71131706 140 155 162
246149.44177246 3357423.98919678 15.34478951 195 196 190
246152.42944336 3357422.62246704 14.23634815 39 42 47
246143.85815430 3357424.23699951 14.72782421 17 20 25
246151.08862305 3357423.15628052 15.02729702 45 100 139
246145.05322266 3357424.32946777 14.41222954 33 35 34
246146.63854980 3357423.03567505 14.36175632 59 58 64
246143.19213867 3357422.60208130 15.51467133 24 25 30
246151.60278320 3357423.87429810 14.91655350 234 248 255
246145.45898438 3357423.01348877 15.03908348 77 87 99
246141.79516602 3357422.83056641 14.64487171 159 140 125
246143.43261719 3357424.17764282 14.50526428 23 29 29
246146.69653320 3357422.85562134 14.21087456 74 76 75
246142.80029297 3357423.98941040 15.55836201 14 23 30
246146.15722656 3357423.82531738 14.86774731 69 75 75
246146.14331055 3357423.30023193 14.90008259 33 37 40
246152.25646973 3357422.92971802 14.73648834 211 235 245
246151.68969727 3357422.68218994 14.84316635 250 255 255
246149.73254395 3357423.80761719 15.43900585 248 250 247
246151.62036133 3357424.20330811 14.59314156 53 64 60
246148.03344727 3357423.81741333 14.82129765 251 253 252
246141.96496582 3357422.86337280 15.21586704 241 216 222
246143.43884277 3357423.65905762 15.65397835 50 62 76
246145.92614746 3357423.68563843 14.84119987 39 46 56
246148.88635254 3357423.37796021 15.27668667 30 31 33
246142.22143555 3357422.44506836 15.00799179 27 23 24
246146.58483887 3357424.12832642 14.11867905 71 73 70
246150.04919434 3357424.07391357 15.13768005 47 46 51
246149.70190430 3357423.39743042 15.46752644 247 249 246
246150.54248047 3357422.37536621 14.67292595 239 230 223
246148.22668457 3357422.85067749 15.08425331 255 255 255
246142.58117676 3357422.45242310 15.22451591 29 30 32
246150.62939453 3357422.84725952 15.22923279 55 99 128
246143.25231934 3357422.81939697 15.75313187 221 227 243
246142.13037109 3357422.71322632 15.31429577 207 218 224
246150.33203125 3357423.61102295 15.40614605 235 243 245
246152.94897461 3357423.65942383 14.03532696 68 72 73
246142.05212402 3357422.89093018 15.28468323 234 229 233
246152.18579102 3357423.97994995 14.56929111 57 71 74
246144.50561523 3357424.24298096 14.67192745 19 27 29
246146.36865234 3357424.07470703 14.20168400 51 55 56
246143.06604004 3357423.56228638 15.62361813 71 83 97
246149.47900391 3357423.95239258 15.36442375 213 212 207
246150.59826660 3357422.53192139 15.17254353 124 129 125
246145.69421387 3357423.73617554 14.88155460 33 40 56
246144.67358398 3357424.25598145 14.67289925 23 29 29
246142.31396484 3357422.43994141 14.98932457 30 29 34
246144.30554199 3357423.36618042 15.54170704 36 50 63
246150.71643066 3357422.37533569 14.78822517 239 232 224
246148.84753418 3357422.56637573 14.88609409 253 255 252
246146.19458008 3357424.08413696 14.62047100 37 42 38
246143.73217773 3357423.38067627 15.60269737 47 60 76
246142.50854492 3357422.41430664 14.61860466 97 88 83
246148.61840820 3357423.66165161 15.12335968 40 42 41
246143.25207520 3357424.36065674 14.33129978 73 73 65
246143.59631348 3357424.15304565 15.29824734 20 24 27
246142.64794922 3357424.07403564 15.06864738 23 26 31
246143.05908203 3357422.39651489 14.69454288 31 31 29
246142.82946777 3357424.34405518 14.32813549 58 65 57
246143.36425781 3357423.97698975 15.69029903 107 124 131
246142.39331055 3357424.03094482 14.99128151 33 32 38
246146.20031738 3357423.71948242 14.93464661 66 65 70
246148.77612305 3357423.03781128 15.19157028 77 57 58
246145.61669922 3357423.01461792 14.98433971 64 71 87
246145.19897461 3357422.62454224 15.04831791 26 33 39
246145.79284668 3357423.57681274 14.87666893 63 73 85
246142.68469238 3357424.06753540 14.50472450 92 96 97
246148.46850586 3357423.43493652 15.13362694 62 64 61
246142.02526855 3357423.93524170 14.84333611 66 10 21
246151.03942871 3357422.72644043 15.04524803 75 120 153
246146.67663574 3357423.96240234 14.15090656 75 77 76
246144.00085449 3357422.74258423 15.69145489 66 76 85
246150.01354980 3357422.38217163 14.37871075 205 205 197
246141.88061523 3357422.64855957 14.65045357 107 88 74
246143.20068359 3357424.16708374 15.22103119 39 40 44
246143.21740723 3357424.16516113 14.44878674 29 35 35
246145.17431641 3357423.77212524 15.13972187 23 31 42
246142.05114746 3357422.46273804 14.70630550 77 57 46
246143.66723633 3357424.04010010 15.56059361 9 24 27
246149.95397949 3357423.81533813 15.40758896 241 242 246
246146.18798828 3357423.05395508 14.88366222 67 66 71
246144.60095215 3357422.50433350 15.25183392 29 33 36
246143.19763184 3357424.15475464 14.82938004 13 23 22
246149.91809082 3357422.44918823 14.81269264 243 240 235
246149.25976563 3357422.52502441 14.90510178 255 252 247
246152.21191406 3357423.98361206 14.46786690 38 52 53
246151.75463867 3357423.07962036 14.89039803 242 254 252
246148.08032227 3357422.77783203 14.75674057 254 253 251
246152.91479492 3357423.25479126 14.03446007 71 75 74
246152.04565430 3357423.84780884 14.79138947 204 227 243
246142.27722168 3357423.67504883 15.46583366 134 136 133
246151.66430664 3357422.42205811 14.78211308 250 254 255
246145.76647949 3357422.64001465 14.90495872 25 30 34
246142.88415527 3357423.97454834 14.62543011 70 78 81
246141.86718750 3357422.74713135 14.95896816 123 109 108
246146.20776367 3357423.33267212 14.92757225 102 103 107
246144.20910645 3357423.63269043 15.54238033 42 58 71
246146.08801270 3357423.60824585 14.84155464 39 38 44
246148.36840820 3357423.95565796 15.08683491 250 252 251
246142.57812500 3357423.53567505 15.60756969 71 87 103
246152.53051758 3357423.29507446 14.61674595 13 22 39
246147.99401855 3357423.57385254 14.85995293 250 252 249
246142.32690430 3357423.96978760 15.37775517 31 40 39
246149.00842285 3357422.54159546 14.90425777 254 255 250
246150.30371094 3357423.89056396 15.31879234 171 180 185
246150.23474121 3357423.69326782 15.41320324 123 124 128
246146.88476563 3357422.99621582 14.16451931 79 81 80
246148.13623047 3357423.62536621 15.03456020 253 255 254
246144.30273438 3357422.58666992 15.25123787 70 79 78
246146.74743652 3357423.93963623 14.14721394 70 74 73
246149.76831055 3357424.06246948 15.19486332 85 87 86
246142.52294922 3357424.29260254 14.37311745 66 66 64
246142.64392090 3357423.32495117 15.66036510 78 90 104
246145.40112305 3357422.69757080 15.00374222 33 43 53
246148.32604980 3357423.86059570 15.09525967 252 252 252
246146.28894043 3357424.34399414 14.29918098 60 62 57
246149.93945313 3357422.89108276 15.46305561 224 223 221
246143.32141113 3357422.49868774 15.29098701 72 76 77
246143.62451172 3357423.15707397 15.66404724 52 64 78
246151.37487793 3357423.46481323 15.00130081 153 153 161
246142.67626953 3357424.08544922 14.49568844 92 96 97
246148.31274414 3357422.62780762 14.67354965 254 253 248
246143.95507813 3357423.92727661 15.66110897 151 159 170
246152.76098633 3357424.08700562 14.07662010 69 74 77
246148.33166504 3357423.39364624 15.16987514 226 225 221
246143.89184570 3357422.50479126 15.22292423 52 53 57
246150.80688477 3357422.36788940 14.72584343 245 238 228
246152.48400879 3357422.85049438 14.66069412 28 37 66
246149.04968262 3357423.33383179 15.40313053 255 255 255
246150.83166504 3357424.04541016 15.05601501 113 125 137
246149.66625977 3357422.46951294 14.67434502 244 237 231
246146.31433105 3357423.64611816 14.77480888 55 56 60
246150.17456055 3357422.41403198 14.83584976 248 239 234
246152.44519043 3357423.49972534 14.66572762 213 233 244
246146.31384277 3357423.36181641 14.78893661 31 34 41
246142.70007324 3357424.12954712 14.45316410 113 119 119
246150.57470703 3357423.16735840 15.31940460 35 63 87
246148.56689453 3357423.05291748 15.11994743 70 56 56
246141.74572754 3357423.32797241 14.65982723 107 105 93
246152.94201660 3357424.09725952 14.06573868 70 74 77
246142.73181152 3357422.48025513 15.25764179 27 27 27
246145.86279297 3357424.13046265 14.83166695 5 9 10
246149.69030762 3357422.98031616 15.46007347 243 248 244
246147.91455078 3357423.23788452 14.63189125 255 255 255
246142.84997559 3357422.38851929 14.81985664 28 26 27
246146.67272949 3357423.06240845 14.33651447 62 62 64
246148.71533203 3357422.73803711 15.16311646 252 254 253
246153.10156250 3357423.80294800 14.03389072 83 84 86
246150.06494141 3357423.50109863 15.44098949 64 68 80
246145.47937012 3357424.08822632 14.82493591 29 40 46
246153.02050781 3357424.02352905 14.03311348 80 86 86
246141.88549805 3357423.82266235 14.88087368 108 79 81
246144.74304199 3357423.09161377 15.28451443 76 91 98
246150.21716309 3357424.07595825 15.07531738 73 73 81
246142.05578613 3357423.99029541 14.66501522 35 33 34
246146.06579590 3357422.78265381 14.89167023 158 164 178
246148.38476563 3357423.32962036 15.16712284 154 154 152
246143.16052246 3357422.44747925 15.19313622 19 20 25
246148.30834961 3357422.62661743 14.65177536 254 254 246
246150.07165527 3357423.49264526 15.44061375 64 68 80
246142.71997070 3357422.60751343 15.45512867 26 27 29
246146.22143555 3357422.82098389 14.70398712 25 30 34
246142.22106934 3357424.10574341 14.49514580 45 44 40
246146.02795410 3357424.25604248 14.71191406 30 42 32
246148.77563477 3357422.53195190 14.54382801 99 100 95
246142.43127441 3357423.60778809 15.56416035 72 84 100
246142.22827148 3357423.28485107 15.48774529 185 196 198
246148.43127441 3357423.44183350 15.15517998 73 75 72
246151.69421387 3357422.47177124 14.79121208 247 253 253
246150.34912109 3357423.09182739 15.41756058 235 246 242
246141.80749512 3357423.59902954 14.88350487 110 102 99
246145.38195801 3357423.87988281 14.96097279 27 35 48
246146.16638184 3357423.65493774 14.90504551 41 42 47
246144.51464844 3357423.31854248 15.36008453 35 48 56
246141.79187012 3357422.94503784 14.71797657 80 69 63
246145.38916016 3357423.91238403 14.94965744 31 41 53
246151.23779297 3357422.84933472 15.01094627 35 48 65
246142.44384766 3357422.75805664 15.56541824 95 110 113
246146.18603516 3357422.77752686 14.68006134 31 36 40
246142.86169434 3357423.48132324 15.66541004 69 82 98
246141.75646973 3357422.80136108 14.39217854 148 128 103
246152.79895020 3357424.07916260 14.07188034 70 74 77
246149.14880371 3357423.16574097 15.43942070 255 255 255
246150.35693359 3357422.38436890 14.78075027 239 236 227
246148.80334473 3357422.53100586 14.49314117 94 95 90
246144.24731445 3357423.82290649 15.46375942 35 51 66
246153.07421875 3357423.33645630 14.07855034 77 81 82
246143.45092773 3357422.85656738 15.76948833 106 112 124
246144.44738770 3357423.29254150 15.42920780 48 62 73
246148.73498535 3357422.92361450 15.24084854 232 213 215
246142.61743164 3357424.07696533 15.29673100 95 100 103
246151.36621094 3357422.29702759 14.62831497 206 210 211
246151.61608887 3357423.75686646 14.93103886 231 244 250
246144.14355469 3357423.90243530 15.55119038 37 53 66
246143.35327148 3357424.10156250 15.34988785 13 22 21
246150.68115234 3357423.71926880 15.20624924 61 92 120
246142.20947266 3357423.99191284 14.99512577 24 25 27
246150.33068848 3357423.00161743 15.42055702 238 247 244
246145.21923828 3357424.18588257 14.72533226 26 36 38
246142.99304199 3357423.34503174 15.64429951 62 74 88
246151.89013672 3357423.11004639 14.84148979 235 249 252
246151.31604004 3357423.91351318 14.97197533 244 249 252
246152.34948730 3357423.91259766 14.28379059 29 38 45
246149.01721191 3357422.55068970 14.92823124 254 253 249
246141.96777344 3357422.64926147 15.13351345 200 62 95
246143.91162109 3357423.91696167 15.67171097 154 161 171
246143.73645020 3357423.83129883 15.65706730 67 73 87
246145.27600098 3357424.18231201 14.67112255 19 27 30
246143.95153809 3357423.64990234 15.59022236 37 49 65
246151.47436523 3357422.73223877 14.91436005 255 255 255
246143.61914063 3357422.54370117 15.32202625 89 90 94
246143.40002441 3357422.86236572 15.76042557 115 119 131
246149.09594727 3357422.78170776 15.31361389 251 255 255
246143.08837891 3357422.37280273 15.03996181 22 23 27
246143.15747070 3357424.23562622 14.36677456 45 50 46
246146.31042480 3357423.27014160 14.82641411 29 32 37
246142.14526367 3357423.29342651 15.40074730 197 208 210
246152.57446289 3357422.83212280 14.11485100 50 55 49
246148.96618652 3357422.51361084 14.75692940 249 249 247
246152.16992188 3357422.99560547 14.73717880 216 238 249
246147.94348145 3357423.66131592 14.71120071 253 255 252
246143.32751465 3357422.82876587 15.76344204 164 166 179
246146.16345215 3357422.77767944 14.73092556 25 30 36
246149.76538086 3357423.28106689 15.47992325 228 242 242
246144.55590820 3357422.82656860 15.45091820 80 106 119
246152.33557129 3357423.41809082 14.71586037 199 223 235
246152.34729004 3357422.60891724 14.60082340 168 185 192
246150.61999512 3357422.50515747 15.13851547 102 104 103
246150.38525391 3357423.35531616 15.41002178 228 242 243
246149.09155273 3357422.55181885 14.94336319 251 253 248
246152.39526367 3357424.04559326 14.18391609 49 50 54
246144.95507813 3357422.87341309 15.24958801 60 69 74
246146.19006348 3357424.05038452 14.72680283 35 40 36
246146.30432129 3357423.91036987 14.64168739 31 33 32
246147.97509766 3357423.11840820 14.81170845 255 255 253
246141.82556152 3357422.52691650 14.26281452 163 138 107
246142.39746094 3357422.47351074 15.26489162 24 25 27
246151.65759277 3357422.73281860 14.86063957 250 254 255
246142.95800781 3357423.17660522 15.67299652 61 73 87
246151.40075684 3357423.14343262 14.99828053 241 245 248
246150.19201660 3357422.53216553 15.12368965 59 38 35
246142.78479004 3357424.09353638 15.06758785 20 24 25
246145.78540039 3357422.98049927 14.93076801 57 67 79
246143.55651855 3357424.15795898 15.28128719 22 26 27
246143.03906250 3357424.12280273 14.39612961 38 43 46
246146.16833496 3357423.27517700 14.91622448 45 45 47
246145.52697754 3357423.89514160 14.89939594 33 41 52
246143.01086426 3357422.49169922 15.30431271 67 66 71
246142.04650879 3357424.11865234 14.51688194 91 82 75
246142.70776367 3357424.06924438 15.02115917 17 22 25
246151.77673340 3357422.29046631 14.68541336 227 242 237
246152.35778809 3357423.10403442 14.72521496 205 229 239
246144.44775391 3357424.23846436 14.51023388 20 25 28
246143.01220703 3357424.27624512 14.34070587 53 58 54
246144.65380859 3357424.08731079 15.25155640 30 43 49
246148.70422363 3357422.53509521 14.64197063 124 125 120
246143.64550781 3357422.83218384 15.77181625 171 178 188
246152.03918457 3357424.25134277 14.43485641 47 58 50
246150.53112793 3357422.63989258 15.28816795 98 109 115
246149.32629395 3357422.83810425 15.40086079 252 254 253
246152.45202637 3357423.26983643 14.70440102 216 238 252
246142.11083984 3357422.43768311 14.50583935 134 114 89
246150.75476074 3357422.42004395 15.01511765 121 121 119
246142.17211914 3357423.79666138 15.32896614 197 203 199
246142.66333008 3357422.80352783 15.68759727 241 245 254
246150.95776367 3357424.13388062 14.92328644 37 45 48
246143.64831543 3357423.36013794 15.61665249 43 59 72
246144.46728516 3357422.55599976 15.25704575 65 70 73
246143.27490234 3357424.28549194 14.36906242 53 54 49
246149.28649902 3357423.94100952 15.38348007 231 223 220
246152.25732422 3357423.02365112 14.73132515 212 239 250
246149.87866211 3357422.76330566 15.42376041 241 246 249
246152.26306152 3357422.33276367 14.20386028 47 51 50
246141.78820801 3357423.25451660 14.82009697 112 113 107
246148.18591309 3357423.45529175 15.07092953 255 255 253
246150.53979492 3357424.01443481 15.14188099 46 47 52
246150.33361816 3357423.52069092 15.41214275 238 248 249
246145.75061035 3357423.69378662 14.87251377 35 44 59
246142.11389160 3357423.95104980 14.72576618 35 24 28
246144.04125977 3357422.59628296 15.34885025 23 27 30
246148.69287109 3357423.52035522 15.08213997 43 45 44
246151.41882324 3357423.63150024 14.99387836 248 251 255
246147.92724609 3357423.98388672 14.40065289 148 149 143
246144.91162109 3357423.07083130 15.26161766 36 41 44
246142.14440918 3357423.95370483 14.76606750 30 21 24
246150.64196777 3357422.37213135 14.57138538 235 231 220
246142.43505859 3357422.58578491 15.41134834 50 46 47
246149.55981445 3357424.06512451 15.22945786 103 105 91
246152.74804688 3357424.13949585 14.09316158 58 63 66
246152.35510254 3357423.87481689 14.30001259 43 52 61
246149.27099609 3357423.53842163 15.43396568 252 252 250
246145.47656250 3357423.60412598 14.96040535 88 99 117
246144.53332520 3357423.48638916 15.34876347 43 52 59
246145.21398926 3357423.12631226 15.16989040 58 68 78
246143.90319824 3357422.75488281 15.72618198 97 109 121
246145.85583496 3357423.19140625 14.87328243 62 70 83
246152.59509277 3357423.34274292 14.13003731 48 52 51
246149.91955566 3357422.89550781 15.46245289 198 198 198
246142.61669922 3357422.42041016 15.06506348 33 33 31
246143.10998535 3357422.76953125 15.72600937 193 205 221
246152.19213867 3357422.64782715 14.73216057 208 228 237
246148.66967773 3357422.98135376 15.16560268 176 151 155
246147.80883789 3357424.00741577 14.34917545 82 82 74
246142.21276855 3357422.49792480 15.24101162 28 12 12
246148.61181641 3357422.53637695 14.49121952 81 82 76
246142.01977539 3357423.06967163 15.31260490 226 221 225
246150.01806641 3357423.92178345 15.34509754 210 212 211
246151.86059570 3357424.03927612 14.71281910 157 174 182
246149.17358398 3357422.47824097 14.56201744 240 245 239
246147.54382324 3357424.31573486 14.21242809 72 72 62
246149.19836426 3357422.74969482 15.28572845 114 123 128
246143.89587402 3357423.38430786 15.61446762 34 50 65
246151.18395996 3357423.92758179 14.99153805 92 97 101
246145.26965332 3357423.16250610 15.12814045 53 61 74
246149.66833496 3357423.04541016 15.47114468 246 250 249
246142.72326660 3357422.40087891 14.86579514 46 40 42
246148.67810059 3357422.53424072 14.44640636 113 114 109
246145.17565918 3357423.03643799 15.18807983 56 64 75
246141.93579102 3357423.87823486 14.92664433 127 50 60
246152.97387695 3357423.95788574 14.02430725 82 88 88
246146.20593262 3357423.93331909 14.84056854 81 85 84
246152.94567871 3357422.98410034 14.04043007 71 72 74
246150.40429688 3357422.51135254 15.10877800 50 36 36
246144.86047363 3357423.08432007 15.27021599 45 55 57
246142.96032715 3357424.09753418 15.31736851 24 27 32
246151.21179199 3357422.28918457 14.38842392 78 75 66
246142.06811523 3357422.40441895 14.28775787 174 139 101
246142.12011719 3357422.97653198 15.34157658 223 224 229
246152.26684570 3357422.50756836 14.63932037 160 178 188
246146.10046387 3357423.91116333 14.83940220 29 33 32
246150.09655762 3357423.09384155 15.44410706 60 67 75
246150.36389160 3357423.97509766 15.21535015 122 129 135
246152.89855957 3357423.65209961 14.01262951 68 70 67
246143.31823730 3357424.17950439 15.17819405 34 35 39
246143.09020996 3357423.91857910 15.67810440 125 138 147
246150.31604004 3357423.03912354 15.42160416 240 246 244
246145.33703613 3357424.18740845 14.63863373 17 25 28
246149.77392578 3357423.16754150 15.48200989 228 240 240
246142.22619629 3357423.28540039 15.48573589 185 196 198
246149.59802246 3357424.12448120 15.12664032 166 169 152
246141.82299805 3357422.98092651 14.95247746 153 152 148
246149.87084961 3357423.02899170 15.47087002 58 73 78
246141.89074707 3357423.74887085 15.04071712 120 91 95
246143.05590820 3357423.74169922 15.66050243 84 92 105
246149.27038574 3357422.46520996 14.48458481 230 230 228
246146.20373535 3357423.98272705 14.80957222 56 62 58
246143.95947266 3357422.68539429 15.51635361 17 22 25
246148.20996094 3357423.31253052 15.09888077 254 254 254
246152.34741211 3357422.52795410 14.43559170 116 123 131
246150.06311035 3357422.86477661 15.44981194 237 237 237
246149.44128418 3357422.49234009 14.80050755 250 247 240
246151.98791504 3357423.19454956 14.80850315 228 245 253
246145.09887695 3357423.36920166 15.21973705 35 44 49
246145.79626465 3357422.76998901 14.95565987 60 66 78
246151.33935547 3357423.33471680 15.00520039 86 89 96
246141.89050293 3357423.55493164 15.20050621 152 148 145
246144.60449219 3357422.64984131 15.31840420 31 38 44
246152.13647461 3357423.87500000 14.73493958 195 216 233
246151.55895996 3357422.26937866 14.63431168 136 145 142
246141.94213867 3357423.72973633 15.20162964 147 135 137
246148.96862793 3357423.13796997 15.36761284 233 233 231
246144.71801758 3357422.51712036 15.15641880 23 27 30
246149.47827148 3357422.99404907 15.46634102 253 255 254
246150.86315918 3357423.49774170 15.05643654 51 103 143
246149.57043457 3357422.49411011 14.86177158 255 254 249
246149.32580566 3357423.50622559 15.44162464 252 254 253
246152.72216797 3357422.74545288 14.04646587 152 150 127
246142.18493652 3357422.46008301 15.13523960 35 15 16
246142.14514160 3357423.15908813 15.39263725 198 214 214
246142.73107910 3357423.95727539 15.57904625 52 66 75
246141.80859375 3357423.60534668 14.87397289 110 102 99
246150.68518066 3357424.00177002 15.16787624 80 79 87
246145.32336426 3357422.85443115 15.10924339 51 59 70
246149.67810059 3357422.76681519 15.40506172 219 229 230
246146.01928711 3357424.27566528 14.68881321 17 30 21
246144.53991699 3357423.60394287 15.33992195 62 71 76
246145.21899414 3357423.99987793 15.05235386 32 42 51
246144.18994141 3357424.06277466 15.35522938 8 24 23
246144.40551758 3357424.11791992 15.28481007 7 17 19
246149.34167480 3357422.63027954 15.11940384 100 68 69
246146.67907715 3357423.87469482 14.17551327 70 74 75
246148.92553711 3357423.05218506 15.34909248 116 110 110
246150.69421387 3357423.29071045 15.20399570 24 57 90
246152.10424805 3357423.80273438 14.78565502 194 215 232
246148.84191895 3357423.52346802 15.23299694 59 61 60
246150.42578125 3357423.76672363 15.37011909 219 242 250
246142.78759766 3357423.22714233 15.72046375 73 81 94
246141.80029297 3357423.05383301 14.79750252 76 75 70
246144.02368164 3357423.71224976 15.60223198 31 44 63
246145.74914551 3357423.35388184 14.88894844 64 71 87
246151.29882813 3357423.01409912 15.00718975 116 113 120
246142.44653320 3357423.72790527 15.58094597 74 81 97
246150.37805176 3357423.71362305 15.38658619 222 241 247
246149.00524902 3357423.41091919 15.38459873 251 253 252
246150.55187988 3357422.37762451 14.83561611 241 236 230
246153.07202148 3357423.65966797 14.09360504 73 77 78
246142.20239258 3357424.03869629 14.59377098 30 32 31
246143.96215820 3357424.25921631 14.55996799 18 26 28
246146.73132324 3357423.75369263 14.21440125 60 66 66
246149.83459473 3357422.54974365 15.08865070 100 69 66
246142.82397461 3357423.64202881 15.68547821 80 94 105
246146.48461914 3357424.13705444 14.14360809 63 67 66
246151.50256348 3357422.38967896 14.81115437 253 255 254
246152.36035156 3357422.67306519 14.63382530 198 213 220
246150.56091309 3357422.36688232 14.50425911 238 234 225
246144.50744629 3357423.84271240 15.32936001 39 52 61
246150.59960938 3357422.60614014 15.23846722 187 200 209
246143.58239746 3357424.01409912 15.64916611 39 59 66
246142.12780762 3357423.70236206 15.33482838 204 206 205
246152.23718262 3357422.46279907 14.64512920 121 139 149
246148.96887207 3357422.81005859 15.30804920 254 254 254
246148.29553223 3357424.00820923 15.02160168 250 252 251
246143.19738770 3357422.70806885 15.66876316 70 86 102
246142.62597656 3357423.18261719 15.66999722 82 96 109
246151.69616699 3357422.86959839 14.87267780 251 255 254
246149.31506348 3357423.27404785 15.44560528 255 255 255
246142.86230469 3357424.11608887 15.28006935 85 83 88
246145.13830566 3357424.30334473 14.47332287 23 24 26
246149.66992188 3357423.32125854 15.47397900 244 246 245
246149.21154785 3357422.55477905 14.96517181 254 255 250
246143.73645020 3357423.03924561 15.69150448 52 62 74
246150.06359863 3357423.63720703 15.43391228 45 53 64
246145.09082031 3357424.23831177 14.63720322 27 32 35
246146.17749023 3357424.10913086 14.64416790 35 41 37
246146.27307129 3357424.27871704 14.25347614 35 37 34
246145.98486328 3357423.66000366 14.84509182 39 42 51
246152.03857422 3357423.93740845 14.75029087 197 216 231
246148.84143066 3357422.52838135 14.48592663 127 128 123
246143.29431152 3357422.43362427 15.10764599 28 29 31
246146.51147461 3357423.37109375 14.53155327 46 47 51
246148.57250977 3357423.66400146 15.12701130 45 45 43
246145.79895020 3357423.19525146 14.89266014 58 67 82
246146.19213867 3357424.08850098 14.61884689 37 42 38
246145.17761230 3357422.69851685 15.14142418 39 47 58
246148.66198730 3357424.09851074 15.13816071 151 150 130
246151.10925293 3357422.51409912 14.99782276 186 187 191
246152.87121582 3357423.86398315 14.02803516 95 96 90
246141.96130371 3357422.74453735 15.14997768 198 115 133
246145.77832031 3357422.81213379 14.95239162 58 64 80
246149.11230469 3357422.44467163 14.40037346 53 52 48
246144.60192871 3357423.62905884 15.30209637 28 39 41
246149.16223145 3357422.47607422 14.50458050 237 242 238
246148.57092285 3357422.54711914 14.63337421 129 130 124
246151.56335449 3357423.51962280 14.95927811 241 251 253
246145.80432129 3357424.25741577 14.69744968 14 22 24
246148.65148926 3357424.09985352 15.13308239 151 150 130
246142.41455078 3357422.43719482 15.10255146 29 31 30
246142.15551758 3357422.46423340 15.13870621 46 12 13
246150.60351563 3357423.06555176 15.29222202 64 96 119
246149.50073242 3357423.51571655 15.44716644 250 250 248
246142.05004883 3357423.10208130 15.33647346 233 231 236
246150.56347656 3357422.37347412 14.70952129 241 231 222
246146.32214355 3357423.94314575 14.38581276 39 43 44
246150.84545898 3357422.37924194 14.79498005 249 242 236
246149.57238770 3357423.93850708 15.36356831 231 232 226
246152.07861328 3357424.23089600 14.41929913 45 55 47
246150.79211426 3357423.43774414 15.09185982 32 77 119
246148.94653320 3357423.83361816 15.32897663 28 30 29
246142.28283691 3357422.76367188 15.44347858 168 179 183
246143.57617188 3357422.70501709 15.67798042 18 27 32
246150.84277344 3357422.39495850 14.93888569 255 254 250
246151.72241211 3357423.41720581 14.91203213 235 249 252
246145.12597656 3357424.30682373 14.46656513 23 24 26
246143.44348145 3357423.53237915 15.65632820 50 64 77
246142.66162109 3357423.10217285 15.67940712 84 96 108
246149.29858398 3357423.11471558 15.46533298 255 255 255
246151.01440430 3357424.05718994 14.93922138 198 201 206
246141.78747559 3357423.47982788 15.02543163 144 143 141
246143.87182617 3357424.12579346 15.32679367 14 24 25
246143.75463867 3357424.02249146 15.63089848 42 66 70
246143.01904297 3357422.49331665 15.30761528 67 66 71
246152.19921875 3357423.47222900 14.74077797 212 234 248
246150.63439941 3357422.82104492 15.22003841 56 100 129
246152.86096191 3357424.02252197 14.05099678 77 78 82
246150.16906738 3357423.41671753 15.43351269 59 54 61
246145.69030762 3357424.04016113 14.81634426 23 30 36
246148.43762207 3357423.69882202 15.15077972 59 61 58
246143.33056641 3357423.24127197 15.65515804 52 61 76
246143.03247070 3357422.36846924 14.90635967 33 34 36
246148.69665527 3357423.34411621 15.06124306 63 63 63
246141.86865234 3357423.37237549 15.21174908 176 183 176
246146.39855957 3357423.79437256 14.49219322 41 45 46
246142.77368164 3357423.51293945 15.67930794 78 90 104
246150.21679688 3357422.56057739 15.17980194 29 29 27
246150.68493652 3357422.37066650 14.59133053 238 231 221
246144.36584473 3357424.14016724 15.26901340 14 19 23
246149.21643066 3357423.47821045 15.42445087 253 252 248
246144.59765625 3357424.27520752 14.33919907 38 42 45
246148.28625488 3357424.21386719 14.73890781 234 230 227
246146.29602051 3357423.31036377 14.86817646 37 40 45
246145.98034668 3357423.24813843 14.83611202 53 60 68
246153.11206055 3357424.01727295 14.02349281 87 88 90
246152.57739258 3357423.20159912 14.14776993 42 48 44
246149.58435059 3357423.17330933 15.48139668 254 254 252
246148.30749512 3357422.61724854 14.58692837 254 254 246
246142.42724609 3357423.13372803 15.58860493 95 109 122
246149.97082520 3357423.95425415 15.31694603 112 114 113
246153.00976563 3357423.30859375 14.05951691 78 79 83
246152.22448730 3357424.21105957 14.26857567 65 71 67
246144.66748047 3357423.78430176 15.27624702 25 36 38
246148.08740234 3357423.54913330 14.99361706 254 254 254
246143.22119141 3357422.78948975 15.74504185 187 199 215
246143.91894531 3357423.69802856 15.58349419 50 62 78
246149.68750000 3357422.48190308 14.80508423 249 244 238
246149.35400391 3357424.08728027 15.29048634 106 106 98
246146.10839844 3357424.21795654 14.63435173 38 49 41
246144.63037109 3357422.78051758 15.39410496 41 58 66
246151.69470215 3357422.28350830 14.70688725 238 249 245
246148.96423340 3357423.51312256 15.34772682 140 142 139
246142.84375000 3357422.44873047 15.22141933 29 29 29
246151.71887207 3357422.91406250 14.87416935 247 255 255
246142.85729980 3357423.96469116 14.63131905 63 71 73
246142.79211426 3357423.92971802 14.69653988 25 29 30
246143.60070801 3357422.78207397 15.77507591 126 135 144
246143.68225098 3357422.71157837 15.67087555 20 31 35
246143.39123535 3357424.17764282 14.95879173 14 22 25
246148.78259277 3357423.04489136 15.19612217 77 57 58
246143.16857910 3357422.81802368 15.73704815 220 229 244
246142.01745605 3357422.77911377 15.22471142 221 206 211
246144.54125977 3357422.87063599 15.45696163 92 118 133
246151.48754883 3357422.88320923 14.93442535 255 255 255
246144.20642090 3357423.10919189 15.60394478 36 52 67
246152.73217773 3357423.57159424 14.02467537 159 153 129
246142.43127441 3357422.62750244 15.46117783 44 40 39
246146.11157227 3357423.72848511 14.84627056 29 30 35
246141.96032715 3357422.45098877 14.29924870 177 143 105
246144.48425293 3357423.28167725 15.38949776 49 63 72
246149.77722168 3357423.12661743 15.48169994 205 216 218
246143.23083496 3357422.47784424 15.22316360 21 22 26
246151.36779785 3357422.97302246 14.99884319 236 236 238
246150.24169922 3357423.30590820 15.42654037 213 209 210
246150.46960449 3357422.37915039 14.65807343 239 230 221
246143.30151367 3357423.92501831 15.69831562 186 195 200
246151.12390137 3357423.20431519 15.02563572 58 108 143
246152.38537598 3357423.78082275 14.31779766 91 101 111
246152.61718750 3357422.48428345 14.05727291 95 83 67
246151.65222168 3357422.29742432 14.28241444 116 112 103
246151.64758301 3357423.90222168 14.89592743 186 204 214
246152.52490234 3357423.71978760 14.14998531 48 53 57
246143.38378906 3357424.17510986 15.18250370 47 51 54
246148.90295410 3357423.96350098 15.29208183 46 48 45
246144.78930664 3357423.69940186 15.25976753 23 37 38
246150.46313477 3357423.07131958 15.37206173 112 144 155
246149.12573242 3357422.50762939 14.83984184 255 252 247
246148.83935547 3357423.65502930 15.25023556 55 57 56
246142.47473145 3357424.02612305 15.41640186 74 79 82
246142.34985352 3357424.29629517 14.33771229 84 80 71
246144.73535156 3357422.71768188 15.32288074 27 41 50
246152.47937012 3357422.83071899 14.57902813 28 38 63
246145.47265625 3357424.11560059 14.76389599 24 33 38
246143.50402832 3357424.06423950 15.47687531 15 26 28
246149.94055176 3357422.44177246 14.76384449 245 238 232
246144.14782715 3357424.04595947 15.49123859 13 31 35
246152.34362793 3357422.54849243 14.54175091 142 155 164
246149.49169922 3357422.49645996 14.86105537 253 252 247
246150.77111816 3357423.06149292 15.13940716 52 92 127
246146.17736816 3357422.77349854 14.68729496 31 36 40
246142.68884277 3357424.01809692 15.47377396 14 22 24
246148.33911133 3357422.72454834 15.04306316 253 253 251
246150.32751465 3357422.74166870 15.38027954 235 245 247
246143.58520508 3357424.32122803 14.38888359 41 45 44
246149.71716309 3357423.04458618 15.47145748 242 246 245
246146.68505859 3357423.73818970 14.25941372 56 60 61
246145.78442383 3357423.30426025 14.88080311 62 72 84
246151.00488281 3357422.32604980 14.50369644 238 234 223
246150.43664551 3357422.84329224 15.36767292 143 163 172
246142.90234375 3357423.96920776 15.60645390 30 47 57
246153.14526367 3357423.74639893 14.05917931 82 86 87
246147.91296387 3357423.68103027 14.59332466 215 214 212
246145.79150391 3357422.79916382 14.95413303 58 64 78
246146.06347656 3357423.96569824 14.82804585 22 27 30
246151.17797852 3357422.63128662 15.02019978 84 91 97
246142.07568359 3357422.44589233 14.40148926 151 125 98
246150.17102051 3357422.40237427 14.62956142 238 234 225
246152.23400879 3357422.48806763 14.65946198 149 167 177
246142.81469727 3357423.95150757 14.73315907 28 32 33
246145.58349609 3357422.69302368 14.95907307 48 60 74
246149.87487793 3357424.06362915 15.18421268 61 62 64
246142.76953125 3357423.95358276 14.63639736 58 62 65
246142.23974609 3357422.59576416 15.37096310 25 29 30
246152.47631836 3357422.63589478 14.18599987 38 41 46
246149.10668945 3357423.47662354 15.40774536 255 254 255
246153.02844238 3357423.75265503 14.04508877 76 82 82
246149.92187500 3357423.19464111 15.46449661 62 83 100
246145.49340820 3357422.83813477 15.04619408 67 75 88
246142.82958984 3357424.11172485 15.28678036 87 82 89
246152.26599121 3357423.74935913 14.67887592 183 204 221
246150.19628906 3357422.39849854 14.54678631 240 237 228
246144.20288086 3357423.83209229 15.49395752 35 51 66
246150.29577637 3357422.39126587 14.77427959 240 236 225
246145.78442383 3357424.26498413 14.65923595 13 21 23
246153.04418945 3357423.14965820 14.05730534 78 79 83
246142.01123047 3357423.40548706 15.30105686 218 218 216
246146.65722656 3357423.89968872 14.17169476 68 72 73
246143.89135742 3357422.44778442 15.12485695 135 139 140
246148.04614258 3357423.88540649 14.78425026 247 247 247
246142.17797852 3357424.19845581 14.40695477 104 94 85
246142.15148926 3357423.97888184 15.17200851 11 13 12
246149.45214844 3357422.48568726 14.73282146 247 244 237
246148.13024902 3357424.00390625 14.86987591 229 230 225
246146.42749023 3357423.75082397 14.48773956 46 50 51
246143.41979980 3357423.30053711 15.67102718 51 63 75
246143.15502930 3357424.25811768 14.35176468 53 54 49
246146.58337402 3357423.19744873 14.44899845 51 52 56
246148.98486328 3357423.60870361 15.35979080 194 196 191
246141.82934570 3357422.83172607 14.83704090 111 92 94
246146.00561523 3357424.23660278 14.77159691 49 62 53
246144.16210938 3357422.81008911 15.68549061 31 40 55
246145.66906738 3357423.00521851 14.96761322 59 68 83
246142.59204102 3357424.29385376 14.36196232 81 85 84
246144.32580566 3357422.77416992 15.54205799 37 50 59
246142.00451660 3357422.42532349 14.28804398 190 155 113
246151.04809570 3357423.96896362 14.98054123 155 163 166
246143.51367188 3357422.74441528 15.74382114 115 122 132
246151.73229980 3357424.06341553 14.72346878 124 137 145
246148.87792969 3357423.41281128 15.26168442 48 49 51
246149.57861328 3357422.46890259 14.63247299 243 236 230
246151.58825684 3357422.31488037 14.34074211 154 153 148
246146.78405762 3357424.08218384 14.11880875 71 71 71
246149.70129395 3357422.54730225 15.05264187 235 210 205
246152.15930176 3357422.41546631 14.69702148 193 211 221
246142.13427734 3357422.45153809 14.94394970 52 35 28
246148.80822754 3357423.32907104 15.15466404 38 38 40
246146.56628418 3357422.98901367 14.40597725 54 55 59
246151.57031250 3357423.63253784 14.95137310 237 251 254
246151.04541016 3357422.44769287 14.96830654 254 252 253
246152.48376465 3357423.44808960 14.65008545 150 164 173
246142.12280273 3357423.94955444 14.81021404 36 17 21
246144.74243164 3357423.76760864 15.25936222 20 32 32
246142.61462402 3357422.75122070 15.66890335 238 249 255
246145.24023438 3357424.13638306 14.91579533 28 41 47
246145.89050293 3357423.07650757 14.88988304 58 68 78
246152.83898926 3357423.46719360 14.00908947 106 104 89
246143.68493652 3357424.35949707 14.33820057 48 54 50
246145.41967773 3357423.56854248 14.97980022 79 87 106
246148.32006836 3357422.53356934 14.41603565 149 146 137
246148.40991211 3357422.85299683 15.14940834 255 255 253
246152.49169922 3357423.33694458 14.40852928 139 141 164
246150.69775391 3357422.32861328 14.43775749 238 240 229
246148.43493652 3357423.38510132 15.14709377 77 77 75
246152.22119141 3357422.35278320 14.27229214 126 136 137
246151.88427734 3357422.56820679 14.78491783 237 248 252
