246087.82336426 3357620.32489014 13.89385414 29 35 35
246089.47265625 3357620.00610352 13.35961437 62 70 73
246089.99829102 3357622.82586670 14.39304161 202 215 223
246087.91162109 3357620.63385010 13.99763584 35 43 45
246090.73791504 3357619.16729736 13.22744751 60 61 66
246088.96069336 3357622.70556641 15.86897182 26 33 26
246087.28222656 3357621.23522949 13.07635307 25 33 36
246091.50744629 3357622.47863770 13.78739452 214 227 233
246088.21936035 3357621.80432129 13.70695972 2 4 3
246089.13256836 3357619.27337646 14.64269829 29 33 34
246089.29321289 3357619.33184814 15.30693436 35 44 39
246090.38525391 3357622.41125488 14.04707813 27 48 75
246088.08703613 3357620.79931641 13.88960552 28 32 33
246091.41967773 3357623.44622803 13.84708214 227 247 248
246090.10571289 3357620.26141357 13.15079212 94 97 102
246088.29736328 3357619.85571289 14.18445873 49 50 52
246090.22570801 3357621.94097900 14.05334759 175 180 186
246090.71264648 3357621.92840576 13.81315899 174 191 198
246090.77453613 3357620.10925293 13.28638935 96 100 109
246087.81848145 3357621.08172607 13.16881561 27 33 33
246089.12182617 3357619.42126465 15.22180843 33 42 37
246091.73327637 3357621.99414063 13.23204231 46 42 30
246089.03552246 3357621.83715820 13.92687225 131 139 142
246088.27880859 3357620.86090088 13.73247337 10 14 15
246089.00122070 3357621.56262207 13.26678467 39 40 42
246090.50549316 3357623.13623047 15.04045486 32 42 31
246088.00646973 3357620.79235840 13.83337212 23 27 28
246091.77624512 3357622.11523438 13.34242630 145 151 149
246090.47717285 3357621.88610840 13.68159866 133 144 150
246087.59912109 3357621.97839355 13.91906071 80 82 79
246087.63024902 3357620.89288330 13.29393578 28 33 36
246089.86108398 3357622.96221924 14.45235729 183 188 194
246088.62719727 3357620.42938232 14.55646229 89 93 96
246090.50585938 3357623.11248779 15.11098385 16 28 18
246089.66931152 3357621.90600586 13.90106773 164 175 179
246090.71191406 3357619.86474609 13.23954868 115 122 128
246089.77001953 3357619.93865967 13.19019508 70 75 78
246090.36975098 3357619.41796875 13.20533752 125 129 132
246091.10937500 3357622.71685791 13.88814068 205 219 228
246087.74511719 3357620.68286133 13.70990372 27 32 35
246091.64416504 3357622.86883545 13.76437092 215 226 230
246087.14233398 3357621.73968506 13.21412754 40 41 43
246088.19018555 3357621.04571533 13.25438404 26 36 35
246089.09436035 3357619.55426025 14.59079742 80 82 81
246091.87524414 3357623.00952148 13.53152275 129 138 147
246087.55700684 3357622.03710938 13.99152851 57 57 55
246090.28918457 3357623.31860352 14.03053284 4 7 12
246089.48962402 3357622.81719971 14.52615166 1 9 12
246091.70068359 3357621.37750244 13.11748695 148 143 121
246090.47888184 3357619.65948486 13.21144009 68 75 83
246089.04821777 3357620.78814697 13.96627045 66 71 74
246090.99389648 3357620.68792725 13.43355942 38 41 46
246088.20080566 3357622.27856445 14.37637901 9 13 14
246091.46203613 3357619.24572754 13.32544231 67 72 76
246089.65612793 3357620.43603516 13.27041054 38 45 51
246088.12683105 3357620.91009521 13.44129276 31 36 39
246088.22521973 3357621.81561279 13.79992199 103 108 111
246091.07263184 3357621.29089355 13.12761116 147 136 118
246088.87329102 3357619.19250488 14.08597755 33 33 33
246089.23327637 3357622.48883057 14.59264851 178 192 201
246087.78039551 3357620.09924316 13.77522564 22 28 28
246091.30944824 3357620.78381348 13.31725025 17 18 22
246090.25390625 3357623.21606445 14.02292919 17 22 28
246090.98962402 3357620.70410156 13.42477131 38 41 46
246088.85534668 3357621.91790771 14.01967812 177 186 191
246091.11096191 3357622.82928467 13.88720608 206 221 228
246088.32604980 3357620.89227295 13.51422501 23 27 28
246088.07165527 3357621.83782959 13.87259483 116 122 122
246090.25866699 3357620.03906250 13.16917706 178 177 183
246089.54565430 3357619.95428467 13.29315090 61 66 69
246089.69262695 3357622.90826416 14.49277306 9 8 14
246090.50085449 3357619.64324951 13.21961880 72 81 86
246088.66748047 3357622.18872070 14.46091652 179 190 196
246090.48071289 3357619.50573730 13.23722744 70 78 81
246087.33850098 3357621.12500000 13.09631443 25 33 36
246090.50903320 3357620.93560791 13.14499378 40 49 56
246088.54223633 3357621.78924561 13.35285759 86 86 86
246087.32592773 3357621.70697021 13.21422958 34 35 37
246088.57946777 3357622.04034424 14.21272564 4 10 10
246090.13696289 3357620.64813232 13.13136196 124 127 136
246087.59777832 3357621.50152588 13.14043140 54 56 53
246087.66992188 3357622.34875488 14.15258026 164 173 172
246089.47961426 3357620.53668213 14.43833065 178 179 181
246091.52587891 3357623.03796387 13.81813717 212 221 228
246088.64965820 3357620.53753662 14.47361279 28 29 31
246088.10729980 3357621.05352783 13.24585152 23 32 31
246086.86730957 3357620.86669922 13.14572239 31 41 43
246089.73254395 3357621.96472168 14.03036404 166 174 177
246088.39733887 3357619.73376465 14.30523396 44 48 49
246091.40686035 3357619.45269775 13.61515045 83 90 98
246088.81591797 3357622.39794922 14.56274605 164 175 179
246088.48095703 3357621.82397461 13.62173748 18 19 21
246091.45458984 3357619.21337891 13.27976990 86 91 94
246087.49670410 3357620.99926758 13.16406441 27 32 35
246088.79821777 3357622.33538818 14.56755543 163 177 180
246088.67126465 3357621.53979492 13.13165951 22 21 16
246088.64416504 3357620.71948242 14.16650963 33 37 40
246087.86474609 3357621.94885254 13.99502087 130 135 138
246088.87402344 3357619.87792969 14.53736496 79 84 90
246090.63916016 3357620.49499512 13.30886269 94 97 102
246088.86364746 3357621.02081299 13.11777687 31 41 43
246089.27197266 3357622.25390625 14.51347542 189 200 206
246088.00683594 3357621.31353760 13.06199551 30 34 33
246091.60656738 3357623.62713623 13.29926205 56 66 68
246088.77941895 3357619.49554443 14.72168827 22 24 23
246089.40563965 3357621.65380859 13.43755817 37 37 37
246090.88916016 3357621.49627686 13.15211868 39 41 40
246089.56933594 3357620.37805176 14.30585289 173 182 189
246088.37207031 3357622.63592529 14.45451736 4 4 4
246090.18811035 3357622.66735840 14.16002655 31 43 55
246088.44702148 3357619.73107910 14.35494232 42 46 47
246090.30273438 3357620.13262939 13.17782021 211 209 212
246090.91186523 3357621.07257080 13.21659470 42 43 48
246089.15600586 3357619.09008789 13.47064590 43 57 58
246090.61621094 3357619.45336914 13.27585506 61 71 73
246089.19287109 3357619.86224365 13.67078876 105 108 113
246090.28381348 3357619.38531494 13.18378067 126 130 133
246089.10229492 3357622.01123047 14.12217617 0 4 3
246089.50207520 3357619.76873779 14.12639046 148 155 161
246090.62292480 3357622.25738525 14.05747795 26 38 52
246087.59558105 3357622.02783203 13.98859406 128 130 127
246087.73535156 3357620.67742920 13.70251083 27 32 35
246089.36389160 3357620.07904053 13.90756226 148 161 170
246089.46459961 3357621.88861084 13.94317722 159 170 174
246091.37622070 3357623.14862061 13.86258221 217 225 227
246088.95800781 3357619.28735352 14.00007248 51 53 50
246090.75134277 3357620.97753906 13.21329403 47 50 55
246089.76232910 3357621.96820068 14.02867603 168 173 177
246091.29931641 3357622.23461914 13.89006901 212 222 231
246088.71691895 3357619.56579590 14.63072968 80 82 81
246087.97424316 3357620.12579346 13.95792675 34 36 35
246090.96289063 3357622.19250488 13.95370102 204 218 227
246090.08850098 3357623.03271484 14.17191124 8 13 19
246087.34008789 3357620.51831055 13.36752415 22 32 31
246090.51745605 3357623.11712646 15.12146187 27 39 29
246087.56506348 3357620.05010986 13.63525581 27 31 32
246091.50964355 3357619.72912598 13.48402786 95 104 111
246089.25854492 3357620.23565674 13.76296711 82 94 106
246091.38659668 3357622.80249023 13.83642101 216 227 233
246087.01440430 3357621.10241699 13.09791088 32 40 43
246088.18664551 3357620.65234375 14.17611885 1 3 2
246089.03454590 3357619.47326660 13.50384903 49 53 54
246088.46105957 3357619.89038086 14.36218834 40 41 43
246090.88220215 3357620.89227295 13.30303669 33 36 43
246089.51159668 3357619.99597168 13.31867504 59 67 69
246089.28161621 3357621.76898193 13.65595531 127 135 137
246090.91442871 3357622.04553223 13.90066051 202 217 224
246089.36804199 3357620.47302246 14.50552177 140 141 143
246089.53393555 3357619.83190918 14.47341919 174 175 180
246089.82934570 3357621.08996582 13.13454247 79 84 87
246091.36828613 3357622.32122803 13.86269093 214 224 233
246088.26306152 3357620.55560303 14.27306461 0 0 2
246089.59960938 3357620.28082275 13.31202126 77 85 87
246089.80114746 3357619.96887207 13.18814468 73 81 83
246087.67553711 3357619.87200928 13.65151978 28 34 34
246089.05310059 3357620.53955078 13.36586857 46 57 59
246088.77172852 3357622.92321777 14.48842335 145 154 159
246087.69116211 3357621.62927246 13.19476032 28 29 31
246089.63696289 3357621.45281982 13.15096092 44 43 39
246089.95239258 3357622.50634766 14.40584469 196 216 223
246089.17504883 3357620.77008057 13.96195698 66 74 77
246090.54882813 3357619.26263428 13.21565437 40 47 53
246090.23461914 3357619.85754395 13.17434311 118 123 129
246090.02050781 3357621.75775146 13.45477295 93 97 100
246090.33203125 3357620.34350586 13.18764591 174 174 176
246087.95458984 3357620.83343506 13.55588531 39 43 46
246088.63598633 3357621.80657959 13.45006657 22 24 23
246089.15441895 3357622.75836182 14.56679535 168 181 187
246088.24743652 3357619.69665527 14.15523815 53 57 56
246089.18432617 3357622.16143799 14.34366512 65 73 76
246091.34948730 3357619.27862549 13.39754581 80 85 89
246089.16235352 3357621.50640869 13.26040554 43 43 45
246088.28027344 3357620.87286377 13.62545395 16 20 21
246089.30847168 3357619.78857422 14.54384327 28 32 35
246089.52770996 3357621.71813965 13.52714348 69 70 72
246090.08251953 3357621.58184814 13.15368366 38 44 44
246089.14648438 3357620.75122070 13.17181301 32 41 46
246090.68066406 3357621.60699463 13.18237209 36 41 37
246087.51232910 3357621.92211914 13.52799034 26 26 26
246088.60266113 3357620.91943359 13.31211948 26 30 31
246090.32714844 3357622.11114502 14.07156754 187 196 205
246090.48217773 3357620.52319336 13.22985172 78 81 86
246090.98278809 3357622.14471436 13.93519497 205 219 228
246087.12744141 3357620.61401367 13.19396305 31 39 41
246089.45727539 3357620.01000977 13.37995815 62 70 73
246089.09631348 3357619.30426025 14.67562008 30 34 33
246090.77050781 3357619.10247803 13.20334053 41 44 49
246088.46850586 3357621.70617676 13.21924019 35 36 38
246089.34765625 3357620.09149170 14.54710579 13 21 24
246090.84497070 3357621.83911133 13.44005775 79 82 89
246089.09265137 3357620.71655273 13.19208336 31 41 43
246090.95922852 3357621.74859619 13.24562550 30 31 33
246089.97412109 3357621.76116943 13.53132725 120 125 129
246089.88122559 3357621.79492188 13.59725857 135 138 143
246087.99072266 3357621.85260010 13.86158943 110 114 115
246090.06958008 3357620.66528320 13.13638878 75 80 84
246090.26916504 3357620.11669922 13.16963291 199 197 202
246087.76770020 3357621.89306641 13.81589794 112 114 113
246089.88330078 3357622.81286621 14.46060944 203 208 214
246088.52783203 3357621.81719971 13.73120499 25 29 30
246089.36279297 3357621.52709961 13.29471779 45 46 48
246089.86730957 3357621.83337402 13.67006969 112 120 123
246087.61975098 3357620.69836426 13.50469208 17 23 23
246091.50402832 3357619.86151123 13.44767284 80 91 97
246091.44470215 3357621.64123535 13.18171692 53 57 60
246086.88781738 3357621.61529541 13.27460098 27 32 35
246088.74182129 3357622.09393311 14.15510750 2 6 7
246091.28820801 3357622.30303955 13.88099384 210 223 231
246088.38342285 3357622.53350830 14.46167564 12 13 15
246090.74438477 3357621.98712158 13.87353134 198 213 218
246087.75683594 3357621.86944580 13.50010967 26 28 27
246090.26440430 3357621.70129395 13.15797424 83 83 81
246090.02893066 3357622.46569824 14.31534004 38 56 68
246088.97351074 3357621.58630371 13.28865147 42 43 45
246090.22949219 3357620.09460449 13.17104530 189 188 193
246089.16088867 3357622.49505615 14.60020256 171 185 194
246091.46582031 3357623.23413086 13.83397198 218 228 227
246090.04174805 3357620.02728271 13.17444324 70 78 80
246090.58508301 3357619.31140137 13.23936081 37 45 48
246089.91564941 3357619.99389648 13.18189430 65 75 76
246091.56762695 3357621.93255615 13.43961811 173 178 182
246088.80175781 3357622.16479492 14.29703522 26 34 37
246088.93151855 3357619.97534180 14.54665852 50 57 65
246091.10021973 3357619.74194336 13.41837788 108 117 124
246091.11572266 3357620.09490967 13.39493561 123 134 140
246089.75219727 3357622.47991943 14.47723484 2 3 7
246090.68090820 3357619.48760986 13.29060650 64 72 75
246088.20300293 3357621.80316162 13.33889771 30 31 33
246088.48852539 3357621.85717773 13.93629837 155 163 166
246088.60644531 3357619.58190918 14.53958321 57 59 58
246090.09008789 3357621.74597168 13.24206066 53 53 53
246087.26892090 3357621.87152100 13.31538391 36 36 38
246089.40905762 3357621.97265625 14.11529636 12 13 17
246087.46704102 3357621.90521240 13.43609619 25 26 28
246089.17651367 3357621.64709473 13.43652534 29 29 29
246087.74841309 3357620.36853027 13.82543850 31 35 36
246089.99255371 3357621.73223877 13.38191223 41 45 46
246089.31774902 3357620.29968262 14.54819679 12 16 19
246089.48559570 3357619.93768311 14.07567120 166 176 186
246089.32836914 3357620.43151855 13.36869240 71 81 83
246089.14929199 3357621.55139160 13.30150509 35 34 39
246089.11718750 3357622.74145508 14.56470299 170 181 185
246089.13464355 3357620.25653076 13.56380272 113 122 127
246090.16906738 3357621.27453613 13.11140442 79 82 89
246089.93469238 3357621.27917480 13.12032986 95 98 91
246090.06469727 3357621.91455078 14.07826138 201 208 214
246091.17712402 3357620.75683594 13.39640331 39 38 44
246089.30932617 3357619.71697998 13.36649132 56 64 66
246090.80187988 3357622.41735840 14.05369473 126 135 142
246090.47399902 3357620.81762695 13.16021919 47 54 60
246088.64624023 3357620.84234619 13.85922813 26 30 31
246089.87487793 3357620.82641602 13.15515327 64 72 75
246088.31933594 3357621.16033936 13.16839314 27 33 31
246088.23571777 3357619.96490479 14.16128159 55 56 58
246088.77929688 3357621.81616211 13.82467175 130 135 139
246090.46166992 3357622.64038086 14.02368069 33 56 74
246088.80529785 3357621.49731445 13.15164948 45 44 40
246089.49462891 3357621.13964844 13.10468769 40 48 51
246087.08862305 3357622.01831055 13.47521877 25 25 25
246088.92846680 3357621.22723389 13.08291149 43 48 44
246090.56689453 3357620.49084473 13.27188587 97 98 103
246087.48388672 3357620.84680176 13.28737068 27 32 35
246088.61303711 3357620.97949219 13.21878815 27 33 31
246089.85192871 3357623.10510254 14.47796154 186 193 199
246089.67956543 3357619.28527832 13.18350029 94 108 109
246090.76452637 3357621.86334229 13.44264126 16 21 25
246088.82458496 3357622.42535400 14.56078053 164 175 179
246088.07873535 3357619.79534912 13.92718220 24 28 29
246089.58618164 3357620.21832275 13.31916523 57 65 68
246091.10571289 3357621.39843750 13.13273907 101 96 77
246091.62304688 3357621.61791992 13.14884377 68 65 58
246090.39660645 3357622.15093994 14.06459141 72 82 92
246088.18688965 3357619.64782715 14.07937622 49 53 52
246090.49841309 3357620.52105713 13.23695850 78 81 86
246091.17187500 3357621.03942871 13.24604130 37 42 46
246091.10876465 3357621.76043701 13.21263123 32 36 39
246089.43420410 3357621.84838867 13.83795547 131 140 145
246087.92968750 3357622.21911621 14.26978493 28 32 35
246091.18481445 3357620.93377686 13.30007648 33 33 41
246089.46887207 3357619.18151855 13.23229885 91 103 103
246088.03234863 3357621.97747803 14.09179497 165 174 173
246087.62426758 3357621.69281006 13.23558617 31 35 36
246091.11169434 3357621.86840820 13.52534485 65 70 74
246087.74841309 3357622.80493164 14.29580975 115 125 124
246088.97998047 3357619.28900146 13.93576622 51 53 50
246090.63867188 3357619.10540771 13.18111610 50 57 63
246088.02563477 3357621.83264160 13.45624924 13 19 19
246091.70141602 3357622.13690186 13.68202400 157 164 172
246089.55944824 3357619.75006104 14.35241032 180 187 193
246090.81506348 3357620.69500732 13.39285946 46 50 53
246091.02612305 3357623.09844971 13.92851257 201 211 220
246091.14123535 3357622.21716309 13.92653179 208 220 232
246088.80126953 3357619.97363281 14.54409122 77 81 90
246089.54406738 3357619.75500488 14.39142227 177 184 190
246088.04431152 3357621.10650635 13.19226551 29 38 37
246089.13769531 3357620.76818848 14.00669003 67 77 79
246090.31774902 3357621.61083984 13.12264061 76 76 74
246091.30944824 3357619.35992432 13.51327324 66 73 79
246088.91723633 3357620.52618408 14.50758934 81 86 89
246089.54687500 3357620.34197998 14.42559147 177 180 185
246091.15466309 3357621.91290283 13.78556156 214 225 231
246090.90600586 3357620.61474609 13.41317654 65 70 76
246088.72106934 3357620.54089355 14.48723221 27 31 30
246089.30871582 3357621.23858643 13.09542561 38 46 48
246090.95080566 3357620.04254150 13.32524204 105 114 121
246089.05090332 3357619.33300781 13.98364544 25 27 24
246090.24670410 3357620.28179932 13.16987705 164 159 163
246088.87512207 3357619.43811035 14.86059380 26 30 29
246089.48242188 3357619.70300293 14.13019657 136 141 147
246088.91174316 3357619.24560547 13.94495201 49 51 50
246089.22070313 3357621.72662354 13.59589577 94 98 99
246091.76928711 3357622.51989746 13.69445515 91 101 110
246089.87878418 3357622.05963135 14.20256805 8 11 16
246091.01647949 3357619.30676270 13.28915215 79 84 90
246088.17016602 3357620.24658203 14.21926975 47 49 48
246089.34521484 3357620.91882324 13.10918331 55 64 69
246089.58679199 3357622.24255371 14.45715141 208 217 226
246088.28564453 3357619.76165771 14.17673397 43 47 48
246087.91601563 3357621.46875000 13.11756706 61 66 62
246090.53601074 3357620.16870117 13.24335861 103 102 107
246090.64428711 3357623.34783936 14.01503563 30 34 37
246090.14343262 3357620.36163330 13.15590572 119 120 125
246089.37817383 3357619.86871338 13.93209457 140 149 156
246088.90222168 3357622.20416260 14.30456257 30 38 41
246088.69030762 3357622.13427734 14.29103565 17 25 28
246087.56408691 3357621.96191406 13.84728813 108 108 108
246089.49023438 3357621.81793213 13.70344925 100 107 113
246090.41687012 3357621.86083984 13.35248089 84 88 91
246088.38610840 3357621.78961182 13.32269287 67 69 68
246091.55456543 3357619.36853027 13.34854507 45 54 59
246088.99987793 3357619.92718506 14.54455376 27 36 41
246089.23364258 3357619.32458496 14.41036701 10 11 13
246090.72143555 3357623.00195313 13.98393250 8 17 24
246087.55041504 3357621.96649170 13.84891510 108 108 108
246089.64611816 3357621.37762451 13.11762142 110 109 107
246088.33374023 3357621.43865967 13.10381413 69 70 64
246089.85375977 3357622.10015869 14.23962688 5 6 11
246090.48669434 3357621.77984619 13.20679188 43 47 48
246089.20629883 3357620.53186035 13.68279266 82 96 107
246089.82800293 3357620.42303467 13.18971252 57 65 67
246087.38208008 3357620.72259521 13.28195572 29 37 39
246087.52294922 3357620.08648682 13.60477543 32 36 39
246091.73803711 3357619.73681641 13.29326057 38 46 49
246088.73669434 3357620.69665527 14.21924305 16 21 25
246088.49658203 3357620.89306641 13.51087284 23 27 28
246090.07812500 3357621.75805664 13.38809204 36 37 39
246088.47460938 3357620.26385498 14.47923851 65 66 70
246091.72607422 3357622.44262695 13.71061707 127 140 148
246089.83288574 3357620.33520508 13.19658947 62 72 73
246087.77685547 3357621.29266357 13.07473278 28 33 29
246090.99145508 3357620.25531006 13.36582184 102 111 116
246090.60278320 3357622.21978760 14.05034351 28 40 56
246089.75219727 3357622.90393066 14.48356819 5 6 10
246089.39331055 3357620.62280273 13.99427605 31 37 37
246090.70373535 3357623.40771484 14.04033184 160 164 165
246090.65209961 3357620.16522217 13.26921082 84 84 92
246091.34606934 3357623.24566650 13.87015724 223 232 231
246091.63452148 3357621.95111084 13.35542583 156 157 161
246089.91613770 3357621.80694580 13.62849808 122 129 135
246088.73461914 3357621.76733398 13.44974518 7 8 10
246090.14379883 3357621.36334229 13.10868263 76 80 81
246089.19226074 3357619.56011963 15.47679043 32 43 37
246087.22082520 3357620.79907227 13.16208839 26 34 36
246088.44042969 3357621.57690430 13.14345074 28 28 26
246088.44360352 3357621.74780273 13.24828053 19 20 22
246088.88867188 3357622.54705811 14.55576801 162 177 184
246089.74670410 3357620.41455078 13.22258282 22 30 33
246091.57995605 3357623.51623535 13.64074326 127 139 151
246087.86486816 3357620.68017578 13.89807034 36 44 46
246091.70788574 3357620.54132080 13.15754032 127 122 102
246090.20361328 3357622.60131836 14.13466358 14 30 46
246090.07666016 3357622.59655762 14.28468609 88 101 110
246091.55578613 3357621.72979736 13.18729019 64 68 71
246088.08386230 3357620.26757813 14.13538742 41 45 46
246087.35961914 3357620.96368408 13.15858459 30 35 39
246087.88537598 3357620.42523193 13.99597740 15 21 21
246087.61022949 3357621.90551758 13.60537815 52 52 54
246090.74792480 3357622.16033936 14.01442814 192 202 211
246089.51940918 3357619.37414551 13.20822716 96 107 109
246091.18469238 3357619.16223145 13.21834850 84 91 97
246091.45178223 3357620.87188721 13.20822334 48 52 53
246088.88073730 3357622.61596680 14.54643917 162 177 182
246091.81787109 3357622.31011963 13.48087025 127 140 148
246089.81506348 3357622.37084961 14.43507767 196 204 207
246090.50439453 3357619.82220459 13.19274902 77 82 88
246089.35229492 3357619.75073242 13.93599033 133 136 141
246091.91442871 3357622.71313477 13.39613342 94 104 113
246091.23254395 3357623.42840576 13.91177750 205 223 223
246091.24548340 3357620.51409912 13.41501045 79 81 93
246089.40795898 3357622.67553711 14.55200863 101 110 115
246088.04504395 3357619.95941162 13.95552254 40 42 41
246089.24584961 3357619.53076172 14.55411720 96 97 99
246091.45861816 3357622.45440674 13.81286621 213 226 232
246090.93554688 3357619.73114014 13.32938671 93 102 111
246090.39746094 3357622.35864258 14.05093575 28 48 73
246090.30480957 3357622.31353760 14.07311535 18 37 54
246090.71020508 3357621.79455566 13.28837109 25 26 31
246090.98022461 3357619.99804688 13.33139706 107 116 125
246089.32250977 3357619.38293457 15.49562931 34 45 37
246087.86743164 3357619.75323486 13.70709038 48 50 47
246089.71911621 3357621.93188477 13.94964314 195 204 209
246089.57812500 3357620.25506592 14.23630238 128 141 149
246087.75439453 3357621.03649902 13.19540596 27 36 33
246088.62402344 3357620.16015625 14.52255344 64 65 70
246091.51745605 3357622.37609863 13.80748653 216 227 231
246090.49157715 3357621.06457520 13.11562538 39 48 55
246088.41345215 3357621.59277344 13.15580082 24 25 20
246087.89807129 3357622.27899170 14.26547909 30 34 37
246088.97277832 3357620.47589111 14.54510880 98 101 106
246088.15954590 3357622.68328857 14.39932346 11 15 16
246091.42333984 3357620.47052002 13.38675117 26 31 34
246091.06921387 3357622.21459961 13.94215584 206 218 230
246089.94519043 3357621.87481689 13.87206936 156 167 173
246089.65844727 3357621.55877686 13.24252701 45 46 48
246090.73522949 3357620.45953369 13.33822727 77 82 85
246090.38781738 3357622.43469238 14.04402542 27 51 77
246087.94177246 3357620.98858643 13.27444553 23 32 31
246091.78088379 3357623.34002686 13.41531467 87 92 98
246090.16418457 3357621.37988281 13.10783958 83 87 88
246090.09484863 3357621.83953857 13.86213303 149 160 164
246089.78344727 3357621.93713379 13.93572903 186 193 199
246091.63793945 3357622.07482910 13.73924446 164 171 179
246090.93212891 3357622.80718994 13.93962955 204 217 223
246091.44116211 3357620.03771973 13.43262196 105 115 124
246090.48767090 3357623.12304688 13.98111629 12 25 31
246089.27758789 3357619.47875977 14.00614357 11 15 14
246088.17248535 3357620.54705811 14.24040985 0 1 0
246090.83386230 3357623.14520264 14.03160000 214 215 217
246087.37512207 3357620.43927002 13.41653728 20 30 29
246090.99633789 3357623.30639648 13.97690296 205 213 215
246089.21020508 3357620.01727295 13.70088959 116 123 129
246091.10717773 3357622.94348145 13.89887619 204 219 226
246091.79174805 3357619.97155762 13.22216034 43 46 53
246091.63244629 3357621.84844971 13.20904636 51 51 49
246089.17810059 3357619.95098877 14.55105209 8 18 20
246089.49536133 3357620.42669678 13.34040260 67 75 78
246088.22888184 3357619.66601563 14.15001202 53 59 57
246091.57653809 3357622.36206055 13.78535557 214 228 231
246090.71679688 3357622.63702393 14.05417538 14 27 35
246090.64135742 3357623.10589600 13.99866581 18 29 35
246089.32202148 3357620.43084717 13.36983109 71 81 83
246089.53881836 3357619.24407959 13.20432186 95 106 108
246089.60778809 3357622.44061279 14.50653267 1 2 6
246088.54553223 3357620.41235352 14.53257179 94 95 97
246089.32666016 3357620.13189697 13.85510349 129 142 151
246091.69470215 3357619.29315186 13.22408295 60 67 73
246089.14501953 3357621.55163574 13.30021572 35 34 39
246090.71960449 3357622.39550781 14.06911278 13 25 37
246089.14770508 3357619.49658203 15.35542965 37 43 39
246091.69604492 3357620.71795654 13.15114403 140 132 109
246090.67224121 3357620.61828613 13.30718327 90 94 97
246088.07312012 3357620.22338867 14.10353470 42 43 45
246090.73510742 3357619.70660400 13.27350998 89 98 103
246090.77880859 3357620.48632813 13.35505199 74 79 82
246088.10546875 3357619.78924561 13.95473671 36 40 41
246089.99743652 3357620.78558350 13.14563942 65 70 74
246087.44665527 3357621.33251953 13.07242107 25 29 28
246091.30163574 3357623.59466553 13.92076397 47 61 64
246087.70593262 3357620.78845215 13.43692303 13 17 20
246088.80334473 3357620.73760986 14.15394974 43 47 50
246090.13793945 3357621.79510498 13.64302826 132 139 145
246091.32128906 3357622.00140381 13.86070156 216 226 235
246087.43286133 3357620.97631836 13.16724014 26 34 36
246089.58044434 3357622.24432373 14.45993042 208 217 226
246091.17993164 3357621.05438232 13.23686504 42 45 50
246091.55725098 3357619.47509766 13.44634342 55 63 66
246090.51049805 3357622.24884033 14.05152512 40 57 73
246088.21435547 3357622.26562500 14.37389469 10 14 15
246089.49853516 3357619.90277100 14.50621605 60 59 64
246091.77026367 3357622.15802002 13.48842335 131 138 144
246089.11413574 3357619.31207275 14.62996197 32 33 35
246089.45886230 3357619.80920410 14.05115318 148 155 161
246091.50805664 3357623.79791260 13.28418636 55 60 64
246089.44567871 3357619.41564941 13.21961021 92 104 102
246088.99645996 3357619.12432861 14.34185505 20 25 21
246088.21459961 3357619.63916016 14.14119434 53 57 56
246091.08581543 3357621.62695313 13.18511677 43 49 49
246089.55639648 3357622.28131104 14.49355221 202 211 218
246088.96350098 3357621.75732422 13.62637520 121 126 129
246090.87414551 3357620.78228760 13.36918163 34 39 43
246090.32250977 3357621.50866699 13.11503983 67 69 66
246087.21557617 3357620.83386230 13.15160179 26 34 37
246089.45605469 3357619.48425293 13.21919250 89 101 101
246091.45153809 3357621.86572266 13.37471199 168 171 176
246087.99682617 3357621.85156250 13.86305809 110 114 115
246091.60729980 3357622.42242432 13.75787830 211 225 228
246091.44458008 3357621.60913086 13.17937088 54 59 62
246090.44311523 3357621.87127686 13.40252876 133 138 142
246089.56188965 3357619.75201416 14.34791183 180 187 193
246091.03271484 3357623.19982910 13.96807861 211 215 218
246090.87023926 3357621.22570801 13.12685013 87 83 72
246086.84899902 3357621.45672607 13.22641087 23 29 29
246089.23608398 3357619.34179688 15.22518063 33 42 37
246089.14697266 3357620.41333008 13.40601540 94 104 106
246088.74926758 3357622.85101318 14.48978424 145 156 162
246089.03796387 3357623.01379395 14.52146435 156 167 171
246088.88415527 3357619.43347168 14.80553055 29 33 32
246091.40563965 3357623.60607910 13.80734444 85 103 107
246089.55603027 3357621.78692627 13.64179611 124 132 135
246088.94335938 3357619.22235107 13.79229164 66 68 63
246087.72851563 3357620.13580322 13.74478912 32 38 38
246089.08288574 3357621.20404053 13.08458328 45 53 55
246087.53149414 3357622.15393066 14.03538322 160 166 166
246091.71752930 3357621.57153320 13.12881470 135 134 114
246088.07922363 3357622.33911133 14.36778259 10 14 17
246089.25134277 3357620.69335938 14.12520123 20 26 26
246090.59741211 3357620.68109131 13.24133587 61 64 69
246087.75927734 3357620.67462158 13.74345112 27 32 35
246088.49853516 3357622.03381348 14.21000385 0 6 6
246091.37353516 3357620.46392822 13.40699005 37 42 46
246091.46203613 3357623.62725830 13.56611347 61 74 82
246090.47497559 3357619.97283936 13.18905735 92 91 96
246089.08081055 3357622.41973877 14.59916401 174 188 197
246089.70092773 3357622.33697510 14.47686481 184 187 192
246089.29528809 3357621.04742432 13.06802559 86 94 97
246091.62951660 3357621.99353027 13.54064274 186 191 197
246087.64562988 3357619.90814209 13.64820862 29 33 34
246090.94995117 3357623.23345947 13.98956490 206 210 213
246087.92712402 3357622.90710449 14.19550133 10 11 15
246089.31628418 3357622.17370605 14.42098045 90 101 105
246090.28894043 3357621.84100342 13.69749069 121 130 135
246091.66857910 3357621.40350342 13.12453651 90 87 70
246090.97277832 3357621.29364014 13.12091541 141 133 114
246087.29357910 3357620.51849365 13.32683372 23 33 32
246088.04150391 3357620.40264893 14.15142441 33 37 38
246089.19580078 3357620.18328857 13.52630138 108 113 116
246088.73815918 3357622.81738281 15.55851841 28 32 31
246088.51342773 3357620.90637207 13.41115570 11 15 16
246090.55017090 3357621.89794922 13.37652493 118 125 131
246090.59924316 3357623.14996338 15.05521297 31 41 32
246089.04150391 3357620.69451904 13.50979328 39 49 51
246089.26757813 3357619.62542725 13.35410786 52 61 60
246089.03625488 3357620.60992432 13.33947849 38 48 50
246090.32470703 3357621.90246582 13.94453907 142 151 158
246090.75732422 3357621.14776611 13.14793110 42 46 47
246091.51171875 3357623.63891602 13.39723206 58 69 73
246089.25524902 3357620.26965332 14.56184769 13 18 21
246088.08837891 3357622.92742920 14.24544716 9 10 12
246089.01855469 3357619.32556152 13.63681126 45 51 49
246088.19812012 3357620.52557373 14.26929188 9 11 10
246090.64453125 3357620.87249756 13.23576260 43 47 56
246090.20434570 3357621.83544922 13.95948982 163 176 184
246089.32031250 3357620.28991699 13.44071007 89 99 101
246091.14001465 3357621.88330078 13.76352024 204 213 220
246089.65441895 3357621.75543213 13.56267262 105 106 108
246091.13476563 3357619.58605957 13.44457912 92 99 107
246087.74353027 3357620.49334717 13.81443882 48 54 54
246087.86926270 3357619.56787109 13.67858124 54 56 51
246090.42236328 3357619.40875244 13.22249508 75 80 83
246090.03417969 3357621.10229492 13.12839890 55 64 71
246091.55712891 3357620.05743408 13.37363911 49 58 67
246088.40002441 3357620.84167480 13.91044617 30 32 31
246088.77954102 3357621.07312012 13.11729240 24 34 33
246090.43078613 3357619.19580078 13.17558479 38 46 57
246090.23730469 3357623.13500977 14.03135681 21 28 34
246090.62707520 3357619.79412842 13.22868156 88 96 99
246089.30541992 3357620.22290039 14.55293846 13 18 21
246091.52929688 3357622.82818604 13.79574299 216 227 233
246087.48547363 3357622.20678711 14.03674984 173 175 174
246089.96545410 3357619.75439453 13.19063282 70 80 81
246089.96765137 3357622.82739258 14.42138577 196 207 213
246091.16674805 3357622.60052490 13.88115692 208 221 230
246089.11291504 3357619.69293213 13.55183792 41 45 48
246088.35986328 3357622.81115723 14.44230461 4 4 4
246087.15917969 3357621.55273438 13.15336132 50 51 53
246090.71740723 3357622.07586670 13.97463703 206 219 227
246089.32116699 3357619.44049072 14.08297825 10 12 9
246090.49438477 3357619.23754883 13.19898510 42 49 57
246089.37268066 3357620.43133545 14.52401733 122 121 126
246087.40454102 3357621.60131836 13.17762089 29 31 30
246089.33886719 3357619.47735596 14.47438908 88 90 89
246089.21350098 3357619.80163574 13.72622681 45 46 48
246089.38366699 3357619.73370361 14.53834820 37 38 42
246088.28564453 3357621.81170654 13.69334602 6 10 9
246089.58007813 3357621.54803467 13.25395870 39 41 40
246089.50488281 3357619.05041504 13.24772644 46 61 66
246091.75952148 3357623.44946289 13.23248577 58 60 57
246089.20178223 3357620.47619629 13.67644596 76 94 104
246089.10107422 3357622.22656250 14.50499153 195 206 212
246089.23986816 3357621.51617432 13.29381275 36 37 39
246090.04956055 3357621.76806641 13.51447582 114 119 122
246089.02392578 3357619.12371826 14.37579727 19 24 20
246091.37072754 3357620.61926270 13.35654163 42 47 53
246087.61425781 3357621.92639160 13.74371624 102 102 102
246090.83520508 3357620.44598389 13.36102295 73 81 84
246091.26623535 3357622.49896240 13.85959530 213 223 232
246091.42919922 3357621.84008789 13.35849190 104 105 109
246090.63269043 3357623.37042236 14.01151657 27 32 35
246090.14208984 3357619.68621826 13.19350433 86 94 97
246089.26696777 3357619.68072510 13.85443401 12 14 13
246091.11279297 3357622.08532715 13.89779377 209 222 231
246091.85229492 3357623.11419678 13.47040653 88 91 98
246089.58703613 3357621.51318359 13.21616173 41 43 42
246090.60278320 3357622.05474854 13.98152924 209 216 226
246090.49365234 3357619.77075195 13.19795322 74 79 85
246086.88793945 3357621.47528076 13.20740032 26 32 32
246088.73828125 3357622.17431641 14.43274117 174 183 188
246087.66638184 3357622.07257080 14.02537251 166 170 169
246086.98498535 3357621.25262451 13.10387707 37 42 45
246089.11511230 3357620.34014893 13.54788017 120 131 137
246087.61840820 3357621.79791260 13.32553005 35 36 38
246087.36914063 3357621.64758301 13.19359303 28 29 31
246088.41918945 3357619.72802734 14.32824612 44 48 49
246089.54113770 3357620.13702393 13.34423542 53 62 67
246088.73156738 3357622.16583252 14.41198063 125 134 139
246089.04602051 3357621.76422119 13.65680027 121 126 129
246091.20153809 3357621.09027100 13.20953083 58 56 59
246087.92236328 3357619.74053955 13.75182819 40 42 41
246089.04504395 3357620.66851807 14.32287407 18 27 26
246089.20812988 3357621.68249512 13.51689053 26 26 26
246090.25585938 3357621.10644531 13.11604214 81 94 110
246089.42834473 3357620.12902832 14.53015423 13 12 17
246089.18249512 3357619.69610596 13.49208450 49 54 57
246088.10009766 3357620.84838867 13.65360451 24 28 29
246089.13488770 3357620.56500244 13.61243820 80 93 101
246087.39868164 3357620.77917480 13.27166557 27 35 37
246091.15161133 3357623.51727295 13.95478630 94 115 116
246088.87939453 3357622.19689941 14.45737553 189 198 205
246091.31591797 3357621.02099609 13.19254017 56 56 64
246091.88989258 3357622.98120117 13.49202061 71 81 91
246088.38903809 3357622.04803467 14.23251629 72 82 83
246090.38134766 3357622.98303223 14.00072956 23 37 46
246087.90954590 3357620.44110107 14.02593136 20 26 26
246091.41918945 3357619.28643799 13.38489151 85 93 96
246088.41528320 3357620.69934082 14.17469883 28 27 32
246088.35693359 3357621.61749268 13.16888809 33 33 31
246090.80334473 3357623.20349121 14.99951553 50 60 49
246091.46081543 3357621.89703369 13.55512333 189 192 197
246090.78491211 3357622.52124023 14.04176044 11 18 28
246091.16992188 3357621.68646240 13.19733238 45 53 56
246087.04260254 3357621.04760742 13.10022449 29 37 40
246091.59924316 3357619.97680664 13.34613132 57 66 75
246091.16528320 3357621.01593018 13.26057816 37 42 46
246089.63488770 3357619.40258789 13.19188118 89 103 103
246087.99633789 3357621.75122070 13.24100018 34 35 37
246088.19970703 3357620.33209229 14.27086830 35 36 38
246087.66809082 3357621.89605713 13.65692711 75 77 76
246091.36694336 3357620.04028320 13.44003773 111 121 130
246090.78466797 3357619.39074707 13.31341553 77 78 83
246091.06250000 3357623.49749756 13.97321796 133 153 154
246090.34667969 3357620.23034668 13.19489384 216 215 213
246086.85375977 3357621.01086426 13.14483070 31 36 39
246088.87536621 3357622.18359375 14.22652721 22 30 33
246089.01745605 3357621.27459717 13.08567142 50 52 47
246088.64172363 3357622.10040283 14.28671837 5 11 11
246088.49133301 3357619.55395508 14.47399712 62 64 61
246088.19152832 3357620.82122803 13.89662266 29 33 34
246089.54711914 3357621.88122559 13.88714981 129 140 146
246090.78454590 3357621.33599854 13.10827732 117 115 100
246089.02954102 3357622.97991943 14.52476978 155 168 174
246091.20666504 3357621.36718750 13.12750721 99 92 76
246090.45263672 3357621.87322998 13.41689682 133 138 142
246091.15380859 3357620.15228271 13.40908432 123 134 140
246090.27941895 3357621.83886719 13.70921421 123 134 140
246091.00573730 3357620.71362305 13.42140484 40 43 48
246090.41271973 3357621.84680176 13.29292393 44 48 49
246091.27929688 3357620.72149658 13.36275196 42 43 47
246088.29284668 3357621.81274414 13.68449879 11 15 14
246090.63427734 3357623.16381836 15.07138348 27 37 28
246090.63330078 3357622.54724121 14.04930973 38 57 74
246091.07019043 3357621.28424072 13.12913895 130 118 102
246088.76000977 3357621.58319092 13.20030975 28 29 31
246089.52868652 3357623.01110840 14.51407528 3 8 11
246091.65209961 3357623.35974121 13.72918987 177 190 199
246090.79089355 3357620.92858887 13.25184631 38 43 47
246088.70983887 3357621.79785156 13.60072422 22 22 24
246091.42639160 3357621.87164307 13.45802498 190 193 198
246091.74438477 3357619.29504395 13.20830536 63 70 76
246087.96276855 3357621.84478760 13.58048725 59 63 64
246090.11608887 3357620.30523682 13.15302849 92 95 102
246088.61328125 3357622.89086914 14.47241783 140 145 149
246089.17565918 3357619.19824219 13.40650558 51 61 63
246090.98120117 3357621.17706299 13.15223312 41 43 42
246089.70678711 3357621.92828369 13.94525337 181 190 195
246089.44665527 3357620.59106445 14.42172146 46 48 47
246087.07446289 3357621.38891602 13.11453056 36 42 42
246089.23803711 3357622.46917725 14.59352779 179 193 202
246088.26879883 3357621.00134277 13.30147552 29 35 35
246088.97937012 3357619.19128418 13.67583752 29 34 28
246088.58654785 3357622.27478027 14.46336174 168 179 183
246088.24963379 3357620.86694336 13.68188953 15 19 20
246088.61035156 3357621.80889893 13.56656647 16 18 17
246088.13586426 3357621.95660400 14.09096146 168 173 177
246087.30126953 3357620.96527100 13.14086628 29 34 38
246089.54394531 3357619.81829834 14.44798279 176 181 185
246091.86291504 3357622.66979980 13.60219193 184 200 216
246089.22277832 3357620.38171387 13.40720940 87 97 98
246089.27185059 3357620.10791016 13.78978443 127 137 147
246088.91528320 3357620.87957764 13.14833450 33 37 40
246089.17175293 3357619.80773926 14.54232597 19 24 28
246089.32214355 3357619.50933838 13.26622772 76 86 85
246091.25634766 3357620.20623779 13.42745304 49 58 63
246090.71997070 3357622.46044922 14.06522751 15 28 37
246089.12414551 3357620.11151123 14.56253624 8 17 22
246090.92626953 3357622.89971924 13.92962456 203 216 224
246088.88562012 3357620.74078369 13.38704872 30 38 40
246088.99853516 3357622.77355957 14.54507256 165 176 182
246089.92321777 3357620.67901611 13.14857578 64 69 73
246091.28796387 3357620.78576660 13.32586193 20 20 22
246089.66748047 3357622.17297363 14.35852051 33 44 46
246089.73828125 3357623.11383057 14.51127338 85 93 95
246089.07861328 3357621.72357178 13.56319046 80 81 83
246090.87573242 3357623.04937744 13.95335388 205 214 219
246089.92199707 3357621.86352539 13.79414272 137 147 156
246090.62670898 3357623.16265869 15.02822018 20 30 21
246089.82775879 3357620.30206299 13.20175076 61 71 72
246089.03784180 3357619.32476807 13.96942520 25 27 24
246087.23486328 3357620.26104736 13.31557465 28 40 38
246090.12036133 3357619.74407959 13.19136906 83 92 97
246091.38964844 3357621.23760986 13.14660549 148 136 120
246090.23840332 3357621.81951904 13.54946518 141 149 152
246087.90002441 3357620.66735840 13.95484829 59 67 69
246089.06726074 3357619.36053467 13.75244617 67 73 69
246089.80346680 3357622.09503174 14.23904324 7 8 13
246090.54711914 3357621.82495117 13.29572296 19 23 26
246087.05847168 3357621.83032227 13.28728485 38 42 43
246090.13244629 3357621.79150391 13.61116028 132 139 145
246089.76354980 3357622.05938721 14.19498634 4 7 12
246089.40454102 3357620.62420654 14.13634300 28 37 34
246088.38000488 3357622.09936523 14.28017426 167 177 179
246088.67004395 3357620.25549316 14.55157185 55 60 63
246091.39672852 3357622.82391357 13.83593178 215 226 232
246089.15502930 3357620.44415283 13.60946941 105 122 132
246088.11535645 3357621.26934814 13.09352779 25 29 28
246088.50329590 3357622.07366943 14.29943752 35 45 46
246088.39123535 3357621.94647217 14.06977558 172 181 186
246091.52453613 3357620.20526123 13.37218285 36 41 45
246091.09509277 3357620.17175293 13.39600658 124 133 138
246087.33923340 3357621.50665283 13.13508511 54 56 55
246088.99475098 3357619.36633301 14.81164551 27 31 30
246090.15893555 3357621.81207275 13.78516674 135 146 152
246090.98791504 3357623.38098145 13.97839165 195 209 210
246088.62048340 3357622.90039063 14.47271442 139 146 152
246087.71362305 3357620.20355225 13.73745060 25 31 31
246088.08789063 3357619.95501709 13.99693966 45 47 46
246090.31286621 3357621.83911133 13.51250267 143 146 153
246087.92321777 3357620.15832520 13.92080975 31 35 36
246089.42382813 3357620.03021240 13.41442204 72 82 84
246091.47900391 3357623.46295166 13.82683372 147 168 173
246091.54187012 3357622.10510254 13.84273815 223 227 238
246088.23278809 3357621.82141113 13.43238926 41 45 46
246088.12036133 3357620.69464111 14.11224461 32 36 37
246088.51574707 3357621.01849365 13.24393559 34 38 39
246091.54211426 3357620.53857422 13.25429249 31 30 36
246089.15881348 3357619.27282715 14.42799664 16 17 19
246091.54821777 3357621.57806396 13.16208649 60 61 63
246089.52868652 3357620.33593750 14.44094658 175 178 183
246089.13098145 3357619.20294189 14.40057278 17 19 18
246090.88635254 3357620.56567383 13.39931011 70 75 81
246090.30908203 3357619.29559326 13.17533207 129 137 140
246091.37585449 3357620.94140625 13.20653915 53 54 59
246088.96496582 3357620.59539795 14.44484234 12 22 21
246089.92468262 3357622.27545166 14.36507130 209 226 236
246091.23840332 3357620.45062256 13.42154026 114 121 129
246089.06323242 3357619.33654785 13.96782017 17 19 18
246090.38305664 3357621.39654541 13.10660553 122 128 128
246089.42956543 3357620.28332520 13.96500778 39 53 64
246091.63391113 3357623.23901367 13.76841640 205 216 220
246091.58483887 3357623.41754150 13.75506210 102 117 124
246091.10449219 3357621.87420654 13.45521927 74 79 83
246089.57275391 3357620.01916504 13.30187798 44 49 53
246089.56848145 3357620.84857178 13.14467049 23 36 42
246089.21728516 3357620.23681641 13.71194839 118 130 142
246088.66064453 3357620.80487061 14.02698135 52 56 57
246089.13037109 3357619.71008301 13.54887962 46 50 53
246089.36791992 3357623.01147461 14.53657436 128 137 144
246089.38366699 3357622.11865234 14.31378651 2 14 14
246091.49096680 3357621.80548096 13.26378250 34 38 39
246089.24487305 3357619.77294922 13.47211933 56 64 66
246090.45739746 3357621.89422607 13.86307144 173 183 192
246091.77343750 3357622.27221680 13.59086418 200 210 219
246089.95629883 3357621.75866699 13.52714157 119 124 128
246088.99291992 3357622.66241455 15.95024776 21 33 23
246091.88183594 3357623.04980469 13.42357445 80 84 95
246089.00878906 3357619.28619385 13.65807819 30 36 34
246087.98706055 3357623.01098633 14.14011192 7 11 12
246088.00927734 3357622.87188721 14.24868298 10 14 15
246087.43054199 3357620.64440918 13.35238552 24 33 32
246091.36169434 3357623.16119385 13.86676979 218 226 228
246091.42626953 3357622.97241211 13.84199715 212 223 229
246090.14099121 3357622.95965576 14.11591721 1 8 14
246089.49926758 3357621.85894775 13.84537315 130 139 146
246089.16674805 3357619.27783203 13.35610676 52 62 64
246089.59216309 3357619.89318848 14.39811802 180 187 195
246090.74108887 3357621.26153564 13.11555004 113 109 98
246091.15441895 3357619.96197510 13.40600491 120 130 139
246089.02441406 3357620.23931885 14.57021904 5 14 19
246091.79858398 3357619.53686523 13.26696968 57 62 68
246091.51818848 3357620.10400391 13.39175129 44 49 55
246088.45458984 3357621.05303955 13.23773575 25 31 31
246088.34729004 3357620.31298828 14.39282703 103 104 106
246091.30346680 3357619.95947266 13.44183826 71 82 88
246088.10009766 3357619.67437744 13.93174839 27 31 32
246090.76428223 3357620.23754883 13.30884838 78 85 91
246089.98303223 3357620.56213379 13.14237785 66 70 73
246090.87060547 3357621.85589600 13.61553669 36 43 49
246089.93151855 3357623.14666748 14.36879063 176 183 189
246088.13684082 3357621.80395508 13.58966064 8 14 14
246089.13916016 3357622.56896973 14.58890820 171 184 192
246091.18957520 3357623.50720215 13.93863583 124 146 144
246091.13684082 3357622.28302002 13.92055988 207 221 232
246090.42004395 3357621.10931396 13.11375618 46 56 66
246090.02673340 3357622.45129395 14.31503773 38 56 68
246089.18176270 3357620.01837158 13.63178730 117 122 126
246090.54345703 3357620.35119629 13.27272606 84 84 86
246089.27600098 3357620.67486572 13.83811092 80 88 91
246089.36315918 3357619.70129395 13.30103111 67 77 78
246091.08447266 3357622.38824463 13.92870045 202 219 229
246091.30847168 3357619.52978516 13.56395721 101 110 119
246091.20544434 3357619.14886475 13.20732689 83 88 92
246090.65783691 3357621.47943115 13.14259052 29 34 30
246091.66650391 3357622.69030762 13.74414730 216 223 229
246090.79895020 3357619.34826660 13.29921722 81 82 87
246087.50268555 3357621.97625732 13.82229710 81 81 81
246087.79077148 3357620.76043701 13.56128979 14 18 21
246090.04907227 3357622.46618652 14.29074287 38 56 68
246090.33898926 3357619.82305908 13.16999817 118 125 131
246091.84460449 3357622.40679932 13.45703506 79 96 104
246091.19335938 3357622.93664551 13.88380241 209 222 230
246091.59057617 3357619.64129639 13.43658352 56 64 67
246087.72668457 3357621.42236328 13.09795380 62 67 63
246091.41088867 3357621.29351807 13.13443661 155 147 128
246090.47106934 3357623.21887207 13.98530197 71 76 80
246087.89855957 3357619.71380615 13.72211933 31 33 32
246088.21557617 3357620.18371582 14.23965263 62 64 63
246087.57934570 3357620.57598877 13.55778599 24 33 32
246088.89501953 3357620.47021484 14.55368996 87 91 94
246090.59973145 3357620.54803467 13.27193832 105 106 111
246088.95629883 3357620.06835938 14.55475521 43 52 59
246090.59484863 3357621.89251709 13.56842518 135 144 151
246089.94396973 3357620.57116699 13.14589500 63 68 71
246088.38745117 3357620.12725830 14.37326527 51 52 54
246088.59533691 3357620.98144531 13.23469734 30 36 34
246089.68041992 3357622.94396973 14.49320507 7 8 12
246091.17016602 3357623.52264404 13.95154572 65 86 87
246089.66918945 3357621.96881104 14.05501080 109 114 117
246089.58776855 3357620.19732666 14.30464649 146 159 168
246087.38232422 3357622.03399658 13.79329109 24 24 22
246090.93994141 3357621.83032227 13.34204388 63 67 70
246088.58020020 3357621.95794678 14.10436440 158 168 170
246089.10278320 3357621.21301270 13.08515167 45 53 55
246089.70263672 3357622.59039307 14.49494076 7 8 12
246089.76269531 3357621.50720215 13.16046619 37 37 37
246091.29174805 3357623.28485107 13.88703918 221 231 232
246088.74304199 3357621.78784180 13.59691238 37 37 39
246089.44152832 3357619.37585449 13.21958542 95 107 107
246087.89318848 3357620.76849365 13.78714180 26 27 32
246088.28979492 3357621.88958740 13.97485638 140 148 151
246086.98022461 3357621.35595703 13.13029861 37 42 45
246090.26477051 3357620.06365967 13.17038918 192 191 196
246089.98559570 3357620.17163086 13.15694427 68 76 78
246089.31921387 3357619.71215820 13.90964127 75 76 78
246088.78234863 3357619.47332764 14.74883270 23 27 26
246089.12084961 3357619.72143555 13.62067413 40 41 45
246089.48254395 3357621.86010742 13.85718346 127 136 143
246089.49951172 3357620.35192871 14.46322441 169 169 171
246088.79711914 3357619.78979492 14.55370903 55 60 63
246088.81176758 3357622.83813477 15.60984039 30 36 34
246087.10522461 3357620.41986084 13.22170258 29 41 41
246091.86938477 3357622.89654541 13.62632656 185 198 207
246089.56005859 3357620.20843506 14.43981552 164 167 174
246089.58264160 3357621.22332764 13.10238934 50 54 55
246090.55017090 3357622.78387451 14.03538513 29 48 63
246089.01916504 3357620.77331543 13.16948605 28 33 36
246088.98779297 3357619.27770996 13.85734272 63 68 62
246091.62316895 3357622.43316650 13.74840832 213 227 230
246091.20654297 3357619.64270020 13.48402214 112 121 126
246090.91186523 3357619.75891113 13.31537914 89 98 107
246088.48449707 3357619.71142578 14.38890839 43 47 48
246091.42126465 3357622.84527588 13.83060932 215 226 232
246087.50036621 3357621.65161133 13.20462704 35 39 40
246091.72363281 3357623.31488037 13.66076565 169 178 187
246089.01721191 3357619.40295410 13.52292156 46 52 52
246091.31494141 3357621.87121582 13.67224789 182 189 195
