245752.17974854 3357331.72207642 19.46888924 36 106 165
245751.35119629 3357334.03533936 21.54036140 98 224 239
245752.32189941 3357331.98245239 19.30800247 7 17 53
245748.76336670 3357334.67120361 20.53959465 53 106 138
245751.47485352 3357331.62170410 18.60562897 53 89 105
245746.76568604 3357334.08120728 21.64251709 9 156 210
245752.11132813 3357331.78283691 20.86830139 6 171 225
245741.00817871 3357334.78662109 19.43620682 190 230 240
245747.24707031 3357334.80920410 20.23331642 120 163 195
245746.97943115 3357332.23129272 20.15303802 182 245 255
245749.81115723 3357334.03598022 21.54722214 127 235 245
245752.38354492 3357332.07113647 20.96547127 7 34 63
245741.82324219 3357333.57641602 19.11922836 164 174 176
245749.71026611 3357332.03979492 20.68561363 11 14 19
245752.49597168 3357333.77819824 20.47025681 38 140 189
245751.07110596 3357333.35116577 21.66660690 246 235 243
245744.09008789 3357332.61010742 18.63230133 26 199 241
245751.40502930 3357334.34545898 19.57068634 7 147 200
245751.92907715 3357334.11404419 21.50067520 86 214 241
245744.16162109 3357333.57357788 21.80519867 50 64 75
245746.73968506 3357332.30819702 20.42374229 29 81 102
245750.88342285 3357331.82293701 20.23027802 45 201 239
245748.80181885 3357332.05392456 19.31673813 44 204 238
245744.94995117 3357333.40542603 21.84852982 212 209 216
245744.35601807 3357334.90307617 21.53464508 81 218 254
245749.94720459 3357331.92684937 19.99877739 57 210 254
245740.99444580 3357334.96771240 20.38057327 67 78 84
245747.47625732 3357332.18188477 18.56585503 53 185 223
245746.39624023 3357332.26666260 18.49885368 70 179 210
245745.56976318 3357332.45462036 20.91964912 30 40 49
245752.37890625 3357332.87026978 19.10701752 51 79 100
245750.97222900 3357334.40106201 19.68461037 0 147 201
245747.47387695 3357332.13232422 19.75269318 71 211 244
245746.92358398 3357335.03042603 18.39241219 38 53 82
245742.95965576 3357332.69653320 20.69970131 15 80 120
245742.67083740 3357332.90771484 19.20911980 49 148 169
245744.21679688 3357332.56082153 18.86505318 6 199 240
245743.84399414 3357332.64025879 21.20893288 1 26 57
245751.12017822 3357332.88049316 21.65670013 235 250 253
245744.39587402 3357334.88638306 21.53380775 86 219 254
245741.90447998 3357333.30813599 19.62831306 128 134 134
245752.52008057 3357333.71249390 20.48714066 55 146 199
245747.92932129 3357334.69110107 19.20876694 10 163 205
245745.85668945 3357332.36541748 20.28275108 155 230 249
245752.44787598 3357332.45321655 21.22341919 28 40 52
245748.59851074 3357334.52606201 21.33255768 1 81 132
245742.04809570 3357335.05776978 21.50455093 35 43 56
245750.46136475 3357334.47268677 19.59112167 12 157 210
245750.51965332 3357334.46160889 19.54764366 7 152 205
245748.99377441 3357332.17410278 21.43250847 141 223 244
245741.78765869 3357334.34152222 21.39918709 70 79 94
245748.92498779 3357334.54327393 20.68378067 53 116 149
245752.31744385 3357332.06829834 19.54287529 4 98 160
245744.22332764 3357332.54196167 21.12892342 31 41 50
245750.69390869 3357334.53472900 18.46438980 0 34 74
245741.77465820 3357335.01864624 19.88762856 67 79 79
245752.24420166 3357334.17175293 20.44174194 5 143 192
245745.79119873 3357335.11959839 18.49132729 29 32 41
245749.65954590 3357331.95480347 20.17125320 89 211 255
245746.00921631 3357334.31033325 21.72688675 65 223 248
245741.95220947 3357335.22192383 20.39310074 31 38 31
245748.61712646 3357333.74597168 21.58332253 121 242 253
245742.91680908 3357335.25692749 19.01185036 23 37 64
245742.43536377 3357332.81097412 20.53489494 65 140 172
245743.24230957 3357332.67041016 20.80017281 42 124 161
245750.60772705 3357334.47387695 19.03554153 3 148 201
245744.72454834 3357333.63293457 21.82956886 204 212 214
245751.84375000 3357331.58212280 18.57639122 77 91 100
245742.60827637 3357333.87622070 21.60464478 53 134 153
245748.09838867 3357334.53082275 21.39367294 51 155 194
245743.97802734 3357332.60186768 20.68460274 19 38 44
245743.14556885 3357335.28240967 19.45707130 20 141 198
245747.21362305 3357334.78457642 19.38414574 9 166 209
245744.15881348 3357333.88186646 21.79595947 78 93 96
245746.16137695 3357332.32589722 18.93494034 19 200 243
245741.91131592 3357333.57632446 18.76789665 129 170 188
245752.53405762 3357333.67404175 20.89133453 2 63 108
245751.69189453 3357333.30123901 21.67396927 238 243 249
245746.02008057 3357334.96545410 21.01202202 40 56 69
245749.28582764 3357332.07031250 20.76842117 57 139 176
245752.50860596 3357331.65499878 18.45749283 93 92 97
245750.46777344 3357331.99603271 21.43300056 23 122 163
245745.52172852 3357334.00302124 21.92189217 202 216 227
245747.99969482 3357332.10626221 19.16318703 3 199 241
245741.06951904 3357335.28012085 19.18264389 76 107 112
245743.94342041 3357332.59893799 18.55006790 83 182 224
245746.91845703 3357332.23785400 18.79253006 3 195 234
245748.65460205 3357334.58737183 20.72671700 49 103 141
245746.81829834 3357332.19860840 19.59080505 19 196 230
245742.01763916 3357335.30783081 20.36268425 29 35 33
245749.78881836 3357332.94857788 21.60626602 70 228 237
245752.49566650 3357333.23785400 19.49927139 12 108 159
245744.43054199 3357335.14410400 18.97158623 51 80 122
245747.35668945 3357334.77770996 20.03918839 173 223 250
245741.98413086 3357334.27487183 21.56609154 23 33 43
245748.92712402 3357334.63000488 20.51483536 48 105 135
245744.03894043 3357335.06771851 20.73175621 6 34 58
245741.63342285 3357334.02291870 21.29145241 122 140 150
245743.31970215 3357335.28036499 18.37952042 46 55 62
245747.86425781 3357332.65832520 21.59054375 58 241 249
245751.65850830 3357331.74508667 20.21036720 21 213 252
245747.49847412 3357332.18582153 20.11637115 129 202 221
245751.62011719 3357331.73962402 19.02619934 36 156 209
245740.81280518 3357334.81140137 18.65964317 127 131 130
245747.72094727 3357334.77960205 20.79158401 64 68 77
245742.29931641 3357334.52450562 21.59194183 95 204 227
245752.52691650 3357333.52642822 20.90237045 17 51 88
245740.91430664 3357334.78814697 19.00825691 35 60 80
245744.19744873 3357335.19671631 20.53297806 32 59 88
245743.48205566 3357333.84631348 21.77485275 226 226 234
245752.48590088 3357333.90127563 20.69241524 21 141 193
245744.95550537 3357334.36343384 21.65029144 63 216 247
245746.94287109 3357334.86108398 20.28796005 111 156 187
245742.38677979 3357333.35916138 21.54587173 58 165 183
245746.29479980 3357332.70895386 21.59129143 56 232 245
245748.02008057 3357334.82708740 18.56252480 29 103 150
245752.05163574 3357331.78121948 21.22811699 70 227 246
245743.96954346 3357335.14123535 18.97628975 246 246 255
245747.45678711 3357332.17968750 20.08076477 134 205 223
245750.68896484 3357331.83163452 19.43762779 2 199 242
245741.48449707 3357334.09677124 21.19546700 113 144 147
245751.72357178 3357331.77539063 20.94654655 153 201 213
245748.64984131 3357332.06311035 20.03888512 39 200 242
245750.12097168 3357332.00234985 21.32703972 8 64 101
245743.39709473 3357335.17962646 20.09449387 8 149 205
245742.70056152 3357332.70779419 20.19320488 69 165 187
245751.29705811 3357331.75003052 20.12379837 13 205 242
245746.76556396 3357332.27761841 20.75583267 46 96 119
245741.81201172 3357333.65530396 21.46869469 81 95 104
245751.30053711 3357331.75622559 19.96305466 7 203 241
245742.70483398 3357333.22387695 21.56442451 57 154 173
245748.61181641 3357333.29556274 21.66433907 101 174 189
245748.16644287 3357332.38824463 21.38925362 85 239 241
245741.18334961 3357332.99862671 18.31690979 101 106 112
245752.46588135 3357333.86569214 21.29737091 23 154 210
245746.77178955 3357332.31845093 21.15850639 40 85 126
245746.27655029 3357334.74200439 21.36608124 16 82 130
245749.59265137 3357331.94979858 19.27978706 16 202 241
245748.50695801 3357332.08700562 19.41028595 4 188 224
245743.49334717 3357332.61294556 19.43744850 13 187 224
245743.19952393 3357335.28204346 18.42283249 40 50 52
245742.34594727 3357335.27719116 21.01883125 110 126 142
245745.55340576 3357335.00067139 20.97325516 18 40 64
245750.30804443 3357331.89224243 19.91367149 11 204 245
245740.99499512 3357333.77075195 18.38299561 103 107 110
245748.63256836 3357333.32946777 21.65429115 122 211 225
245741.82727051 3357333.55432129 18.44178391 73 90 98
245752.54125977 3357333.66244507 20.53592873 38 113 168
245749.60510254 3357332.52926636 21.52712059 71 238 247
245750.96240234 3357334.29400635 21.01849365 40 56 71
245748.55389404 3357332.15115356 21.22771835 25 37 53
245749.92950439 3357332.00924683 21.03322983 1 16 19
245745.04547119 3357333.95166016 21.86281395 207 206 214
245744.43170166 3357332.57949829 20.46602631 26 49 63
245741.75061035 3357333.38287354 19.77804375 124 127 132
245751.79217529 3357331.55337524 18.56449699 85 94 103
245741.90625000 3357333.18518066 20.13494492 122 135 141
245748.15539551 3357332.23162842 20.76995277 45 122 152
245752.49841309 3357333.55572510 21.31353569 9 56 98
245749.22137451 3357331.93768311 20.05107498 9 206 238
245742.23535156 3357333.17547607 19.18651390 117 144 151
245745.85156250 3357333.89004517 21.90741158 220 207 216
245748.26831055 3357333.61373901 21.70221329 236 248 248
245744.66326904 3357333.18350220 21.80381775 116 244 247
245749.77026367 3357334.46691895 18.60542297 13 32 49
245743.76190186 3357335.18099976 19.96911430 11 155 208
245748.30847168 3357332.09109497 20.20339203 45 201 242
245746.06719971 3357332.40563965 21.04797745 31 57 56
245745.73059082 3357332.44039917 20.48997688 27 50 64
245743.16424561 3357335.23724365 18.48718643 77 83 83
245746.79595947 3357332.28057861 20.24794197 181 242 255
245749.92810059 3357334.50018311 19.50759315 6 151 204
245746.52404785 3357334.71505737 21.44050598 82 189 225
245749.46771240 3357331.96490479 18.98881149 9 43 80
245741.92938232 3357333.56201172 18.66452408 69 104 126
245750.66168213 3357334.46572876 19.01949883 9 150 203
245752.49859619 3357333.49752808 21.31613541 11 48 92
245752.50427246 3357333.82128906 20.90127182 49 149 201
245751.67169189 3357331.73260498 20.53438950 22 211 243
245749.89886475 3357331.97079468 20.56472397 8 18 30
245748.37432861 3357334.72210693 20.42673302 116 142 169
245748.22436523 3357332.09988403 18.84477425 10 186 227
245750.36303711 3357334.50082397 18.92646980 6 149 205
245751.33123779 3357331.76284790 20.66275978 134 184 207
245750.58264160 3357331.85446167 19.65667915 3 200 242
245741.88354492 3357333.15182495 20.31317711 124 138 141
245752.12200928 3357334.27297974 21.05516052 31 54 72
245751.22320557 3357334.35418701 19.41753769 9 148 203
245752.38635254 3357332.75540161 19.22541237 58 97 140
245749.70910645 3357332.04205322 20.76479912 10 17 23
245741.75085449 3357335.02645874 19.79786301 65 75 74
245751.86761475 3357331.90277100 21.47989082 87 230 246
245748.78692627 3357333.57870483 21.58843040 121 240 246
245743.64654541 3357333.68618774 21.81143761 75 72 79
245750.87811279 3357331.86575317 20.78551865 22 69 85
245741.98107910 3357335.07577515 21.44037437 42 49 65
245741.48028564 3357333.58828735 19.98973656 99 104 108
245751.62249756 3357331.73593140 20.03076744 2 170 199
245744.50061035 3357332.53356934 20.32636642 76 133 150
245749.11486816 3357334.50601196 18.51661110 149 156 162
245748.57403564 3357332.05862427 18.88005638 6 48 73
245752.24212646 3357334.12582397 20.17321205 2 142 193
245747.91333008 3357334.68545532 20.90492249 46 61 66
245748.08001709 3357334.66455078 19.93458748 95 178 210
245750.18298340 3357331.95669556 20.66152382 0 22 36
245742.55267334 3357332.89233398 21.43397141 134 243 248
245748.66809082 3357332.06933594 20.16439056 72 199 242
245743.04486084 3357332.67871094 20.66538239 28 103 135
245742.11810303 3357335.22875977 20.59542274 47 74 95
245751.58758545 3357332.01327515 21.52855110 56 235 242
245742.54522705 3357335.23629761 20.62115860 51 150 207
245747.86383057 3357334.45541382 21.49306870 81 222 239
245745.07891846 3357334.85916138 21.35028267 9 75 127
245747.29931641 3357333.68887329 21.62409210 59 240 249
245745.36975098 3357335.11968994 18.65691757 159 157 160
245748.05572510 3357332.25930786 20.98195648 37 146 179
245749.70483398 3357334.47149658 19.04629898 1 33 72
245751.67834473 3357333.01052856 21.68106651 241 226 221
245746.09466553 3357335.02780151 19.35612488 2 17 50
245742.00317383 3357335.30416870 20.35843086 29 35 33
245744.33215332 3357335.17910767 20.67399025 54 91 118
245747.17657471 3357332.24078369 20.21695518 152 219 235
245744.17767334 3357332.56631470 21.40115929 1 33 56
245742.73889160 3357335.15191650 20.95287704 51 69 89
245743.57159424 3357332.78576660 21.40615845 114 253 255
245747.99176025 3357332.08944702 20.05334854 169 248 255
245752.01403809 3357334.27890015 19.08244514 20 123 181
245750.92810059 3357331.81802368 18.90741539 35 200 248
245744.10034180 3357332.57192993 21.00903893 27 40 49
245741.89483643 3357333.18505859 20.16423607 121 134 140
245741.69183350 3357334.39752197 21.31487274 110 126 139
245741.35644531 3357333.92745972 21.07724762 109 129 138
245747.33007813 3357332.17361450 19.23707199 11 205 243
245742.55187988 3357333.70239258 21.57788277 57 140 158
245743.48730469 3357335.24011230 19.36806679 44 146 208
245746.07434082 3357333.06188965 21.75291061 115 240 246
245747.51824951 3357332.15243530 19.28400993 2 206 243
245741.96618652 3357332.90939331 21.12420464 83 140 160
245747.13146973 3357332.21270752 18.91798019 19 203 241
245747.16888428 3357332.22985840 20.17436981 156 220 230
245751.51586914 3357331.79452515 21.02081871 33 88 108
245751.26434326 3357331.94088745 21.43134117 45 153 182
245752.53424072 3357333.15045166 20.50710297 46 97 140
245747.77050781 3357332.29629517 20.99086761 25 133 171
245748.08007813 3357332.10299683 19.09023857 3 199 239
245745.67938232 3357335.05175781 20.91419411 6 28 52
245747.09173584 3357334.55926514 21.53964233 102 230 241
245746.66241455 3357333.47644043 21.69150734 22 140 178
245748.30249023 3357332.10449219 18.83280373 31 195 232
245741.52362061 3357333.89453125 19.19921112 221 227 223
245745.34521484 3357332.38659668 18.44133949 65 164 195
245744.07226563 3357334.53344727 21.67043686 3 175 223
245749.47772217 3357331.94973755 20.16501999 32 195 236
245744.33209229 3357335.16415405 19.14332771 94 128 174
245744.54907227 3357332.46618652 19.13965607 6 202 240
245743.20751953 3357335.06829834 21.27408791 2 66 114
245742.93029785 3357335.23486328 18.63307381 47 46 51
245743.96020508 3357335.15621948 18.58829308 172 178 192
245743.99218750 3357335.26651001 18.35732651 50 57 67
245746.80914307 3357332.20016479 19.54170799 13 197 231
245752.31347656 3357334.09024048 19.40079498 23 138 185
245751.15496826 3357334.44171143 20.49506950 54 80 95
245746.33544922 3357334.86398315 19.07112694 3 21 41
245751.62158203 3357332.26208496 21.60018349 71 244 251
245744.49670410 3357334.20724487 21.78694916 168 229 247
245752.43011475 3357333.34106445 21.47632027 41 152 208
245750.70117188 3357332.63034058 21.59184265 38 236 247
245748.20709229 3357332.08581543 19.17757225 5 199 235
245741.98712158 3357333.40560913 19.20757866 137 148 152
245752.36816406 3357332.03860474 21.03493881 0 33 68
245748.27276611 3357332.19284058 20.92471123 40 86 112
245746.51458740 3357334.74060059 21.36331558 12 80 127
245743.26275635 3357335.22738647 19.16931915 14 45 74
245746.95825195 3357334.96878052 18.42304802 12 35 67
245752.15283203 3357334.24902344 20.80068970 70 159 193
245748.33129883 3357334.64355469 19.83472824 3 154 199
245748.74206543 3357334.57836914 18.68415451 71 134 178
245749.72119141 3357331.94338989 19.45675087 1 183 230
245750.87445068 3357331.95217896 21.41111755 51 157 183
245745.73663330 3357334.58859253 21.62248039 17 187 220
245743.79357910 3357334.62414551 21.65143967 17 205 251
245744.19573975 3357332.58358765 20.69910049 25 37 49
245743.62390137 3357335.17834473 19.86596870 6 151 204
245749.39221191 3357334.52410889 19.18626976 4 48 93
245749.23315430 3357334.60400391 19.99834824 12 159 210
245750.66107178 3357334.52026367 18.50033569 4 53 96
245747.87292480 3357334.71459961 19.13539505 15 164 206
245749.50665283 3357331.95132446 20.21785355 54 200 239
245749.54766846 3357334.54086304 19.39175987 29 153 204
245751.55114746 3357331.74624634 19.20979500 30 158 205
245745.91564941 3357334.78997803 21.37725830 17 87 146
245745.96936035 3357333.85968018 21.88615799 225 210 215
245750.25415039 3357333.58908081 21.57301712 131 189 193
245747.39605713 3357334.75811768 19.83740044 100 181 224
245750.40399170 3357334.45855713 20.63839531 35 55 80
245749.81848145 3357332.66262817 21.54212570 81 234 240
245749.50494385 3357333.77429199 21.57783127 141 249 249
245745.11889648 3357332.50271606 20.73970222 36 67 87
245749.97381592 3357334.48495483 18.68126488 22 78 111
245742.32366943 3357333.14541626 18.56177902 113 136 144
245748.81506348 3357334.61502075 19.43081856 10 138 185
245750.66607666 3357334.44290161 19.46696854 11 154 210
245748.86608887 3357332.10546875 20.70260620 16 89 124
245745.16961670 3357334.87048340 21.27852440 1 44 86
245750.33166504 3357333.59719849 21.57434082 126 175 180
245752.26068115 3357331.87472534 20.42970276 3 119 180
245747.56518555 3357334.44155884 21.54428482 73 224 245
245751.70941162 3357332.32617188 21.62837219 59 240 247
245752.29461670 3357334.08532715 20.34070015 8 154 201
245752.23742676 3357333.56738281 21.57612038 100 234 237
245747.14636230 3357332.35055542 20.72570229 34 124 151
245751.56964111 3357333.36972046 21.68540573 188 228 240
245743.35510254 3357335.04370117 21.11271858 53 109 144
245741.61920166 3357333.49575806 21.20375633 147 172 179
245743.14526367 3357335.28414917 19.23421669 7 45 84
245744.12298584 3357335.19461060 19.82669830 28 145 199
245751.37017822 3357332.88208008 21.65988159 255 249 253
245749.53607178 3357331.96371460 19.17933083 69 232 255
245748.96966553 3357334.66888428 20.26073837 31 154 196
245752.49713135 3357333.34912109 19.00011444 6 96 148
245742.68725586 3357334.82330322 21.58271980 70 238 251
245750.88629150 3357331.80661011 19.18712234 29 204 249
245745.34722900 3357333.37640381 21.86388206 215 210 217
245745.92541504 3357333.07919312 21.74400520 112 239 248
245751.52868652 3357333.00006104 21.68440056 250 244 244
245748.97595215 3357333.77236938 21.57429314 123 242 250
245749.71270752 3357334.38934326 21.19844627 47 114 156
245748.92065430 3357332.05062866 19.64820862 4 204 237
245749.44793701 3357332.74389648 21.57744026 66 213 223
245745.85821533 3357334.73135376 21.50204277 90 225 255
245741.39190674 3357335.15802002 20.97776222 0 23 39
245750.26086426 3357331.99069214 20.82843590 54 106 117
245743.23645020 3357335.17538452 20.41453934 87 166 205
245747.70898438 3357334.69860840 19.77585030 82 189 233
245751.56890869 3357331.74407959 19.82928276 88 235 253
245741.74487305 3357333.58776855 19.35968590 163 164 168
245741.56750488 3357333.39532471 20.39119339 85 88 93
245744.84704590 3357333.82733154 21.84405518 208 211 218
245744.79632568 3357332.52801514 21.15753555 27 76 108
245741.98162842 3357334.34289551 21.56137466 26 35 50
245752.44494629 3357333.97399902 21.11121178 15 157 207
245752.51538086 3357333.44506836 19.09095192 6 83 139
245748.90228271 3357334.68960571 20.33239174 67 160 201
245752.26989746 3357333.45120239 21.57398033 87 234 241
245749.15484619 3357332.04461670 18.80244637 86 96 106
245745.95874023 3357332.39251709 20.56252861 20 46 59
245749.90252686 3357334.51892090 19.73442459 7 154 208
245752.43518066 3357333.89038086 20.16027832 3 150 184
245748.76538086 3357334.58462524 18.50660133 51 87 123
245741.60400391 3357333.39068604 20.21465683 106 111 115
245746.35797119 3357332.30773926 18.77091789 16 203 238
245750.16992188 3357332.01513672 21.02665138 53 101 124
245744.61401367 3357332.52923584 21.25700760 4 30 47
245742.26190186 3357335.25878906 20.59309578 37 82 115
245741.30993652 3357335.26733398 18.88924026 84 84 84
245745.30902100 3357332.41848755 18.89730644 27 203 250
245744.02441406 3357335.03036499 21.20972061 0 35 79
245748.91888428 3357334.71313477 18.30236435 54 60 72
245748.23162842 3357333.33691406 21.73259163 253 249 240
245751.32543945 3357333.46105957 21.66151047 150 229 246
245749.38031006 3357333.75350952 21.58404160 151 249 252
245748.84301758 3357332.04376221 18.95252419 85 110 117
245752.53186035 3357333.59222412 20.14308929 23 106 160
245752.45874023 3357332.60714722 18.59662056 0 38 74
245743.54132080 3357335.07598877 18.76621819 69 79 80
245746.26110840 3357332.33599854 18.65931511 33 201 238
245744.43609619 3357332.46636963 19.29513550 18 204 245
245745.82568359 3357332.31530762 18.44011116 52 138 171
245750.69641113 3357334.47726440 18.85175896 8 131 188
245752.52056885 3357333.44064331 20.93898010 23 49 82
245748.93731689 3357334.18991089 21.53470421 36 233 249
245742.45159912 3357332.96661377 18.59498215 93 155 170
245749.24383545 3357333.28002930 21.61333275 150 253 250
245741.45092773 3357333.98413086 19.22446442 218 228 230
245740.96374512 3357335.01580811 20.27780342 100 117 124
245748.66540527 3357332.06661987 20.15288353 72 199 242
245749.28491211 3357331.98571777 19.04675484 45 86 108
245746.39343262 3357334.98522949 19.62570953 92 169 221
245752.43389893 3357332.32382202 21.09054565 7 20 28
245749.45428467 3357333.30337524 21.60343552 161 253 250
245745.31964111 3357335.12680054 18.59235191 121 119 124
245749.57183838 3357331.95587158 20.04417038 61 209 255
245749.49108887 3357331.94818115 19.60102463 8 202 240
245749.33807373 3357332.05657959 21.07330132 0 21 34
245747.88421631 3357334.62768555 20.98102379 59 73 76
245752.48791504 3357333.16467285 21.33253670 20 34 60
245741.46868896 3357334.87445068 21.16383553 137 171 180
245746.65905762 3357334.77496338 20.82396507 73 120 146
245741.34204102 3357335.40707397 18.49635696 90 95 101
245747.89916992 3357332.33059692 21.21342659 40 142 190
245749.57232666 3357333.38507080 21.59445953 155 251 249
245741.76336670 3357335.06948853 21.27349472 69 80 102
245746.43353271 3357334.83721924 19.02238464 6 55 88
245748.91467285 3357332.40234375 21.53380013 102 221 227
245750.17266846 3357334.48910522 20.44627380 64 104 139
245751.92266846 3357331.71298218 19.13985825 41 205 240
245741.01989746 3357334.63391113 20.36061287 87 96 101
245747.87231445 3357334.92160034 18.46887016 5 38 73
245751.70019531 3357334.39324951 18.68353081 41 135 189
245745.61596680 3357332.38092041 19.13598442 7 201 252
245748.95825195 3357334.48672485 20.96495438 77 131 159
245748.81140137 3357332.05886841 20.25502968 87 190 233
245748.75909424 3357332.65908813 21.63278580 89 217 220
245741.59875488 3357333.82873535 18.88276482 95 167 191
245745.48052979 3357333.65957642 21.90188599 223 213 214
245751.51727295 3357334.41436768 18.65782547 39 136 191
245744.66168213 3357332.43518066 19.55863380 41 203 241
245744.71423340 3357332.45770264 20.13462257 189 252 255
245746.76269531 3357334.32534790 21.62119865 11 167 218
245745.58709717 3357334.17211914 21.85834885 116 225 245
245749.07446289 3357332.07257080 20.73134613 38 130 169
245744.49377441 3357332.55764771 18.47462654 49 203 241
245741.65124512 3357332.91006470 18.32178116 120 119 124
245746.87982178 3357334.10000610 21.62925339 45 208 239
245747.55157471 3357332.14999390 19.26662254 3 206 246
245748.56726074 3357332.26403809 21.40859985 128 214 231
245751.05261230 3357334.39038086 19.69993019 0 149 200
245750.43286133 3357334.46005249 20.65274811 21 41 66
245747.43627930 3357334.65228271 21.41397667 33 138 193
245747.93255615 3357334.82714844 20.44013596 120 137 155
245743.66473389 3357332.67550659 21.23639107 0 37 82
245744.97009277 3357332.53042603 20.49714661 20 57 84
245745.40704346 3357332.47222900 20.80658340 31 43 59
245744.41638184 3357335.06451416 20.81360817 46 82 118
245747.59082031 3357332.28988647 20.37948418 14 89 120
245749.07672119 3357334.61480713 19.82144165 3 159 207
245746.48608398 3357334.97415161 20.03690910 12 123 168
245750.41278076 3357333.60870361 21.57420921 112 175 180
245746.35449219 3357335.05453491 18.37668228 57 66 75
245747.31555176 3357334.85498047 20.56107140 41 61 86
245741.50445557 3357333.79379272 19.57074165 171 169 172
245742.73638916 3357335.13079834 21.05102539 50 82 103
245740.98541260 3357335.28454590 18.91555977 101 127 152
245744.39367676 3357332.47351074 19.25528336 12 201 239
245748.68505859 3357334.18286133 21.52223778 42 240 253
245743.28955078 3357335.17834473 20.32597351 38 146 193
245749.22540283 3357332.81280518 21.60157967 86 218 223
245742.60296631 3357333.35317993 21.55411911 49 140 159
245751.31066895 3357333.58773804 21.61909866 83 233 247
245744.48815918 3357334.82565308 21.57202339 45 178 223
245742.22015381 3357333.25396729 18.54068184 82 95 104
245743.00543213 3357333.73599243 21.63580704 59 147 171
245743.19769287 3357332.63372803 18.99334908 53 57 66
245752.38183594 3357334.09045410 19.00882912 21 135 187
245747.38232422 3357334.69665527 21.03627014 12 34 58
245745.65667725 3357332.39105225 20.28033638 157 218 236
245741.68206787 3357334.36007690 21.30845261 127 144 154
245745.88958740 3357335.05459595 18.59554863 114 115 120
245742.99163818 3357335.09228516 20.90059471 44 57 65
245744.70397949 3357335.08773804 19.02334404 14 20 34
245743.96368408 3357334.39947510 21.72916412 74 226 250
245751.78369141 3357334.24078369 21.22425079 29 52 83
245743.49182129 3357332.61993408 19.35255051 10 180 216
245746.23577881 3357332.33966064 18.66987991 22 197 240
245742.96032715 3357335.21301270 18.63914680 42 43 47
245747.69604492 3357334.83007813 20.36698151 138 162 188
245741.60717773 3357333.81289673 18.91118622 95 167 191
245742.69238281 3357332.70407104 20.58347702 51 135 172
245745.56506348 3357332.43960571 18.74369812 3 200 243
245752.05346680 3357334.25756836 19.16162300 21 131 184
245743.43865967 3357335.24066162 19.39560127 43 146 205
245746.97918701 3357334.82748413 18.75056458 28 123 177
245750.70574951 3357331.82849121 18.95336533 19 190 233
245742.80981445 3357335.33920288 19.59752083 32 134 182
245741.08435059 3357332.93814087 18.34771729 100 105 111
245744.22454834 3357335.21295166 18.65145683 82 106 154
245752.25939941 3357332.98925781 21.59040260 53 235 249
245748.17749023 3357334.02963257 21.56453705 48 233 251
245752.06268311 3357333.33242798 21.58946991 44 217 231
245747.72668457 3357333.28964233 21.72465897 250 250 250
245751.94067383 3357331.71475220 19.39314842 18 198 231
245742.22033691 3357332.80706787 18.38986206 105 152 178
245747.19653320 3357332.35110474 20.47204781 22 116 144
245749.23352051 3357334.42608643 20.69653130 46 59 76
245743.79083252 3357333.29281616 21.81589317 134 237 242
245749.24688721 3357333.04675293 21.62484550 115 243 242
245745.21380615 3357335.15106201 18.86061096 2 10 12
245742.68585205 3357334.17333984 21.62255478 54 211 228
245742.25012207 3357332.82693481 21.02870941 46 115 146
245744.05670166 3357332.55725098 20.25022316 146 218 242
245746.16217041 3357332.62432861 21.51218605 67 244 252
245748.31536865 3357332.15600586 20.40177917 26 68 92
245751.06622314 3357334.42861938 20.18664360 35 158 202
245751.05407715 3357334.44314575 20.31726456 75 155 188
245743.58312988 3357334.41131592 21.73958397 126 220 232
245741.45623779 3357334.90438843 21.15624428 146 179 186
245744.81176758 3357334.88922119 21.40043068 43 123 182
245748.12677002 3357332.24203491 20.88116837 25 108 142
245750.69787598 3357332.38226318 21.53975677 25 242 249
245750.01751709 3357332.01623535 21.23499870 2 28 53
245749.26525879 3357334.43676758 20.94744301 74 97 105
245746.03710938 3357333.69918823 21.85798264 224 209 212
245743.70477295 3357335.12219238 20.57951736 36 94 132
245751.20306396 3357332.24243164 21.54878807 44 246 250
245741.00073242 3357334.90338135 19.83710480 126 125 131
245748.32281494 3357332.17590332 20.96861649 15 52 78
245752.42358398 3357332.30340576 21.22209358 11 23 35
245740.72741699 3357334.94522095 18.47012520 102 107 111
245752.36883545 3357332.20925903 21.43007660 1 51 102
245749.35675049 3357332.29254150 21.48060989 62 223 233
245740.99285889 3357334.87417603 20.23092461 63 78 85
245741.80395508 3357333.60140991 21.44538116 77 90 99
245747.33319092 3357334.82284546 18.87652779 25 157 206
245751.37017822 3357331.82928467 21.03226852 28 68 94
245749.88397217 3357332.00106812 20.95350838 8 19 23
245752.29119873 3357332.52288818 21.55846214 62 224 245
245741.53033447 3357335.35879517 18.76949310 30 31 26
245752.41632080 3357332.51541138 18.84386444 4 96 159
245743.47943115 3357334.77182007 21.60768127 131 254 255
245745.90142822 3357333.10717773 21.74910736 128 239 248
245750.94122314 3357331.83215332 20.31892776 106 205 234
245741.07836914 3357334.33920288 19.90722466 45 44 50
245742.79217529 3357334.68157959 21.60359573 58 229 246
245742.74102783 3357332.73678589 20.82908058 4 50 84
245745.03967285 3357334.48779297 21.62045288 19 197 233
245748.07788086 3357332.90625000 21.74150848 87 229 241
245751.51135254 3357334.34280396 20.21156693 13 153 206
245743.61566162 3357333.93820190 21.80194092 109 104 110
245745.64843750 3357334.64935303 21.60572433 7 167 203
245747.33624268 3357334.76159668 19.31554222 8 159 204
245742.12768555 3357335.01416016 21.51758957 23 38 59
245743.67059326 3357335.18386841 19.77639008 6 147 201
245750.21649170 3357334.52728271 20.30149841 58 157 199
245744.47497559 3357332.46200562 19.30113792 16 204 242
245743.52954102 3357334.66760254 21.64549065 125 229 238
245743.16589355 3357332.64947510 19.15814018 68 134 150
245743.47686768 3357335.09735107 20.71505165 44 104 138
245749.29327393 3357333.63412476 21.59281731 156 250 249
245752.09393311 3357334.30007935 18.73250580 32 126 177
245743.42175293 3357332.63708496 19.32434273 15 173 212
245743.54040527 3357333.90829468 21.78629875 230 225 231
245744.86224365 3357332.43524170 19.12983131 10 203 246
245746.05761719 3357332.38629150 20.47386932 16 58 74
245751.93817139 3357331.62530518 18.59768486 62 85 99
245741.42236328 3357333.69824219 20.13731575 131 136 140
245741.91461182 3357332.94570923 20.89606476 38 86 106
245752.07867432 3357333.29437256 21.58993721 74 238 247
245749.68029785 3357332.59399414 21.53705597 45 221 234
245751.70800781 3357334.37118530 18.94882202 5 116 171
245747.62438965 3357332.30435181 20.50158310 49 125 157
245742.58026123 3357334.55053711 21.59165001 56 233 249
245751.99407959 3357331.70669556 19.03840256 45 202 235
245752.18957520 3357331.81018066 21.10235596 1 147 207
245752.30645752 3357332.03680420 19.77034378 0 105 163
245749.85217285 3357334.52438354 20.46864891 70 128 165
245749.11120605 3357333.28948975 21.61617088 142 250 250
245748.41821289 3357334.32434082 21.48991013 59 241 254
245742.71343994 3357335.19421387 20.79373932 153 190 208
245746.61614990 3357334.75692749 21.07729721 60 102 126
245744.80828857 3357332.54840088 20.42396355 13 57 86
245741.40148926 3357334.37072754 21.11484528 104 137 152
245740.93591309 3357335.23440552 19.24896049 140 204 216
245748.23461914 3357333.20050049 21.74967003 253 250 245
245744.75201416 3357332.50271606 20.30117035 140 199 213
245752.48614502 3357333.84552002 19.63183975 11 137 177
245746.66870117 3357334.83190918 18.64333153 55 163 209
245743.26544189 3357334.23321533 21.70316887 91 214 230
245750.08642578 3357331.78649902 18.69615364 56 117 145
245750.20727539 3357332.74111938 21.54156494 29 231 241
245745.70001221 3357334.92022705 21.17728615 29 51 74
245750.81066895 3357331.62301636 18.59153557 89 96 102
245748.35083008 3357332.08932495 20.19789696 48 200 241
245742.63629150 3357335.29821777 20.12321472 23 40 58
245750.09234619 3357333.04586792 21.58548546 81 219 230
245741.27832031 3357335.07476807 19.15649986 60 61 65
245741.87158203 3357333.46395874 19.33817863 143 151 153
245746.57177734 3357334.75515747 21.02568626 52 88 110
245752.39093018 3357333.91079712 21.40425873 61 200 229
245751.71582031 3357331.70651245 18.66227913 104 198 234
245752.31848145 3357333.07083130 21.58299255 77 239 254
245743.39727783 3357333.71911621 21.75733757 182 218 234
245744.10266113 3357335.22222900 19.40986824 41 90 133
245745.88226318 3357332.39672852 18.76274681 3 202 243
245742.67834473 3357332.81726074 21.30593872 6 95 135
245747.82452393 3357332.06854248 18.52824020 52 109 136
245743.71258545 3357332.64306641 21.14295387 4 25 54
245751.13427734 3357331.68441772 18.67840004 61 111 136
245742.12933350 3357335.19601440 21.34096146 35 43 62
245749.62432861 3357334.48632813 19.16943359 2 39 91
245745.88220215 3357332.36593628 20.30153084 151 217 239
245748.39984131 3357334.64331055 20.87398911 24 36 48
245752.45654297 3357333.09048462 18.71381569 7 89 147
245741.52642822 3357334.87918091 19.55443192 33 36 43
245746.70147705 3357332.30899048 20.31969070 114 174 198
245747.05914307 3357334.81961060 20.17071342 120 176 211
245747.06231689 3357334.84228516 18.68221664 36 141 189
245749.78863525 3357334.53329468 19.78776169 7 157 208
245749.93054199 3357334.55584717 18.34366798 21 35 48
245747.93249512 3357334.15866089 21.57309914 43 232 251
245747.43218994 3357332.30557251 21.32073784 2 98 146
245751.47821045 3357334.29165649 21.09842110 46 66 77
245743.48168945 3357333.68316650 21.77660179 96 98 110
245741.40509033 3357333.72476196 20.45879555 62 65 70
245750.35650635 3357331.93121338 20.22419357 58 154 196
245748.77758789 3357332.03765869 20.00265312 18 205 238
245749.98382568 3357331.95617676 20.60883904 4 16 28
245740.79437256 3357333.91607666 18.43552017 102 111 120
245752.38519287 3357332.48083496 19.44289207 0 98 155
245743.87457275 3357335.12829590 20.56208229 49 94 123
245749.76855469 3357333.20791626 21.59419632 118 243 245
245752.49749756 3357333.08944702 21.24350357 16 32 45
245742.10095215 3357333.33489990 18.51132202 55 65 75
245752.52740479 3357333.08129883 20.58978844 55 97 135
245741.94500732 3357332.84207153 18.34833908 106 119 127
245751.11352539 3357334.44039917 18.69385910 32 137 194
245750.03845215 3357332.87405396 21.57424164 75 233 242
245742.02435303 3357334.21472168 21.58146286 14 22 35
245740.99822998 3357334.73205566 20.12407303 44 51 59
245749.94616699 3357331.79159546 18.66543770 38 93 113
245751.22869873 3357332.27532959 21.55824661 39 241 245
245746.43957520 3357332.40771484 20.71722984 29 100 128
245751.14392090 3357334.45129395 20.63466263 32 45 53
245741.68347168 3357334.08178711 21.32361031 111 125 136
245743.60852051 3357334.59597778 21.67075157 10 169 199
245746.13360596 3357332.28927612 19.37368584 28 215 255
245748.11035156 3357332.24658203 20.84781837 32 112 145
245744.52258301 3357335.06356812 20.87120628 4 33 63
245741.33703613 3357333.91070557 20.32616806 107 112 116
245750.58074951 3357334.47344971 20.52445984 67 88 107
245749.67749023 3357334.39489746 21.18448639 59 119 155
245750.29766846 3357334.47991943 19.40486145 11 155 208
245742.28704834 3357334.21896362 21.61185455 107 218 238
245752.47338867 3357333.85699463 20.47642517 29 144 191
245752.67395020 3357332.28933716 18.40118408 14 22 33
245751.55029297 3357331.76052856 18.73693657 14 142 189
245741.27734375 3357334.01766968 19.82695389 84 83 88
245742.98327637 3357335.10360718 21.31293869 0 61 110
245748.54968262 3357332.14129639 20.63776970 13 20 28
245745.91674805 3357332.46054077 21.37389755 32 117 146
245743.13385010 3357334.11865234 21.66694832 63 199 215
245749.64068604 3357332.98077393 21.61179733 90 239 243
245752.50433350 3357333.80947876 21.01946259 33 138 186
245752.48516846 3357332.82516479 19.94349480 4 73 128
245750.91754150 3357332.21350098 21.51930237 20 242 245
245743.64752197 3357335.18807983 19.74054718 5 144 201
245752.46740723 3357332.64285278 20.16355515 10 89 145
245751.40765381 3357334.34616089 19.76906013 3 153 204
245744.29388428 3357332.48794556 19.19515419 14 200 241
245751.19506836 3357334.34820557 20.91959000 42 56 67
245748.06677246 3357332.25814819 20.81645584 14 113 145
245746.78106689 3357332.23284912 19.15337181 13 204 246
245741.81616211 3357335.28628540 19.27598763 66 71 75
245743.00317383 3357332.66857910 19.89903069 39 173 208
245748.20983887 3357332.09484863 18.95420456 6 188 228
245743.04748535 3357334.93127441 21.57840919 67 235 248
245751.77563477 3357331.91754150 21.48968315 99 234 253
245748.80230713 3357332.04464722 19.87928772 5 199 237
245743.65771484 3357334.43731689 21.72853851 70 205 227
245750.45697021 3357334.51565552 18.71174622 25 144 200
245746.26348877 3357333.88265991 21.83374214 227 210 218
245750.44781494 3357333.38684082 21.57506371 95 179 189
245746.00323486 3357335.04412842 18.54472160 69 70 75
245745.06866455 3357334.85488892 21.36514473 9 75 127
245743.20373535 3357335.10540771 20.78773499 17 35 49
245741.21502686 3357335.13348389 19.17395401 36 40 41
245744.96490479 3357332.53359985 20.55191422 40 81 109
245748.69116211 3357334.44348145 21.47079849 103 225 248
245745.70507813 3357332.43725586 20.92799950 21 32 38
245752.50958252 3357333.77978516 19.46622276 28 120 171
245745.17272949 3357332.38323975 19.91494751 145 220 241
245742.70159912 3357332.88909912 19.13572121 56 161 183
245741.10894775 3357334.22616577 18.73875237 85 88 97
245752.42559814 3357332.95303345 18.77626228 7 92 147
245751.36834717 3357331.82492065 20.92889023 25 57 78
245744.40856934 3357333.18688965 21.80150223 112 233 242
245741.13580322 3357335.11206055 19.95085144 113 120 126
245747.18145752 3357332.21075439 18.78821564 37 188 231
245746.26080322 3357335.01531982 19.49666977 0 42 84
245744.52929688 3357334.93328857 21.40278816 32 117 172
245741.36846924 3357333.87045288 19.83822250 52 53 58
245742.49743652 3357332.79022217 20.42779541 80 175 207
245745.66900635 3357333.61676025 21.90925026 221 210 214
245742.82910156 3357332.79434204 18.96341515 136 188 210
245740.96148682 3357333.33135986 18.31292152 90 95 99
245745.52111816 3357332.38793945 19.09292030 6 203 245
245749.35791016 3357334.38723755 20.66255188 43 51 70
245741.11584473 3357333.13351440 18.30894661 104 107 112
245750.30267334 3357333.31787109 21.57562447 118 187 192
245747.82299805 3357333.83880615 21.66015434 83 235 248
245743.36083984 3357335.26016235 19.28206635 11 61 114
245746.86419678 3357334.86169434 19.84123421 87 189 229
245741.62603760 3357333.38046265 21.16494370 170 187 195
245749.34790039 3357331.93743896 20.18900681 19 195 232
245745.66351318 3357332.40689087 21.17113686 23 36 42
245745.71179199 3357334.21182251 21.82527924 81 226 247
245751.74914551 3357333.90112305 21.57640076 94 235 244
245741.95050049 3357332.83984375 18.34902763 106 123 133
245748.42242432 3357334.62496948 20.97065926 14 40 53
245745.06335449 3357333.22683716 21.83067513 169 237 246
245749.93237305 3357333.91659546 21.56460953 147 226 230
245747.67877197 3357332.16317749 18.93269539 1 200 241
245746.96453857 3357334.72244263 21.37040329 0 63 116
245744.62658691 3357332.52737427 21.17243385 71 93 106
245741.03436279 3357334.33926392 20.30963898 97 106 113
245751.09326172 3357334.42193604 20.16820526 23 160 206
245748.19342041 3357334.75457764 18.74630356 20 155 203
245752.40301514 3357332.44656372 19.05257034 1 91 154
245752.46380615 3357333.21316528 19.06115150 16 93 139
245752.65502930 3357332.23883057 18.40875626 15 21 33
245750.46307373 3357333.48794556 21.57320213 99 185 198
245750.85467529 3357334.49252319 20.45462227 72 117 138
245752.46118164 3357333.91943359 21.18399048 23 157 208
245748.60662842 3357332.05645752 19.19054413 59 216 249
245751.08056641 3357333.66253662 21.58839226 81 233 246
245740.86383057 3357335.23782349 18.48454285 109 108 113
245740.90496826 3357334.58456421 18.79637718 130 141 147
245745.92901611 3357333.56106567 21.85898972 221 210 216
245741.37805176 3357335.04626465 21.07319832 144 174 184
245746.92779541 3357333.92782593 21.64248085 70 236 248
245745.32196045 3357334.02783203 21.87049866 211 213 225
245747.07537842 3357333.60968018 21.64716911 35 235 250
245751.08538818 3357334.33221436 20.94328690 42 56 65
245745.31341553 3357332.39868164 19.03022194 18 203 247
245742.60089111 3357332.83895874 18.74543381 98 157 173
245749.73522949 3357333.86120605 21.56282997 143 245 249
245750.85302734 3357334.19494629 21.41942406 86 204 230
245745.35467529 3357332.63912964 21.45560265 70 228 237
245749.41503906 3357331.97436523 20.27861023 84 202 240
245749.96051025 3357334.11828613 21.55090141 141 225 235
245749.71264648 3357333.69433594 21.57238960 150 248 247
245742.54681396 3357334.11923218 21.61157227 67 229 242
245750.00280762 3357332.05615234 21.39562416 35 136 166
245752.48748779 3357333.16052246 19.52114677 9 103 154
245742.11407471 3357333.35577393 18.93644142 130 149 153
245747.66662598 3357332.18933105 18.75975609 3 200 242
245745.43994141 3357332.42126465 20.29456139 152 224 238
245752.40972900 3357332.24124146 18.75423431 19 97 145
245749.02893066 3357332.48544312 21.53078651 86 214 225
245743.86981201 3357333.45828247 21.81109047 198 233 237
245751.65069580 3357331.74166870 20.12062073 6 183 216
245750.58215332 3357334.50775146 18.68233109 32 147 202
245745.14898682 3357333.41079712 21.85556793 217 208 213
245752.55017090 3357333.32498169 20.18123436 28 111 165
245752.53082275 3357333.41403198 20.78473091 26 51 81
245744.74981689 3357332.41567993 19.95039368 146 227 244
245748.22375488 3357333.52453613 21.71914291 255 252 245
245749.72607422 3357333.81170654 21.56578255 148 248 250
245746.97113037 3357334.82272339 19.51236343 6 133 188
245745.03594971 3357332.43502808 18.88999748 12 197 241
245741.10729980 3357334.19241333 20.16516304 89 94 100
245740.90948486 3357334.56613159 18.79857254 125 136 142
245741.40686035 3357333.71545410 21.01273918 96 112 125
245747.19726563 3357333.69387817 21.63330841 41 237 251
245748.07330322 3357334.88583374 18.47309113 8 37 69
245743.53454590 3357334.93746948 21.52542686 74 225 252
245743.81707764 3357333.63577271 21.80847740 95 104 111
245744.95147705 3357334.27548218 21.69523811 108 224 249
245744.13610840 3357333.16763306 21.79525375 118 223 244
245745.71166992 3357332.41183472 21.07804108 22 33 37
245752.50030518 3357333.81176758 21.11645317 26 134 181
245746.98089600 3357332.32778931 20.83152199 32 81 98
245749.49554443 3357332.09030151 20.81812668 0 16 24
245744.76507568 3357332.41561890 19.92910576 131 222 241
245745.34436035 3357333.18621826 21.80883026 159 239 248
245751.24023438 3357332.36434937 21.57926178 48 241 248
245747.27923584 3357334.77505493 19.17070007 11 160 203
245746.20428467 3357334.73937988 21.40102577 62 143 190
245742.80487061 3357333.25784302 21.58703804 65 161 185
245745.89257813 3357332.31054688 19.64761543 59 209 242
245741.19903564 3357334.93811035 20.11063957 121 125 128
245752.00469971 3357331.71090698 19.45159912 23 209 250
245750.92687988 3357333.79669189 21.56730270 98 224 236
245752.11743164 3357331.78460693 20.93714523 7 177 229
245748.10449219 3357332.17425537 20.43125153 5 91 124
245751.85528564 3357334.29852295 20.60494614 60 158 195
245744.91723633 3357332.93374634 21.64935684 117 252 255
245745.22845459 3357332.37704468 19.97052956 155 222 239
245741.04693604 3357335.33340454 19.56260490 54 62 73
245752.42993164 3357331.77249146 18.51667023 49 58 63
245740.85809326 3357335.06597900 19.05628395 60 102 127
245742.48095703 3357332.89840698 19.74527168 97 155 167
245748.82550049 3357334.63232422 19.62085533 14 154 203
245741.82354736 3357335.36651611 19.09457779 52 62 74
245745.45031738 3357335.11251831 18.70236969 161 159 164
245742.09887695 3357334.62841797 21.58438110 10 31 50
245749.75976563 3357331.77465820 18.59692001 64 92 103
245745.52325439 3357335.12219238 18.83766174 15 14 20
245741.69909668 3357335.42825317 18.54173851 47 60 68
245751.18249512 3357333.94668579 21.55141449 104 227 235
245748.80224609 3357334.01144409 21.53861427 65 239 246
245749.74353027 3357332.02487183 21.27429008 5 21 36
245743.74127197 3357332.62405396 20.44282532 4 30 47
245748.00970459 3357334.76818848 18.82233238 16 153 197
245750.96771240 3357334.40090942 19.60528374 2 149 203
245743.05407715 3357332.75619507 21.18648529 17 100 142
245745.17346191 3357332.39614868 20.04317093 191 239 249
245742.86456299 3357334.04241943 21.63603020 52 175 193
245747.91149902 3357332.28765869 21.01715851 8 119 162
245747.46502686 3357334.93356323 18.49137306 11 45 83
245749.75952148 3357331.81088257 18.60576248 50 99 116
245742.94183350 3357335.21609497 18.64933014 47 46 51
245752.44641113 3357332.66891479 19.95003128 6 79 134
245742.43231201 3357334.32254028 21.59933853 74 234 250
245748.89703369 3357332.86071777 21.65337944 72 213 220
245750.89770508 3357334.42324829 19.01284218 7 142 198
245748.24798584 3357334.76110840 20.55646324 34 33 47
245750.56213379 3357334.50204468 18.77877426 9 136 191
245752.46142578 3357333.07226563 19.50893211 10 97 142
245749.40295410 3357332.53713989 21.52978134 58 216 225
245747.96948242 3357332.07965088 19.42019653 2 200 235
245743.25848389 3357335.14843750 18.64886665 42 47 50
245747.12634277 3357332.34594727 20.52463531 37 124 152
245743.19708252 3357335.00949097 21.54666519 79 229 255
245750.37329102 3357334.47851563 19.12605667 2 149 203
245744.15783691 3357332.57882690 20.82388687 32 46 57
245742.39453125 3357332.80493164 21.05701637 13 82 123
245746.47644043 3357334.84088135 19.10112190 36 100 138
245746.35974121 3357334.40917969 21.67375755 47 207 239
245745.07244873 3357335.11569214 20.82950783 0 30 53
245751.42065430 3357334.41519165 18.66353226 44 139 195
245741.28820801 3357333.99426270 20.06343079 76 81 87
245741.60827637 3357333.80114746 18.99189186 182 226 225
245752.32281494 3357331.96664429 19.43035126 40 74 112
245752.66485596 3357332.20941162 18.39409637 15 21 33
245744.10827637 3357335.24392700 18.40630150 36 45 60
245742.13159180 3357334.23223877 21.61304474 17 43 68
245752.27734375 3357332.77667236 21.57143211 64 233 252
245749.18475342 3357334.42715454 18.80473709 89 88 93
245747.97973633 3357332.26190186 20.78537369 10 117 151
245752.41088867 3357332.68798828 21.44408417 0 49 105
245749.94952393 3357334.46975708 19.09048080 49 155 207
245741.80731201 3357333.22229004 18.30913544 113 121 123
245741.01385498 3357334.52917480 20.16444397 55 66 72
245752.72985840 3357332.26031494 18.36013412 18 27 36
245745.25195313 3357333.88406372 21.89843178 215 208 215
245748.31488037 3357334.65966797 19.11069679 6 147 200
245742.28759766 3357332.82369995 21.06331635 27 101 136
245748.77136230 3357334.62805176 20.60633087 48 108 144
245746.81964111 3357333.11337280 21.65470314 58 233 250
245749.18725586 3357334.46356201 20.97537422 87 121 130
245751.18371582 3357331.78973389 19.46185493 35 167 206
245750.36541748 3357334.35025024 21.26365852 0 61 105
245745.94238281 3357332.30651855 19.66180420 62 213 244
245742.64208984 3357333.70864868 21.58753777 61 139 159
245749.71166992 3357333.17782593 21.59868813 115 249 248
245751.61962891 3357333.78781128 21.57951546 83 235 246
245742.41326904 3357333.12875366 21.51963043 81 187 203
245743.25567627 3357333.99502563 21.70923042 105 204 225
245749.78082275 3357331.94314575 20.13176727 79 213 251
245746.39788818 3357332.26272583 19.46840858 38 211 245
245752.39660645 3357333.03561401 21.51928520 35 167 206
245751.51599121 3357331.79431152 21.01603508 33 88 108
245747.44116211 3357332.16778564 20.04099464 158 223 241
245751.80224609 3357331.73333740 20.44240570 9 202 243
245741.90216064 3357335.18542480 20.28128815 55 62 55
245751.47161865 3357334.39779663 20.65504646 62 78 91
245749.93554688 3357331.95660400 20.53314781 4 20 35
245752.15161133 3357333.37756348 21.58224869 126 255 255
245742.71173096 3357332.74005127 18.74092293 65 64 70
245741.12304688 3357334.22540283 18.75484657 85 88 97
245747.41375732 3357332.29962158 21.23031998 39 136 187
245749.66534424 3357334.55313110 19.90479660 9 161 211
245748.15167236 3357334.65420532 19.90543938 70 184 221
245748.84655762 3357332.04052734 19.82110214 3 201 240
245742.37994385 3357332.86267090 20.17069054 97 166 182
245747.89581299 3357334.54241943 21.23043823 0 56 83
245745.11749268 3357332.50134277 20.85226822 57 102 121
245741.82165527 3357333.40945435 21.40691757 51 68 76
245746.36480713 3357334.64303589 21.56141090 59 197 225
245746.47155762 3357332.39566040 20.72222710 30 101 133
245741.56463623 3357334.37719727 21.22887039 131 153 166
245748.30279541 3357334.24349976 21.50492477 42 235 253
245746.57635498 3357334.64581299 21.54141235 98 230 251
245749.05334473 3357334.62084961 19.95461464 5 160 208
