245689.67840576 3357676.92810059 17.09848022 136 143 149
245690.44421387 3357672.15447998 16.63049126 99 111 91
245689.21734619 3357675.16345215 17.52062225 91 92 96
245690.35925293 3357672.34332275 16.85165215 74 81 74
245690.54260254 3357677.04064941 16.37806702 50 52 51
245690.17340088 3357668.36022949 17.34521484 129 128 126
245690.42254639 3357669.40258789 17.71730614 255 250 247
245691.08502197 3357668.93017578 17.88319397 64 69 63
245690.37438965 3357671.21038818 16.43106270 70 70 70
245690.23901367 3357668.18670654 17.32404900 146 146 146
245690.91351318 3357671.16705322 16.83383369 86 87 82
245689.76226807 3357675.39379883 17.55406570 5 15 16
245691.15734863 3357671.24353027 16.99960899 49 50 44
245690.64355469 3357671.31701660 16.65627670 58 58 58
245690.21185303 3357669.27050781 17.34867668 255 243 240
245690.19219971 3357668.25970459 17.02195740 143 138 132
245690.63098145 3357671.73339844 16.43802643 81 82 77
245690.77172852 3357672.04058838 17.12320900 68 69 63
245690.77038574 3357670.95233154 17.17119026 40 40 42
245690.01055908 3357672.84472656 17.43179512 132 132 132
245688.98474121 3357675.77185059 17.04688454 116 121 124
245691.08166504 3357671.49346924 16.96555901 119 113 99
245690.44494629 3357670.93286133 17.05174828 49 49 51
245690.36914063 3357670.95086670 16.75179672 90 90 92
245689.65313721 3357676.68395996 17.13529015 107 115 118
245688.95227051 3357676.70123291 17.02747726 176 193 200
245690.34057617 3357673.40661621 17.72106552 99 103 104
245690.11260986 3357668.44189453 17.11094093 139 132 124
245688.85626221 3357676.49914551 16.88691902 79 90 94
245690.47827148 3357672.34796143 16.99909592 77 80 73
245690.32946777 3357673.04296875 17.62816811 78 82 81
245690.93243408 3357670.90686035 17.30032921 119 119 117
245689.86871338 3357677.19561768 16.95510101 43 44 48
245690.68878174 3357672.92138672 17.55808067 25 27 26
245689.32861328 3357674.92486572 17.71825981 138 147 152
245689.05480957 3357676.70245361 17.23143387 204 211 219
245690.07073975 3357674.62170410 17.89878273 30 32 29
245690.61834717 3357672.08416748 16.89738083 79 82 75
245690.31890869 3357671.29058838 16.38077354 71 68 63
245690.70446777 3357671.02941895 16.76134872 79 91 87
245689.38879395 3357675.35620117 17.35433769 38 49 55
245689.09448242 3357674.46270752 17.14970207 48 56 58
245690.22894287 3357670.46875000 17.45692635 107 73 72
245689.73071289 3357675.74749756 17.44381714 20 23 30
245690.33331299 3357672.65905762 17.43290520 27 30 35
245689.13171387 3357675.00457764 17.44581795 33 37 40
245690.44042969 3357672.75189209 17.44666672 24 28 29
245690.22546387 3357670.69537354 17.26301956 223 214 215
245690.50305176 3357672.33551025 17.05404472 80 86 76
245690.70733643 3357669.43078613 17.81692505 113 112 108
245688.99536133 3357674.90966797 17.00850677 52 56 59
245690.55493164 3357672.96356201 17.57983589 85 89 88
245689.00238037 3357675.63885498 17.07114601 104 109 113
245688.81927490 3357676.59912109 16.59515572 43 49 47
245689.10156250 3357674.78094482 17.22112656 132 138 138
245689.74121094 3357675.01763916 17.81740952 115 119 118
245689.50390625 3357675.69329834 17.38992500 29 36 42
245690.68133545 3357669.26629639 17.79405403 140 130 131
245691.07348633 3357671.40667725 16.90722656 92 88 76
245688.99395752 3357675.85107422 17.09933090 142 151 150
245690.89239502 3357668.87445068 17.80732155 76 78 75
245690.57940674 3357670.20007324 17.66411781 175 158 151
245690.47985840 3357672.80181885 17.46483040 33 37 40
245691.14117432 3357671.45111084 17.04552841 87 85 72
245688.93286133 3357675.62261963 16.71609116 55 58 63
245690.85742188 3357670.66381836 17.58106995 57 59 54
245690.51879883 3357669.01336670 17.68567657 221 212 215
245690.77203369 3357671.90887451 17.01218414 65 66 60
245689.04162598 3357675.42510986 17.21474266 134 138 141
245690.65551758 3357672.02111816 16.88401222 70 71 66
245689.33648682 3357674.39575195 17.51555252 6 11 14
245690.34289551 3357673.11614990 17.65137291 71 75 76
245690.09863281 3357676.41687012 17.34291458 101 105 104
245689.25158691 3357676.54028320 17.23179054 139 143 146
245688.98297119 3357675.33148193 17.05758667 53 57 60
245690.13946533 3357675.85961914 17.55932617 18 24 24
245690.88580322 3357670.44171143 17.67101479 134 132 107
245688.97082520 3357676.31317139 17.18442535 166 174 176
245690.43414307 3357669.72576904 17.72929955 254 244 242
245691.06274414 3357670.48663330 17.64601707 121 121 85
245690.49621582 3357669.10284424 17.69972610 228 218 219
245690.45819092 3357676.99273682 16.77675247 38 44 42
245690.16339111 3357669.72338867 17.45811081 198 164 155
245688.88574219 3357675.05340576 16.65270996 117 121 122
245688.89129639 3357675.89019775 16.63808441 23 27 30
245688.94445801 3357675.62103271 16.89928246 56 60 63
245689.78326416 3357675.52252197 17.56279182 6 14 16
245689.73382568 3357676.64831543 17.15577507 115 121 121
245688.95550537 3357676.50842285 17.19509506 163 174 178
245690.48022461 3357672.36267090 17.16407204 70 78 65
245689.89001465 3357673.52758789 17.82340240 127 131 132
245689.19256592 3357674.67388916 17.33523178 157 162 165
245690.59600830 3357672.08782959 16.85068893 78 81 72
245691.18084717 3357669.88165283 17.66673851 129 122 104
245690.31610107 3357677.11492920 16.68213463 42 46 45
245690.93572998 3357671.65704346 17.15400887 44 46 35
245688.86340332 3357676.02880859 16.46476746 42 44 43
245690.26159668 3357677.12017822 16.90429115 61 63 60
245688.93353271 3357675.16473389 16.76240540 87 88 90
245689.46618652 3357675.47210693 17.36427879 17 27 36
245691.00476074 3357671.57305908 17.05482674 93 85 74
245689.98010254 3357673.24078369 17.79778290 108 109 111
245690.65948486 3357671.61212158 16.67940140 72 73 68
245690.17095947 3357676.80737305 17.13438225 113 115 114
245690.29736328 3357671.08007813 16.47060204 65 65 65
245690.48748779 3357671.10852051 16.55249786 46 46 48
245689.05364990 3357676.14642334 17.26217461 167 175 178
245689.34332275 3357676.87841797 17.15124702 148 155 165
245689.46600342 3357677.04333496 17.08753204 156 165 174
245690.28314209 3357670.28289795 17.57706833 188 188 176
245690.24084473 3357669.02191162 17.30217934 183 175 173
245689.78759766 3357675.82769775 17.43510628 23 28 32
245690.73486328 3357668.83642578 17.74651337 89 89 89
245689.08068848 3357676.72930908 17.26408195 164 171 177
245691.04351807 3357669.34924316 17.85254288 89 89 89
245690.14929199 3357672.92712402 17.56788063 51 53 50
245690.49182129 3357670.47998047 17.63218117 179 175 166
245689.99835205 3357674.04119873 17.83173180 179 181 170
245690.18524170 3357676.71026611 17.19120216 95 96 98
245690.10424805 3357670.14636230 17.25890160 237 234 229
245689.70776367 3357675.55041504 17.47321510 8 17 22
245690.25579834 3357668.57006836 17.36886978 119 117 118
245689.43878174 3357674.56323242 17.75230408 158 174 174
245690.16650391 3357674.21862793 17.83969307 162 160 147
245690.08355713 3357675.27612305 17.77784920 9 18 13
245690.08746338 3357676.11944580 17.32276344 105 107 106
245690.19677734 3357670.64764404 17.28093529 224 212 212
245690.60601807 3357672.40124512 17.31071663 58 67 48
245690.91040039 3357669.86633301 17.68397522 150 139 133
245690.17877197 3357668.25897217 17.23672676 120 119 114
245690.10272217 3357670.73406982 16.97511864 98 93 90
245690.45800781 3357668.34222412 17.55812454 91 93 90
245690.66418457 3357669.50189209 17.80726242 132 127 121
245690.67608643 3357668.92852783 17.73599052 99 97 98
245690.32073975 3357672.67938232 17.44159698 27 30 35
245691.14282227 3357671.44189453 17.01939011 87 85 72
245690.08056641 3357673.10211182 17.74016762 84 88 87
245690.96411133 3357669.57904053 17.73267937 127 122 119
245690.33142090 3357672.65924072 17.43312454 27 30 35
245690.48931885 3357672.34393311 17.04445648 82 87 80
245690.09698486 3357670.11437988 17.24131203 219 209 207
245690.97601318 3357670.56793213 17.61550331 134 137 110
245690.09716797 3357677.22546387 16.74189186 65 69 70
245690.16491699 3357668.73657227 17.25246620 127 119 117
245689.04345703 3357675.94213867 17.20191765 180 188 190
245688.85449219 3357676.05578613 16.73037720 43 53 54
245690.79943848 3357671.81909180 17.04319763 66 67 61
245689.95178223 3357674.15863037 17.87069321 137 138 132
245690.03503418 3357674.75592041 17.89863586 22 24 21
245689.34197998 3357676.10217285 17.34573746 119 127 130
245690.49279785 3357670.79077148 17.33573914 132 133 135
245690.33734131 3357669.76251221 17.67841721 220 219 214
245690.17138672 3357669.18200684 17.25138283 221 213 210
245691.18670654 3357671.36834717 17.07480049 70 70 58
245690.10583496 3357676.24908447 17.33979416 100 102 101
245690.75756836 3357671.97064209 16.99299049 66 67 61
245690.15203857 3357673.37506104 17.75488472 115 119 120
245689.04992676 3357676.88592529 17.04157257 187 206 212
245690.98645020 3357670.98553467 17.17131805 36 36 34
245690.33258057 3357676.03729248 17.35702515 61 63 58
245689.94616699 3357676.07226563 17.33083725 109 111 110
245690.59783936 3357671.25396729 16.61871719 57 59 58
245690.68579102 3357676.85839844 16.55469704 15 19 22
245689.07562256 3357675.64532471 17.26940346 129 128 133
245690.99792480 3357671.63165283 17.19048500 29 27 15
245690.50610352 3357673.26544189 17.68778801 79 83 82
245689.01098633 3357675.23492432 17.30073547 101 107 107
245690.86877441 3357676.81018066 16.50695419 38 43 39
245690.21331787 3357668.18023682 17.14871407 114 114 112
245690.64428711 3357676.90539551 16.43378448 21 22 24
245689.31915283 3357674.39160156 17.46857834 1 6 9
245688.96600342 3357674.54168701 16.91843414 132 136 137
245689.86547852 3357674.79089355 17.91259575 66 67 69
245689.51055908 3357674.46868896 17.81594086 203 215 215
245688.98046875 3357676.86999512 16.89850235 99 114 119
245691.04724121 3357669.33050537 17.86360741 91 91 91
245690.35827637 3357670.01995850 17.69212532 255 252 251
245690.54602051 3357676.94189453 16.52990723 18 24 22
245689.18646240 3357674.92205811 17.49791145 2 6 9
245690.34289551 3357672.87042236 17.54194641 80 84 85
245690.77093506 3357671.99914551 17.08389282 67 68 62
245689.21679688 3357676.87237549 17.14769554 162 171 180
245689.15466309 3357675.32482910 17.37129021 66 71 75
245690.17211914 3357668.34674072 16.80930328 156 147 140
245690.58679199 3357671.51654053 16.51356506 71 68 63
245691.04425049 3357671.31982422 16.88602829 69 66 59
245690.27539063 3357670.89752197 16.82215309 76 76 74
245690.57073975 3357671.53540039 16.30853081 159 155 144
245690.78155518 3357670.42437744 17.67431450 145 142 125
245690.59185791 3357671.54205322 16.48386002 118 114 102
245689.21868896 3357674.71105957 17.38103294 29 33 36
245690.69598389 3357669.68170166 17.75868607 137 122 119
245689.02893066 3357676.93029785 16.92415047 96 109 117
245690.58612061 3357668.62756348 17.70185471 85 85 87
245690.60021973 3357668.47052002 17.75082588 17 16 14
245689.26403809 3357674.66839600 17.47882652 7 10 15
245688.88555908 3357675.92041016 16.73999596 19 24 28
245689.65655518 3357675.64837646 17.44858932 14 21 27
245691.07135010 3357669.65234375 17.66258812 130 121 114
245690.18237305 3357673.98706055 17.74846077 111 112 106
245689.99005127 3357674.26538086 17.88576126 155 156 151
245690.51715088 3357671.23114014 16.50867081 50 51 53
245690.33978271 3357668.27832031 17.45898438 11 13 12
245689.61401367 3357674.70642090 17.86000633 42 43 48
245690.41516113 3357670.55004883 17.57914352 58 58 56
245690.88500977 3357668.70654297 17.80403328 40 42 41
245689.62127686 3357675.24340820 17.45814896 16 23 29
245689.06225586 3357674.83721924 17.18875504 84 92 94
245690.25726318 3357676.92437744 17.08124352 95 95 97
245689.28552246 3357674.45422363 17.43112183 4 9 12
245689.69848633 3357675.45996094 17.47021866 6 16 17
245689.29815674 3357675.33764648 17.33700943 29 38 45
245688.95928955 3357675.35266113 16.69452286 64 68 71
245690.88500977 3357677.12603760 16.26113129 54 64 53
245689.24664307 3357674.67596436 17.42701340 4 8 11
245690.80358887 3357671.75164795 16.88838959 60 59 55
245689.90759277 3357674.95654297 17.87112236 102 106 107
245689.22918701 3357675.57995605 17.36100769 41 45 57
245690.30194092 3357670.94427490 16.63314629 94 93 91
245690.01281738 3357672.69598389 17.22512627 31 30 35
245690.23675537 3357670.80041504 17.16770172 49 49 51
245689.89813232 3357673.60095215 17.82869339 68 69 71
245690.57708740 3357669.33636475 17.77257919 180 165 162
245690.22448730 3357668.17358398 17.01143456 143 138 132
245688.94561768 3357676.84228516 16.79329872 58 69 71
245690.77258301 3357677.05346680 16.30782509 67 74 67
245689.22393799 3357674.49865723 17.34860229 163 169 169
245689.76257324 3357676.46539307 17.22237778 103 107 106
245690.44427490 3357668.54937744 17.57126999 25 26 31
245690.89666748 3357676.82611084 16.37853050 48 55 48
245689.32910156 3357676.00756836 17.34941864 128 133 137
245690.37213135 3357669.18817139 17.63021088 84 84 86
245690.20111084 3357672.33227539 16.72323799 62 52 43
245689.53387451 3357676.51440430 17.18825912 120 125 128
245689.22235107 3357674.64080811 17.37316513 99 104 107
245689.74713135 3357674.49603271 17.92139816 28 32 33
245689.46197510 3357674.56042480 17.77578735 192 208 208
245690.03094482 3357676.41473389 17.32545853 94 95 97
245690.94757080 3357668.90625000 17.82982063 68 73 67
245691.09075928 3357671.53106689 17.09880257 98 94 83
245690.04101563 3357675.96575928 17.39211655 7 13 13
245690.94580078 3357671.48956299 16.84395218 112 109 100
245690.47033691 3357668.58813477 17.60150146 43 44 48
245689.90588379 3357677.20501709 16.90299988 20 19 24
245690.31079102 3357670.74688721 17.28855896 198 196 197
245689.88757324 3357675.45153809 17.68884468 8 17 16
245690.43634033 3357672.64306641 17.40675735 22 26 25
245690.92578125 3357677.18975830 16.28640366 68 79 71
245690.05499268 3357674.90924072 17.86614418 91 93 92
245690.20812988 3357669.46960449 17.48185539 142 104 103
245691.05639648 3357668.71527100 17.89255524 16 18 13
245689.73815918 3357675.57012939 17.50258064 8 15 21
245688.89166260 3357676.07727051 16.96777153 62 72 73
245689.37030029 3357675.14068604 17.55944252 30 35 38
245688.96868896 3357675.00573730 16.88856506 66 70 73
245691.19915771 3357671.07519531 17.21385765 18 20 15
245689.02606201 3357676.01800537 17.19558525 189 199 200
245690.93054199 3357676.87268066 16.35287285 52 62 53
245690.46643066 3357669.91363525 17.73516083 196 176 175
245688.91967773 3357675.29168701 16.59941483 109 110 112
245690.10675049 3357675.87365723 17.53934288 16 21 24
245690.47619629 3357668.68194580 17.61518097 61 61 63
245690.17462158 3357668.69390869 17.26095200 138 129 130
245690.13482666 3357672.29895020 16.62351227 121 66 59
245690.33227539 3357667.86065674 16.86015129 68 68 66
245690.81109619 3357670.95056152 17.18451309 39 39 41
245690.14697266 3357669.85632324 17.41797638 253 228 224
245690.60021973 3357677.10711670 16.30650139 73 75 70
245689.06628418 3357675.95434570 17.24049187 169 177 180
245690.75799561 3357670.33703613 17.66415024 151 145 133
245688.97613525 3357675.70611572 17.00951576 68 73 76
245691.07006836 3357671.49719238 16.96067047 129 121 108
245689.06707764 3357675.74853516 17.23890495 161 162 166
245690.64733887 3357677.13861084 16.26776314 74 79 73
245690.10742188 3357670.04217529 17.26774788 250 245 241
245690.72558594 3357672.68139648 17.38577461 37 44 36
245690.53332520 3357677.19683838 16.24734688 106 111 105
245690.52398682 3357669.97479248 17.66053963 187 161 160
245690.49426270 3357669.05731201 17.68556404 228 217 221
245690.16796875 3357676.88543701 17.08999252 112 112 112
245690.10998535 3357669.90594482 17.33385468 255 252 246
245690.68096924 3357672.87731934 17.52732277 2 4 3
245690.09143066 3357677.23260498 16.66968918 57 61 60
245690.37548828 3357670.92474365 16.99972725 68 68 66
245690.62609863 3357671.71643066 16.42328262 83 84 79
245690.79064941 3357671.13067627 16.73234367 134 140 136
245691.01727295 3357669.36553955 17.84138870 97 95 96
245690.52777100 3357668.88635254 17.65366745 180 180 182
245689.45800781 3357675.66625977 17.38351631 14 21 27
245690.11059570 3357673.76196289 17.74432945 8 9 11
245689.79315186 3357677.19738770 16.92771149 13 12 18
245691.04339600 3357669.79443359 17.67797279 132 122 113
245690.22363281 3357669.43310547 17.51398659 73 34 35
245690.06396484 3357669.94946289 17.16655922 199 186 178
245689.85015869 3357675.44952393 17.65251923 7 17 18
245690.16955566 3357677.16271973 16.93717384 48 48 48
245688.93878174 3357674.76617432 16.86357307 114 116 115
245688.98059082 3357675.16992188 17.23899078 64 70 70
245690.75415039 3357668.58654785 17.79037476 18 22 23
245689.98028564 3357674.71441650 17.91596413 32 34 33
245690.30090332 3357672.49670410 17.29434586 40 44 45
245690.06768799 3357672.55908203 17.11948776 33 32 37
245690.47912598 3357676.98620605 16.61769485 38 44 42
245690.41839600 3357668.84246826 17.56150627 20 20 20
245690.64239502 3357669.39001465 17.79516411 150 143 137
245690.33135986 3357667.76635742 16.67248726 74 69 65
245689.64642334 3357674.94738770 17.82727242 149 153 156
245689.73828125 3357674.71752930 17.90278435 11 11 13
245689.28222656 3357676.86663818 17.17306519 146 155 164
245690.49877930 3357676.95684814 16.78510475 34 40 38
245689.99566650 3357674.11889648 17.85479927 171 171 163
245690.95269775 3357671.79577637 17.33295250 42 43 37
245690.69818115 3357672.12133789 17.04151917 70 71 65
245690.07122803 3357676.83929443 17.10362244 106 107 109
245690.05590820 3357675.13439941 17.80630302 48 52 51
245690.62988281 3357669.41876221 17.79301834 151 144 138
245690.50738525 3357669.80133057 17.75179672 187 166 165
245689.74304199 3357677.19812012 16.81756973 102 105 112
245688.90454102 3357675.83813477 16.66383934 22 23 27
245688.90893555 3357675.19500732 16.64788246 101 102 104
245690.09002686 3357672.71563721 17.39154053 90 94 97
245690.08935547 3357670.14056396 17.21404648 206 197 190
245690.52777100 3357671.17059326 16.55460167 54 54 56
245688.97833252 3357674.78643799 16.98683548 63 67 68
245689.34576416 3357674.41827393 17.55814552 10 15 18
245691.24121094 3357671.16339111 17.34149361 32 35 26
245690.44311523 3357671.34405518 16.36799240 79 74 68
245690.72302246 3357676.84954834 16.59017754 13 14 18
245688.98895264 3357674.69842529 16.99587822 53 59 59
245690.81994629 3357676.82611084 16.50088692 21 22 24
245690.12500000 3357670.52069092 17.25475311 255 253 250
245690.19854736 3357670.60522461 17.32061005 234 222 222
245690.30242920 3357669.18872070 17.48438263 62 51 49
245689.06817627 3357676.55615234 17.24894142 182 187 191
245690.53515625 3357671.99176025 16.58222389 94 100 86
245690.28540039 3357671.03656006 16.48443031 54 54 54
245690.22399902 3357668.20849609 16.81216431 126 117 110
245690.77545166 3357671.90325928 17.02435303 65 66 60
245689.79528809 3357675.24450684 17.65670395 16 27 29
245690.13104248 3357672.86065674 17.52160835 68 68 68
245688.95941162 3357675.18762207 16.83454132 58 59 63
245691.15789795 3357670.92431641 17.33038521 89 91 86
245689.82983398 3357676.59680176 17.18770790 102 106 107
245689.12365723 3357676.46105957 17.25308609 132 142 141
245690.95245361 3357668.95294189 17.83532906 72 77 71
245688.88317871 3357675.93463135 16.80340195 15 20 24
245690.57922363 3357671.00231934 16.76255417 86 95 92
245690.25927734 3357673.80352783 17.73820305 89 90 92
245690.60864258 3357669.83953857 17.74625969 151 131 130
245690.10821533 3357673.26995850 17.75718880 102 106 107
245688.89086914 3357675.89520264 16.68585396 22 26 29
245688.81402588 3357676.57714844 16.56977081 46 50 49
245689.92913818 3357674.20465088 17.88412666 112 113 108
245689.96801758 3357676.92840576 17.06657028 124 128 129
245688.90515137 3357676.09332275 16.99799156 110 120 121
245689.02661133 3357674.62457275 17.06280136 49 57 59
245688.90869141 3357676.80804443 16.70001221 46 55 52
245690.89447021 3357676.90008545 16.29644203 56 68 56
245690.14062500 3357669.69866943 17.42937279 255 244 235
245688.77691650 3357676.37353516 16.64320183 59 59 61
245690.36828613 3357668.49609375 17.49309731 33 34 38
245690.97113037 3357671.02294922 17.07527733 46 45 43
245690.35107422 3357677.00134277 17.01826477 82 87 83
245688.95135498 3357675.25262451 16.74742317 74 75 79
245688.99853516 3357675.06323242 17.28215218 87 91 94
245690.23919678 3357674.04125977 17.76124382 117 117 109
245690.27789307 3357668.00140381 17.16576958 93 93 95
245690.44885254 3357669.16253662 17.68874359 226 220 222
245690.93902588 3357668.77819824 17.82328033 47 49 48
245690.11041260 3357672.51391602 17.04877281 33 34 36
245691.07910156 3357670.16229248 17.69252396 116 110 84
245689.99291992 3357673.85894775 17.78968811 94 96 93
245690.33312988 3357670.10827637 17.62290955 255 255 251
245689.97174072 3357674.08300781 17.85170746 175 175 167
245689.84844971 3357674.63580322 17.92919540 13 13 15
245690.05004883 3357676.69708252 17.17863083 94 96 95
245689.85498047 3357676.94622803 17.07390594 130 134 137
245689.36096191 3357676.57336426 17.20183372 130 135 139
245689.15179443 3357675.88543701 17.31027222 126 131 135
245688.95544434 3357674.93011475 16.85162735 94 95 97
245690.81872559 3357669.43090820 17.83544922 112 106 110
245690.34497070 3357670.79608154 17.25255394 141 143 142
245688.90362549 3357675.72344971 16.47230721 59 59 51
245690.37963867 3357676.90051270 17.07698631 88 88 86
245690.36828613 3357668.26776123 17.47042847 11 11 11
245690.44873047 3357671.47479248 16.31099510 173 164 149
245690.76007080 3357676.84387207 16.72092819 14 20 18
245689.51074219 3357675.05419922 17.69720840 29 37 40
245689.42578125 3357676.63201904 17.17802620 123 130 136
245690.21148682 3357669.80291748 17.51522064 81 33 29
245689.61334229 3357674.82147217 17.84727478 92 93 97
245690.77709961 3357670.17327881 17.63253403 152 144 133
245690.48956299 3357669.14447021 17.70829201 251 239 241
245691.21228027 3357669.52282715 17.70227242 115 112 103
245689.13244629 3357676.07568359 17.29504776 114 122 125
245690.95135498 3357671.03015137 17.04580879 45 44 42
245690.33312988 3357667.76824951 16.85313225 54 54 54
245690.09674072 3357670.23834229 17.23753929 216 208 206
245689.04302979 3357675.66070557 17.19016838 135 136 140
245689.98199463 3357674.38940430 17.91229057 62 64 59
245690.23004150 3357675.99719238 17.38177681 31 32 34
245690.80999756 3357670.94744873 17.19404221 39 39 41
245688.88525391 3357676.37475586 17.03079796 148 158 159
245690.80749512 3357671.80767822 17.05573654 57 58 52
245690.25415039 3357668.55456543 17.37252235 119 117 118
245690.96997070 3357671.67413330 17.21214676 44 46 35
245689.99066162 3357677.22314453 16.75698662 80 81 85
245689.30303955 3357674.85351563 17.71369553 11 20 25
245690.78680420 3357669.87878418 17.70636177 156 145 141
245689.27136230 3357675.87567139 17.36368370 144 149 153
245688.81964111 3357676.53393555 16.41923141 23 22 17
245689.13464355 3357674.89520264 17.35438728 161 166 169
245690.31811523 3357672.42108154 17.06297493 50 52 49
245689.39434814 3357675.59411621 17.37064934 19 28 35
245690.39208984 3357669.04724121 17.59303856 27 25 26
245688.79376221 3357676.34460449 16.61901665 61 61 63
245690.64263916 3357671.75793457 16.61404800 91 92 87
245690.35565186 3357669.72705078 17.69048691 218 214 211
245690.55261230 3357670.94836426 17.06514549 47 48 50
245690.68133545 3357671.16094971 16.66165543 58 62 61
245690.59051514 3357672.38623047 17.30264854 58 67 48
245690.59863281 3357671.49932861 16.59401321 59 58 56
245690.58349609 3357672.03448486 16.71399498 80 83 72
245690.17333984 3357670.17840576 17.40667534 201 161 161
245689.66668701 3357675.49963379 17.44453812 9 20 24
245689.06835938 3357676.90661621 17.01645470 193 208 215
245688.86853027 3357676.70819092 16.76520729 68 79 81
245688.97662354 3357675.02789307 17.09771156 53 57 60
245690.09533691 3357677.18963623 16.96208382 106 108 107
245690.17315674 3357676.30181885 17.34740448 98 102 101
245690.89477539 3357668.70892334 17.80749130 40 42 41
245690.08978271 3357677.21386719 16.88125229 40 41 43
245690.66021729 3357668.76654053 17.72156334 95 95 97
245691.00555420 3357670.32244873 17.67906380 119 118 88
245690.61639404 3357676.90625000 16.46332932 12 13 17
245690.23394775 3357670.86572266 16.89191055 112 111 109
245689.73406982 3357675.00463867 17.82417870 115 119 118
245690.46844482 3357672.29132080 16.86870956 75 82 74
245690.62054443 3357672.06652832 16.87976646 79 80 74
245689.18164063 3357675.23248291 17.45957375 91 92 97
245689.25573730 3357675.05651855 17.61234283 36 39 44
245689.60540771 3357675.27673340 17.43382454 10 14 23
245691.01812744 3357671.58349609 17.09960556 81 75 63
245690.33795166 3357672.40319824 17.00661469 52 54 51
245688.87921143 3357675.01434326 16.66193390 94 98 99
245690.34545898 3357668.09637451 17.41181374 84 85 79
245689.52246094 3357674.84252930 17.81199837 145 149 158
245690.51757813 3357672.85333252 17.50192261 42 44 43
245690.05822754 3357675.31488037 17.76999474 7 16 11
245690.54119873 3357672.12384033 16.75857353 76 84 69
245690.16918945 3357670.28729248 17.39176559 224 193 191
245690.93945313 3357672.05108643 17.42368317 43 51 40
245689.04943848 3357676.95379639 16.90530586 103 114 118
245689.75720215 3357677.14337158 16.99301529 155 154 159
245690.74517822 3357672.44519043 17.30999947 56 62 48
245690.42901611 3357677.12139893 16.38131332 52 54 53
245689.15893555 3357676.77038574 17.24866486 184 191 199
245690.36206055 3357672.02575684 16.34312630 123 133 108
245691.09393311 3357671.45886230 16.93387222 111 105 91
245691.09222412 3357671.55383301 17.18984222 75 76 62
245691.08856201 3357671.09381104 17.03948021 59 58 54
245689.13745117 3357675.15332031 17.46006393 13 14 18
245688.98455811 3357675.12066650 17.05970955 50 54 57
245690.67407227 3357672.03399658 16.92691994 71 72 67
245689.56896973 3357676.47717285 17.20382118 120 125 128
245689.76147461 3357675.03033447 17.81621552 96 100 99
245690.38958740 3357672.64587402 17.42087364 26 27 29
245689.32611084 3357674.41375732 17.49257469 5 10 13
245690.26196289 3357668.11688232 16.71023369 101 95 83
245690.04498291 3357676.84863281 17.09895134 111 112 114
245689.76074219 3357677.19079590 16.93857956 24 25 30
245690.28509521 3357671.47296143 16.30174828 178 167 149
245690.33581543 3357677.00048828 17.03659248 93 95 92
245690.16577148 3357668.66662598 17.25702095 133 125 123
245690.58294678 3357669.11633301 17.74063683 148 136 140
245688.93157959 3357675.59326172 16.62596321 71 73 72
245690.57629395 3357670.98974609 16.84658813 69 71 70
245690.20544434 3357669.11968994 17.26989365 243 235 233
245690.10552979 3357669.10638428 17.14940262 114 99 96
245689.00659180 3357675.60278320 17.07594681 100 105 109
245688.86584473 3357676.02630615 16.88127327 13 23 25
245689.54162598 3357675.32598877 17.40224648 30 37 43
245690.37982178 3357670.35028076 17.66967392 235 224 218
245690.21325684 3357672.43768311 16.99714088 41 43 40
245690.23175049 3357669.74847412 17.55062485 63 25 22
245690.46917725 3357671.93554688 16.39454079 101 107 97
245690.86419678 3357668.72668457 17.79599380 49 51 50
245689.57031250 3357675.12713623 17.56409454 16 23 29
245690.38671875 3357670.94958496 16.84135437 58 60 59
245690.35479736 3357669.06372070 17.48786736 66 67 62
245690.59600830 3357672.31213379 17.17190933 59 66 48
245691.04235840 3357669.53674316 17.73657608 121 113 111
245690.62664795 3357672.12139893 16.95673370 78 81 74
245690.66046143 3357672.57879639 17.35503197 50 53 44
245690.66448975 3357669.73107910 17.75552559 139 121 119
245690.87329102 3357669.42340088 17.83684158 106 99 106
245689.93695068 3357673.31463623 17.80548286 116 120 121
245689.95996094 3357674.40075684 17.91711044 59 61 56
245690.80859375 3357672.32592773 17.32115364 60 64 50
245690.21191406 3357670.52337646 17.40432167 175 149 152
245690.76422119 3357671.99554443 17.04755020 65 64 59
245690.15679932 3357670.76837158 17.03289223 69 65 64
245690.44409180 3357677.00488281 16.76963806 32 38 36
245690.06530762 3357669.78295898 17.28297043 194 182 182
245689.22778320 3357676.98632813 17.05348587 188 199 205
245688.97387695 3357675.01470947 17.00698662 59 63 66
245690.51361084 3357672.48809814 17.34416389 60 66 56
245690.05786133 3357676.94415283 17.05842590 128 126 129
245690.24536133 3357671.67871094 16.26031113 65 68 61
245690.40466309 3357672.21948242 16.68337822 98 109 93
245690.29211426 3357676.51458740 17.26920509 98 99 101
245690.06842041 3357672.75042725 17.40201378 77 78 80
245690.22088623 3357669.73919678 17.53655624 74 26 22
245690.35357666 3357668.89215088 17.46805191 21 20 18
245689.14947510 3357676.58856201 17.25155449 153 158 161
245690.79559326 3357670.84423828 17.39689827 30 31 33
245689.08605957 3357675.87634277 17.26581764 165 168 173
245688.92669678 3357675.16387939 16.73922157 87 88 90
245690.51513672 3357676.95379639 16.58084679 32 38 36
245689.96057129 3357677.16137695 17.00086594 153 154 158
245690.06695557 3357673.86431885 17.76618385 100 102 99
245690.07897949 3357672.35632324 16.74208641 109 56 50
245690.08557129 3357672.10400391 16.26993561 232 210 163
245690.03509521 3357671.14202881 16.37182236 85 82 75
245689.98864746 3357672.00323486 16.25019455 205 193 155
245689.60345459 3357672.71453857 16.49285316 73 76 69
245689.93353271 3357672.19799805 16.33150101 182 166 133
245689.46032715 3357673.03454590 16.87207794 60 64 63
245689.97607422 3357672.34820557 16.65966606 137 88 74
245689.37268066 3357673.41052246 16.55639267 18 21 26
245689.77630615 3357673.24975586 17.77889824 129 133 134
245690.05932617 3357670.78387451 16.69705582 58 47 45
245689.84698486 3357672.97613525 17.51371956 48 49 51
245689.48486328 3357673.45690918 17.41385651 120 121 125
245689.85601807 3357672.29901123 16.45655441 108 108 96
245689.33660889 3357673.81964111 17.29911232 192 193 197
245689.71582031 3357674.31567383 17.89023209 21 26 22
245689.36700439 3357673.66943359 16.75829315 54 58 61
245689.92578125 3357669.62054443 17.15145874 167 140 131
245689.98291016 3357672.34362793 16.65153313 137 88 74
245689.78680420 3357672.34948730 16.45102119 86 91 85
245689.78930664 3357672.98004150 17.45751762 78 79 81
245689.40216064 3357673.20855713 16.67594528 19 23 26
245689.24346924 3357673.98760986 17.23326683 116 121 124
245689.37762451 3357673.60150146 16.76516914 48 53 56
245689.36285400 3357673.54522705 16.55137253 15 16 20
245690.00170898 3357672.20318604 16.36940956 187 163 129
245689.82452393 3357673.74316406 17.84016609 57 57 57
245689.86816406 3357672.15618896 16.29933357 176 163 131
245689.39587402 3357673.35491943 16.73672867 20 25 29
245689.64532471 3357672.87762451 17.02140236 141 143 142
245690.01855469 3357670.19195557 16.96268654 139 127 115
245689.34625244 3357673.69757080 16.68501282 47 51 52
245690.12145996 3357668.44598389 16.85140991 151 140 134
245689.95153809 3357672.46307373 16.87119865 111 55 54
245689.82177734 3357672.40576172 16.58998299 92 94 81
245689.75561523 3357672.74401855 16.90168762 180 182 179
245690.02349854 3357671.13287354 16.37172318 85 82 75
245689.66662598 3357673.69256592 17.80743027 221 232 234
245689.88446045 3357672.31939697 16.52796936 115 108 90
245689.50701904 3357673.58081055 17.56855011 14 22 24
245689.64544678 3357673.61553955 17.78517151 208 232 234
245690.15527344 3357671.04931641 16.43813133 72 71 69
245689.43292236 3357673.14727783 16.92699432 71 75 76
245690.02514648 3357670.57330322 16.96085167 131 120 118
245689.83453369 3357669.67022705 16.81307220 180 165 142
245689.90356445 3357671.52130127 16.29834557 162 154 135
245689.42230225 3357674.00061035 17.55532265 14 21 27
245689.31341553 3357673.82281494 17.26712990 180 184 187
245690.03393555 3357670.45025635 17.04271507 190 179 173
245689.67968750 3357673.24255371 17.67893028 124 133 132
245689.12457275 3357674.26660156 17.12657166 50 56 56
245689.45904541 3357673.13238525 17.13898468 77 83 81
245689.17413330 3357674.33190918 17.24206543 111 116 119
245689.98480225 3357670.10644531 16.90234947 140 124 111
245689.98010254 3357670.89062500 16.46180725 87 84 77
245689.62390137 3357672.93493652 17.13130760 160 162 161
245689.62310791 3357674.12707520 17.83832932 193 196 201
245689.40539551 3357673.17816162 16.68866348 23 27 30
245689.99896240 3357671.19110107 16.34599686 123 115 102
245690.05072021 3357670.80938721 16.58858871 133 126 120
245689.48132324 3357674.09893799 17.76537895 88 103 106
245689.37615967 3357673.63739014 16.77748489 49 54 57
245689.05108643 3357674.03942871 16.74521255 94 96 93
245689.52203369 3357672.93255615 16.78797531 46 51 47
245689.44702148 3357673.13189697 17.07980537 67 73 71
245689.90026855 3357669.88696289 16.96997452 188 169 152
245689.86407471 3357672.40502930 16.65546989 62 50 38
245689.43750000 3357673.20788574 17.17157745 89 95 93
245689.93212891 3357670.58593750 16.58650208 72 56 40
245689.74188232 3357673.20874023 17.72104645 173 177 176
245689.96179199 3357669.72692871 17.16351700 157 134 126
245689.95147705 3357669.29724121 17.03454781 199 183 170
245689.84124756 3357673.19836426 17.78748512 98 102 103
245689.46337891 3357674.14599609 17.72681808 14 28 31
245689.73706055 3357672.52612305 16.63360786 74 77 70
245689.31341553 3357674.22314453 17.42706108 22 27 30
245689.16448975 3357674.35040283 17.23143578 106 111 114
245689.34411621 3357673.62371826 17.13426971 148 153 156
245689.44348145 3357673.00781250 16.59739113 17 23 23
245689.22698975 3357674.24804688 17.30392456 152 158 158
245689.92907715 3357670.87750244 16.44643784 89 86 77
245690.03887939 3357670.75622559 16.73691368 53 42 38
245689.37493896 3357673.44195557 16.60740089 19 20 24
245689.12542725 3357674.16247559 17.05276108 48 56 58
245690.03332520 3357672.44250488 16.88998413 71 31 31
245689.38494873 3357673.37359619 16.97832489 62 67 70
245690.01159668 3357669.03466797 16.90751266 183 170 162
245689.21362305 3357673.96740723 17.07489204 49 55 55
245689.86425781 3357670.18426514 16.72195053 196 178 158
245689.46752930 3357673.01202393 16.88756180 50 55 51
245689.26177979 3357673.80810547 16.59968948 37 38 40
245689.66546631 3357673.40020752 17.73684883 190 204 204
245689.35028076 3357674.06066895 17.44391823 26 31 34
245690.04638672 3357670.29766846 17.06349945 197 184 175
245689.33465576 3357673.74523926 17.25082016 181 185 188
245689.84375000 3357672.32067871 16.48560143 105 107 96
245689.39050293 3357674.32922363 17.63878441 5 15 16
245689.85461426 3357669.45123291 16.84723473 171 155 132
245690.04113770 3357668.87097168 16.89623833 151 140 134
245689.37854004 3357673.55804443 16.74129295 42 46 47
245689.31494141 3357674.24078369 17.43276024 15 21 21
245689.88140869 3357669.76660156 16.99602509 200 179 162
245690.07653809 3357669.05682373 17.08415031 131 116 111
245690.05877686 3357670.04858398 17.04749870 175 158 148
245689.94403076 3357669.66699219 17.17068291 152 127 120
245689.15966797 3357674.06542969 17.06081390 54 59 62
245689.51025391 3357673.33929443 17.40208244 143 144 146
245689.47155762 3357673.72167969 17.54681778 18 27 24
245689.57604980 3357673.39233398 17.59628105 1 13 13
245689.48486328 3357673.56579590 17.50966072 6 9 14
245689.96966553 3357670.58728027 16.67757416 67 58 43
245689.39117432 3357673.38116455 17.09028435 75 80 84
245688.94738770 3357674.35784912 16.85509109 122 122 122
245690.03918457 3357672.14849854 16.30432701 209 182 139
245690.01416016 3357670.77465820 16.60781860 121 112 105
245689.96679688 3357670.07171631 16.89028931 106 88 74
245689.50756836 3357674.00244141 17.77197075 75 94 98
245689.16961670 3357674.03466797 16.99795723 54 59 62
245690.00634766 3357669.86242676 17.15517616 158 143 138
245690.03607178 3357670.63659668 16.91040421 105 95 93
245689.97717285 3357669.23602295 17.04726219 179 163 150
245689.81433105 3357672.33746338 16.46754456 99 102 93
245690.04071045 3357672.15191650 16.30818558 209 182 139
245689.40631104 3357674.13946533 17.58290100 7 17 18
245689.84606934 3357670.23974609 16.67435837 165 144 123
245689.33331299 3357674.34466553 17.48040390 2 7 10
245689.97607422 3357672.35168457 16.66892624 162 102 92
245690.04504395 3357671.50500488 16.29282379 178 167 147
245690.04534912 3357669.00024414 16.98452377 169 156 148
245689.87103271 3357669.89587402 16.92520523 185 170 151
245689.37585449 3357673.72534180 17.32266808 175 176 181
245689.70623779 3357672.87451172 17.14323235 94 94 94
245689.36785889 3357673.51196289 16.97723961 61 69 72
245690.08575439 3357670.77270508 16.80995560 76 65 63
245689.97192383 3357669.97534180 16.91586876 99 80 65
245689.40905762 3357673.23913574 16.87680817 49 55 55
245689.29058838 3357673.78918457 17.15733528 121 126 129
245689.99163818 3357670.51708984 16.79437637 107 97 87
245689.16448975 3357674.32147217 17.22551155 78 83 86
