245805.29022217 3357654.45379639 16.09847832 125 131 143
245808.99945068 3357653.80957031 16.52011108 60 71 57
245805.92950439 3357652.45782471 16.69266129 69 72 79
245806.49957275 3357651.62231445 16.14496040 78 84 82
245807.69616699 3357656.36578369 16.21890831 45 56 52
245808.07861328 3357654.76873779 16.03723526 39 51 37
245806.35888672 3357658.19989014 16.71252060 4 9 12
245806.43652344 3357653.54467773 16.42283058 49 53 54
245806.38897705 3357653.59185791 16.53208923 34 40 40
245805.70678711 3357654.01220703 16.85505104 13 17 16
245806.32550049 3357658.24450684 16.65692139 8 12 15
245807.34594727 3357653.16314697 15.65319920 19 28 23
245807.89898682 3357656.02996826 16.54679298 71 87 87
245806.34704590 3357651.66571045 16.19129753 93 97 98
245806.91284180 3357654.83941650 16.31723595 81 67 64
245808.05322266 3357655.22418213 16.19300079 29 43 30
245805.94573975 3357651.12719727 16.41494370 86 90 93
245804.67303467 3357650.06396484 16.46272278 98 103 106
245806.00549316 3357656.64086914 16.27215004 21 30 25
245806.18218994 3357656.06591797 16.20359802 66 77 79
245807.17492676 3357658.89868164 17.15650940 19 27 29
245807.78527832 3357656.33764648 16.58444214 70 84 85
245806.42456055 3357655.70074463 16.10238647 18 31 37
245805.97076416 3357658.56359863 16.03191566 60 74 75
245804.90551758 3357652.69506836 16.87162781 80 101 120
245805.82281494 3357656.48657227 16.21413612 58 62 61
245804.43792725 3357652.58447266 16.67419815 9 14 17
245806.65808105 3357657.04663086 16.65780449 31 48 58
245805.85119629 3357658.00134277 15.95164967 82 93 95
245804.95513916 3357651.57446289 16.53148270 42 55 63
245805.89941406 3357655.54028320 16.23492813 43 50 58
245806.42553711 3357652.24603271 15.92453289 76 81 85
245807.25677490 3357654.11730957 15.81107044 12 24 14
245806.38507080 3357651.05682373 16.43917084 92 96 95
245805.00244141 3357652.27691650 16.54414368 0 3 6
245805.80029297 3357655.07147217 16.27075577 76 103 124
245806.14794922 3357657.81018066 16.22801399 23 27 26
245806.02050781 3357657.10638428 16.52846527 27 37 46
245807.23095703 3357659.22662354 17.00239944 22 29 35
245807.15032959 3357656.34344482 15.81118679 70 78 80
245807.99267578 3357655.57763672 16.40497971 26 42 31
245808.14617920 3357653.48638916 15.96949482 24 43 24
245806.43048096 3357652.06427002 16.00375938 74 79 85
245805.98638916 3357656.99139404 16.00987434 17 18 23
245803.72656250 3357650.53247070 15.82496357 94 101 109
245804.94769287 3357651.95697021 16.57013130 1 0 2
245806.28759766 3357653.94915771 16.49708366 47 51 37
245809.21099854 3357653.44439697 16.19117737 48 59 53
245807.60040283 3357655.46936035 15.66989803 50 60 52
245807.17596436 3357653.40374756 15.66848946 22 33 27
245806.25946045 3357652.84515381 16.37119865 62 66 67
245807.13671875 3357659.67419434 16.88867760 55 63 65
245807.30651855 3357657.04534912 16.75049782 21 26 30
245805.46856689 3357654.00347900 16.88176918 103 113 123
245807.39562988 3357656.10943604 15.69074440 86 91 94
245806.79888916 3357656.89868164 16.54825401 22 34 46
245806.52990723 3357651.45983887 16.21142960 79 86 79
245806.18212891 3357656.91748047 16.61649704 32 51 66
245807.24621582 3357659.64324951 17.08074188 53 63 64
245806.18139648 3357657.52484131 16.73221016 34 54 63
245808.09661865 3357655.10906982 16.66464615 32 40 27
245805.94299316 3357655.15051270 16.37307739 70 91 110
245806.68414307 3357657.45245361 16.70312309 61 84 92
245808.16119385 3357654.35137939 15.97985268 40 49 32
245806.49633789 3357659.53088379 15.96685219 13 18 22
245806.42291260 3357658.94628906 16.43006325 47 52 46
245807.21539307 3357659.30847168 16.93278313 56 61 55
245807.67138672 3357652.54693604 15.58455753 53 63 64
245806.22552490 3357654.90264893 16.38377571 50 64 73
245808.11828613 3357654.89013672 16.13834000 33 45 31
245808.14471436 3357654.29272461 15.97759533 45 57 37
245804.55584717 3357652.96246338 16.69125938 6 15 14
245806.51037598 3357657.50476074 16.76220703 90 120 130
245803.87847900 3357650.55438232 16.00594521 79 88 93
245808.02117920 3357655.30194092 16.55941010 24 40 29
245807.06665039 3357653.54473877 15.69861698 30 41 37
245807.27014160 3357657.02404785 16.68526268 17 22 26
245804.26434326 3357650.78717041 16.34910583 171 189 209
245803.79895020 3357651.88153076 15.92712593 91 100 97
245804.12847900 3357652.09521484 16.22395134 60 61 66
245804.87445068 3357654.20770264 16.23731422 143 142 150
245805.48278809 3357654.46270752 15.95099354 33 41 44
245808.16064453 3357652.80969238 15.73303986 33 45 33
245806.75799561 3357651.46392822 16.16965675 89 96 89
245807.79724121 3357655.89556885 15.81394196 29 41 31
245807.67034912 3357656.73107910 16.63005066 54 65 59
245807.91345215 3357655.95068359 16.54753113 57 73 70
245808.55676270 3357652.80926514 15.68865776 45 55 44
245805.07836914 3357651.87329102 16.57670975 12 14 13
245806.37371826 3357657.14099121 16.78824425 21 47 60
245806.47589111 3357658.31463623 16.77303314 58 61 70
245807.58428955 3357652.95697021 15.66619205 19 30 22
245805.95257568 3357658.56530762 16.01503181 62 76 79
245806.03320313 3357658.19946289 16.12838554 50 60 61
245804.41577148 3357652.11981201 16.79777527 147 163 176
245804.60534668 3357653.61224365 15.92699909 37 48 50
245803.90844727 3357651.20379639 16.31588745 189 197 210
245806.43310547 3357651.15985107 16.38579941 78 84 80
245805.66827393 3357658.05462646 15.80337524 71 82 88
245808.94757080 3357653.46765137 16.16626358 121 136 93
245807.16796875 3357657.48626709 17.07063103 13 21 23
245807.24206543 3357654.93969727 15.92964268 33 45 41
245805.22723389 3357655.10858154 15.89935493 88 97 102
245805.85968018 3357656.64123535 16.03238106 60 78 52
245805.06463623 3357653.15313721 16.88932800 178 198 223
245807.79138184 3357655.75067139 15.76549435 26 39 29
245806.95483398 3357659.05035400 16.67028999 19 28 35
245806.98138428 3357654.43951416 16.19552040 14 13 9
245805.59368896 3357655.48797607 16.12467957 42 45 50
245807.27099609 3357655.90399170 15.69426918 85 91 91
245807.89379883 3357655.60589600 16.82533455 26 41 38
245806.86541748 3357656.54632568 16.28495407 33 44 48
245804.56604004 3357651.62005615 16.59949875 33 47 56
245808.45062256 3357652.83227539 15.70559311 35 45 34
245807.05456543 3357659.26733398 16.69043159 44 54 55
245807.17376709 3357654.55322266 15.91650295 15 21 19
245806.14813232 3357654.71612549 16.08498001 37 45 48
245805.60247803 3357651.56054688 16.64102364 127 129 141
245805.32153320 3357652.22790527 16.59977150 27 41 42
245808.63073730 3357653.99389648 16.47663307 45 63 41
245807.56420898 3357656.83776855 16.82180595 40 51 45
245804.81512451 3357653.85931396 16.41384315 156 170 181
245808.66094971 3357653.89739990 16.46498680 39 58 26
245804.13757324 3357650.65374756 16.24617577 172 189 209
245805.77850342 3357656.11517334 16.03113937 51 61 63
245804.45758057 3357653.14282227 16.31703949 65 76 78
245807.04339600 3357653.36242676 15.65324688 81 89 91
245807.64990234 3357660.45910645 16.93948746 80 84 85
245806.43981934 3357654.61206055 16.28573608 25 31 31
245804.07580566 3357651.37445068 16.41340065 167 180 196
245806.12933350 3357657.19580078 16.71257782 44 62 76
245805.96002197 3357652.38079834 16.62659264 143 147 158
245806.35144043 3357655.53997803 16.18581390 35 46 52
245806.01940918 3357657.05395508 16.45211792 34 38 47
245807.53094482 3357660.06811523 17.59395790 43 58 51
245805.76550293 3357650.56811523 16.57060242 95 99 100
245806.90179443 3357653.84393311 15.91419888 24 30 30
245805.31982422 3357651.21124268 16.51254845 28 31 38
245808.43273926 3357653.07745361 15.80932808 39 52 35
245805.78314209 3357655.13488770 16.27906990 69 94 116
245807.74316406 3357656.29559326 16.75813675 58 70 70
245803.57427979 3357651.23590088 15.86446953 111 116 120
245807.71606445 3357656.15203857 16.97184372 52 64 60
245806.16949463 3357651.48120117 16.36486053 91 95 98
245806.56933594 3357651.15625000 16.40410995 82 88 84
245807.05957031 3357654.98071289 16.21670914 82 67 60
245805.92755127 3357658.29748535 16.02524948 68 82 83
245806.10266113 3357653.81970215 16.80271530 18 19 21
245805.53601074 3357653.53845215 16.88453102 159 177 199
245806.81866455 3357653.69940186 15.89954090 29 36 29
245804.86041260 3357651.15197754 16.54673386 189 198 215
245805.75860596 3357654.29827881 16.18157387 176 188 204
245805.84375000 3357656.57666016 15.82909870 49 64 45
245804.57934570 3357653.47717285 16.20243263 43 54 56
245806.66064453 3357653.57135010 16.19182396 37 42 38
245805.34301758 3357653.23272705 16.88518906 165 183 205
245805.42224121 3357651.64587402 16.56571007 18 27 32
245804.30902100 3357651.94903564 16.73570061 151 167 183
245805.61273193 3357655.68078613 16.00395966 23 27 28
245805.01928711 3357650.95928955 16.54576111 172 187 210
245806.89068604 3357655.91210938 15.85100651 71 81 82
245806.06677246 3357652.76580811 16.61588478 140 144 156
245807.35931396 3357654.63580322 15.74526691 14 24 16
245804.93048096 3357654.03631592 16.50343513 157 175 185
245804.80267334 3357653.72540283 16.48783684 130 147 157
245806.16680908 3357654.02734375 16.43003845 56 61 54
245806.04193115 3357654.71557617 16.02415657 39 47 50
245806.05133057 3357657.66223145 15.85736370 30 36 32
245806.45709229 3357655.34216309 16.28866959 33 42 49
245806.04309082 3357653.78704834 16.85264397 60 67 75
245805.52807617 3357654.49255371 15.88112068 57 62 66
245806.50646973 3357659.28076172 16.42062950 66 75 74
245805.07299805 3357653.66033936 16.89332008 155 170 189
245804.58416748 3357652.31817627 16.87301064 30 39 48
245806.72631836 3357659.13909912 16.55575943 10 15 19
245806.58605957 3357658.23376465 16.91471100 16 23 29
245807.26361084 3357659.45410156 17.14670372 34 46 46
245806.70361328 3357658.31890869 17.02503014 20 27 33
245804.80767822 3357652.22631836 16.63561630 0 3 7
245806.47399902 3357659.42224121 16.18783951 5 8 15
245807.43249512 3357660.44458008 15.90254307 99 103 104
245805.54040527 3357651.36926270 16.53546906 46 49 54
245806.99554443 3357657.51440430 16.89735985 9 14 17
245804.35418701 3357651.96258545 16.75272369 115 131 144
245807.36547852 3357659.93078613 17.05515862 37 46 45
245806.80145264 3357659.02600098 16.60609818 16 26 28
245806.35235596 3357654.83941650 16.38181877 40 53 61
245806.08245850 3357658.84503174 15.90570354 68 81 61
245803.70104980 3357651.19281006 16.07136726 112 117 123
245806.56726074 3357658.04241943 16.92668343 25 34 39
245806.86706543 3357654.18878174 16.30644226 8 10 9
245806.36260986 3357651.53948975 16.23798370 86 90 89
245806.54785156 3357658.13830566 16.89961815 14 24 26
245806.69897461 3357651.72497559 16.00510025 76 82 80
245807.21472168 3357655.18200684 15.94721889 45 48 41
245808.94848633 3357653.63122559 16.33458710 113 124 94
245804.12335205 3357650.98779297 16.38237572 181 194 213
245807.71905518 3357660.55578613 16.98987007 78 78 80
245807.16729736 3357658.83325195 17.28787994 27 33 31
245805.55621338 3357654.39483643 15.99342632 75 82 92
245807.12811279 3357654.46289063 15.95686340 19 23 22
245807.17541504 3357652.07690430 15.73132324 63 70 76
245804.62268066 3357653.48596191 16.41489792 82 93 99
245805.90447998 3357657.85247803 15.92533493 77 86 85
245806.50518799 3357654.09320068 16.27888870 64 52 38
245807.72698975 3357655.50189209 15.73590469 26 40 27
245807.09625244 3357656.68920898 16.35048866 11 22 26
245807.88360596 3357655.85925293 16.72146225 73 91 93
245807.46734619 3357654.12066650 15.78351402 23 37 24
245807.12731934 3357657.51971436 17.03911209 14 22 24
245805.82971191 3357654.12219238 16.58270073 26 33 43
245807.77099609 3357660.55010986 17.26663780 71 72 74
245809.10168457 3357653.78747559 16.51475143 64 75 67
245805.99700928 3357653.76165771 16.87255287 162 169 187
245807.08142090 3357658.04711914 17.14847946 9 14 18
245806.51666260 3357658.17205811 16.86691856 12 20 23
245807.55249023 3357652.57012939 15.57176113 59 69 70
245805.81182861 3357650.75866699 16.46316910 88 90 89
245805.95690918 3357651.29559326 16.46238136 75 79 82
245805.98712158 3357657.04040527 15.83197498 25 29 32
245806.75994873 3357659.79431152 16.30070877 10 15 18
245806.82543945 3357659.96289063 16.16429138 24 27 32
245804.07641602 3357651.45635986 16.41924286 165 177 191
245805.44830322 3357654.06927490 16.84742737 13 21 24
245805.44616699 3357654.71142578 15.89631748 71 82 88
245806.90356445 3357658.56817627 17.07782173 38 48 49
245807.12548828 3357657.25024414 16.94284248 2 7 11
245807.48742676 3357660.10363770 17.24696922 10 16 16
245806.11352539 3357655.26080322 16.32559776 52 68 81
245807.41583252 3357656.80017090 16.31314087 10 18 21
245808.86907959 3357653.93316650 16.59308243 59 71 57
245804.84619141 3357650.44006348 16.30340767 163 178 197
245805.23138428 3357654.49285889 16.07045364 93 100 108
245806.88275146 3357653.10272217 15.66104984 64 72 75
245807.33404541 3357653.46588135 15.72789764 22 36 23
245807.21453857 3357654.76000977 15.92023754 32 36 37
245808.10058594 3357653.55847168 15.93587208 26 45 26
245807.13256836 3357656.27813721 15.78840923 78 83 86
245807.69982910 3357656.60021973 16.70965576 31 42 36
245806.19036865 3357653.99017334 16.48202133 121 126 119
245806.91741943 3357653.88708496 15.95695019 27 33 33
245806.72894287 3357654.11602783 16.41452217 50 52 51
245806.47711182 3357656.12847900 16.06352425 60 70 71
245806.00646973 3357654.85717773 16.21968651 17 30 39
245807.50341797 3357652.89721680 15.63127804 37 43 39
245806.84405518 3357651.67218018 16.00392532 78 84 84
245806.33300781 3357657.57952881 16.76674652 120 153 158
245804.05596924 3357651.14538574 16.37808418 175 188 205
245806.74047852 3357652.84210205 15.71944714 69 74 80
245806.12231445 3357653.09875488 16.67562866 85 94 101
245806.40289307 3357656.71191406 16.38281441 59 84 80
245805.42132568 3357655.36029053 15.99477577 79 88 93
245807.12689209 3357659.65582275 16.88250923 58 66 68
245806.21990967 3357658.61846924 16.41188622 35 42 35
245806.14318848 3357657.78479004 16.44707108 8 13 16
245805.03045654 3357652.47515869 16.70783234 23 40 48
245806.54058838 3357651.61126709 16.13163757 78 84 84
245807.46453857 3357660.21423340 16.84752464 60 59 64
245803.61340332 3357650.87884521 15.85377979 104 112 115
245803.50256348 3357651.19653320 15.82067871 118 122 125
245808.32330322 3357653.63867188 16.17448997 46 61 40
245804.89257813 3357651.93493652 16.58269310 0 0 2
245804.36834717 3357650.13446045 16.17939949 89 97 100
245808.41070557 3357654.26214600 16.28628159 53 61 48
245804.83367920 3357654.37829590 15.87288952 71 81 83
245801.56738281 3357656.66082764 17.65587807 25 30 23
245806.77941895 3357654.88531494 16.37821579 39 39 41
245805.36462402 3357651.92303467 16.59674835 10 17 23
245808.49328613 3357653.98229980 16.34595299 63 76 46
245805.62823486 3357654.63543701 15.85179615 74 96 107
245805.38177490 3357651.88757324 16.60746384 13 20 26
245808.26776123 3357653.74212646 16.11183357 31 49 27
245806.46618652 3357657.37939453 16.76019669 137 167 178
245806.05474854 3357653.66564941 16.86335564 163 174 192
245808.17730713 3357653.52111816 15.99528599 27 46 27
245807.79205322 3357660.40875244 17.56060600 67 80 62
245806.81793213 3357659.87780762 16.28819084 11 19 21
245808.19110107 3357653.94390869 16.02621651 43 56 38
245807.27655029 3357659.91491699 16.94471169 52 58 58
245807.27319336 3357653.99285889 15.81428242 17 28 20
245805.18920898 3357653.75225830 16.90362740 151 169 189
245806.79888916 3357654.28649902 16.37706184 41 43 40
245806.83557129 3357652.44348145 15.74890804 62 71 76
245804.32897949 3357652.71160889 16.45116806 119 132 140
245804.26214600 3357650.76586914 16.33836365 171 189 209
245806.13262939 3357654.53466797 15.95324516 58 63 67
245806.82672119 3357653.32202148 15.70313835 55 63 66
245806.01391602 3357653.60424805 16.87442970 153 170 188
245807.34216309 3357654.69201660 15.76436043 29 31 28
245807.37689209 3357656.41760254 15.82134438 72 76 79
245807.43084717 3357656.97973633 16.60458946 24 32 34
245807.28466797 3357659.83758545 17.00618553 61 73 71
245806.33648682 3357658.83923340 16.41605568 44 49 42
245804.14581299 3357651.31665039 16.43023300 178 194 210
245807.50708008 3357656.89068604 16.93079567 33 42 39
245806.72094727 3357655.71923828 16.05251312 52 62 63
245806.94866943 3357651.64331055 16.01139259 73 79 77
245805.94445801 3357656.73498535 16.11637497 49 59 48
245806.15362549 3357651.80804443 16.31050301 70 75 78
245807.83752441 3357656.01239014 15.95966911 24 40 29
245806.03833008 3357657.03045654 16.56848907 37 52 59
245808.04974365 3357654.36883545 15.89033127 40 51 37
245805.93286133 3357654.64068604 15.95651722 53 60 66
245807.42291260 3357656.03460693 15.68614388 77 82 85
245805.61663818 3357654.29614258 16.32631111 113 127 140
245807.75927734 3357656.13610840 15.91534805 32 43 35
245807.11590576 3357654.44689941 15.97099304 18 22 21
245807.18896484 3357657.74194336 17.12093163 10 20 21
245806.71453857 3357653.54992676 15.98987293 40 49 46
245807.09643555 3357660.23742676 15.87229919 86 90 89
245806.18585205 3357658.92858887 15.82304382 47 59 47
245805.30529785 3357651.53100586 16.49073792 31 38 44
245807.64019775 3357656.37145996 16.09963608 61 67 67
245807.63159180 3357656.70581055 16.84865570 40 50 42
245805.79406738 3357658.63415527 15.82901192 84 95 99
245806.03314209 3357652.11035156 16.43321991 52 57 61
245807.26806641 3357659.51007080 17.15609360 34 45 41
245806.63610840 3357652.31054688 15.82180786 80 84 87
245807.61132813 3357653.05004883 15.70146561 22 34 24
245806.78094482 3357655.59771729 16.12729073 55 61 61
245808.13806152 3357655.03515625 16.30195618 45 57 43
245806.80096436 3357652.27294922 15.78794003 72 77 83
245806.98205566 3357658.79644775 16.83189964 113 122 121
245808.07006836 3357655.15539551 16.16711807 28 42 29
245806.82977295 3357659.51605225 16.51816750 19 28 35
245804.13928223 3357651.19982910 16.41065216 182 197 216
245807.67211914 3357656.26452637 15.96600914 52 63 57
245806.48828125 3357659.51483154 15.81574821 20 25 29
245805.81866455 3357651.97320557 16.65414619 58 63 67
245808.70727539 3357653.84881592 16.48508263 82 100 52
245807.23547363 3357652.83862305 15.60814190 60 70 71
245804.36437988 3357652.59930420 16.55068779 134 149 156
245805.12664795 3357654.15753174 16.78492737 16 17 21
245807.21893311 3357657.69915771 17.15343285 13 21 23
245804.89984131 3357650.69940186 16.44503403 171 186 205
245807.25067139 3357653.05084229 15.62162876 75 85 87
245807.88323975 3357660.69427490 17.35587502 49 49 49
245807.61614990 3357660.48297119 16.51683617 102 103 105
245805.15808105 3357652.38348389 16.66307640 3 12 19
245805.95104980 3357656.87841797 16.02375984 25 27 24
245804.76135254 3357652.22290039 16.67508507 4 9 13
245807.48321533 3357656.92132568 16.51734161 43 51 53
245806.34777832 3357654.02508545 16.28972244 94 103 82
245806.79925537 3357659.38421631 16.55068779 18 25 33
245806.74359131 3357658.11639404 17.05142212 90 103 109
245806.60369873 3357655.85388184 16.01788330 63 73 74
245805.50354004 3357655.57092285 15.88057709 100 104 113
245803.92047119 3357651.97039795 15.94199944 72 84 84
245807.67584229 3357660.27734375 17.54761505 80 95 76
245808.14874268 3357653.25842285 15.92057800 20 38 24
245806.69921875 3357655.64251709 16.10669518 39 47 49
245805.81805420 3357656.14666748 16.13750267 50 60 62
245807.53765869 3357653.40216064 15.77221870 24 40 27
245807.07476807 3357657.71423340 17.00392723 22 30 32
245804.24591064 3357652.67999268 15.93434143 19 32 40
245806.63513184 3357656.41467285 16.16433716 33 42 49
245806.68951416 3357657.73486328 16.87402534 71 88 95
245803.88342285 3357651.71514893 16.09905434 88 105 89
245806.54083252 3357654.26593018 16.22160149 50 40 31
245807.10247803 3357656.05017090 15.75024605 82 87 90
245807.01672363 3357657.42132568 16.91641045 4 9 12
245804.81945801 3357652.10974121 16.60934639 1 2 6
245804.24096680 3357650.80364990 16.34946251 172 190 210
245808.09106445 3357653.01232910 15.82281494 24 38 23
245807.84185791 3357654.92785645 15.87887096 27 43 30
245805.97705078 3357656.81494141 16.13879967 20 25 21
245804.05267334 3357651.84979248 16.39399529 140 147 163
245806.14038086 3357655.50079346 16.20724678 34 44 53
245807.26995850 3357654.23583984 15.79640770 18 28 20
245805.57263184 3357655.35095215 16.19562149 86 93 101
245806.19390869 3357652.94244385 16.50060654 62 65 70
245806.03057861 3357657.18750000 16.60049629 35 48 57
245806.96289063 3357653.56298828 15.70338154 73 83 82
245807.28625488 3357655.80932617 15.69797707 80 86 86
245807.94738770 3357653.44580078 15.89237976 28 42 27
245806.28692627 3357652.91534424 16.33324432 57 63 63
245808.41040039 3357654.52801514 16.47155380 51 56 49
245804.76098633 3357651.81683350 16.60462189 74 90 103
245807.92456055 3357655.84075928 16.02078247 27 43 30
245807.52172852 3357660.28326416 16.83406258 72 76 77
245807.08422852 3357654.05621338 15.89773464 22 27 23
245808.34460449 3357654.15533447 16.18904114 56 69 43
245804.87597656 3357653.20788574 16.90306473 176 191 212
245807.94567871 3357655.85223389 16.36149979 41 56 49
245805.13488770 3357653.03753662 16.89717293 193 214 243
245805.88623047 3357654.24200439 16.23662567 152 164 180
245808.60711670 3357653.89904785 16.43540764 42 62 34
245806.83813477 3357652.41235352 15.75386047 69 76 82
245809.06359863 3357653.05218506 15.96531963 53 66 36
245807.41992188 3357653.42340088 15.74370384 19 35 22
245808.21002197 3357654.87536621 16.27841568 39 51 37
245804.94171143 3357651.76257324 16.57677460 81 87 99
245806.15625000 3357655.79888916 16.03425026 20 31 35
245806.15692139 3357658.04907227 16.46857071 74 75 77
245807.15686035 3357653.58026123 15.71218491 24 35 27
245806.80499268 3357657.43804932 16.73296547 30 48 52
245806.89306641 3357655.86700439 15.85654449 77 87 88
245807.75909424 3357656.29370117 16.22656059 47 58 52
245805.62042236 3357655.35668945 16.21931076 57 66 73
245805.97100830 3357652.01116943 16.47005653 58 63 67
245805.85626221 3357657.94720459 15.94956589 91 101 102
245805.14208984 3357654.30572510 16.49624825 125 113 127
245807.50323486 3357660.14813232 17.18333244 39 44 47
245807.09478760 3357657.92718506 17.07752991 10 18 21
245805.01086426 3357654.65447998 15.87003803 83 97 100
245807.18457031 3357659.82653809 16.87743378 58 62 65
245808.34362793 3357653.68750000 16.22623062 52 66 43
245807.12103271 3357654.38092041 15.93969154 21 25 24
245807.10308838 3357660.13421631 16.09169579 75 80 74
245804.14581299 3357652.17602539 16.18808365 61 66 72
245807.96972656 3357654.88397217 15.94116974 37 49 35
245806.81408691 3357653.58465576 15.82917309 41 51 50
245803.86041260 3357650.89910889 16.21479034 127 136 145
245808.78454590 3357653.52490234 16.22851563 63 80 25
245807.48474121 3357652.60284424 15.57896328 62 72 73
245809.26037598 3357653.64166260 16.35035324 58 71 64
245806.25701904 3357653.40808105 16.68909264 56 63 69
245807.63134766 3357654.96252441 15.77378178 24 37 27
245804.69433594 3357653.23443604 16.70164490 17 25 28
245806.01000977 3357658.10668945 16.10916328 59 71 71
245808.43493652 3357654.19671631 16.29678154 41 52 38
245805.05969238 3357650.67657471 16.43070984 167 184 204
245805.08135986 3357653.98736572 16.81211853 118 128 137
245805.05712891 3357652.60516357 16.84056282 68 89 106
245807.41717529 3357652.70440674 15.58774853 54 64 65
245807.92962646 3357654.40106201 15.81144238 43 55 41
245805.75714111 3357655.03265381 16.21218491 90 115 137
245807.94885254 3357652.77185059 15.72121048 24 37 27
245805.35015869 3357655.26763916 15.91294384 89 98 103
245807.96337891 3357653.02331543 15.80832195 20 36 23
245804.61102295 3357651.99450684 16.67895889 21 30 39
245807.78460693 3357656.15637207 16.73089790 63 78 81
245804.11529541 3357650.56036377 16.19514656 167 184 202
245804.53143311 3357654.23876953 15.79277325 101 107 119
245806.82843018 3357655.87902832 15.89173508 75 85 86
245807.07666016 3357656.43316650 15.96863842 66 71 74
245805.17944336 3357651.19018555 16.51613617 64 73 82
245807.98095703 3357655.65197754 16.31273079 31 47 36
245806.38049316 3357658.34161377 16.66153336 5 8 15
245806.09979248 3357657.86822510 16.11836243 29 34 28
245807.39331055 3357655.91772461 15.68601131 77 83 83
245808.26855469 3357654.25610352 16.10575294 62 71 52
245804.32885742 3357651.69274902 16.63133621 28 38 47
245806.04980469 3357657.24163818 15.98742390 12 16 27
245803.83209229 3357651.33056641 16.14793205 72 80 83
245805.80584717 3357657.84460449 15.84713173 89 99 100
245807.34790039 3357659.78790283 17.20774460 29 38 35
245806.72973633 3357652.67236328 15.73857975 81 86 90
245804.67926025 3357652.93426514 16.89576912 94 104 116
245807.72448730 3357654.52380371 15.78150654 24 36 24
245807.99078369 3357655.26940918 16.81836319 34 47 37
245806.22418213 3357657.42602539 16.74352455 75 102 111
245806.02966309 3357652.82147217 16.69713020 71 80 89
245806.96258545 3357659.36743164 16.64293098 31 44 52
245805.84899902 3357655.89300537 16.12313652 40 50 52
245805.37933350 3357653.36541748 16.87490654 164 182 204
245807.62506104 3357660.47479248 16.70226669 86 88 87
245806.80633545 3357654.27233887 16.36801910 39 39 37
245804.69964600 3357653.77990723 16.16197014 130 140 149
245807.44891357 3357660.12268066 16.98262215 49 50 54
245804.65295410 3357653.61834717 16.25859261 82 93 99
245805.08770752 3357653.16821289 16.88331413 177 197 222
245807.16198730 3357652.13629150 15.72416401 65 72 78
245804.56445313 3357652.54718018 16.92556381 114 126 138
245806.86822510 3357654.81555176 16.34101868 55 47 44
245806.09442139 3357658.82586670 16.13879776 69 83 70
245804.65710449 3357653.70257568 16.07472420 96 110 113
245806.57098389 3357659.72467041 16.09831810 9 15 15
245806.88348389 3357655.97650146 15.85238838 75 83 85
245806.20318604 3357656.46533203 16.32218742 25 30 33
245805.03125000 3357654.18450928 16.54910469 22 26 35
245806.40985107 3357655.86401367 16.03235435 48 59 61
245807.71636963 3357654.00738525 15.80799007 25 41 28
245806.11145020 3357652.47747803 16.41885376 63 66 71
245807.18902588 3357657.21105957 16.95616531 7 12 16
245804.20086670 3357652.39239502 16.21605110 61 70 75
245808.09234619 3357652.98944092 15.81291962 24 38 23
245803.69238281 3357651.76757813 15.89744091 102 113 109
245806.70544434 3357652.41278076 15.78633022 71 78 84
245805.96057129 3357655.61328125 16.18946266 38 47 54
245807.92132568 3357655.40203857 15.95264149 29 43 30
245806.30883789 3357656.74841309 16.40737534 26 37 41
245804.88354492 3357651.43127441 16.50594521 39 50 56
245808.15954590 3357654.97216797 16.65936279 41 52 38
245807.97570801 3357655.56024170 16.17599487 38 54 41
245808.81396484 3357653.60620117 16.32658195 118 136 76
245806.19403076 3357656.16162109 16.29286766 59 71 71
245806.32995605 3357655.32025146 16.28939819 44 59 66
245806.07781982 3357657.37713623 15.83679295 10 15 18
245806.88458252 3357658.68817139 16.92739868 167 175 177
245806.13372803 3357652.73736572 16.50418854 87 90 95
245807.00073242 3357656.72106934 16.41707802 50 65 72
245807.98522949 3357655.26745605 16.83685303 34 47 37
245807.68865967 3357654.28320313 15.75988007 20 36 23
245804.43261719 3357650.59539795 16.31418800 168 187 204
245807.05291748 3357660.19989014 15.91056442 82 87 83
245806.60473633 3357653.32525635 15.99205685 54 59 62
245806.53186035 3357656.55932617 16.25217628 15 31 31
245806.07666016 3357651.50366211 16.42145348 84 88 91
245806.04400635 3357650.82861328 16.51427078 91 95 96
245805.20355225 3357650.54370117 16.36511040 166 183 201
245805.40429688 3357653.36224365 16.87618065 164 182 204
245805.31634521 3357651.93835449 16.58422852 1 2 7
245807.21929932 3357653.77239990 15.76893425 14 27 17
245807.00091553 3357656.14239502 15.80957508 82 87 90
245806.40991211 3357651.55859375 16.21023750 81 87 85
245804.79577637 3357654.37030029 15.84042263 85 95 97
245807.23925781 3357653.81860352 15.78276062 16 29 19
245803.72717285 3357651.10858154 16.12562752 96 106 108
245805.06140137 3357652.80206299 16.90804291 82 104 128
245805.51910400 3357653.30847168 16.88498878 166 184 208
245806.06805420 3357654.71087646 16.02929688 58 66 69
245804.16925049 3357651.22589111 16.42159271 175 190 209
245806.22296143 3357653.46441650 16.77006531 80 89 98
245806.75891113 3357653.48364258 15.84697056 45 54 53
245807.45892334 3357656.49841309 16.01019859 62 67 71
245806.07220459 3357658.83612061 15.94730282 65 80 61
245808.36212158 3357654.17181396 16.20953941 54 66 44
245806.32183838 3357656.32769775 16.30023956 35 45 47
245804.02703857 3357651.00299072 16.34752274 176 189 206
245808.08770752 3357654.70574951 16.00366211 43 54 38
245807.45764160 3357654.09051514 15.78776741 20 36 25
245807.22912598 3357656.40209961 15.80524063 68 73 76
245806.22857666 3357650.86132813 16.55515480 100 101 103
245806.30352783 3357653.15051270 16.30260658 45 51 49
245805.07189941 3357654.50268555 16.00718689 53 57 60
245807.13842773 3357654.69488525 16.05022621 18 22 21
245806.23956299 3357654.21051025 15.96978951 25 29 30
245807.33489990 3357659.98193359 16.98027992 32 38 36
245803.81512451 3357651.13977051 16.25060844 73 82 87
245806.38293457 3357654.97100830 16.40717125 41 51 60
245805.79687500 3357656.45056152 15.80314350 64 77 59
245807.45794678 3357656.43713379 15.92061424 70 74 77
245806.61682129 3357656.36737061 16.14686966 49 58 63
245809.21600342 3357652.94671631 15.91447258 43 50 32
245806.86413574 3357658.68182373 16.92441177 120 128 130
245804.41497803 3357650.81011963 16.40752411 168 189 208
245806.26202393 3357652.50286865 16.04490280 70 76 76
245804.97332764 3357654.00213623 16.59205437 168 184 197
245805.00372314 3357651.21722412 16.52424240 67 76 83
245807.11932373 3357656.54632568 16.19674301 19 27 29
245805.28662109 3357651.89550781 16.58395576 1 2 6
245807.27136230 3357659.19293213 17.29722404 30 36 36
245807.05328369 3357652.17150879 15.74422550 67 74 80
245807.73120117 3357654.54095459 15.78577137 28 42 29
245807.09765625 3357660.15618896 16.03490067 76 81 77
245806.02001953 3357655.88519287 16.11465836 49 61 61
245806.68438721 3357651.80163574 15.97587585 83 89 87
245806.42358398 3357659.33654785 15.81286049 16 21 27
245807.71240234 3357656.28509521 16.88856125 49 59 58
245806.75585938 3357651.79925537 15.94447231 76 82 82
245807.08459473 3357658.70068359 17.17130661 31 41 42
245803.82629395 3357650.53833008 15.92669296 74 81 87
245806.06823730 3357652.43328857 16.48027229 79 82 89
245804.81274414 3357651.99645996 16.61527824 0 0 0
245804.54241943 3357653.36712646 16.02054405 38 50 50
245804.07421875 3357652.12713623 15.91689396 48 52 63
245806.92181396 3357658.90942383 16.71064568 27 35 38
245806.25299072 3357658.97454834 16.21584892 28 37 36
245806.73175049 3357659.10638428 16.56268692 9 17 20
245805.55029297 3357650.78533936 16.39515877 101 110 117
245807.49285889 3357655.33544922 15.69641113 36 45 42
245805.69531250 3357653.40295410 16.89049339 162 180 202
245804.59442139 3357652.08514404 16.72983932 9 18 25
245806.67578125 3357653.29785156 15.87416840 56 64 66
245805.16217041 3357652.44177246 16.72177696 15 26 32
245805.52105713 3357651.67095947 16.67323494 4 12 14
245804.54840088 3357649.99853516 16.56367683 100 105 108
245807.53662109 3357660.39495850 16.22762299 101 102 104
245807.74530029 3357654.27386475 15.76910782 32 46 33
245807.61968994 3357654.28460693 15.75927925 22 38 25
245805.02447510 3357651.53759766 16.51356888 43 54 60
245804.43920898 3357653.67761230 15.78234863 72 81 86
245807.23242188 3357659.27124023 16.99514389 34 40 40
245806.67956543 3357652.53967285 15.77010536 78 83 87
245806.29852295 3357655.23553467 16.32218361 43 56 64
245807.51153564 3357655.93109131 15.68864727 66 75 74
245807.01531982 3357657.12713623 16.75098419 1 9 11
245807.01739502 3357656.52038574 16.26018715 27 36 41
245808.14599609 3357654.49127197 15.92565441 56 67 53
245806.06823730 3357652.46093750 16.48398781 77 82 88
245805.94122314 3357656.89318848 15.88743973 40 46 42
245806.39160156 3357654.70483398 16.33226585 32 43 49
245806.47485352 3357653.39099121 16.23179245 53 64 56
245805.95684814 3357651.55902100 16.48785019 56 59 64
245804.57061768 3357653.23547363 16.50289345 99 112 118
245808.34338379 3357654.64422607 16.33339691 46 54 41
245804.25726318 3357651.77874756 16.64738846 135 144 159
245805.90173340 3357653.52111816 16.90120888 159 176 196
245808.72668457 3357653.90765381 16.50193214 52 68 39
245804.58221436 3357653.54730225 15.90277481 44 51 57
245805.42138672 3357651.10070801 16.51009560 192 198 214
245807.01531982 3357653.37072754 15.65589619 68 78 79
245804.78802490 3357653.17010498 16.89482689 164 173 190
245806.83673096 3357653.50622559 15.77070045 38 48 47
245806.07708740 3357652.07769775 16.37022972 51 56 60
245806.33477783 3357659.11950684 16.01865578 18 26 29
245804.18548584 3357652.33459473 16.20350647 58 66 69
245808.15008545 3357653.52770996 15.97417259 25 44 25
245806.12103271 3357652.01379395 16.31324387 66 71 75
245807.89819336 3357655.99304199 16.58570290 68 83 86
245807.98278809 3357655.33514404 16.77921295 23 36 27
245806.32757568 3357657.16436768 16.78131294 58 84 99
245808.02911377 3357654.67706299 15.93669987 40 52 38
245805.53027344 3357650.78076172 16.40152168 137 147 157
245808.42749023 3357654.49481201 16.62380791 42 51 46
245807.65185547 3357660.28344727 17.51944351 48 62 45
245807.03796387 3357660.18756104 15.92341423 82 87 83
245807.44940186 3357656.98138428 16.95717430 39 47 49
245805.26794434 3357651.96740723 16.56995010 0 0 2
245806.00024414 3357658.04736328 16.09133720 46 54 56
245805.60162354 3357654.37695313 15.98724174 71 80 87
245804.18579102 3357652.40783691 16.01293564 51 60 65
245808.49548340 3357652.80639648 15.69179821 32 42 31
245807.02685547 3357658.31304932 17.24686432 16 19 24
245806.48486328 3357653.72106934 16.55023956 26 27 29
245807.03118896 3357656.46075439 16.07578087 63 64 69
245805.03674316 3357653.82025146 16.82698059 169 185 200
245807.79858398 3357655.42388916 15.79428577 30 44 31
245806.67041016 3357653.40179443 15.96816444 51 60 59
245804.04980469 3357652.15649414 15.83591652 52 62 64
245805.44940186 3357651.92633057 16.66402817 4 14 15
245806.78070068 3357659.15539551 16.57895851 10 18 21
245805.86260986 3357656.34893799 16.28126907 50 58 61
245804.68225098 3357652.26641846 16.78580284 21 31 33
245805.01214600 3357650.89465332 16.52687454 175 187 211
245807.76593018 3357656.38677979 16.60173607 78 88 89
245805.87622070 3357652.30426025 16.72619820 44 49 53
245808.10876465 3357655.05145264 16.26268005 51 63 51
245806.43469238 3357658.65118408 16.57090378 13 14 16
245807.72052002 3357655.10046387 15.80436039 31 47 36
245806.29968262 3357656.75103760 16.40228653 9 18 23
245807.23138428 3357659.14221191 17.03108788 21 30 35
245806.15057373 3357652.40447998 16.32579994 72 75 80
245804.92803955 3357650.85009766 16.51254463 172 187 206
245804.51312256 3357652.68200684 16.77387428 12 20 22
245806.40020752 3357652.64544678 15.91507053 77 87 88
245807.16149902 3357655.11010742 16.07846832 44 44 36
245807.36889648 3357656.15319824 15.69771576 82 90 92
245808.01599121 3357655.44531250 16.33455849 25 38 28
245806.91064453 3357654.53692627 16.33462906 101 94 88
245809.20605469 3357653.22534180 16.03594780 35 46 30
245806.06304932 3357657.26721191 15.94856358 12 16 27
245807.26446533 3357657.10278320 16.82559967 11 16 20
245806.66729736 3357656.69622803 16.38239670 29 53 57
245806.04711914 3357654.91314697 16.32694244 59 77 87
245807.26501465 3357660.21704102 16.46473885 83 83 85
245804.84686279 3357654.08184814 16.33366966 161 170 179
245806.51690674 3357653.47174072 16.26177597 30 36 34
245805.87432861 3357652.12023926 16.63951683 78 85 91
245806.66992188 3357656.56469727 16.24539948 20 33 39
245804.40081787 3357652.83386230 16.50852394 110 123 129
245804.64990234 3357653.61663818 16.23997116 77 88 94
245806.29376221 3357657.57641602 16.75890541 127 152 159
245806.92480469 3357651.70611572 15.95577049 75 81 81
245807.65960693 3357656.39184570 16.17358589 57 63 63
245805.02264404 3357654.80847168 15.87255669 87 102 105
245804.38415527 3357653.19262695 15.81129169 68 78 80
245807.20153809 3357659.35845947 16.92947960 57 62 58
245805.22998047 3357651.49700928 16.48645020 27 34 40
245806.93011475 3357653.63348389 15.73307419 48 59 55
245806.10327148 3357651.84033203 16.34407997 66 71 75
245806.68084717 3357656.29858398 16.06547356 61 69 72
245807.30017090 3357659.33929443 17.41535187 27 36 35
245806.12707520 3357650.87677002 16.51748276 90 94 95
245806.97845459 3357654.09075928 16.09738159 27 31 30
245805.76135254 3357658.60003662 15.82961655 77 88 92
245807.95196533 3357652.52032471 15.61589146 31 42 36
245804.37158203 3357652.93420410 16.19940186 63 73 75
245803.79650879 3357651.58483887 16.00145912 104 115 107
245806.57220459 3357659.17102051 16.47850609 14 17 22
245807.25885010 3357657.83135986 17.26831818 7 17 19
245804.51000977 3357652.57690430 16.83728600 13 21 23
245807.59936523 3357660.39428711 16.88213730 77 81 80
245805.30163574 3357654.77905273 15.99330807 68 77 84
245806.87609863 3357655.42370605 16.19808578 36 38 37
245805.68707275 3357657.92462158 15.80699635 68 79 85
245805.22363281 3357654.28863525 16.56785202 156 158 171
245805.12860107 3357651.57055664 16.51434517 47 56 63
245805.99890137 3357656.97271729 16.10186768 13 14 19
245806.10357666 3357657.68609619 15.99444771 19 23 22
245804.21142578 3357652.13348389 16.49383926 145 152 168
245806.37060547 3357653.82049561 16.65455437 69 70 75
245804.11389160 3357652.06903076 16.29034424 72 75 82
245806.66168213 3357657.55181885 16.74033356 73 98 105
245807.17224121 3357655.15924072 16.03848267 49 50 42
245805.51147461 3357655.01184082 16.14133453 121 129 142
245807.23901367 3357656.88391113 16.47654533 14 23 28
245806.31365967 3357657.19299316 16.77227020 92 122 133
245807.00354004 3357655.37792969 16.11274338 52 54 49
245805.72821045 3357653.41369629 16.89206886 162 180 202
245809.04071045 3357653.61694336 16.33393478 73 83 74
245805.11834717 3357653.76983643 16.88541603 162 177 196
245806.14202881 3357654.57611084 15.97410011 56 61 67
245804.92950439 3357654.31756592 16.12922287 141 149 160
245807.69824219 3357660.56933594 16.79619217 93 95 94
245806.35919189 3357653.71044922 16.67765045 67 74 82
245806.92376709 3357657.67443848 16.88088226 16 23 29
245806.07202148 3357658.06854248 16.18072701 19 27 30
245806.23492432 3357652.52880859 16.13022423 70 74 75
245806.83288574 3357651.94323730 15.86489391 71 80 79
245806.52758789 3357653.56921387 16.34335327 35 39 38
245806.21771240 3357658.80541992 16.29801750 61 68 61
245808.73980713 3357653.35083008 15.99818325 92 103 69
245806.62286377 3357656.45343018 16.18717957 29 38 45
245806.90161133 3357659.82189941 16.41742134 23 35 35
245807.50561523 3357660.45501709 15.96031666 108 112 115
245805.69714355 3357650.83801270 16.41023636 79 84 87
245805.68170166 3357653.53533936 16.88888168 158 176 198
245805.02264404 3357651.67517090 16.55455017 59 69 78
245806.69738770 3357656.96295166 16.59675217 43 57 68
245804.68054199 3357653.59094238 16.41976738 112 126 135
245806.62377930 3357656.75256348 16.43850899 35 52 60
245803.85583496 3357651.23889160 16.25594902 62 73 79
245808.11920166 3357653.51245117 15.94895744 24 43 24
245807.04888916 3357653.24835205 15.64179516 52 62 64
245806.99005127 3357654.11358643 16.07850075 27 31 30
245806.10644531 3357656.87493896 16.44912910 13 20 28
245806.32696533 3357653.48632813 16.56627464 41 49 51
245806.35803223 3357654.23840332 16.03622055 64 68 54
245806.94409180 3357652.42718506 15.72586060 66 75 82
245806.20117188 3357654.39587402 15.95385265 49 54 58
245806.95928955 3357658.21563721 17.17542648 22 27 31
245806.70800781 3357659.88916016 16.16829109 97 101 100
245805.38537598 3357654.10321045 16.83593750 51 60 67
245806.06335449 3357657.53118896 16.38095284 29 40 32
245804.57482910 3357653.01416016 16.68297195 7 16 15
245806.42474365 3357652.67230225 15.89314079 75 83 85
245804.86169434 3357653.42681885 16.83665657 128 138 148
245804.30792236 3357651.86596680 16.70603371 106 120 133
245806.90429688 3357653.77166748 15.85218716 44 53 50
245804.00823975 3357651.22033691 16.36765289 168 181 197
245805.82794189 3357655.26141357 16.29988289 70 89 104
245808.16546631 3357652.83325195 15.74302006 29 41 29
245806.67828369 3357654.25958252 16.40218353 45 42 35
245807.46722412 3357660.33325195 16.65623283 83 85 84
245807.20672607 3357656.72143555 16.31131744 22 32 34
245809.30773926 3357653.83013916 16.55456734 50 62 52
245806.57495117 3357653.44323730 16.16047859 41 52 46
245805.11962891 3357652.39270020 16.65676308 0 3 10
245807.49243164 3357659.99957275 17.61735344 41 54 47
245808.67596436 3357653.23297119 15.88127518 32 45 28
245807.12805176 3357659.66839600 16.87773514 58 66 68
245806.15997314 3357651.58941650 16.34466553 85 89 90
245801.32025146 3357656.49426270 17.55226326 42 44 31
245804.58203125 3357652.80999756 16.83777428 16 21 24
245807.25201416 3357653.24609375 15.64906979 20 31 23
245806.74536133 3357656.61993408 16.32129478 86 111 108
245807.92095947 3357655.21014404 15.97002029 24 41 25
245807.18719482 3357657.63214111 17.10785484 39 49 50
245805.43634033 3357655.46929932 15.85748196 92 100 103
245805.89367676 3357651.46002197 16.51944160 159 163 172
245807.37072754 3357656.57977295 16.08916664 53 58 62
245805.25238037 3357653.26287842 16.86925888 166 184 206
245806.34533691 3357659.09161377 16.28756332 13 18 21
245805.33697510 3357653.99316406 16.90655899 162 171 188
245806.32385254 3357653.76147461 16.70585251 85 92 102
245806.00018311 3357652.15759277 16.48975945 99 104 110
245807.31506348 3357659.29760742 17.44255066 19 28 27
245807.08489990 3357655.92370605 15.76484203 81 89 92
245808.29119873 3357654.70892334 16.30380821 47 58 42
245807.04382324 3357658.56512451 17.25308418 15 20 24
245806.10870361 3357655.94879150 16.12102318 46 60 60
245806.23645020 3357652.96807861 16.43712425 56 62 62
245805.04467773 3357653.40173340 16.87326431 160 177 197
245806.55834961 3357654.51806641 16.35301971 33 35 34
245807.97290039 3357652.75897217 15.71794605 28 41 31
245804.40014648 3357650.08966064 16.20429802 91 99 102
245807.38323975 3357656.70697021 16.22602844 16 24 27
245804.54492188 3357652.07891846 16.76034164 14 23 30
245808.00817871 3357654.33947754 15.86893654 38 52 37
245806.38323975 3357653.87542725 16.56852341 66 67 62
245807.05944824 3357655.35943604 16.05948257 52 54 49
245805.99261475 3357656.87963867 16.16070366 14 18 19
245805.53527832 3357653.77288818 16.90773964 154 169 190
245806.05139160 3357658.03363037 16.13376427 8 13 16
245807.34832764 3357659.24273682 17.50382233 23 28 22
245808.32153320 3357652.71655273 15.68125439 29 39 28
245807.08685303 3357658.91986084 16.88504791 19 26 32
245806.86120605 3357653.96221924 16.24774933 48 53 49
245806.50244141 3357659.54052734 16.10756683 10 18 21
245806.18615723 3357658.22320557 16.48080826 57 59 58
245806.64770508 3357653.54058838 16.16323471 44 50 46
245808.27331543 3357652.87451172 15.75040531 35 47 35
245806.75262451 3357655.63012695 16.10766602 45 53 55
245806.06079102 3357658.64239502 16.15113831 67 83 73
245804.39886475 3357652.45208740 16.68548203 9 16 24
245806.20404053 3357653.79785156 16.75444412 110 114 123
245804.90478516 3357654.23919678 16.28834915 100 97 106
245807.63330078 3357652.98858643 15.69716454 20 31 23
245807.07769775 3357653.15057373 15.63197136 46 57 59
245806.56884766 3357655.78930664 16.06462860 59 69 70
245806.59515381 3357654.80560303 16.41387177 36 45 50
245807.03448486 3357659.91735840 16.56681442 34 43 40
245804.59729004 3357653.21594238 16.56583214 96 107 113
245806.53167725 3357655.41192627 16.26484108 33 42 47
245804.93847656 3357654.31530762 16.26535606 124 132 145
245805.29980469 3357655.17425537 15.90902519 85 92 98
245804.47003174 3357650.67907715 16.36342812 171 189 209
245807.70550537 3357655.41253662 15.74032974 27 41 28
245807.83581543 3357656.16015625 16.24985886 43 58 51
245806.06988525 3357658.46789551 16.16968346 73 83 82
245805.66839600 3357654.87573242 16.00504875 62 69 79
245804.78204346 3357654.27166748 15.92774105 57 62 66
245804.81848145 3357653.43164063 16.78322601 15 22 28
245808.83312988 3357653.51843262 16.20629311 70 87 35
245805.96032715 3357656.42156982 16.33358574 46 54 57
245809.13684082 3357653.74414063 16.45439720 63 73 64
245806.09753418 3357656.20349121 16.30260468 56 66 68
245807.05718994 3357656.48101807 16.10557365 61 62 67
245807.55395508 3357652.90100098 15.64166737 20 30 22
245806.12426758 3357655.97949219 16.12729263 51 65 66
245805.56469727 3357655.63458252 15.94645500 55 59 62
245808.78759766 3357653.68743896 16.39611816 113 131 73
245807.93121338 3357652.55889893 15.63326550 25 36 30
245807.06164551 3357655.90924072 15.77820492 80 88 91
245806.07745361 3357652.33953857 16.45356941 62 65 70
245805.06518555 3357654.26794434 16.51043892 147 145 158
245804.43640137 3357652.49835205 16.72860336 12 19 25
245805.71209717 3357654.78991699 15.93179607 74 83 90
245806.29791260 3357652.97619629 16.28971291 55 61 61
245806.02880859 3357657.44042969 16.48292351 15 25 26
245806.95983887 3357658.82348633 16.78430748 98 104 104
245809.32666016 3357653.16302490 15.99009705 44 50 38
245805.96148682 3357656.46557617 16.32062149 48 54 54
245807.37152100 3357652.84655762 15.60694408 51 61 60
245806.53906250 3357651.02514648 16.49814987 96 100 101
245806.50769043 3357653.36492920 16.14328957 46 57 53
245805.26080322 3357652.24859619 16.59379387 72 88 88
245806.60131836 3357655.43457031 16.26005554 31 39 42
245806.12725830 3357657.55590820 15.99672318 0 8 5
245805.05981445 3357651.96502686 16.56951714 0 0 0
245804.25427246 3357650.42822266 16.19273758 164 180 195
245807.97619629 3357655.33514404 16.08388519 28 44 31
245803.57904053 3357651.43750000 15.84046268 116 119 124
245807.48791504 3357652.90661621 15.63063431 58 67 62
245806.14880371 3357653.05603027 16.58137894 99 108 115
245806.36602783 3357652.45581055 15.91646481 81 84 89
245803.92321777 3357650.66339111 16.12241936 165 175 185
245807.15472412 3357654.43963623 15.90659714 20 24 23
245808.90594482 3357653.79095459 16.47253799 89 98 77
245806.40167236 3357658.15759277 16.76315117 55 63 66
245806.06646729 3357657.51544189 16.33462334 47 58 50
245804.68127441 3357654.17907715 15.90322495 92 96 105
245805.09576416 3357653.53112793 16.87790489 156 173 191
245804.66540527 3357654.38159180 15.79055309 93 104 108
245806.67095947 3357651.35614014 16.25527382 89 99 91
245808.54022217 3357653.22174072 15.87344265 39 52 34
245806.00421143 3357657.06536865 15.97465038 16 13 22
245806.85766602 3357653.78637695 15.95636368 31 37 37
245804.59490967 3357652.38433838 16.90566635 69 79 89
245807.50579834 3357656.07629395 15.68627071 75 81 81
245807.35260010 3357660.27569580 16.30810928 84 88 89
245807.84588623 3357655.20349121 15.87153625 23 39 26
245806.10546875 3357657.69213867 16.58619881 3 10 16
245808.00347900 3357654.29901123 15.87819576 37 51 36
245806.12286377 3357657.54180908 16.04241371 77 89 77
245807.45819092 3357653.33819580 15.73234558 23 36 26
245806.44219971 3357654.43304443 16.16307259 43 39 36
245808.14648438 3357652.93157959 15.78602886 28 40 28
245806.04431152 3357653.09326172 16.82343864 27 42 47
245805.45172119 3357651.54046631 16.54606247 18 30 30
245805.28601074 3357651.48950195 16.48039627 26 33 39
245807.10894775 3357653.07293701 15.62443829 51 60 65
245806.45648193 3357657.12683105 16.76453400 55 78 92
245807.23242188 3357659.32000732 16.97456169 48 54 50
245808.95904541 3357653.40338135 16.10590553 62 73 41
245806.16955566 3357656.89709473 16.57528687 30 46 59
245806.41589355 3357659.31591797 15.85113811 17 22 28
245807.45404053 3357656.62603760 16.17052841 62 70 73
245804.58197021 3357653.44750977 16.32918358 74 85 89
245804.68182373 3357654.12213135 15.93230247 79 80 85
245806.23730469 3357655.35571289 16.26896477 40 54 63
245806.48870850 3357658.69903564 16.58518982 0 3 4
245806.90435791 3357659.13037109 16.62239265 12 23 29
245808.06121826 3357654.75183105 16.00756073 40 52 38
245807.77478027 3357656.28521729 16.65657234 64 78 79
245804.17602539 3357650.90881348 16.37848663 176 191 212
245808.54724121 3357652.87255859 15.71122932 34 46 32
245804.45806885 3357650.75714111 16.39619827 171 190 207
245808.31536865 3357653.26171875 15.94726753 34 47 29
245806.15325928 3357652.00109863 16.29088974 66 71 75
