246093.20593262 3357706.98846436 13.36379910 70 77 95
246091.97912598 3357707.92456055 14.04497051 15 21 21
246091.91833496 3357706.16735840 12.26534653 18 23 27
246093.16162109 3357708.22058105 12.29368305 82 99 117
246092.93688965 3357706.20721436 12.49622440 92 93 97
246090.25109863 3357706.29644775 12.15349388 102 103 105
246092.00354004 3357706.19842529 12.21525764 19 24 27
246092.81494141 3357706.24957275 12.57973862 16 17 19
246093.63806152 3357707.45452881 12.91701794 16 23 33
246091.68872070 3357706.17938232 12.11702442 20 24 27
246093.73571777 3357706.73339844 12.40949154 16 21 27
246089.88842773 3357706.19488525 12.27222443 99 99 97
246091.66430664 3357705.95422363 12.45915604 27 28 32
246092.92834473 3357707.47528076 13.21655178 22 29 39
246091.35864258 3357706.31103516 13.52997494 15 18 23
246093.49572754 3357707.98126221 12.83014774 18 17 22
246089.96582031 3357706.04895020 12.46957397 110 107 102
246093.39050293 3357707.56567383 13.34980869 6 9 14
246090.42163086 3357706.25183105 13.64557552 18 22 23
246089.40673828 3357706.14526367 12.22549057 36 36 36
246091.43798828 3357706.58361816 13.73289490 10 15 18
246092.01428223 3357706.21343994 13.22548771 13 16 21
246092.16577148 3357706.57470703 13.49041843 26 29 34
246093.21069336 3357707.97302246 13.23829174 5 15 17
246091.38305664 3357705.85223389 12.67008495 33 37 40
246090.27954102 3357706.24377441 13.68222713 16 20 23
246092.11059570 3357707.13665771 14.07096863 27 39 37
246089.69653320 3357706.17425537 12.26214504 102 104 101
246093.58911133 3357707.61126709 13.05596161 37 39 51
246092.75756836 3357706.61358643 13.29269886 13 18 24
246090.85131836 3357706.20391846 12.32433701 92 92 94
246090.54125977 3357706.13195801 12.39859390 116 115 110
246092.05749512 3357706.15686035 12.13069153 22 27 31
246090.89404297 3357706.28094482 13.55860233 21 25 26
246092.56127930 3357707.00994873 13.31268501 23 26 31
246093.66625977 3357706.64971924 12.80786419 14 20 32
246093.64208984 3357707.45672607 12.89668655 16 23 33
246091.90039063 3357708.06036377 13.31851196 16 21 24
246091.19262695 3357706.24212646 12.09800434 60 61 63
246093.32226563 3357707.09448242 13.36814880 63 71 84
246093.65307617 3357707.50982666 12.83930111 20 23 30
246092.13110352 3357706.20477295 12.30510998 21 27 27
246092.81689453 3357706.70513916 13.31825542 25 29 38
246093.70996094 3357706.67547607 12.52260590 20 27 35
246090.84643555 3357706.15802002 12.38996315 72 72 72
246090.49243164 3357705.92523193 11.97513008 63 69 69
246091.53967285 3357708.26586914 12.45790672 85 102 109
246093.15026855 3357707.44372559 13.26896286 43 50 66
246091.85998535 3357706.36486816 13.41175365 14 18 19
246091.36169434 3357706.06512451 13.39001656 62 61 66
246091.78112793 3357705.90899658 12.62511444 31 36 39
246093.70031738 3357706.50897217 12.43911743 24 28 37
246093.43737793 3357708.03808594 12.51330662 51 54 59
246092.27575684 3357707.59228516 13.36150455 21 24 31
246090.26049805 3357706.21936035 13.67996883 16 20 23
246092.19152832 3357706.00421143 12.93896675 69 74 77
246093.66979980 3357707.46899414 12.77834511 22 26 35
246092.34912109 3357706.65618896 13.46929264 43 46 53
246091.94921875 3357705.96679688 12.99530411 34 43 42
246090.98291016 3357706.23712158 12.20612907 93 95 94
246091.58776855 3357706.17285156 12.00218678 31 37 37
246091.47302246 3357705.91015625 12.91315079 28 29 33
246092.14392090 3357707.94677734 13.28119373 12 15 20
246093.09057617 3357706.53906250 13.23109245 3 10 16
246091.66662598 3357708.19561768 12.46709156 86 106 113
246092.77136230 3357707.57238770 13.18915844 19 26 36
246089.65490723 3357706.18084717 12.22407818 83 85 84
246092.42602539 3357708.11822510 13.01029396 16 19 24
246093.46191406 3357708.03259277 13.01130390 50 50 60
246090.99475098 3357705.87292480 12.86562920 24 25 27
246093.59033203 3357707.68231201 13.03917885 89 88 102
246092.29418945 3357707.70593262 13.27756214 9 12 17
246089.68420410 3357706.14306641 12.09353828 60 64 63
246093.29797363 3357706.97564697 13.39711571 63 70 86
246092.42541504 3357706.89587402 13.39108276 52 58 58
246089.82116699 3357706.15539551 12.31494522 124 123 119
246090.11901855 3357706.01580811 12.53072834 125 122 115
246093.61621094 3357706.58435059 13.00374985 67 66 84
246093.59643555 3357707.83489990 12.92081451 30 21 26
246092.31396484 3357707.19470215 13.44563866 118 122 125
246091.96057129 3357706.09423828 12.39002132 22 25 30
246091.16479492 3357705.92285156 12.54147720 45 45 45
246092.78808594 3357707.67779541 13.20279503 39 46 56
246093.60290527 3357706.48852539 12.89181995 15 18 25
246092.16394043 3357706.83551025 13.65240288 21 29 31
246092.55065918 3357708.28759766 12.23361778 60 76 91
246090.22998047 3357706.12652588 13.65770531 18 22 23
246090.19213867 3357706.29675293 12.16582108 102 103 105
246091.54260254 3357708.26428223 12.45025444 80 97 105
246092.05749512 3357706.72985840 13.84913254 37 42 45
246092.16333008 3357708.27160645 12.26218319 145 162 169
246090.93957520 3357706.19506836 11.98762035 96 100 101
246091.97021484 3357706.14270020 13.20570087 13 16 21
246090.88671875 3357706.22680664 13.52682114 19 23 24
246093.03430176 3357706.30676270 12.85314083 5 11 11
246093.03112793 3357706.22839355 12.64376545 34 35 39
246093.35656738 3357706.74761963 13.44101429 57 66 75
246092.79699707 3357706.43261719 13.04718590 4 7 12
246092.96142578 3357708.11010742 12.93300152 30 41 47
246090.31140137 3357705.98352051 12.57782364 104 103 98
246092.92041016 3357706.81927490 13.33523178 33 39 51
246092.23925781 3357708.27459717 12.55579185 158 176 180
246091.93933105 3357708.13018799 13.19582558 19 27 30
246092.35729980 3357706.13922119 12.71132946 11 15 18
246092.24389648 3357706.14642334 12.48133945 17 20 25
246093.17980957 3357707.94635010 13.34285355 6 14 17
246089.99279785 3357706.02130127 11.96803951 75 79 82
246093.45263672 3357706.55651855 13.21107578 16 17 22
246089.67297363 3357706.14306641 12.31296825 48 48 46
246092.09423828 3357707.05853271 13.82587051 26 36 37
246093.13916016 3357708.26330566 12.22101688 97 115 135
246093.01770020 3357706.94299316 13.31755066 45 53 66
246091.52612305 3357708.27508545 12.38650417 76 93 101
246090.92382813 3357706.18218994 11.98444939 96 100 101
246090.64318848 3357706.10418701 13.49119282 24 24 26
246092.26696777 3357706.18609619 12.42864418 13 17 20
246090.61755371 3357706.33868408 13.66588402 16 20 21
246092.12487793 3357707.46850586 13.96013355 20 30 31
246093.21447754 3357706.37707520 13.04820824 38 39 43
246089.90380859 3357706.12969971 12.02288437 68 72 73
246089.48059082 3357706.14178467 12.24544716 64 64 64
246090.48229980 3357706.33508301 13.68093300 16 20 23
246090.85729980 3357706.01416016 13.32319546 24 25 27
246093.41906738 3357707.14251709 13.39197922 8 13 17
246091.10278320 3357706.47052002 13.66684246 16 20 23
246091.55151367 3357706.60620117 13.76727676 10 14 17
246093.61059570 3357706.73718262 13.09222126 13 12 26
246092.71020508 3357707.91296387 13.18601322 20 23 28
246089.61950684 3357706.14105225 12.30697632 51 53 52
246091.89648438 3357706.37933350 13.39997673 14 15 17
246092.86291504 3357708.14636230 12.90750313 40 47 55
246093.48767090 3357707.14404297 13.32730865 12 17 21
246093.46997070 3357706.30804443 12.78877354 29 28 34
246093.70166016 3357706.75708008 12.61067104 13 20 30
246093.60021973 3357706.98284912 13.06307507 21 28 38
246090.67932129 3357705.92791748 12.66579247 55 56 51
246090.55590820 3357706.19207764 12.32867908 127 126 122
246091.28271484 3357706.03399658 12.34380341 8 9 13
246093.54577637 3357707.06420898 13.22990894 16 21 27
246092.32067871 3357706.73156738 13.48222637 42 47 51
246091.86987305 3357708.13909912 12.45156765 134 154 161
246092.96655273 3357708.19055176 12.78944588 46 56 66
246093.56457520 3357707.96154785 13.07477093 32 26 38
246092.08520508 3357706.60742188 13.56595135 34 38 41
246092.41101074 3357708.29711914 12.35657024 23 37 46
246090.29089355 3357706.24755859 12.24539948 105 107 104
246093.60205078 3357707.72247314 12.53663349 19 24 28
246093.06848145 3357707.21026611 13.22448635 32 42 54
246091.34594727 3357706.03002930 13.30091095 12 16 19
246092.11279297 3357706.70471191 13.70250702 43 48 51
246091.51525879 3357705.91656494 12.46418953 25 26 30
246089.85791016 3357706.04687500 12.45903778 60 55 51
246090.98754883 3357706.11810303 12.37704372 86 86 86
246093.70166016 3357707.32379150 12.51532745 27 30 37
246091.09985352 3357706.08978271 11.99096489 72 76 79
246092.72082520 3357707.98260498 13.14767075 15 20 24
246090.42456055 3357706.11706543 11.96998596 81 85 86
246091.72973633 3357705.93011475 12.93435383 28 34 34
246092.04370117 3357706.37384033 13.31113529 16 20 23
246091.69140625 3357706.54919434 13.65904617 13 14 18
246091.82592773 3357708.21520996 12.80458546 130 147 157
246090.64526367 3357706.23492432 11.99743462 69 75 71
246092.14929199 3357707.50909424 13.56818295 20 25 29
246092.67578125 3357708.28497314 12.41939354 58 71 88
246092.23889160 3357707.71386719 13.34132290 10 15 19
246090.70690918 3357705.98724365 13.28228378 15 16 18
246091.08447266 3357706.21997070 12.17936134 51 52 54
246093.55297852 3357707.85430908 12.55168915 37 40 47
246093.58288574 3357706.67254639 13.11031342 14 14 26
246092.18835449 3357707.34765625 13.55525112 41 49 51
246093.02233887 3357706.26116943 12.74640179 16 20 21
246092.03552246 3357706.07769775 13.11206627 17 21 22
246092.00817871 3357706.19458008 13.21793842 13 16 21
246091.44409180 3357706.04388428 13.33060169 44 45 49
246092.92272949 3357706.46942139 13.09701729 3 6 11
246093.32604980 3357706.30120850 12.88577080 21 24 29
246092.33874512 3357707.52276611 13.32694435 46 49 56
246093.59985352 3357707.78564453 12.83497238 20 15 22
246093.47412109 3357707.92053223 13.16995430 43 45 57
246090.44433594 3357706.13104248 13.56366920 19 20 22
246092.94152832 3357706.27783203 12.75102139 10 14 15
246092.60534668 3357706.47180176 13.15183067 4 8 11
246092.42724609 3357706.48284912 13.28190517 8 9 14
246090.22412109 3357706.26293945 12.06931114 95 96 100
246093.51879883 3357706.43286133 13.00898933 81 79 92
246092.13952637 3357707.41564941 13.60473347 31 39 41
246090.22473145 3357706.21899414 12.27952671 103 105 102
246091.38623047 3357706.19140625 12.06817245 14 20 18
246092.61242676 3357706.42608643 13.06411839 6 10 13
246090.88989258 3357705.95251465 12.62599850 74 74 74
246093.20153809 3357706.81494141 13.39866257 66 76 88
246093.51806641 3357707.92883301 12.48591709 34 39 45
246090.41760254 3357706.22930908 12.00513172 92 96 97
246093.61145020 3357707.70935059 12.98756981 77 74 85
246091.50427246 3357706.13873291 12.12326050 10 19 18
246093.65393066 3357706.67700195 12.89651299 19 22 37
246090.95043945 3357705.96655273 13.25146198 10 14 15
246093.37377930 3357706.94500732 13.42148590 45 53 64
246091.98937988 3357707.87731934 13.71849728 12 16 19
246093.67419434 3357707.49139404 12.74211788 19 24 30
246089.70568848 3357706.17590332 12.26180840 102 104 101
246092.52600098 3357708.17938232 12.93932819 14 22 25
246091.69519043 3357706.16674805 12.16766357 20 25 29
246091.88476563 3357706.01251221 12.47501564 26 29 34
246092.36999512 3357707.50994873 13.29853916 53 56 63
246093.73034668 3357707.22332764 12.46096039 31 34 43
246093.50939941 3357707.95928955 12.80920315 26 24 29
246092.07556152 3357707.24108887 13.87376499 31 41 42
246090.65856934 3357706.29711914 13.62812614 18 22 23
246093.11279297 3357708.14202881 12.87435246 36 45 54
246092.40771484 3357706.17852783 12.71575737 14 15 19
246092.66052246 3357707.54205322 13.16732597 25 28 35
246092.35534668 3357707.15350342 13.41137123 125 130 133
246092.96948242 3357706.22015381 12.18581867 10 11 16
246092.29272461 3357706.07238770 12.86604595 21 25 28
246091.96679688 3357706.16241455 12.12725639 20 25 28
246091.33276367 3357706.15661621 13.45239067 36 35 40
246092.09960938 3357706.93249512 13.90853977 26 31 34
246090.88220215 3357706.30572510 12.03808880 65 69 68
246091.77392578 3357708.32171631 12.21511364 103 129 120
246093.63598633 3357706.68292236 12.98985672 82 84 99
246092.30957031 3357706.23175049 12.13711834 38 41 46
246092.95751953 3357706.20178223 12.25221729 18 19 24
246091.29003906 3357706.38098145 13.57299900 11 15 18
246092.86706543 3357706.28710938 12.74177933 13 17 20
246092.40393066 3357706.85748291 13.40874386 52 57 60
246092.84326172 3357708.05004883 13.04130840 16 26 27
246091.77478027 3357706.15484619 13.31186199 24 25 27
246092.02905273 3357707.92053223 13.51555729 14 19 23
246093.60693359 3357707.08544922 13.08629990 18 26 39
246091.08789063 3357706.04974365 11.99198246 101 106 109
246092.12341309 3357706.85943604 13.90253830 27 32 35
246092.07287598 3357707.73260498 13.82826424 14 19 22
246092.15393066 3357705.96679688 12.86625671 64 70 70
246092.16894531 3357707.30865479 13.63212109 39 47 49
246092.92309570 3357706.55749512 13.21588230 1 6 10
246092.09057617 3357707.13391113 13.81645679 26 36 37
246093.15844727 3357706.50494385 13.20245075 6 11 15
246093.06665039 3357707.39422607 13.23818111 47 53 67
246091.79113770 3357708.18792725 12.34837723 101 126 123
246093.55395508 3357706.45239258 12.99015999 44 42 55
246093.02697754 3357707.17590332 13.21874046 30 38 51
246092.28076172 3357706.37603760 13.17522430 11 14 19
246091.18383789 3357706.13903809 12.24390888 22 22 24
246093.55603027 3357707.93243408 13.10612583 67 63 77
246093.59143066 3357707.66516113 13.04024220 89 88 102
246092.11535645 3357706.79345703 14.07837868 25 35 34
246093.58947754 3357706.59857178 13.06380749 87 84 101
246091.67456055 3357706.11962891 12.22685814 19 24 28
246089.80883789 3357706.17022705 12.29435253 108 110 107
246092.58300781 3357706.68621826 13.37967968 26 31 35
246092.47436523 3357706.71081543 13.41327000 37 40 45
246092.70092773 3357708.00152588 13.11382008 14 19 23
246092.38073730 3357707.78552246 13.19653702 9 13 16
246092.38452148 3357707.19067383 13.38665676 100 104 107
246093.18371582 3357707.31829834 13.26049232 43 51 64
246092.04345703 3357707.84429932 13.61859703 12 17 21
246092.14074707 3357707.50250244 13.99913979 17 27 28
246092.09875488 3357708.23400879 12.71377087 140 157 164
246090.48596191 3357706.01379395 12.54452324 112 112 104
246092.60253906 3357706.27539063 12.21379566 79 78 83
246091.21679688 3357705.88092041 12.91946507 19 23 26
246092.57141113 3357706.41119385 13.04238510 9 13 16
246090.90551758 3357706.27093506 13.55111027 21 25 26
246093.38024902 3357706.22998047 12.63282490 46 47 52
246092.65820313 3357708.20886230 12.85027504 58 67 72
246093.58349609 3357706.93908691 13.11785316 23 27 36
246093.13916016 3357708.17028809 12.82527065 34 41 49
246091.64733887 3357706.08764648 12.26084137 19 24 28
246093.68859863 3357706.35968018 12.26289654 40 49 56
246090.61303711 3357705.97015381 13.26362514 11 12 14
246092.71728516 3357708.16119385 12.91478252 30 37 43
246091.68603516 3357705.92846680 12.93740749 26 32 32
246092.57238770 3357706.40917969 13.03832531 9 13 16
246093.72570801 3357706.84027100 12.49181461 22 29 35
246093.29174805 3357708.15136719 12.40719318 35 43 54
246091.31713867 3357705.87835693 12.86183548 24 25 29
246093.63378906 3357707.02557373 12.92975140 37 43 57
246092.41809082 3357707.72393799 13.18954086 8 12 15
246092.43371582 3357706.19708252 12.73734093 17 18 22
246090.57946777 3357706.00036621 13.41025639 49 49 51
246092.27246094 3357706.23120117 12.27364635 22 26 29
246090.92651367 3357705.90301514 13.08096790 12 16 17
246093.43872070 3357707.49664307 13.31001377 8 13 17
246092.11242676 3357706.78601074 13.92543793 25 33 35
246090.25073242 3357706.27886963 12.10723591 93 94 98
246092.38659668 3357706.17474365 12.86857224 9 13 16
246090.63439941 3357706.25683594 13.59132576 18 22 23
246091.50805664 3357706.03070068 13.26169968 8 12 15
246093.44689941 3357707.63916016 13.24091911 7 12 16
246091.77624512 3357706.00958252 12.43057823 27 31 34
246092.48217773 3357706.78265381 13.39372349 38 41 46
246091.22631836 3357705.86041260 12.72197437 23 27 28
246092.13879395 3357706.38452148 13.26294518 19 22 27
246090.75830078 3357705.90374756 12.72257805 41 43 42
246090.51599121 3357706.27655029 12.05603504 128 132 133
246090.61242676 3357706.29681396 12.16568279 105 105 105
246091.84216309 3357706.07928467 12.00866795 24 29 33
246090.95751953 3357706.29449463 12.07643795 85 87 86
246092.81347656 3357707.08923340 13.25065994 34 41 49
246093.64990234 3357706.54577637 12.80607128 21 25 36
246093.07678223 3357706.55004883 13.24340916 3 10 16
246093.63500977 3357706.75360107 13.05378437 69 68 82
246092.59277344 3357706.27087402 12.55655479 10 11 13
246093.22839355 3357708.19525146 12.72189331 29 38 47
246093.71179199 3357707.18823242 12.65337849 11 18 28
246092.46142578 3357706.22363281 12.03394318 28 33 37
246091.84729004 3357706.42321777 13.45731258 19 23 24
246093.11096191 3357707.91070557 13.35692596 21 28 38
246090.19091797 3357706.17590332 13.71245003 21 25 28
246092.10437012 3357705.93627930 12.86341476 52 60 62
246093.39355469 3357707.63562012 13.31505966 9 12 17
246093.68371582 3357706.60858154 12.66751099 14 18 27
246093.37854004 3357706.43334961 13.18842697 12 13 17
246092.60229492 3357707.93328857 13.12752533 21 24 31
246093.37683105 3357706.66473389 13.42007732 50 54 63
246092.19311523 3357707.52410889 14.10251999 15 23 25
246093.18225098 3357707.26776123 13.26744080 53 60 76
246093.25646973 3357707.60693359 13.33408070 58 62 74
246090.95104980 3357706.17327881 12.31921673 91 91 91
246093.67102051 3357706.38018799 12.35962582 31 35 44
246093.05529785 3357707.95983887 13.28289318 8 18 20
246092.33056641 3357706.41766357 13.21693611 2 5 10
246090.68859863 3357706.02508545 12.53591728 69 70 65
246091.46789551 3357706.52386475 13.66521549 9 17 20
246090.86291504 3357705.90551758 13.08234596 17 21 22
246093.51916504 3357707.63537598 13.14640903 23 28 34
246093.18212891 3357706.58679199 13.36859798 47 53 65
246093.12402344 3357706.68115234 13.40255737 47 53 65
246091.60546875 3357706.60607910 13.74135590 12 13 17
246091.35412598 3357706.02807617 13.29704857 16 20 23
246091.67590332 3357706.62298584 13.76521492 12 13 17
246093.56359863 3357707.83184814 12.45361614 35 43 45
246093.52502441 3357706.95831299 13.25707245 15 18 23
246093.29016113 3357706.34954834 13.02238941 75 74 79
246091.38513184 3357705.94628906 13.09504032 24 28 31
246093.02575684 3357706.52661133 13.18766212 0 8 11
246093.05993652 3357708.14031982 12.87711906 40 49 58
246093.57226563 3357706.74011230 13.13638973 16 16 24
246091.31030273 3357705.98382568 13.22906208 15 19 22
246089.39440918 3357706.16809082 12.15504360 41 43 42
246092.31115723 3357706.24249268 12.16763973 32 36 39
246092.14062500 3357706.83251953 14.09045219 23 33 32
246093.32946777 3357707.81091309 13.39699745 21 24 33
246093.32580566 3357706.54711914 13.34983253 2 5 10
246090.74377441 3357706.04565430 12.51516247 66 66 64
246091.84924316 3357706.18316650 13.30792904 17 18 20
246092.05700684 3357706.73889160 13.96358013 22 30 32
246090.65490723 3357706.22515869 12.29682541 110 109 107
246090.42419434 3357706.27294922 12.22077465 102 102 100
246091.99707031 3357708.10101318 13.19382668 18 26 29
246093.35131836 3357706.76208496 13.43733501 54 64 74
246093.60009766 3357707.87609863 13.02206230 25 20 27
246091.93920898 3357707.96386719 13.94717026 26 32 30
246091.98242188 3357706.09808350 12.39411354 24 28 31
246090.86706543 3357706.07214355 12.48750114 76 76 76
246093.52539063 3357707.94006348 12.81835079 25 23 26
246091.79479980 3357706.14459229 12.24383450 23 26 31
246092.31176758 3357706.11547852 12.69797516 14 17 22
246089.72668457 3357706.11810303 12.06554890 62 66 67
246093.72290039 3357706.69256592 12.46230316 20 25 31
246092.10717773 3357707.51300049 13.86212444 20 28 31
246093.25390625 3357706.42108154 13.11893559 3 7 10
246092.12316895 3357708.22949219 12.60741615 149 166 173
246093.26879883 3357706.47851563 13.20839500 8 13 16
246092.95227051 3357707.98742676 13.18788052 11 19 22
246091.19287109 3357705.94439697 13.15831375 21 26 29
246092.74768066 3357706.40118408 12.97743416 12 15 20
246091.32263184 3357706.40325928 13.57967854 11 15 18
246092.02819824 3357706.73199463 14.06775475 23 34 30
246092.46557617 3357706.67889404 13.42409801 39 42 47
246091.51391602 3357705.87738037 12.77643490 28 32 35
246092.60168457 3357707.59558105 13.15554810 10 13 18
246091.94946289 3357708.08715820 13.24326801 15 23 26
246092.09350586 3357707.19750977 13.78523731 26 36 38
246092.63842773 3357708.28125000 12.23422527 60 76 91
246092.88793945 3357706.21844482 12.24786472 86 85 90
246092.02917480 3357705.94122314 12.90305519 46 56 57
246092.72973633 3357706.37017822 12.89560509 6 9 14
246091.96838379 3357706.54980469 13.55410480 27 31 34
246090.98046875 3357706.09124756 12.41352844 110 109 107
246091.90478516 3357706.11407471 13.21837616 15 19 22
246092.38757324 3357707.53399658 13.27256584 45 48 55
246091.96520996 3357708.02929688 13.30536652 12 20 23
246092.19531250 3357706.92303467 13.60088348 14 24 26
246093.30261230 3357707.40679932 13.33178520 47 56 63
246091.50354004 3357706.06079102 11.98384666 39 44 47
246092.16674805 3357706.19671631 12.33258629 21 25 28
246093.12780762 3357708.05493164 13.03625679 21 32 36
246090.57495117 3357706.20886230 11.99197102 76 80 79
246092.84436035 3357708.30725098 12.30355072 112 125 144
246091.70397949 3357706.18725586 12.07404327 21 25 28
246093.23046875 3357707.61572266 13.32864761 51 57 71
246093.32714844 3357707.02593994 13.38496304 65 71 85
246092.69311523 3357706.28326416 12.61065292 6 7 9
246091.92883301 3357706.08258057 13.17467308 15 19 22
246090.90441895 3357706.30200195 13.57002068 21 25 26
246091.01135254 3357706.11584473 13.44423771 32 31 36
246091.67077637 3357705.94970703 13.02350616 28 34 34
246092.33715820 3357707.23040771 13.42591667 60 64 67
246092.44018555 3357706.27911377 12.26557732 153 154 159
246091.27709961 3357705.96069336 11.99237251 66 70 73
246091.00720215 3357706.23474121 11.99811268 38 39 41
246091.53576660 3357706.09906006 13.36534500 53 54 58
246092.87280273 3357707.98809814 13.17341995 14 22 25
246091.63659668 3357705.92401123 12.50247669 30 31 35
246093.73632813 3357706.95233154 12.47095585 21 26 32
246092.74597168 3357706.26568604 12.57689953 9 13 14
246092.11145020 3357707.06274414 14.06006527 20 32 30
246092.29589844 3357706.74169922 13.50014496 46 51 55
246092.57910156 3357708.15997314 12.95249271 18 26 29
246091.99621582 3357706.68731689 14.11699104 38 51 44
246093.70129395 3357707.32977295 12.67330074 18 22 31
246091.85278320 3357706.22613525 13.33165932 25 26 28
246092.08581543 3357707.69732666 13.89489174 13 21 23
246093.65197754 3357706.43286133 12.56685352 18 23 29
246092.73950195 3357706.31109619 12.73338413 6 10 11
246089.99316406 3357706.26745605 12.13402557 66 72 72
246091.61523438 3357705.91015625 12.88167286 24 28 31
246092.15332031 3357707.23284912 13.64132214 47 57 59
246091.10681152 3357706.10552979 11.99070835 66 69 74
246092.58618164 3357706.25061035 12.10226250 66 70 73
246091.56530762 3357706.03375244 12.30072784 20 25 28
246093.38537598 3357706.22528076 12.32412529 61 64 69
246092.11157227 3357706.70831299 13.71108818 46 52 52
246092.79455566 3357708.01666260 13.08683777 16 24 27
246092.01123047 3357707.93322754 13.53852463 14 19 23
246093.11926270 3357707.98480225 13.22551060 7 17 19
246092.67517090 3357706.85687256 13.32732677 13 18 24
246092.29138184 3357708.14465332 13.04277420 18 19 23
246090.68481445 3357705.95092773 11.97806168 75 78 83
246092.07788086 3357706.74810791 13.90836620 24 32 34
246092.46325684 3357708.01684570 13.06550503 10 13 18
246093.64648438 3357706.81762695 13.02133369 65 67 80
246091.14538574 3357705.89257813 12.99882507 27 32 35
246091.83984375 3357708.19836426 12.75886440 121 138 148
246091.51867676 3357705.90753174 12.89277649 27 31 34
246091.63793945 3357705.90130615 12.84229755 27 31 34
246090.56616211 3357706.08203125 11.95634651 74 79 82
246091.83959961 3357705.93743896 12.93877220 32 41 40
246091.23681641 3357706.19226074 13.46803379 25 26 30
246093.30224609 3357708.14782715 12.44672203 39 47 58
246092.52685547 3357707.40600586 13.22672749 1 4 9
246092.19042969 3357706.43304443 13.29095840 9 12 17
246093.74755859 3357707.05499268 12.44461250 24 29 35
246092.22021484 3357706.01849365 12.88471603 42 47 50
246093.27905273 3357708.03845215 13.09106731 23 34 38
246091.92431641 3357706.63671875 13.68635178 28 32 35
246092.27124023 3357706.13641357 12.52640247 16 19 24
246091.84289551 3357706.13299561 12.05561066 24 27 32
246090.38427734 3357706.00292969 11.95021152 56 60 61
246090.30664063 3357706.02716064 13.55593586 23 23 23
246092.10241699 3357707.67071533 13.68274403 16 21 27
246092.93237305 3357706.27410889 12.73898602 10 11 13
246092.49377441 3357706.95648193 13.34937859 37 42 46
246090.46752930 3357706.12396240 12.40557289 126 127 121
246091.61865234 3357706.11358643 12.21085453 18 23 26
246091.66540527 3357706.61358643 13.73843288 13 14 18
246091.97131348 3357708.15942383 12.57018471 123 141 151
246092.03491211 3357707.99810791 13.28839874 12 17 21
246091.22436523 3357706.21319580 12.12366486 25 26 28
246093.60742188 3357706.88244629 13.08220863 28 32 43
246092.84582520 3357706.22125244 12.44552135 208 207 213
246090.82604980 3357705.99597168 11.97820377 80 83 88
246093.09375000 3357706.61480713 13.35450554 49 55 67
246093.82885742 3357706.44427490 12.09223652 50 59 68
246090.47106934 3357706.13702393 13.55999279 18 19 21
246093.45153809 3357707.57733154 13.25657272 7 12 16
246093.19091797 3357707.03137207 13.33895016 73 82 99
246090.32373047 3357706.07946777 13.58424091 20 21 23
246092.25573730 3357706.53045654 13.41377354 14 18 21
246093.70288086 3357706.53210449 12.46004486 23 27 36
246093.66333008 3357707.44445801 12.80526066 24 31 39
