246104.45593262 3357657.26660156 12.98472691 110 100 75
246100.07910156 3357659.12774658 12.98776627 206 210 209
246101.94140625 3357657.20849609 12.75844860 163 148 127
246100.53344727 3357658.64093018 13.52911472 224 228 229
246099.89111328 3357657.73040771 12.73910236 249 248 243
246100.11743164 3357657.38867188 12.68248940 136 133 124
246100.07824707 3357658.04760742 13.13349533 250 250 248
246101.99682617 3357657.51623535 13.72958279 2 8 4
246103.23291016 3357658.23547363 13.73696804 227 229 228
246102.65466309 3357657.91363525 14.03357792 226 224 227
246099.64953613 3357658.03497314 12.63107491 141 137 128
246100.24145508 3357658.55303955 13.26819706 243 245 240
246103.20812988 3357657.19213867 12.66752529 207 203 202
246103.92272949 3357658.17791748 13.55061054 159 168 173
246100.00366211 3357657.30786133 12.60169792 155 140 117
246101.88464355 3357657.76959229 13.86789608 245 239 241
246099.98840332 3357657.66473389 12.85464859 255 252 253
246102.72253418 3357657.21752930 12.91343880 220 226 224
246102.87182617 3357657.28576660 13.34883785 246 242 241
246103.96276855 3357657.18420410 12.84585381 178 174 165
246099.73132324 3357658.01281738 12.70721912 194 190 187
246100.55773926 3357658.14965820 13.34195042 240 240 238
246102.23535156 3357658.05352783 13.92734718 3 15 11
246101.78112793 3357658.12554932 13.71488190 224 224 222
246101.13098145 3357657.37512207 12.73342705 207 203 194
246103.68664551 3357657.48291016 13.59966469 94 80 77
246100.34655762 3357658.75488281 13.42277336 234 236 233
246102.95288086 3357657.21832275 13.04372597 222 227 223
246102.96276855 3357657.14233398 12.58488655 191 165 130
246099.78173828 3357658.70422363 12.69814682 155 137 125
246101.66284180 3357657.24877930 13.22219849 221 218 211
246104.03564453 3357657.69952393 13.52366734 225 226 230
246101.93591309 3357657.25341797 13.21601772 228 227 223
246103.46203613 3357657.21984863 13.31065369 237 238 240
246101.61425781 3357657.14062500 12.58008289 177 159 113
246100.64855957 3357658.48773193 13.48907852 232 236 237
246100.96057129 3357657.37683105 13.11547661 218 218 210
246102.99511719 3357657.39807129 13.62403965 30 11 7
246102.69140625 3357657.25268555 13.24830246 235 230 237
246101.45751953 3357658.34802246 13.43467903 28 30 29
246103.00671387 3357657.41680908 13.65466309 17 16 14
246103.78820801 3357657.41412354 13.51871109 207 200 194
246100.42285156 3357657.47509766 13.00807285 148 148 146
246101.04467773 3357658.13604736 13.52219772 79 83 84
246104.19824219 3357657.65313721 13.48196411 222 221 226
246103.56396484 3357657.16223145 12.66910648 223 213 211
246103.66503906 3357657.15618896 13.06406498 198 202 201
246103.23303223 3357657.29315186 13.42283630 250 240 239
246102.60986328 3357657.25787354 13.27919006 236 233 240
246102.95141602 3357657.59014893 13.84173584 224 231 239
246101.12719727 3357656.76593018 12.52121830 195 184 166
246099.90319824 3357657.63854980 12.67867947 217 211 199
246102.99291992 3357657.19757080 12.70593071 169 163 151
246100.55273438 3357657.32269287 12.70636463 147 142 138
246099.92260742 3357658.99218750 12.74251842 163 152 134
246099.82727051 3357658.60473633 13.08549595 147 138 139
246099.79113770 3357657.34161377 12.53490448 234 217 171
246103.04174805 3357658.32690430 13.89282799 227 229 228
246101.64929199 3357657.85052490 13.51830864 105 114 129
246102.85473633 3357657.56597900 13.83755398 224 237 245
246102.12915039 3357657.88134766 13.93284225 17 13 2
246101.83276367 3357658.46478271 13.79080772 126 128 127
246103.10058594 3357657.57116699 13.76729107 226 235 244
246101.02075195 3357657.54541016 13.36370659 244 245 240
246100.54736328 3357657.47442627 13.09432316 219 220 215
246100.51672363 3357657.72265625 13.21429062 248 246 247
246101.90515137 3357658.04663086 13.96176147 121 122 117
246103.38549805 3357657.18847656 12.99584389 185 184 189
246103.23681641 3357657.14843750 12.61804962 209 199 187
246100.27746582 3357658.11041260 13.22101116 246 246 244
246102.32958984 3357657.75799561 13.88563251 200 195 192
246101.87377930 3357657.22058105 12.81086826 167 155 139
246102.36730957 3357657.54852295 13.79237556 109 123 123
246101.52709961 3357658.48632813 13.57148361 52 54 51
246104.00976563 3357658.22229004 13.60137177 213 223 225
246102.81323242 3357657.28723145 13.36233807 244 238 238
246102.18249512 3357657.51080322 13.74185467 5 10 6
246102.52062988 3357657.36505127 13.51265240 100 70 68
246100.44494629 3357658.54718018 13.37399101 234 238 237
246099.96228027 3357658.34094238 13.14285946 250 250 248
246102.37585449 3357657.44366455 13.62692928 12 11 6
246102.04528809 3357657.44348145 13.62265491 18 9 4
246103.71618652 3357658.27221680 13.62118816 24 29 23
246102.02563477 3357657.19549561 12.71314240 168 152 127
246103.69360352 3357657.36376953 13.52348804 235 230 226
246101.75744629 3357658.30554199 13.54395485 30 30 28
246101.83288574 3357657.18341064 12.65898705 184 168 135
246102.52880859 3357657.81488037 14.01797771 223 222 227
246099.62084961 3357657.92529297 12.58713531 146 140 128
246099.81152344 3357658.65222168 13.00991154 234 232 235
246099.90771484 3357658.98626709 12.72733974 152 139 120
246103.56091309 3357657.16583252 13.12526989 202 207 210
246103.10302734 3357657.70922852 13.81803989 223 224 228
246102.47155762 3357657.84643555 14.01132011 226 227 232
246100.51428223 3357658.25720215 13.35107517 239 241 238
246102.25439453 3357657.71484375 13.87180042 230 230 230
246101.88610840 3357658.12182617 13.91178799 206 211 207
246101.49926758 3357657.34661865 13.46296310 253 249 248
246103.23071289 3357657.56988525 13.77007484 230 234 243
246101.59643555 3357657.26165771 12.93885517 233 230 221
246103.26562500 3357657.19378662 12.70891094 228 223 229
246101.46948242 3357657.96893311 13.46300888 79 98 113
246101.86669922 3357657.24591064 13.05122375 228 225 218
246101.75219727 3357657.83190918 13.77942181 234 229 233
246104.15844727 3357658.07885742 13.60397816 220 216 215
246102.10925293 3357657.23657227 13.07318211 226 217 218
246103.15942383 3357658.02862549 13.77540398 229 233 236
246101.50708008 3357657.43365479 13.57740688 32 30 33
246102.80639648 3357657.43084717 13.65403366 15 14 12
246100.53417969 3357658.47338867 13.41275883 234 239 235
246102.80712891 3357658.23931885 14.05529499 204 202 205
246103.82800293 3357658.27124023 13.59430790 100 102 97
246100.83666992 3357656.82440186 12.52191639 163 152 134
246102.21228027 3357657.28869629 13.35186863 238 238 238
246099.81909180 3357658.02050781 13.03351498 209 209 209
246103.25317383 3357657.19940186 13.02461147 169 170 174
246100.00756836 3357658.25830078 13.14363003 250 250 248
246101.72863770 3357657.24987793 13.21994209 230 225 219
246100.43322754 3357657.62487793 13.14473057 243 242 240
246103.23120117 3357658.25207520 13.73711205 227 229 228
246101.98559570 3357657.69433594 13.86580944 252 250 255
246103.72900391 3357657.97705078 13.59434891 16 19 12
246104.14611816 3357657.56799316 13.48328304 219 219 221
246101.80468750 3357658.39050293 13.68085670 152 154 153
246100.78015137 3357658.51538086 13.57006931 224 225 227
246103.90979004 3357658.08343506 13.51579571 71 75 76
246100.06115723 3357657.01391602 12.54248428 204 196 147
246101.66455078 3357657.58892822 13.70139503 252 251 255
246103.18908691 3357657.41381836 13.65585518 18 12 12
246099.92834473 3357658.90301514 12.90090752 246 245 241
246099.97827148 3357658.49334717 13.16244125 250 252 249
246100.75708008 3357657.41735840 13.10653114 223 223 223
246103.41674805 3357658.19775391 13.70069313 241 245 244
246099.89367676 3357657.29138184 12.56239319 161 145 111
246103.84301758 3357657.84387207 13.54338074 17 19 16
246100.73571777 3357657.40093994 12.91780186 66 67 61
246101.75830078 3357657.99511719 13.62427044 159 157 162
246101.53015137 3357657.26745605 13.12195110 223 221 209
246101.07421875 3357657.09564209 12.53442574 239 222 179
246103.69567871 3357657.19580078 13.22954750 229 235 235
246102.95861816 3357657.57257080 13.83080196 228 238 248
246102.00878906 3357657.20776367 12.81671715 160 152 131
246103.32177734 3357657.76849365 13.76674175 224 225 230
246102.53955078 3357657.30310059 13.40690041 245 243 244
246101.00744629 3357658.09130859 13.52497864 120 124 123
246104.28674316 3357657.25494385 13.18958187 57 48 33
246100.38146973 3357658.71893311 13.42249775 234 234 232
246103.46508789 3357657.17199707 13.04296780 157 158 162
246102.40234375 3357658.06195068 13.99629688 233 233 243
246102.33923340 3357657.24658203 13.22327518 233 234 229
246101.39562988 3357657.42572021 13.43834877 243 243 243
246101.15136719 3357656.71417236 12.52717400 197 185 169
246100.36608887 3357656.90557861 12.53573990 156 142 113
246102.45593262 3357657.24554443 13.25149727 233 231 232
246102.14819336 3357657.88238525 13.92868137 17 13 2
246103.08386230 3357657.31079102 13.48270226 240 225 220
246100.88671875 3357657.78643799 13.40509892 241 241 239
246100.37170410 3357658.32342529 13.29096317 240 242 239
246101.12475586 3357657.37194824 13.22949791 232 231 226
246100.52917480 3357658.34393311 13.38349915 237 239 238
246101.10778809 3357657.62390137 13.46183968 108 111 116
246100.24462891 3357658.54974365 13.26899338 240 245 239
246103.71423340 3357657.13964844 12.80644894 96 88 77
246102.98815918 3357657.24707031 13.18626308 231 235 238
246103.12805176 3357657.72137451 13.80265617 223 224 228
246102.44995117 3357657.25921631 13.30608749 235 235 235
246099.77246094 3357657.80725098 12.59368896 164 157 138
246101.15454102 3357657.18817139 12.53877068 206 186 161
246103.49353027 3357657.16259766 13.11983204 183 184 188
246101.79138184 3357657.49371338 13.68930435 17 16 14
246101.21972656 3357657.85870361 13.52524281 108 121 129
246103.29833984 3357657.26983643 13.37204552 242 237 234
246101.03601074 3357657.71331787 13.46475220 189 191 188
246100.63598633 3357658.44604492 13.47260380 232 236 237
246100.17346191 3357658.93505859 13.31853771 244 244 244
246100.06359863 3357657.51251221 12.78430367 235 236 230
246103.63598633 3357658.08575439 13.65750599 21 26 19
246100.74401855 3357657.29644775 12.62763882 137 129 118
246099.77270508 3357658.04907227 12.84511757 215 217 216
246102.31420898 3357657.90704346 13.91648674 36 32 23
246101.60559082 3357657.31585693 13.44966602 155 152 147
246101.61669922 3357657.24108887 12.71539307 150 143 124
246101.73742676 3357657.82775879 13.67864227 134 131 140
246101.40954590 3357657.31213379 12.73860645 160 162 149
246101.36279297 3357657.51397705 13.47825432 224 223 228
246101.65332031 3357658.44573975 13.53883171 46 48 45
246101.76904297 3357658.32763672 13.59890842 135 137 136
246104.27783203 3357657.28906250 13.27477264 52 45 29
246102.79907227 3357657.20849609 12.80483150 220 223 214
246101.53173828 3357658.17803955 13.39337921 70 80 89
246104.36560059 3357657.49609375 13.43344498 157 158 142
246103.67822266 3357657.27191162 13.42258549 237 239 234
246103.52270508 3357657.42169189 13.64709091 239 230 231
246101.49035645 3357657.40924072 13.53591633 224 222 225
246100.80944824 3357658.58038330 13.65064716 213 214 216
246101.07055664 3357658.40600586 13.52514744 49 51 50
246104.42187500 3357657.28759766 13.19322014 76 68 45
246099.93408203 3357657.53411865 12.66735172 151 148 133
246103.79089355 3357657.92755127 13.57456398 20 22 19
246101.35986328 3357657.38305664 13.37319946 223 223 221
246100.84533691 3357657.39160156 13.09443474 219 215 212
246103.87548828 3357657.65747070 13.53690147 55 49 49
246100.22143555 3357657.42102051 12.77748394 195 193 194
246101.59375000 3357657.23785400 12.68884373 154 143 121
246101.87561035 3357657.39367676 13.53519154 81 65 65
246102.98107910 3357657.68524170 13.86343098 224 225 230
246103.46911621 3357657.18902588 12.85542583 219 214 221
246104.48852539 3357657.15277100 12.64616776 183 170 153
246100.67480469 3357657.44665527 13.12495708 235 235 233
246102.36169434 3357657.15216064 12.60536289 170 152 112
246100.27905273 3357658.38861084 13.25733757 241 243 240
246101.27124023 3357657.03302002 12.52604389 240 219 176
246100.12121582 3357657.80731201 13.05560303 252 254 249
246100.50036621 3357656.96948242 12.52817917 162 152 116
246101.64257813 3357658.24047852 13.39113045 43 51 53
246100.47998047 3357657.85864258 13.24217319 243 243 241
246104.12536621 3357657.22644043 12.93565178 192 194 191
246100.91479492 3357657.54901123 13.29778767 244 245 240
246100.89160156 3357656.99005127 12.52981663 210 197 153
246099.78100586 3357658.13317871 12.94816113 176 175 180
246100.10656738 3357659.08489990 13.07957458 237 241 240
246100.02514648 3357658.33117676 13.16190815 247 248 243
246104.18115234 3357657.18579102 12.76648045 158 151 135
246102.95153809 3357657.57958984 13.83745098 228 238 248
246102.22814941 3357657.41589355 13.57514286 37 17 8
246103.50354004 3357657.15930176 13.06093884 129 133 132
246104.24951172 3357657.32507324 13.31154728 105 96 87
246100.62023926 3357658.31677246 13.42663002 233 234 236
246103.55712891 3357657.54327393 13.68008900 27 16 14
246103.81750488 3357658.24493408 13.57434654 37 38 33
246103.07434082 3357657.24279785 13.17471313 232 236 237
246100.03515625 3357657.34588623 12.61964130 164 156 143
246100.42248535 3357658.37524414 13.32132530 239 241 238
246104.48132324 3357657.26751709 12.93450069 124 112 88
246101.05883789 3357657.16302490 12.53787804 204 184 147
246101.89526367 3357657.86895752 13.89490223 225 219 219
246103.03552246 3357658.26208496 13.89380169 222 223 225
246101.21911621 3357657.35058594 13.03318310 222 223 215
246100.78601074 3357658.59985352 13.68562698 212 214 213
246103.11853027 3357657.31915283 13.50504303 195 171 167
246100.62890625 3357657.93408203 13.32720852 241 241 239
246100.54199219 3357658.34240723 13.39146233 234 238 239
246101.20373535 3357658.48999023 13.60637379 38 40 37
246100.05590820 3357657.85089111 13.03901196 251 253 250
246100.20544434 3357658.25335693 13.20844269 247 247 245
246100.42456055 3357657.69128418 13.16436291 252 252 252
246104.16149902 3357658.04357910 13.58529186 211 211 213
246101.69042969 3357656.94952393 12.50003242 175 158 115
246102.04614258 3357657.46630859 13.66285419 15 10 7
246101.16870117 3357657.67797852 13.51991844 139 149 158
246101.03942871 3357657.75354004 13.48834801 126 128 125
246102.56591797 3357658.05462646 14.08312225 215 217 216
246103.99291992 3357657.82434082 13.51260281 191 196 200
246101.10888672 3357658.35345459 13.51935387 46 46 46
246100.04089355 3357659.16009521 12.86020756 110 113 106
246101.08288574 3357658.55810547 13.57140636 24 32 21
246101.64514160 3357657.59216309 13.69848728 253 252 255
246101.47497559 3357657.30645752 12.88049889 235 238 227
246103.16198730 3357658.16107178 13.77595520 224 228 229
246101.54040527 3357658.39398193 13.45136547 32 32 32
246102.26367188 3357657.89123535 13.91084862 26 23 16
246100.72534180 3357658.38140869 13.49266434 232 236 237
246100.40368652 3357657.46972656 12.98497009 133 135 132
246102.30139160 3357657.24060059 13.12581062 225 224 219
246102.42407227 3357657.63934326 13.85928631 227 236 243
246102.49084473 3357658.19995117 14.04295731 217 219 218
246100.51379395 3357658.29235840 13.36150074 238 240 239
246101.84558105 3357658.29608154 13.80073929 163 167 168
246103.02185059 3357657.21325684 12.99268246 231 233 228
246100.27380371 3357658.26245117 13.24006271 246 246 244
246100.55517578 3357657.57965088 13.17851734 239 240 235
246100.78784180 3357657.57434082 13.25501537 242 243 238
246101.41064453 3357656.81024170 12.50845528 176 160 134
246099.88720703 3357657.31103516 12.56749249 161 145 111
246100.93041992 3357657.58593750 13.32770443 242 243 238
246101.76452637 3357657.81732178 13.79595470 245 241 240
246101.94641113 3357657.90917969 13.94377422 27 21 21
246103.27600098 3357658.10479736 13.72347546 234 234 234
246102.77429199 3357657.51202393 13.77848721 83 94 100
246103.04357910 3357658.27661133 13.88781834 222 224 223
246102.27539063 3357657.12103271 12.56295300 191 169 120
246103.67358398 3357657.30072021 13.47281742 235 236 230
246101.30419922 3357657.14727783 12.53412437 219 200 158
246101.41552734 3357657.31921387 12.92477322 236 237 229
246102.88366699 3357657.80664063 13.93651676 226 225 233
246099.89025879 3357658.18786621 13.10958767 253 253 253
246101.19470215 3357657.19128418 12.53877068 214 194 169
246103.20800781 3357658.32965088 13.74510288 219 224 220
246100.52551270 3357656.96405029 12.53046799 163 151 113
246100.48876953 3357657.96148682 13.27652550 244 244 242
246104.43688965 3357657.60339355 13.51717186 115 112 81
246103.48718262 3357658.07116699 13.71748638 67 69 66
246102.15283203 3357658.02227783 13.96334362 15 31 21
246102.24987793 3357657.26379395 13.30879879 236 238 237
246104.18823242 3357657.24627686 13.06595898 200 197 190
246103.68029785 3357657.12536621 12.62012291 127 115 91
246102.41503906 3357657.76190186 13.90932941 223 224 226
246100.42492676 3357657.89892578 13.23140907 246 246 244
246103.63891602 3357658.14068604 13.65719223 24 27 18
246100.53613281 3357657.28564453 12.66874504 128 118 106
246100.25097656 3357657.11962891 12.56160355 247 233 188
246099.91369629 3357658.21569824 13.11864185 247 247 245
246102.72863770 3357657.48797607 13.73764324 7 16 21
246099.79064941 3357657.69714355 12.53903389 229 215 178
246100.34619141 3357657.09375000 12.55762386 249 235 186
246102.85290527 3357658.12280273 13.99872589 216 217 221
246100.96777344 3357658.02087402 13.49428558 227 229 224
246101.96691895 3357658.08789063 14.06653881 17 24 16
246100.01818848 3357659.19805908 12.76542950 137 134 119
246100.98339844 3357658.64105225 13.59408379 175 182 174
246101.08544922 3357657.35723877 13.06624794 219 219 211
246103.35681152 3357658.28466797 13.69960785 226 231 227
246102.62902832 3357657.23791504 13.20092869 232 225 233
246100.24768066 3357658.83099365 13.39326382 241 241 239
246103.53125000 3357657.17675781 12.94486237 177 176 181
246103.51879883 3357657.15539551 13.08177948 129 133 132
246102.83447266 3357657.21411133 12.90812397 218 223 217
246100.96716309 3357657.15856934 12.53800583 208 189 146
246099.82336426 3357658.00341797 13.01917744 209 209 209
246101.96533203 3357657.10162354 12.54859924 223 205 157
246100.82727051 3357657.39263916 12.85567570 202 207 201
246104.71191406 3357657.17474365 12.62201405 186 171 148
246099.84960938 3357658.48443604 13.10351658 224 220 219
246100.75256348 3357656.73474121 12.57244396 150 140 130
246104.69567871 3357657.28784180 12.86835480 134 123 91
246099.82629395 3357657.54791260 12.55301762 208 193 154
246102.45593262 3357657.58489990 13.82963657 216 227 233
246100.99841309 3357658.55541992 13.54427624 249 253 254
246103.95251465 3357657.55090332 13.53186512 222 218 219
246099.97985840 3357658.40093994 13.15769863 250 251 246
246103.16479492 3357657.20428467 12.87912178 157 156 154
246100.11584473 3357658.09045410 13.15055180 250 250 248
246100.70080566 3357657.42205811 13.06530094 190 190 188
246100.81347656 3357658.18927002 13.45417976 241 241 241
246103.71350098 3357657.21594238 13.28942776 232 238 234
246100.05773926 3357659.06738281 13.02492714 248 249 251
246100.48156738 3357657.38635254 12.80476665 142 142 140
246102.36657715 3357658.16882324 13.96998405 210 213 218
246101.13916016 3357657.17321777 12.53807926 223 204 172
246099.93518066 3357657.61480713 12.72060966 255 252 243
246100.04797363 3357658.28710938 13.16187668 248 248 246
246099.71533203 3357658.41839600 12.66945457 147 138 133
246103.11926270 3357657.23516846 13.14625359 235 236 238
246100.42407227 3357658.74536133 13.61585140 231 231 229
246103.66857910 3357657.67498779 13.63198280 26 21 18
246103.39782715 3357657.85211182 13.75276756 115 117 116
246100.86608887 3357658.21771240 13.47349834 239 239 237
246102.57165527 3357657.21990967 12.90444279 227 228 223
246104.44921875 3357657.59405518 13.50766659 127 124 89
246101.22216797 3357657.36621094 12.87101269 235 234 229
246102.76464844 3357657.66076660 13.89072227 220 230 231
246100.98620605 3357657.37286377 13.11308670 216 216 206
246101.18041992 3357657.51379395 13.42609882 245 243 248
246100.80187988 3357657.53424072 13.24332142 235 236 231
246100.57482910 3357657.39147949 12.85783672 187 188 190
246100.77905273 3357657.40240479 12.82202148 96 99 90
246101.19750977 3357657.58319092 13.49111748 123 127 136
246100.44653320 3357657.22180176 12.61341858 148 132 107
246102.17773438 3357657.33227539 13.42783833 250 240 239
246103.36486816 3357657.30401611 13.49828625 249 237 239
246102.89880371 3357658.06195068 13.95346737 217 221 224
246104.65698242 3357657.27545166 12.82815456 142 129 97
246101.35510254 3357658.08752441 13.47286797 73 85 99
246103.36120605 3357657.68493652 13.78289509 69 71 70
246102.16711426 3357657.17791748 12.62558651 168 146 105
246103.96691895 3357658.04895020 13.51656342 168 171 176
246101.22448730 3357657.97711182 13.51696396 100 114 123
246103.10827637 3357657.42462158 13.67691422 12 14 13
246101.72717285 3357657.24603271 13.11917210 226 223 216
246103.86584473 3357658.08575439 13.53934956 52 56 55
246101.07287598 3357658.61633301 13.68892479 50 59 42
246104.28796387 3357657.48950195 13.43675137 214 212 200
246099.68872070 3357657.82061768 12.55242252 193 182 160
246101.33825684 3357657.33166504 12.98910236 225 226 218
246101.75268555 3357657.98187256 13.58926201 101 100 106
246101.87792969 3357657.77435303 13.86575508 245 239 241
246100.26623535 3357657.79327393 13.12488747 253 253 251
246101.17443848 3357657.36541748 13.23810863 233 232 228
246103.09362793 3357657.21258545 13.01545715 215 220 214
246102.69494629 3357657.67181396 13.91092873 229 233 236
246101.39550781 3357657.32543945 12.78875351 194 196 185
246099.74169922 3357657.71502686 12.52073574 248 234 197
246103.05603027 3357657.94409180 13.83375454 224 225 229
246101.88122559 3357657.24975586 13.14615345 226 223 218
246100.40490723 3357658.27587891 13.30014992 240 242 239
246100.38012695 3357657.19696045 12.59842777 181 161 126
246100.79479980 3357658.00225830 13.40480995 240 240 238
246101.88000488 3357657.41040039 13.56386566 30 15 12
246103.93994141 3357657.13403320 12.70689583 171 157 130
246102.79736328 3357657.58044434 13.84335995 231 242 248
246100.80993652 3357657.33386230 12.62612820 138 134 123
246100.54785156 3357657.27502441 12.66064644 128 118 106
246101.70458984 3357657.52862549 13.68171978 45 47 46
246100.91064453 3357656.74267578 12.52962589 163 150 134
246104.36767578 3357657.69995117 13.55571556 108 104 79
246101.91638184 3357657.68389893 13.85459518 250 245 252
246100.14428711 3357658.93713379 13.28570938 246 246 244
246101.89379883 3357657.23425293 12.96338940 237 234 225
246101.24182129 3357656.77093506 12.51769638 199 183 167
246100.15124512 3357659.02331543 13.21456146 240 242 239
246099.75573730 3357658.15509033 12.76364422 244 244 242
246101.97778320 3357657.20092773 12.71965885 167 151 126
246099.71679688 3357658.00323486 12.68474197 175 172 167
246101.04003906 3357657.36364746 13.01318359 219 216 209
246104.06054688 3357657.21136475 12.89210033 181 181 179
246101.01831055 3357658.25408936 13.49605465 80 82 81
246100.33325195 3357657.25543213 12.61660671 159 140 123
246103.33508301 3357657.17517090 13.13912392 186 185 191
246101.26770020 3357657.77429199 13.52178860 119 135 148
246104.71533203 3357657.19995117 12.63255215 180 168 142
246100.29199219 3357658.32855225 13.25601578 244 244 242
246101.15710449 3357657.35900879 12.96449089 226 225 220
246101.35473633 3357658.51672363 13.77433968 38 43 36
246100.02490234 3357657.96600342 13.06839180 253 255 254
246102.95715332 3357658.09118652 13.92155170 221 222 224
246102.70800781 3357657.21148682 12.82176590 222 227 223
246102.01879883 3357657.82452393 13.93362236 45 36 31
246103.32092285 3357657.60290527 13.76751041 122 122 124
246101.98449707 3357657.05963135 12.52664852 248 232 180
246103.87072754 3357657.26367188 13.29319382 237 239 238
246102.72753906 3357657.39556885 13.59335709 31 16 9
246100.52941895 3357658.05041504 13.31005859 243 243 241
246100.98681641 3357656.73846436 12.52824020 149 138 120
246100.27221680 3357658.71319580 13.33161259 241 240 236
246103.19726563 3357657.29589844 13.43058586 251 239 239
246100.33422852 3357658.32910156 13.27489853 243 245 242
246100.63537598 3357657.41595459 12.97688007 152 152 152
