245828.17987061 3357722.92401123 15.52715683 74 86 86
245826.70867920 3357721.43945313 15.46998215 251 251 249
245827.11297607 3357721.20574951 15.64885139 207 208 212
245822.52563477 3357704.36267090 15.75849152 109 117 94
245819.20562744 3357696.62756348 15.35860825 77 79 76
245825.29455566 3357715.30737305 15.02565765 240 250 249
245828.17358398 3357720.68975830 14.82589340 165 162 157
245827.11260986 3357718.49176025 14.83206367 241 234 224
245824.24865723 3357713.20074463 15.52299881 221 228 238
245824.58160400 3357713.23187256 15.38377094 80 85 88
245822.88372803 3357707.09979248 15.66025066 197 208 214
245826.49615479 3357716.30969238 14.83855820 167 164 147
245825.22131348 3357717.17944336 14.92100334 222 229 221
245828.62347412 3357720.77813721 14.87162590 112 124 60
245826.98895264 3357717.74298096 14.74164772 186 181 162
245826.40551758 3357715.03143311 14.76959801 191 181 154
245818.68518066 3357694.02569580 16.24120140 38 47 46
245819.77093506 3357699.11993408 15.70055485 206 215 212
245823.33892822 3357706.66589355 15.71316147 46 56 58
245825.06573486 3357710.59075928 14.71506500 176 169 151
245817.85375977 3357693.82916260 16.06462479 14 18 21
245827.47827148 3357718.42968750 14.79730606 128 125 108
245827.28979492 3357721.44647217 15.71928120 247 249 248
245827.15917969 3357718.09869385 14.80848980 236 230 214
245824.62982178 3357710.52807617 14.69225311 104 105 99
245827.38586426 3357722.65521240 15.84009743 196 200 203
245819.09350586 3357696.48175049 15.62354565 201 207 205
245823.04931641 3357710.22918701 15.30178070 195 183 159
245823.65411377 3357712.07183838 15.38344765 75 84 83
245823.35589600 3357710.53338623 15.78467560 117 116 112
245818.56103516 3357692.88134766 16.10518837 45 50 46
245823.59619141 3357711.13842773 16.09837151 163 173 175
245823.99774170 3357710.42864990 14.82112503 207 200 181
245825.03533936 3357715.17462158 14.73461723 107 108 103
245828.18951416 3357721.24072266 15.51905251 101 106 100
245825.62872314 3357718.30957031 15.21019936 237 238 230
245826.67626953 3357717.66882324 15.30180454 199 202 195
245822.12347412 3357706.76196289 15.39468479 134 139 135
245826.24078369 3357718.26391602 15.52902603 55 60 56
245818.34936523 3357695.79638672 15.64898777 214 224 225
245827.07714844 3357722.37066650 15.55739498 43 44 38
245820.07507324 3357698.20892334 14.98297596 236 232 221
245821.96606445 3357706.22247314 15.44601727 166 175 146
245824.70123291 3357712.52368164 15.30688381 183 196 202
245817.62017822 3357692.28112793 15.32762909 95 93 78
245824.38946533 3357711.24804688 14.63043213 185 186 172
245822.97570801 3357706.35693359 15.80519772 35 37 36
245823.37066650 3357706.58386230 15.68134308 74 84 85
245824.97998047 3357715.38232422 15.77516270 169 178 187
245827.09173584 3357721.18688965 15.63827991 207 208 212
245827.29394531 3357717.26806641 14.73232841 137 141 124
245824.34436035 3357713.28088379 14.97471046 71 71 71
245820.74169922 3357701.17572021 15.56826115 246 243 236
245827.36285400 3357718.27337646 14.80910110 239 231 218
245819.12811279 3357694.28466797 16.17859650 11 19 22
245827.15948486 3357721.17834473 15.64056301 201 202 206
245825.32781982 3357711.83129883 14.74595356 190 181 164
245828.53607178 3357722.31951904 15.60769653 115 121 119
245827.42675781 3357717.70043945 14.68946362 206 206 170
245824.56323242 3357711.22076416 14.65556526 202 190 174
245822.77697754 3357704.46502686 15.82519531 93 104 70
245827.67358398 3357721.37213135 15.79783630 248 250 249
245819.75268555 3357698.72753906 16.36192322 234 243 240
245828.07647705 3357723.53283691 15.47679615 19 33 33
245825.57910156 3357717.98077393 14.91066265 231 232 226
245820.26068115 3357700.78015137 15.32836246 222 227 223
245819.41778564 3357694.62750244 15.97112179 18 22 21
245826.60467529 3357716.05322266 14.72456837 213 205 184
245827.08624268 3357716.29376221 14.85779095 168 180 134
245825.93005371 3357717.34368896 16.04213333 250 254 253
245824.00524902 3357712.18182373 15.73422718 134 153 159
245826.19262695 3357718.43334961 15.14609528 246 246 246
245824.99780273 3357710.60162354 14.67050838 163 160 141
245825.24768066 3357717.28442383 14.90769863 227 230 221
245824.63372803 3357712.03265381 14.95773411 136 136 134
245824.90002441 3357710.25341797 14.62764072 144 141 122
245826.01690674 3357715.89959717 15.39759636 141 135 123
245818.45556641 3357692.45568848 15.92062664 43 49 49
245818.05212402 3357694.51904297 15.97546959 9 14 17
245826.97045898 3357716.89581299 14.76789093 179 172 162
245826.76336670 3357716.58770752 14.82425976 133 131 119
245822.21319580 3357704.52374268 15.96442223 129 133 119
245826.74713135 3357720.86303711 15.25514126 250 246 245
245824.98272705 3357715.61431885 15.02435303 240 249 248
245823.92309570 3357712.47900391 15.64545822 178 198 207
245826.04943848 3357718.47399902 15.27917862 249 250 252
245828.21405029 3357724.44860840 14.95923233 129 132 137
245828.01947021 3357721.22045898 15.62664509 137 141 140
245821.67181396 3357701.98394775 15.01646614 90 96 96
245818.80798340 3357691.63879395 15.38797092 174 162 150
245826.98706055 3357716.83825684 14.80003929 178 174 163
245827.14440918 3357720.83660889 14.68761253 170 165 161
245825.13549805 3357716.95324707 15.39779854 252 249 244
245818.11419678 3357695.12738037 15.23860359 150 160 162
245818.04010010 3357694.28192139 16.08996201 5 11 11
245826.23126221 3357718.25708008 15.52947521 61 65 64
245823.20819092 3357706.43566895 15.65278435 37 42 45
245825.78619385 3357715.60363770 15.53528214 112 118 116
245822.67822266 3357707.89630127 14.73720551 181 177 166
245824.28778076 3357710.18267822 14.74094486 146 146 136
245822.62628174 3357707.42517090 15.38155556 129 104 107
245819.79614258 3357699.30340576 15.95964527 254 254 254
245825.48010254 3357718.05908203 15.54053497 249 245 242
245819.03179932 3357691.78869629 15.34047222 204 186 184
245826.19201660 3357716.64501953 15.54550266 198 196 181
245829.30047607 3357724.02154541 14.62516785 75 78 71
245827.29614258 3357722.52545166 15.88339996 250 255 251
245818.85101318 3357693.62872314 16.29782677 22 22 22
245826.18292236 3357715.72656250 14.80374527 193 185 172
245824.62347412 3357711.26831055 14.65210629 209 196 180
245823.42193604 3357710.59552002 15.38569546 166 155 153
245824.19055176 3357711.40362549 14.74393368 162 159 152
245817.48382568 3357693.14453125 15.71998692 190 195 198
245827.08264160 3357722.38067627 15.47381592 100 100 92
245823.31939697 3357707.30718994 15.19919300 122 126 127
245827.55761719 3357717.96472168 14.70733261 203 198 168
245820.12396240 3357699.41546631 16.47322464 237 238 242
245825.10412598 3357716.70715332 15.83465004 40 51 53
245827.30059814 3357721.66223145 15.75574493 243 249 249
245823.17889404 3357710.57696533 15.62320995 198 199 201
245825.12512207 3357716.14837646 16.02163887 227 232 235
245826.75579834 3357721.48925781 15.27900124 251 251 249
245820.17926025 3357700.62811279 15.20315647 255 255 253
245822.45129395 3357706.62115479 15.88187313 100 105 109
245828.26757813 3357722.52923584 15.65749836 28 32 33
245818.54882813 3357694.32598877 16.25034142 13 19 19
245826.25805664 3357719.33221436 14.68102551 183 176 166
245827.98999023 3357723.62921143 15.40625668 94 100 100
245828.47723389 3357724.53295898 14.79483986 96 102 102
245827.46374512 3357721.48107910 15.73690033 255 255 255
245819.95227051 3357699.04174805 16.37297249 247 247 245
245816.04632568 3357703.16094971 24.31256485 151 164 74
245818.29339600 3357695.31738281 15.89317417 219 230 232
245827.90283203 3357720.96875000 15.51323223 90 91 85
245819.97790527 3357699.82525635 16.13286018 13 19 19
245818.39263916 3357692.80187988 16.04451180 60 66 62
245827.48999023 3357720.72760010 14.85173702 203 207 210
245818.26403809 3357694.82122803 16.16140747 43 51 53
245826.51867676 3357717.35327148 14.95154762 144 155 138
245825.89941406 3357717.95727539 15.58673763 81 90 89
245826.14898682 3357716.43463135 15.92069817 202 196 180
245817.90496826 3357694.49517822 15.36819649 144 153 152
245825.02386475 3357709.94415283 14.78713226 106 105 85
245828.13085938 3357720.95568848 15.25599194 154 159 139
245824.91876221 3357715.95251465 15.89485168 195 196 198
245817.71911621 3357692.53558350 16.03501892 41 49 51
245824.55432129 3357710.04803467 14.76448345 73 82 77
245818.31726074 3357692.30889893 15.91449642 23 27 26
245826.53173828 3357717.32092285 14.89233398 151 156 136
245829.01867676 3357724.33978271 14.75367260 81 82 76
245823.46612549 3357711.21997070 15.92138577 29 33 34
245823.73535156 3357711.47424316 16.02494621 165 167 164
245818.59661865 3357693.96392822 16.22087097 22 28 28
245817.64453125 3357693.62658691 15.62847805 182 190 192
245826.65679932 3357716.79815674 14.75249386 93 99 87
245827.35607910 3357722.08709717 15.89689159 67 59 57
245828.53820801 3357723.61926270 15.20685196 242 241 239
245824.00799561 3357711.37591553 15.40428543 150 147 142
245823.60424805 3357711.47528076 15.94889355 8 14 12
245819.96002197 3357699.99035645 15.41010189 238 239 241
245826.75317383 3357715.13537598 14.81080532 148 156 96
245828.91247559 3357724.52990723 14.56723881 169 161 115
245819.03527832 3357691.48632813 15.13855553 138 135 120
245827.50378418 3357723.85632324 15.15983963 250 251 246
245826.32592773 3357716.23394775 14.82441616 178 176 164
245825.19354248 3357717.20989990 15.43423176 251 250 245
245828.23419189 3357723.16033936 15.49419022 49 65 62
245817.72009277 3357692.58007813 16.05902672 45 48 53
245819.89392090 3357699.62005615 15.54041100 240 246 246
245822.83532715 3357704.29833984 15.71474075 148 161 92
245819.90850830 3357696.07727051 15.68647480 170 176 174
245823.08428955 3357707.17803955 15.69476986 187 198 202
245825.05493164 3357716.68511963 15.64168835 149 150 152
245827.65747070 3357722.26312256 15.72054672 21 30 27
245825.21606445 3357715.49987793 15.99082661 150 163 171
245824.90795898 3357712.09667969 14.77797318 168 166 153
245826.75567627 3357716.64910889 14.79590702 144 145 139
245825.50738525 3357717.84960938 14.91919231 231 231 221
245828.82403564 3357723.71466064 15.10315418 247 248 250
245823.84936523 3357711.02691650 15.53396034 156 161 154
245817.57666016 3357693.25500488 15.85986423 196 205 204
245820.12384033 3357700.36053467 15.32939434 240 244 243
245824.49951172 3357711.06848145 14.63453579 165 161 149
245826.70367432 3357717.76239014 15.22814751 159 163 148
245820.82867432 3357701.37805176 15.25475311 249 246 241
245821.61560059 3357705.15405273 14.97618961 131 131 121
245824.89349365 3357715.95416260 15.64687443 188 188 186
245819.73187256 3357698.91101074 16.01344109 229 231 230
245821.90887451 3357705.16333008 16.03740692 250 250 248
245825.72869873 3357716.21350098 16.06915283 228 232 231
245823.93334961 3357706.95971680 14.83917713 66 67 62
245821.92797852 3357706.07177734 15.63397026 231 235 218
245827.11248779 3357721.73529053 14.77499199 243 236 226
245822.78045654 3357706.22851563 16.01850700 208 213 216
245818.06408691 3357694.17059326 16.17556000 21 27 23
245828.96350098 3357724.57678223 14.51866341 182 171 126
245823.54058838 3357711.72045898 15.08714390 98 96 97
245827.03149414 3357722.21691895 15.39176273 218 209 200
245818.09033203 3357694.17602539 16.21578979 106 112 108
245821.54589844 3357705.02410889 15.52935886 151 151 141
245818.79260254 3357695.35687256 15.89687729 205 219 222
245825.18902588 3357716.87670898 15.83208179 36 46 48
245820.03704834 3357699.59399414 16.35021210 19 24 27
245820.91296387 3357701.44561768 15.23366547 241 236 230
245828.86352539 3357723.91516113 14.98443508 245 246 250
245820.22473145 3357700.68646240 15.70837498 241 245 246
245822.45129395 3357704.95098877 16.14239693 108 110 105
245821.57592773 3357705.05773926 15.15762901 134 136 123
245824.94677734 3357715.97924805 15.34653378 234 236 233
245825.45440674 3357716.46374512 16.10560036 252 254 253
245826.65258789 3357714.76593018 14.82513046 123 136 64
245826.40911865 3357718.00329590 15.48670101 76 82 72
245828.80004883 3357724.42517090 14.76082420 55 61 59
245823.09582520 3357705.58294678 15.96463013 142 154 150
245825.25408936 3357716.53509521 16.07517433 246 250 249
245819.47772217 3357694.44268799 16.01567841 64 75 71
245818.25164795 3357694.20861816 16.30613327 52 58 58
245823.52337646 3357711.64337158 15.31608486 103 107 108
245824.03662109 3357710.01336670 14.77184296 212 203 188
245824.60626221 3357712.06518555 15.01602936 132 134 131
245823.57757568 3357711.58801270 15.82079792 21 25 24
245825.14825439 3357716.95587158 15.26891613 242 243 237
245817.88043213 3357692.03497314 15.48209286 154 158 143
245822.52648926 3357704.25646973 15.68318844 89 93 66
245828.60144043 3357720.89166260 14.88192177 97 105 46
245824.89086914 3357716.17474365 15.06303978 179 184 177
245825.66491699 3357715.47302246 15.32212067 251 255 255
245820.04187012 3357700.23712158 15.30234051 252 254 253
245828.26708984 3357722.79577637 15.55804443 18 27 26
245825.74633789 3357717.38739014 16.00739670 245 251 249
245823.52508545 3357710.79681396 15.99255848 154 156 155
245826.95123291 3357716.59576416 14.80595207 151 150 132
245825.08520508 3357715.34631348 15.39589024 239 248 245
245819.91961670 3357698.56488037 15.38554192 81 99 101
245827.56262207 3357720.76409912 15.40235233 253 253 251
245821.90405273 3357705.36926270 16.00714874 37 42 36
245822.63873291 3357705.99768066 15.90410328 188 202 203
245819.52087402 3357694.90240479 15.93398571 11 21 20
245823.42791748 3357706.81243896 15.72676849 169 180 182
245827.11517334 3357717.58135986 14.62633133 176 173 154
245822.43170166 3357707.18041992 15.44623852 129 115 114
245821.81427002 3357705.74060059 15.54689503 194 198 171
245818.23199463 3357695.58959961 15.43180943 176 184 186
245821.71728516 3357705.47320557 15.60909081 214 214 204
245825.20843506 3357715.34136963 15.84294701 130 143 151
245823.78997803 3357711.76916504 15.81954288 170 177 183
245824.57116699 3357712.14971924 15.29854584 153 158 154
245826.83093262 3357717.96264648 15.08556080 198 195 176
245825.60552979 3357718.29132080 15.49123859 252 249 242
245826.84033203 3357716.88616943 14.72193432 173 171 159
245819.50585938 3357694.54943848 15.96245003 23 29 27
245823.60833740 3357707.29296875 14.90094948 83 84 79
245825.12432861 3357715.33880615 15.15756989 227 242 239
245828.35455322 3357724.13079834 14.91440010 239 239 239
245819.94256592 3357699.83807373 15.54950333 241 245 246
245817.96191406 3357692.92004395 16.13330078 31 35 34
245820.46942139 3357701.10028076 15.47310734 248 248 246
245821.79248047 3357705.69958496 15.63788223 227 231 217
245823.94592285 3357711.17163086 15.36983585 170 170 160
245818.14117432 3357695.08312988 15.83593941 211 220 219
245827.07922363 3357721.70239258 14.79314041 247 243 232
245823.23120117 3357707.15777588 15.70608521 183 191 194
245827.88977051 3357723.87573242 15.17817593 246 248 247
245819.40332031 3357694.36218262 16.06702042 9 17 19
245817.99560547 3357692.47253418 16.02310181 36 40 41
245826.21307373 3357717.96337891 15.50315285 83 88 84
245825.09875488 3357715.39379883 15.90365028 126 140 153
245824.90655518 3357715.66534424 14.83084488 211 215 214
245820.02270508 3357696.00061035 15.68880844 135 140 134
245827.04248047 3357717.14678955 14.69542408 161 163 149
245819.07012939 3357693.65124512 16.28862953 7 14 7
245825.28204346 3357716.07379150 16.01615334 238 243 247
245820.08111572 3357700.07598877 15.94808769 226 226 224
245822.16619873 3357706.87109375 15.26742172 130 132 129
245827.58972168 3357723.68927002 15.41804028 204 212 191
245826.93469238 3357717.34161377 14.62901020 201 198 181
245823.49493408 3357707.22076416 15.48174858 123 127 126
245823.27905273 3357710.27563477 15.14090633 166 161 142
245822.14190674 3357706.54663086 15.60546112 231 236 230
245826.06640625 3357717.05926514 16.05818748 47 51 50
245824.64294434 3357713.14660645 15.38886929 172 179 185
245818.65625000 3357691.97454834 15.88919353 167 165 150
245826.83972168 3357717.02929688 14.67151451 182 179 164
245822.98992920 3357705.96276855 15.93196201 176 187 189
245817.81860352 3357693.49920654 16.18278122 6 12 10
245825.65435791 3357717.96301270 15.69119167 109 108 106
245826.44067383 3357719.80548096 14.59213829 192 182 172
245817.60083008 3357693.44433594 15.74115467 150 159 158
245827.10113525 3357722.44250488 15.48818398 78 79 73
245822.28967285 3357706.98242188 15.44578075 127 132 128
245819.95745850 3357699.55877686 16.24496269 24 29 33
245822.90753174 3357705.03186035 16.08032990 128 130 119
245822.28137207 3357706.25769043 15.88485909 222 226 225
245818.92437744 3357693.96368408 16.24452209 26 32 30
245821.02160645 3357701.38793945 15.50284386 240 234 220
245829.13470459 3357724.25659180 14.68538761 70 71 65
245829.21319580 3357724.07366943 14.70634747 104 109 105
245818.31542969 3357691.95184326 15.78047180 60 52 49
245826.58056641 3357717.06890869 15.71197987 144 148 133
245828.71148682 3357721.33123779 14.88063717 63 68 62
245817.42120361 3357692.73089600 15.65242958 119 101 99
245822.65875244 3357706.46282959 15.94170380 83 91 94
245827.89416504 3357721.39697266 15.83194256 220 224 223
245827.83294678 3357721.69067383 15.91754246 237 237 235
245825.96252441 3357716.28070068 15.48233223 171 171 161
245826.33660889 3357716.63543701 15.21080875 164 171 155
245817.99639893 3357694.59790039 15.85158443 222 232 231
245827.66339111 3357721.38153076 15.79521084 248 250 249
245821.74633789 3357705.18243408 15.84838104 53 55 50
245819.68670654 3357698.78350830 16.09071922 92 96 95
245822.46588135 3357706.87091064 15.80827713 117 124 134
245826.77838135 3357718.24945068 15.01761436 240 236 225
245826.07189941 3357718.10772705 15.52439117 109 118 117
245826.35321045 3357714.81817627 14.73896885 199 188 166
245827.09899902 3357722.14648438 15.18592548 221 212 197
245821.36987305 3357702.09326172 15.29950619 24 31 24
245826.72558594 3357715.04882813 14.82275009 186 197 128
245825.89233398 3357716.89294434 16.07375717 204 203 201
245820.10632324 3357700.04101563 16.21840096 18 22 23
245818.84265137 3357693.20489502 16.55738068 157 170 127
245825.63647461 3357715.44708252 15.15719414 178 194 191
245823.41552734 3357711.45697021 15.30806160 86 92 90
245827.02355957 3357718.62426758 14.85046005 241 237 225
245826.15393066 3357715.71569824 14.82438469 200 192 179
245824.67944336 3357711.97247314 14.87712669 155 156 150
245823.02239990 3357710.44342041 15.31096172 88 91 96
245818.64501953 3357693.94415283 16.22700691 26 32 32
245818.00500488 3357693.87127686 16.25821304 204 206 205
245828.46069336 3357724.46618652 14.83836365 222 228 228
245823.22021484 3357706.66278076 15.71910954 43 51 53
245825.09777832 3357710.60107422 14.73519611 188 180 159
245817.91845703 3357693.84527588 16.16563034 18 22 23
245826.33374023 3357718.93835449 14.68907642 194 187 168
245825.17803955 3357717.17315674 15.61143112 158 159 154
245818.95916748 3357695.44500732 15.87453842 205 217 217
245824.27087402 3357713.21990967 15.49342918 185 189 198
245827.96075439 3357724.67926025 14.73871708 120 122 111
245821.98321533 3357705.74737549 15.92099476 25 32 24
245824.81945801 3357712.91113281 15.21339130 166 177 181
245821.57519531 3357702.00793457 15.27633858 24 33 32
245827.15203857 3357721.76483154 14.96477318 208 200 189
245827.90167236 3357721.53436279 15.93307686 239 239 239
245827.45135498 3357723.72247314 15.23179245 252 251 246
245828.20098877 3357722.44775391 15.66820812 28 34 34
245823.26959229 3357710.77185059 15.72348690 100 106 106
245819.29711914 3357695.23553467 15.91282368 212 222 223
245828.21392822 3357721.26684570 15.50389957 104 109 103
245826.54083252 3357717.41632080 15.12968731 115 126 110
245818.11688232 3357695.22253418 15.63677025 172 180 182
245823.56042480 3357711.79144287 15.46871281 103 112 111
245824.47009277 3357711.39508057 14.65151691 211 201 189
245822.78192139 3357707.49237061 15.05990505 80 80 78
245825.76611328 3357715.96838379 15.99970245 180 186 184
245825.84777832 3357717.76391602 15.76102448 89 94 90
245819.12841797 3357696.53936768 15.56384563 76 78 77
245828.14086914 3357724.56622314 14.97246075 187 195 197
245828.28973389 3357723.64050293 15.25530052 249 250 245
245827.77282715 3357721.50543213 15.87927055 246 246 246
245825.33148193 3357717.51507568 15.19410610 243 245 234
245825.38183594 3357715.28631592 15.29810333 168 189 182
245819.36083984 3357695.51239014 15.89806175 196 205 202
245819.85534668 3357699.40014648 15.49640465 236 245 244
245823.69439697 3357710.63995361 15.12914276 215 208 166
245818.07165527 3357694.24908447 16.15596962 11 20 17
245819.54241943 3357695.58941650 15.84971142 191 203 203
245825.30218506 3357716.62280273 16.07867813 246 252 252
245824.04571533 3357711.16644287 15.03101254 152 153 145
245825.45330811 3357716.93414307 15.98187828 252 254 251
245820.04040527 3357699.86914063 16.23751831 21 30 29
245823.58160400 3357707.25891113 14.99755096 62 64 61
245825.05340576 3357715.37225342 15.34623909 226 237 233
245827.22003174 3357722.23388672 14.73630524 203 194 177
245818.30993652 3357694.50970459 16.26329422 35 39 40
245823.78808594 3357711.36303711 15.97605324 161 163 150
245825.11346436 3357711.28546143 14.63401413 204 193 175
245828.27838135 3357720.89489746 14.94544315 98 101 92
245825.97448730 3357715.82592773 15.61735249 130 130 118
245819.90032959 3357699.75640869 15.42566109 241 245 246
245826.36151123 3357715.34875488 14.73620319 209 203 181
245826.47821045 3357717.02465820 15.84664822 225 223 211
245826.57104492 3357716.71722412 14.84543324 157 163 149
245822.85400391 3357706.55163574 15.77081585 47 51 54
245821.09912109 3357701.53125000 15.47763443 244 238 224
245819.14593506 3357691.68194580 15.20482540 180 176 149
245826.31646729 3357716.65997314 16.02769470 222 219 212
245821.70953369 3357702.39520264 14.72601795 149 151 140
245823.02752686 3357710.17388916 15.26259232 210 195 172
245817.86547852 3357711.60498047 25.24854088 137 160 70
245828.36834717 3357724.91839600 14.54368877 171 159 135
245817.75427246 3357693.11535645 16.12343216 76 77 79
245828.45349121 3357720.91149902 14.85105896 133 131 106
245820.64251709 3357701.27661133 15.37343121 253 250 241
245818.06207275 3357693.46557617 16.28674316 130 138 140
245823.49365234 3357707.24108887 15.38218594 163 164 166
245827.25305176 3357718.62976074 14.90455246 228 224 215
245818.23736572 3357694.92791748 16.07559204 189 200 196
245828.63708496 3357722.64910889 15.59288311 104 113 108
245828.22833252 3357720.78930664 14.88685989 124 123 118
245819.66357422 3357696.06134033 15.72035885 187 197 198
245829.34399414 3357724.45117188 14.48759747 57 57 45
245825.94012451 3357715.77429199 15.11811543 180 183 176
245817.65179443 3357692.73925781 16.04840660 184 185 187
245826.19976807 3357716.97381592 16.05391121 53 62 57
245826.77191162 3357715.48144531 14.77346134 158 158 130
245827.24401855 3357720.94903564 15.54026413 145 143 144
245823.41149902 3357711.16235352 15.81640911 15 24 23
245823.55499268 3357710.66937256 15.41662598 155 149 123
245825.79187012 3357715.60131836 15.24962044 254 254 254
245822.18353271 3357705.02752686 16.14875031 179 181 178
245828.48706055 3357721.88867188 15.53603268 60 67 60
245825.48950195 3357715.91821289 15.95967388 203 209 207
245827.10595703 3357717.24444580 14.69086552 121 125 111
245820.04705811 3357699.46936035 16.40384483 117 121 124
245823.52716064 3357707.43585205 14.83969784 110 109 105
245826.61224365 3357718.30657959 15.01696873 198 196 183
245817.88513184 3357694.41381836 15.52435112 184 192 194
245823.26965332 3357706.30938721 15.63453388 36 41 44
245819.20379639 3357693.95819092 16.27883148 64 76 64
245826.46441650 3357715.34155273 14.73691750 215 205 180
245817.69976807 3357711.68847656 25.34341240 132 146 61
245818.09008789 3357692.11614990 15.66111851 47 58 62
245825.45440674 3357716.19110107 16.03295898 236 240 243
245823.27044678 3357710.46911621 15.11291504 159 156 137
245827.14044189 3357720.77606201 15.17336750 250 250 248
245818.17401123 3357692.76574707 16.07080269 30 36 34
245818.83398438 3357695.37463379 15.89178467 207 221 222
245823.31500244 3357711.26031494 15.17433739 81 83 82
245821.52593994 3357702.71203613 14.78292179 233 226 197
245821.77374268 3357705.61175537 15.59612274 213 215 202
245826.56433105 3357717.34936523 14.84687710 167 172 152
245824.98541260 3357715.45202637 14.87352657 123 129 125
245826.60296631 3357716.98553467 14.71612263 145 147 134
245824.59197998 3357711.09802246 14.64830399 183 175 162
245823.02832031 3357710.44903564 15.32362747 94 99 103
245817.70996094 3357693.72735596 15.76862621 179 184 187
245821.84082031 3357705.69116211 15.76324940 143 148 141
245824.31036377 3357711.91540527 15.51090240 125 131 127
245822.41821289 3357705.27026367 16.22613144 16 21 17
245818.77178955 3357694.31146240 16.23303604 39 44 48
245826.29693604 3357716.67553711 15.75161457 206 206 194
245826.53546143 3357716.14178467 14.75418282 214 208 184
245820.14447021 3357700.43554688 15.31090736 243 247 248
245827.21246338 3357721.84625244 14.85158348 223 211 197
245820.12902832 3357700.52795410 15.13412094 239 238 234
245825.60375977 3357715.46234131 15.56328678 92 96 99
245825.37280273 3357716.49841309 16.09328842 251 253 250
245817.82672119 3357711.61181641 25.13813591 130 153 71
245825.38238525 3357712.64923096 15.00387859 142 145 138
245823.42810059 3357711.03179932 15.93000889 44 53 52
245826.93103027 3357716.23907471 14.84248257 193 191 166
245826.35791016 3357715.57824707 14.73809719 207 203 178
245827.89111328 3357721.35559082 15.79923153 207 211 210
245823.06170654 3357707.29211426 15.66663456 138 143 147
245826.53332520 3357716.74377441 14.87479305 153 160 144
245818.16888428 3357693.26483154 16.24030685 18 24 24
245820.27612305 3357700.74688721 15.56490231 241 245 246
245818.06842041 3357694.34582520 16.10724258 4 14 13
245821.81121826 3357705.57427979 15.77723026 38 43 37
245819.90557861 3357699.35076904 16.23989105 23 31 33
245822.43518066 3357706.99658203 15.54510784 194 203 202
245817.78979492 3357694.05456543 15.49404716 158 167 162
245825.20855713 3357716.41723633 16.06586838 242 248 248
245826.50732422 3357717.32055664 15.09772873 134 147 130
245821.81353760 3357705.75775146 15.58820820 200 204 179
245825.82647705 3357715.50976563 14.74619961 246 246 244
245818.45343018 3357693.07971191 16.21778488 26 27 22
245825.45672607 3357717.90850830 15.28775597 238 238 228
245825.14331055 3357716.86346436 15.28884125 244 245 237
245825.69238281 3357715.34460449 14.73279381 224 225 217
245818.72540283 3357695.63958740 15.86069775 198 212 213
245825.86798096 3357715.65472412 15.46555328 98 101 92
245824.91680908 3357711.93859863 14.74678516 171 168 153
245818.23028564 3357695.52215576 15.66565514 179 187 190
245823.25085449 3357710.20928955 15.22952175 165 158 140
245827.19299316 3357722.61315918 15.64520454 56 58 55
245826.55639648 3357717.37005615 15.21337891 136 144 133
245824.16021729 3357711.62451172 15.15254307 179 172 162
245820.11627197 3357700.38574219 15.25675774 253 254 255
245823.77514648 3357711.62957764 15.87500381 159 160 162
245822.22106934 3357706.89007568 15.52153206 124 128 127
245826.91339111 3357716.06207275 14.79941177 192 187 167
245825.24707031 3357715.30932617 14.92584324 132 138 138
245826.64593506 3357720.95715332 15.34910393 255 241 241
245818.64221191 3357693.67657471 16.29986191 22 26 27
245819.79925537 3357699.23944092 15.83062458 241 243 240
245825.94580078 3357715.76147461 15.47281742 109 109 99
245827.77203369 3357720.97247314 15.64199543 37 39 34
245820.00189209 3357696.42834473 15.15170002 81 82 77
245820.37628174 3357700.98596191 15.44819260 226 231 227
245825.11395264 3357715.35186768 15.33066940 213 228 223
245818.15435791 3357695.25317383 15.72627735 203 211 214
245820.12115479 3357700.28472900 15.80717087 254 255 253
245826.83593750 3357720.89202881 15.07200527 196 195 190
245827.45361328 3357720.95440674 15.58414650 85 85 87
245820.81390381 3357701.19812012 15.58249950 241 241 231
245821.71636963 3357705.45367432 15.65457726 222 221 217
245818.15887451 3357695.25323486 15.73882771 203 211 214
245826.13238525 3357718.10607910 15.52310276 108 114 112
245818.50842285 3357695.25756836 15.95992756 11 27 27
245824.00518799 3357711.20904541 15.21214390 186 186 174
245826.06231689 3357718.21203613 15.52539158 80 88 90
245825.48052979 3357717.79632568 14.91731358 234 236 225
245819.94244385 3357695.65191650 15.76074123 163 174 166
245819.97845459 3357699.52471924 16.28856659 25 30 34
245823.05743408 3357706.22033691 15.91681957 28 33 36
245818.43945313 3357692.81372070 16.05415726 63 69 65
245828.41851807 3357721.38891602 15.30558109 79 87 76
245826.21490479 3357716.97979736 16.05180359 55 64 61
245822.95129395 3357710.29748535 15.30021000 38 40 39
245826.18554688 3357715.58166504 14.75979519 217 211 195
245826.74139404 3357717.00244141 14.66865540 169 169 157
245828.48565674 3357721.14874268 14.97164917 38 43 37
245824.77093506 3357711.55645752 14.62840271 194 185 168
245829.03277588 3357724.68408203 14.50414848 112 106 82
245826.90765381 3357720.87744141 15.32789230 239 231 229
245817.83734131 3357692.94158936 16.13122940 213 215 214
245818.89575195 3357691.77886963 15.70774937 214 197 187
245826.36053467 3357716.74591064 16.01405907 237 234 229
245826.80871582 3357718.27923584 14.91035461 242 236 224
245817.65393066 3357693.27203369 16.00293922 26 30 31
245822.93188477 3357704.49316406 15.88648415 67 73 47
245824.66186523 3357713.27661133 15.21443558 41 42 46
245821.87042236 3357705.79577637 15.39834118 184 192 155
245818.21893311 3357695.12182617 15.93079090 216 225 224
245823.79876709 3357710.49267578 14.93256092 212 207 177
245826.43316650 3357715.31146240 14.73992920 214 207 181
245819.77575684 3357699.19885254 16.03592300 243 243 241
245819.71704102 3357698.88568115 16.09390450 74 78 77
245822.12402344 3357705.45654297 16.09929848 234 236 233
245820.15985107 3357700.40222168 15.99637222 183 183 181
245819.79193115 3357699.16961670 16.11471558 27 31 32
245824.89465332 3357712.41369629 15.04422569 141 145 144
245825.66040039 3357717.44946289 15.97554111 254 251 246
245818.40472412 3357693.96160889 16.20721054 11 17 17
245823.03009033 3357704.74218750 16.04815674 38 51 21
245827.23638916 3357722.23455811 14.92694664 221 209 193
245825.47747803 3357715.31646729 14.70164967 113 114 106
245827.90264893 3357721.51336670 15.91991615 247 249 248
245818.06018066 3357694.88275146 15.86893940 221 233 233
245821.75152588 3357705.49597168 15.69308281 221 222 216
245820.01940918 3357700.20056152 15.17843914 249 250 244
245826.41931152 3357716.80023193 15.68697453 93 95 92
245818.60687256 3357694.89373779 16.06382370 25 39 40
245824.91412354 3357711.31243896 14.61361217 201 189 173
245823.51361084 3357710.40551758 14.91284180 227 216 198
245823.22625732 3357707.32330322 15.41697216 121 129 132
245822.62426758 3357706.95324707 15.74541283 95 105 114
245817.74938965 3357691.94201660 15.43396664 113 120 113
245829.08355713 3357724.24328613 14.77562237 149 151 138
245827.14367676 3357722.10589600 15.09950352 220 211 196
245825.01159668 3357711.56207275 14.63421631 191 182 165
245825.00231934 3357712.57757568 15.09192848 152 161 160
245825.37286377 3357715.32843018 15.00278378 230 240 239
245821.84283447 3357705.37084961 15.92451859 39 44 38
245825.99645996 3357715.12036133 14.66377831 164 156 135
245822.87390137 3357706.60491943 15.75898361 45 49 52
245817.98779297 3357694.24621582 16.02106094 10 20 19
245828.76843262 3357723.85455322 14.97887611 246 246 254
245820.06964111 3357698.46887207 15.21695423 208 224 224
245822.62664795 3357705.11383057 16.14986038 22 24 23
245828.37457275 3357721.76324463 15.57420731 110 116 106
245820.16448975 3357699.09411621 16.54472923 92 104 68
245825.04888916 3357710.57629395 14.70503712 181 174 156
245825.55963135 3357715.70013428 15.96024227 205 215 216
245825.01751709 3357715.45837402 15.03746414 236 246 247
245823.90393066 3357712.86560059 15.34891987 74 78 81
245823.82385254 3357710.98229980 15.56361103 154 159 153
245828.80352783 3357724.33953857 14.85102844 213 219 217
245817.42706299 3357692.63305664 15.70058060 107 75 76
245828.41015625 3357722.50354004 15.66919136 32 35 40
245827.62231445 3357721.84094238 15.87239552 233 230 225
245822.92541504 3357707.45794678 15.00251102 77 79 74
245823.44635010 3357710.68634033 15.91305161 103 105 100
245826.70684814 3357720.87207031 15.28306866 252 246 246
245818.71734619 3357694.94805908 16.00812149 75 88 94
245825.04876709 3357711.42285156 14.62015152 201 190 172
245825.25439453 3357715.14691162 14.66632366 145 145 137
245828.37872314 3357721.97833252 15.68128967 86 91 85
245825.99206543 3357718.11114502 15.52624893 85 91 91
245823.99584961 3357712.76727295 15.52793694 229 238 243
245824.13696289 3357711.58917236 15.17210293 180 173 163
245824.91076660 3357710.51788330 14.64482403 110 111 97
245819.02136230 3357691.83215332 15.67247486 204 186 172
245823.41101074 3357710.48077393 14.93539524 199 192 176
245824.10028076 3357711.76696777 15.56811047 132 136 135
245823.35406494 3357707.25518799 15.55291176 70 74 77
245826.92767334 3357721.60522461 15.18004036 249 251 248
245817.46295166 3357693.07159424 15.56618786 93 98 102
245825.01116943 3357711.36224365 14.61797523 200 189 171
245820.99163818 3357701.57067871 15.25354290 235 231 219
245825.93865967 3357718.32434082 15.50232124 49 62 71
245827.46850586 3357721.17010498 15.71784782 238 239 243
245825.86126709 3357715.65692139 15.33821201 81 81 73
245821.62512207 3357701.92987061 15.46741867 86 95 90
245825.32464600 3357717.48876953 15.10618782 237 239 228
245820.02764893 3357699.93835449 16.14583588 25 31 31
245828.03680420 3357720.47802734 14.76477528 189 183 171
245820.06964111 3357700.26690674 15.39917850 235 239 238
245828.50561523 3357724.48065186 14.81396961 200 206 206
245822.45965576 3357704.54968262 15.96400833 48 53 33
245823.55816650 3357710.32165527 14.91781425 227 216 198
245824.21429443 3357710.93341064 14.68373489 171 166 162
245823.45001221 3357710.16027832 15.12888908 228 215 196
245822.18347168 3357706.78216553 15.61324978 171 180 175
245827.18341064 3357717.62481689 14.64651585 187 186 166
245817.96417236 3357694.53472900 15.81596756 215 227 225
245825.69165039 3357715.55566406 15.59508324 128 136 138
245824.90069580 3357716.06268311 15.76446915 45 49 48
245819.75024414 3357699.04949951 15.53837967 228 234 232
245817.82250977 3357692.05700684 15.43580723 168 171 154
245826.56921387 3357715.33422852 14.75126934 210 198 172
245820.24041748 3357700.64868164 15.42343426 232 236 235
245818.43756104 3357692.40765381 15.91098022 34 40 40
245819.17529297 3357695.30389404 15.89785576 212 222 221
245823.76177979 3357711.08666992 15.87704372 115 117 112
245826.01074219 3357715.88226318 15.34444904 175 169 155
245829.26947021 3357724.15875244 14.59380817 71 72 67
245818.59600830 3357695.15856934 15.96930885 13 27 30
245821.40631104 3357702.39678955 14.81422901 160 160 148
245821.06445313 3357701.70941162 15.41001129 244 244 236
245824.59289551 3357710.14794922 14.72327614 112 117 110
245823.24163818 3357710.82568359 15.44877148 94 104 105
245827.17041016 3357721.92608643 15.82746792 250 250 250
245828.68170166 3357723.84594727 14.95975590 248 247 252
245825.96356201 3357715.79504395 15.37760353 153 149 137
245828.22625732 3357724.81732178 14.48645878 231 221 170
245824.92626953 3357712.85992432 15.13387489 161 171 172
245825.12701416 3357716.81274414 15.38377953 250 250 242
245825.37097168 3357712.32092285 14.95694923 150 153 146
245826.71154785 3357718.12133789 15.34654427 255 255 251
245823.37902832 3357711.33563232 15.54612064 165 170 174
245818.03094482 3357693.70043945 16.31377220 232 234 233
245823.60461426 3357711.82916260 15.15300560 87 91 90
245828.35723877 3357720.67102051 14.76475716 207 200 181
245824.71484375 3357710.44909668 14.68001652 87 87 79
245826.10186768 3357716.54632568 15.63214970 210 210 198
245825.57922363 3357718.00354004 14.85942173 231 234 225
245824.42498779 3357711.88140869 14.99954319 155 152 143
245820.24029541 3357700.41638184 16.16537857 27 33 33
245826.07586670 3357718.50079346 15.03240967 245 242 235
245823.64465332 3357711.94049072 15.65672779 53 56 61
245818.94134521 3357694.34197998 16.20331955 6 14 17
245826.30780029 3357716.64013672 15.25439358 186 190 175
245826.15612793 3357716.61126709 15.59645844 212 210 197
245823.98962402 3357711.32916260 15.41353989 149 145 142
245827.38952637 3357721.48510742 15.71930599 254 255 255
245819.18701172 3357695.26049805 15.90086651 216 226 225
245820.57812500 3357700.86187744 16.09724617 100 104 90
245823.78613281 3357707.00476074 15.21597195 88 91 84
245820.06579590 3357700.01202393 16.17411804 25 31 31
245828.10180664 3357720.85540771 15.14921570 87 88 82
245823.59191895 3357710.66784668 15.18245792 201 190 158
245823.19287109 3357706.46343994 15.65891933 36 41 44
245824.62512207 3357712.26843262 15.38071156 158 166 168
245818.47766113 3357693.55273438 16.32437515 18 23 26
245823.18737793 3357705.85443115 15.94139004 161 171 170
245826.02325439 3357716.04547119 15.33199024 181 175 161
245824.89605713 3357715.86975098 15.52909565 233 233 231
245827.93591309 3357722.38580322 15.64566517 49 60 62
245823.85546875 3357711.46813965 15.84047413 165 168 151
245820.24755859 3357700.67462158 15.60375977 241 246 242
245822.20501709 3357705.00738525 16.14860153 198 200 197
245818.16357422 3357695.34594727 15.44333649 160 166 166
245819.32696533 3357697.09155273 14.99220276 206 197 156
245819.69299316 3357698.71032715 15.81287193 255 255 253
245826.96453857 3357717.17456055 14.65945435 182 183 165
245821.91760254 3357702.39654541 14.76661682 172 173 157
245826.39624023 3357718.74334717 14.74954700 225 218 202
245827.23510742 3357722.32122803 15.88977051 238 240 239
245822.28869629 3357705.97290039 15.98149586 232 238 236
245828.03656006 3357724.59655762 14.98530197 240 245 248
245817.62719727 3357693.38275146 15.89385605 206 212 210
245825.03778076 3357712.72906494 15.08809376 148 158 160
245827.27947998 3357720.88330078 15.46689129 227 223 224
245825.27606201 3357715.26684570 15.40379238 204 221 213
245824.50390625 3357711.60461426 14.69204712 195 187 174
245827.78515625 3357720.54711914 14.77175808 195 191 179
245818.19476318 3357695.28594971 15.79181767 207 217 219
245824.10473633 3357711.20440674 14.81645203 153 149 140
245828.53259277 3357724.40722656 14.84326744 194 200 200
245819.25744629 3357695.82342529 15.82670975 197 211 212
245822.55346680 3357707.21673584 15.52086163 222 216 216
245818.73736572 3357692.26983643 15.89183617 9 11 6
245826.53857422 3357717.02001953 14.80806351 156 159 142
245823.19763184 3357710.40997314 15.33401012 193 188 168
245817.74566650 3357693.75360107 15.87796211 228 229 231
245823.38647461 3357707.28198242 15.29029655 149 154 157
245817.73913574 3357692.40081787 15.87538147 136 118 118
245823.04779053 3357706.42553711 15.71321678 46 50 51
245820.57342529 3357700.99639893 15.91833973 74 75 70
245828.38269043 3357720.88513184 14.84536552 143 142 124
245824.81719971 3357710.66473389 14.65322971 120 120 112
245818.30645752 3357694.30627441 16.30764961 12 18 18
245825.43957520 3357716.03686523 15.97667503 231 236 239
245826.84167480 3357720.93304443 15.43842506 243 231 233
245826.53210449 3357716.98779297 15.05668831 125 132 114
245823.40203857 3357706.23645020 15.61499119 50 55 58
245826.42089844 3357716.79998779 15.68483543 93 95 92
245826.87152100 3357721.52136230 15.68149376 187 180 172
245820.41876221 3357700.91522217 15.81393814 234 238 239
245828.63995361 3357723.84027100 14.95656681 246 247 251
245820.56030273 3357700.86083984 16.08903503 94 98 84
245821.93585205 3357702.12994385 14.78598404 124 125 117
245818.93707275 3357692.58630371 16.19926834 93 104 72
245822.58032227 3357705.80102539 15.87995434 188 198 199
245821.53601074 3357702.79809570 14.83300591 232 225 207
245824.08923340 3357711.22558594 14.85334587 149 146 137
245818.92541504 3357694.60430908 16.15586662 14 19 22
245824.95532227 3357716.17272949 15.84049511 30 40 41
245824.96520996 3357716.04492188 15.24313641 241 243 242
245825.76293945 3357716.82446289 16.05236626 253 252 248
245828.11083984 3357723.64727783 15.32993507 254 255 255
245827.49316406 3357721.27520752 15.73472595 247 247 245
245827.11785889 3357721.85034180 15.09124756 211 202 185
245827.54589844 3357718.17236328 14.75693512 122 117 98
245826.05249023 3357716.01654053 15.62384892 140 137 128
245824.26623535 3357713.27191162 15.38428879 110 112 111
245828.83374023 3357724.82751465 14.53377342 109 111 98
245819.12145996 3357695.27404785 15.89379787 217 229 227
245817.90747070 3357693.79473877 16.17966652 20 24 25
245826.71423340 3357717.79516602 15.20052528 141 144 123
245826.53790283 3357717.00646973 15.11659431 131 140 121
245828.20812988 3357722.22369385 15.74727535 0 0 0
245829.02380371 3357723.57702637 15.19079113 246 246 244
245827.29473877 3357723.48010254 15.29397011 238 237 235
245827.32067871 3357717.18652344 14.75722218 132 136 119
245825.84350586 3357716.25524902 16.11035538 231 228 219
245823.84472656 3357711.32238770 15.83181000 172 174 161
245825.48291016 3357715.38012695 15.60306358 112 116 119
245822.29528809 3357706.91882324 15.57020473 163 167 168
245826.51110840 3357717.04241943 14.94622803 135 139 122
245827.08941650 3357721.67822266 14.84621239 255 251 240
245826.12921143 3357718.27886963 15.51927185 51 57 57
245817.75433350 3357693.82519531 15.82990456 203 204 208
245824.02844238 3357711.60168457 15.55697250 147 148 143
245825.75903320 3357715.61151123 15.67493629 120 124 123
245828.12194824 3357724.46014404 15.00034428 201 204 209
245829.08966064 3357724.48449707 14.53697968 171 166 136
245827.27514648 3357720.76208496 14.76804066 157 160 165
245819.20422363 3357691.67193604 15.22389984 130 134 101
245827.89477539 3357721.65167236 15.93064213 231 231 231
245826.02886963 3357717.39752197 16.01668739 251 251 249
245825.47393799 3357716.15014648 16.01745987 235 240 243
245822.34490967 3357706.56536865 15.83267403 209 213 212
245825.50140381 3357717.90991211 15.07705212 243 240 231
245825.34478760 3357717.55957031 15.32028770 249 249 241
245824.52447510 3357709.99060059 14.77717686 102 105 98
245827.07543945 3357716.78936768 14.83388996 179 175 163
245826.94189453 3357717.27575684 14.63527870 202 199 180
245824.81304932 3357715.92388916 14.96151066 40 43 36
245822.69287109 3357704.41552734 15.76560688 133 142 97
245825.70330811 3357717.35406494 16.00661659 216 227 229
245820.25750732 3357700.37750244 16.21327019 23 28 31
245828.83050537 3357724.83032227 14.53496838 109 111 98
245823.12689209 3357710.59204102 15.20699596 82 86 87
245823.27532959 3357710.95513916 15.39536381 76 87 89
245826.13922119 3357716.11431885 14.86639690 140 142 129
245828.21032715 3357721.50787354 15.61786175 48 54 50
245824.48840332 3357710.32202148 14.72467422 116 116 114
245827.52404785 3357723.34606934 15.61458683 64 68 71
245828.44018555 3357720.64520264 14.76836491 146 145 117
245829.01745605 3357724.86419678 14.54975319 128 131 114
245824.84954834 3357715.50799561 15.70412350 161 166 170
245825.98101807 3357715.01763916 14.62796688 239 227 205
245823.31402588 3357706.92358398 15.73342323 168 179 181
245824.65185547 3357712.61859131 15.37942886 192 209 216
245824.45715332 3357712.14080811 15.62037373 69 80 74
245827.62841797 3357721.90600586 15.85039711 117 114 109
245827.95349121 3357721.74212646 15.90753460 229 226 221
245823.45562744 3357711.30798340 15.83197308 11 22 18
245828.38232422 3357721.05316162 15.03210735 42 50 35
245821.78552246 3357705.42102051 15.79630756 29 34 28
245828.25024414 3357723.22991943 15.49774456 62 77 74
245823.41381836 3357710.57849121 15.44119740 162 151 149
245821.25762939 3357703.65087891 14.99430847 218 215 206
245818.09613037 3357695.11944580 15.67875957 174 183 182
245817.72052002 3357692.83666992 16.10284233 213 213 213
245821.83624268 3357705.57244873 15.82844257 28 33 29
245825.18450928 3357716.72143555 15.05249977 234 244 236
245825.94512939 3357716.00830078 15.93850994 150 153 146
245825.93316650 3357718.48144531 15.25369072 252 252 250
245822.68243408 3357707.52355957 14.86188889 103 104 99
245825.03436279 3357711.33972168 14.62182236 202 191 173
245822.76403809 3357704.41882324 15.77991295 117 129 83
245826.78485107 3357716.21850586 14.82232952 208 197 177
245825.26922607 3357715.35223389 15.85073566 123 138 143
245822.06518555 3357706.61291504 15.39676762 127 137 128
245817.73345947 3357693.86676025 15.67045212 175 183 185
245819.10913086 3357691.88519287 15.59957600 195 180 157
245819.10540771 3357693.64752197 16.29932404 56 61 55
245819.88366699 3357699.43530273 15.71323586 246 247 249
245822.51873779 3357705.53448486 16.09120560 174 189 184
245819.87652588 3357696.36645508 15.34939003 87 87 85
245827.37951660 3357717.82775879 14.71622372 228 218 193
245818.33575439 3357693.30908203 16.32584763 15 17 16
245825.21130371 3357717.18652344 15.18255806 242 244 231
245828.67877197 3357722.74456787 15.51062107 111 122 118
245825.21807861 3357712.59069824 15.03715038 168 174 172
245823.42559814 3357710.12823486 15.17375469 228 217 199
245824.04248047 3357713.12237549 15.40367985 158 161 166
245826.57958984 3357717.88433838 15.43177032 127 130 121
245818.13409424 3357694.13037109 16.28547096 235 240 236
245827.56768799 3357720.72253418 15.24804020 246 245 241
245821.68170166 3357704.97283936 15.86253834 43 43 41
245823.63122559 3357711.03643799 16.08250618 106 114 117
245826.13879395 3357716.07092285 14.84927654 141 142 128
245825.09875488 3357710.28460693 14.74840546 148 141 122
245820.04144287 3357698.48529053 15.36488247 191 204 197
245818.19207764 3357692.48608398 15.98572540 23 29 29
245821.34246826 3357702.05102539 15.42694378 23 33 25
245818.40093994 3357692.71221924 16.00757790 74 78 77
245825.45208740 3357715.46820068 15.86068344 102 112 113
245827.17053223 3357722.27807617 15.85598373 160 164 163
245829.62622070 3357724.36004639 14.43734264 74 73 71
245820.09942627 3357700.24560547 15.58817959 244 250 248
245817.88354492 3357692.70031738 16.09458923 32 38 38
245818.84246826 3357692.34747314 15.94769287 10 11 5
245827.56152344 3357723.52954102 15.51718426 86 89 78
245826.07135010 3357716.32897949 15.89798737 206 201 181
245823.63256836 3357711.84667969 15.71514416 44 49 52
245828.43511963 3357721.76794434 15.50908375 64 69 62
245826.62316895 3357716.95623779 15.59181213 120 123 112
245823.06982422 3357707.36132813 15.44666100 112 117 121
245824.25164795 3357711.61309814 14.81235027 187 180 174
245824.50061035 3357712.64996338 15.53353214 188 207 213
245821.18286133 3357701.50494385 15.58930111 239 232 214
245826.97595215 3357717.83245850 14.83082962 221 216 196
245824.93194580 3357712.16180420 14.79498386 170 163 153
245823.10668945 3357705.73901367 15.93991756 152 162 163
245825.14788818 3357715.56378174 16.02558899 231 242 246
245825.27148438 3357717.43524170 15.41751957 250 250 242
245819.79876709 3357696.46478271 15.18598461 81 86 79
245826.34747314 3357718.52764893 14.83164501 229 221 208
245818.53186035 3357693.02117920 16.18822289 53 54 49
245823.07019043 3357705.08911133 16.05876350 58 63 41
245821.35015869 3357704.64978027 15.11474514 150 153 132
245824.36511230 3357713.03552246 15.59926224 155 180 187
245822.73791504 3357704.54101563 15.91255951 36 48 24
245822.99206543 3357707.39984131 15.33049393 162 171 170
245826.14794922 3357716.50640869 15.81373310 215 213 200
245817.99212646 3357694.77209473 15.70369434 176 184 186
245827.94177246 3357721.26129150 15.70688057 128 130 129
245826.81292725 3357720.71594238 14.68603516 222 215 199
245817.57336426 3357692.39825439 15.59667206 63 72 71
245822.90618896 3357705.21795654 16.11725998 9 15 13
245828.26281738 3357720.91943359 14.97581387 74 82 71
245824.08648682 3357713.19055176 15.36579800 127 130 135
245822.59301758 3357705.35205078 16.21390533 9 18 17
245827.03314209 3357722.22113037 15.38431549 218 209 200
245823.07604980 3357706.25878906 15.83149338 32 33 35
245817.96575928 3357694.70159912 15.55646420 182 192 193
245822.69842529 3357706.49542236 15.89419270 83 90 98
245827.23663330 3357722.57562256 14.94969177 225 218 200
245825.93444824 3357715.76245117 15.15497875 180 183 176
