245892.36657715 3357478.70999146 16.31852531 41 42 44
245891.71026611 3357476.81927490 16.86200142 32 39 31
245892.28198242 3357478.64004517 16.19688606 39 43 44
245895.33953857 3357478.67062378 16.15357399 41 44 49
245895.21569824 3357477.32321167 16.25575638 61 71 62
245890.51190186 3357477.92028809 15.84257126 95 99 98
245895.25762939 3357477.27368164 16.17871094 58 68 59
245892.31518555 3357478.71304321 16.90529633 120 123 132
245893.36926270 3357478.69360352 15.96747875 55 56 60
245893.36395264 3357477.51043701 17.58032036 127 141 144
245890.63385010 3357477.26376343 16.00034523 78 80 77
245892.17047119 3357477.38955688 17.08865929 29 34 37
245891.71185303 3357477.11563110 16.98298836 57 63 61
245895.30212402 3357477.03024292 16.11210823 49 59 50
245894.04046631 3357478.94577026 16.80414772 107 110 117
245894.70306396 3357478.37969971 17.47669411 172 186 197
245892.21966553 3357478.66467285 16.28499603 39 43 44
245891.83953857 3357477.53707886 17.05833626 51 61 62
245890.96710205 3357477.71084595 16.58765984 208 214 226
245890.76739502 3357477.93197632 16.36171913 129 133 142
245893.12036133 3357478.49853516 17.60617065 236 244 255
245891.83563232 3357477.88760376 17.11775970 47 57 56
245895.21844482 3357478.71920776 17.21945000 44 44 52
245893.76318359 3357477.99209595 17.60862732 145 159 168
245893.84411621 3357478.90661621 16.39377975 49 53 54
245892.35205078 3357478.07199097 17.41423607 40 48 51
245892.08746338 3357477.54916382 17.03535461 34 43 40
245895.14440918 3357478.51547241 17.50901413 117 130 138
245891.43170166 3357478.61120605 15.91485596 30 30 30
245890.68524170 3357477.79907227 16.04333687 71 75 74
245891.50598145 3357476.80172729 16.74555016 36 39 32
245890.61157227 3357477.59039307 15.91079521 80 82 81
245893.71606445 3357478.17898560 17.61786842 157 174 184
245891.46112061 3357478.59436035 16.21750259 64 67 72
245894.76867676 3357479.08749390 16.44727516 57 62 55
245895.07006836 3357478.04263306 17.56127930 132 145 154
245892.79803467 3357477.56158447 17.53261375 145 158 164
245892.57061768 3357477.59811401 17.46837425 136 149 155
245892.43353271 3357478.09027100 17.45250893 145 152 162
245892.40350342 3357477.07669067 17.30539513 30 35 28
245891.02038574 3357478.39886475 15.99759769 91 93 92
245891.90447998 3357477.97479248 17.17202377 44 56 52
245891.05151367 3357477.83300781 16.64037514 199 202 217
245890.90551758 3357478.36489868 16.18056488 75 79 82
245891.18597412 3357478.56164551 16.56648827 76 79 84
245895.32922363 3357477.82473755 16.94927406 51 57 53
245892.29101563 3357477.00222778 17.21182251 46 48 45
245895.05517578 3357477.83309937 17.53572273 118 133 138
245891.63989258 3357477.66973877 17.01562691 99 107 110
245893.87011719 3357478.67233276 17.22658157 43 49 49
245893.63616943 3357478.85888672 16.77643776 109 117 120
245895.22540283 3357478.90765381 16.79692268 67 72 75
245893.32360840 3357478.85003662 16.91702461 140 147 155
245891.64685059 3357477.42172241 16.98519707 24 28 37
245891.68310547 3357478.62741089 16.88163757 89 89 99
245893.19757080 3357478.01315308 17.60010338 158 175 185
245895.27899170 3357478.58422852 16.35478783 43 48 51
245890.97326660 3357476.90182495 16.09847069 53 57 56
245894.26208496 3357479.00680542 16.63786316 109 112 117
245894.54931641 3357478.36968994 17.46301651 172 186 199
245894.01885986 3357478.92257690 16.26172066 29 31 30
245891.87548828 3357478.52584839 17.16838837 86 91 94
245895.17822266 3357478.52764893 17.46512604 21 31 33
245890.45281982 3357476.80725098 15.82270336 79 79 77
245890.95141602 3357478.06100464 16.59087372 185 188 205
245891.52093506 3357476.89196777 16.81815910 35 40 34
245890.60729980 3357477.86447144 15.89677143 75 77 74
245891.61480713 3357477.94052124 17.03038406 27 36 35
245894.13592529 3357477.98980713 17.56556129 153 167 176
245894.60803223 3357478.28103638 17.44071579 167 181 194
245893.59545898 3357477.80416870 17.59880638 146 160 169
245891.77807617 3357478.65423584 16.46101189 18 19 21
245893.68383789 3357478.86105347 16.74241638 107 115 118
245893.17309570 3357478.80871582 16.34067154 38 39 41
245891.59600830 3357478.19497681 17.02055168 20 25 28
245893.75299072 3357478.89572144 16.64500809 103 106 111
245893.08325195 3357477.55310059 17.55047798 145 160 167
245890.85766602 3357478.30914307 16.27683830 60 66 66
245893.43865967 3357478.77279663 17.05020332 28 34 34
245895.35681152 3357477.69448853 16.89722443 58 68 59
245892.36157227 3357477.74737549 17.30042458 69 74 78
245893.31597900 3357478.83819580 16.94071388 116 121 127
245891.59649658 3357477.76828003 17.00398064 28 34 34
245895.21905518 3357477.51803589 16.12342262 80 90 81
245891.89007568 3357477.70413208 17.07180786 35 44 43
245890.65142822 3357477.17260742 15.99936295 76 78 75
245893.97912598 3357477.78097534 17.59069824 153 167 178
245895.25622559 3357478.77178955 16.58412361 69 74 77
245894.64367676 3357478.39477539 17.47230721 168 182 191
245895.34704590 3357477.20635986 15.99881077 43 50 43
245894.51086426 3357479.01605225 16.78866577 89 92 99
245895.25128174 3357478.48095703 16.39303589 62 67 71
245891.66094971 3357477.79803467 17.04848289 28 37 36
245891.94458008 3357476.94769287 17.03889084 41 44 37
245895.29882813 3357477.62405396 16.78108025 54 66 56
245890.57238770 3357477.86343384 15.86990929 79 81 78
245895.25341797 3357478.32870483 16.99594307 48 50 47
245891.52709961 3357478.60772705 16.28836632 20 21 23
245891.94451904 3357478.19177246 17.24828148 33 43 45
245892.64141846 3357478.42602539 17.55080986 175 185 197
245891.33148193 3357478.56799316 16.71231270 92 92 100
245890.89257813 3357478.34790039 16.19719124 73 77 80
245895.38696289 3357478.48171997 16.03046799 35 39 40
245892.21740723 3357477.80426025 17.19735718 21 27 23
245890.73297119 3357477.85342407 16.17603302 102 107 110
245893.70538330 3357478.04461670 17.61236954 147 164 172
245892.07891846 3357477.97671509 17.25932693 39 50 46
245891.28216553 3357477.80947876 16.77703285 203 210 220
245895.06622314 3357477.83593750 17.53743362 121 136 141
245893.32385254 3357477.48443604 17.57795143 112 126 126
245892.34417725 3357478.75399780 16.43184853 41 45 46
245893.94238281 3357478.12100220 17.57658958 156 174 184
245895.22454834 3357478.01458740 16.75526047 67 74 67
245891.17395020 3357478.19769287 16.77188683 228 231 250
245893.44757080 3357478.87136841 16.83109093 115 122 128
245892.10522461 3357477.06939697 17.12812996 77 79 78
245895.25347900 3357477.93600464 16.33090591 56 62 60
245891.70239258 3357476.74349976 16.77035332 36 42 32
245891.07348633 3357476.60824585 16.15499687 38 44 34
245892.73608398 3357477.84463501 17.52772713 174 188 199
245895.19744873 3357478.88699341 17.08435440 22 31 30
245891.69494629 3357478.64132690 16.47315025 26 27 29
245892.68157959 3357478.68179321 16.15755081 38 43 46
245891.64721680 3357477.81588745 17.04144287 27 36 35
245891.59155273 3357478.60549927 16.07009315 116 121 127
245894.69329834 3357479.07635498 16.45977592 47 52 46
245891.06066895 3357478.45669556 16.58641434 192 196 208
245895.29852295 3357477.70758057 16.77831268 58 68 57
245890.69787598 3357477.73272705 16.02737427 62 68 68
245894.16436768 3357478.41091919 17.54330826 170 184 195
245890.85144043 3357477.24102783 16.38113785 52 56 55
245891.74926758 3357476.53726196 16.56481171 39 45 35
245893.47198486 3357478.85906982 16.83001328 122 129 135
245895.22015381 3357478.52557373 16.73458099 59 63 62
245892.13555908 3357478.68811035 16.99110222 89 92 97
245894.64691162 3357478.84689331 17.19169044 32 36 37
245895.08117676 3357478.74154663 17.36075020 21 32 38
245895.00634766 3357479.07907104 16.60105324 118 122 125
245891.29571533 3357476.78369141 16.56675148 31 33 28
245895.24108887 3357477.22814941 16.26478958 63 76 66
245893.81500244 3357477.62438965 17.57815170 141 156 161
245890.79772949 3357478.20443726 16.04976273 64 68 67
245892.25769043 3357478.71307373 16.37454796 38 42 45
245890.51977539 3357477.78228760 15.82982159 94 96 93
245890.77703857 3357478.36141968 15.84877682 91 91 89
245895.18444824 3357477.50088501 16.53557777 60 71 57
245894.54370117 3357478.44744873 17.48155022 170 184 195
245892.67474365 3357478.62600708 15.92640114 39 45 43
245891.66705322 3357478.62844849 16.77869606 90 91 96
245890.36865234 3357477.01007080 15.80058479 84 89 85
245893.85754395 3357478.70126343 17.38058472 103 110 118
245890.90631104 3357478.39474487 16.36321831 79 84 88
245894.84765625 3357478.87249756 17.19884872 109 118 125
245892.38677979 3357478.66036987 16.19673538 44 45 49
245891.41375732 3357478.58831787 16.26283836 23 27 28
245892.04058838 3357477.27511597 17.07681656 24 30 30
245892.25915527 3357478.69616699 16.33562088 41 45 48
245892.50512695 3357478.75149536 16.81146240 95 98 105
245890.85266113 3357477.29629517 16.39847374 77 81 82
245894.17218018 3357478.93017578 16.12146187 57 61 64
245894.20697021 3357478.30117798 17.52246857 170 184 197
245892.86651611 3357478.67996216 16.12601089 40 42 41
245893.06140137 3357478.21823120 17.61524582 161 175 186
245892.64953613 3357478.27539063 17.56144714 171 181 191
245892.53582764 3357478.58117676 17.34706306 32 37 33
245892.65454102 3357478.55889893 17.47452354 169 176 186
245892.09234619 3357478.12283325 17.30453682 40 56 53
245893.93933105 3357478.82925415 16.91226387 31 35 36
245890.93341064 3357478.36041260 16.00519562 109 110 114
245890.75451660 3357477.45016479 16.19433403 58 59 63
245893.08734131 3357478.81140137 16.45824432 58 62 65
245893.14288330 3357478.65853882 17.36091805 34 42 45
245895.19598389 3357478.28738403 16.74334335 37 42 38
245893.95220947 3357477.88076782 17.59737968 153 170 180
245895.22766113 3357477.38137817 16.16050148 62 72 63
245894.13934326 3357478.95910645 16.89750862 172 176 188
245890.76409912 3357478.00683594 16.29653931 48 48 50
245891.59179688 3357478.61611938 16.81208801 90 91 96
245893.70098877 3357478.79269409 15.95020580 50 51 53
245890.36059570 3357477.22830200 15.80604553 85 90 86
245894.46978760 3357478.83959961 17.16938591 31 37 37
245894.52001953 3357478.72842407 17.40534210 167 180 188
245893.92333984 3357478.28012085 17.58419991 166 182 195
245893.07043457 3357478.78533936 16.95842361 76 80 83
245891.12945557 3357476.35034180 16.04916382 38 40 26
245891.24096680 3357478.55651855 15.84151936 71 72 67
245895.16650391 3357478.67797852 17.37444687 24 34 35
245895.23583984 3357478.27777100 16.93546295 49 51 48
245891.27319336 3357478.24520874 16.84646797 204 210 226
245895.19537354 3357478.01919556 16.66217995 73 79 75
245891.93853760 3357478.65939331 16.98662758 43 46 51
245894.98742676 3357478.72595215 17.43675041 205 218 235
245895.37915039 3357478.16766357 16.12435722 44 50 50
245893.43688965 3357478.79449463 17.00549126 22 27 30
245890.75482178 3357477.70236206 16.20246887 86 91 97
245895.24926758 3357478.56384277 17.15025520 25 31 29
245893.52551270 3357478.85681152 16.39929962 45 49 50
245891.55194092 3357477.33605957 16.87683296 112 120 123
245892.39813232 3357478.23773193 17.44736290 114 121 127
245892.81268311 3357478.79223633 16.40924263 36 40 39
245891.53338623 3357477.77319336 16.96384811 80 85 89
245895.19476318 3357477.94198608 16.62008286 79 84 78
245891.50390625 3357478.21716309 16.97167206 53 56 61
245893.54162598 3357478.72402954 16.05670929 44 45 47
245892.13134766 3357478.57525635 16.12887573 43 47 48
245891.52630615 3357477.08282471 16.87157822 113 122 121
245895.10595703 3357478.96020508 16.97371292 109 120 126
245891.03912354 3357478.42059326 16.07063675 39 41 40
245895.34442139 3357478.71560669 16.16962433 36 39 44
245894.70672607 3357478.90298462 17.10313034 42 46 49
245892.43145752 3357477.49081421 17.36939049 12 17 21
245893.69842529 3357478.47485352 17.61380577 174 187 196
245893.86328125 3357478.83523560 16.05864906 47 51 50
245890.82043457 3357478.46649170 15.83332443 117 118 113
245890.88842773 3357478.35095215 16.06937599 109 108 113
245891.91003418 3357478.35720825 17.22246170 26 37 39
245894.60638428 3357479.04849243 16.64309502 111 114 121
245890.93127441 3357477.15023804 16.46933556 60 66 66
245890.60028076 3357478.33599854 15.82564354 110 110 110
245893.97540283 3357478.60348511 17.55746078 235 243 255
245895.36096191 3357477.65103149 17.03428078 39 49 41
245892.29223633 3357478.70590210 16.93260002 111 114 121
245892.27838135 3357477.00811768 17.21368408 46 48 45
245892.26403809 3357477.45928955 17.12900925 30 36 36
245893.87927246 3357478.86898804 16.15183449 45 49 50
245891.66790771 3357477.85464478 17.05648041 27 36 35
245892.60791016 3357478.47943115 17.51354790 223 233 245
245891.12792969 3357477.09487915 16.56934166 179 187 190
245891.15240479 3357478.53286743 16.37607193 44 45 49
245894.32989502 3357478.30313110 17.48791313 168 182 195
245892.13140869 3357478.71932983 16.47626305 44 48 51
245892.41986084 3357478.67318726 16.21359825 43 47 48
245894.37646484 3357478.83529663 17.16315842 37 42 46
245894.26483154 3357478.91394043 17.02816010 19 22 27
245890.88598633 3357478.30932617 16.44154930 148 161 169
245892.62377930 3357478.76318359 16.83395386 112 115 122
245894.47497559 3357478.99954224 16.87833214 150 156 168
245895.32397461 3357477.75897217 17.15403366 32 39 32
245894.54010010 3357478.36254883 17.46249008 172 186 199
245895.33630371 3357478.86013794 16.00267220 28 33 29
245895.33123779 3357477.46109009 15.96897888 72 77 73
245895.24969482 3357477.67007446 16.68375778 53 63 52
245891.08398438 3357477.17617798 16.55931664 198 207 214
245892.60601807 3357477.76458740 17.47865868 154 167 176
245892.70660400 3357478.73193359 16.27684021 40 46 46
245890.32537842 3357477.21331787 15.79196453 85 90 86
245894.69842529 3357478.54849243 17.49770737 188 202 211
245892.19213867 3357478.70410156 16.88336563 70 73 78
245895.27966309 3357477.56402588 16.02682877 64 70 70
245892.19818115 3357477.02966309 17.19339943 56 58 55
245890.91955566 3357476.31039429 16.02750015 47 49 35
245891.41589355 3357477.00665283 16.78689003 79 83 82
245895.38305664 3357477.33453369 15.92346764 69 71 68
245894.45513916 3357479.02404785 16.73184204 83 86 91
245892.33612061 3357478.75112915 16.61303139 108 111 118
245895.16778564 3357478.02297974 17.49472046 127 135 146
245891.28692627 3357478.56848145 16.33790016 44 48 51
245891.82891846 3357478.66210938 16.45396233 31 32 34
245892.94140625 3357478.65032959 16.06875038 40 44 47
245895.30371094 3357478.70065308 16.34102821 31 35 36
245892.77832031 3357478.67199707 16.10782623 47 49 46
245895.31079102 3357477.81567383 17.17316055 46 51 47
245891.65441895 3357478.24945068 17.04947281 43 51 53
245892.30279541 3357477.70095825 17.18831444 31 37 37
245895.21868896 3357478.30828857 17.40896797 18 27 26
245895.35607910 3357478.19512939 16.15800667 44 50 50
245892.62322998 3357478.58322144 17.33876610 44 46 45
245892.26995850 3357478.62039185 17.21349335 23 28 31
245890.77105713 3357477.91964722 16.38225365 129 133 142
245892.94812012 3357478.71420288 17.07347488 116 123 131
245891.12512207 3357477.90423584 16.69695282 185 189 201
245890.60913086 3357478.43594360 15.80264759 113 113 111
245893.48010254 3357478.73852539 15.89756298 49 50 52
245893.15100098 3357478.25466919 17.62831116 164 178 189
245894.14099121 3357478.94964600 16.91656685 172 176 188
245895.29223633 3357477.90478516 16.25143623 58 67 66
245891.37921143 3357476.65252686 16.49898338 33 36 27
245891.15740967 3357478.53076172 15.84555912 92 94 89
245892.86651611 3357478.57968140 17.53813171 182 192 201
245894.40026855 3357478.09664917 17.45990562 157 174 184
245893.59973145 3357478.68005371 17.09899330 55 59 62
245890.86401367 3357478.29153442 16.10668945 105 104 109
245892.96081543 3357478.79864502 16.72673607 79 83 86
245890.79382324 3357477.63156128 16.36925697 94 101 111
245894.90820313 3357478.45602417 17.53187943 142 156 167
245892.23248291 3357478.35968018 17.40764809 87 102 107
245893.48419189 3357478.82769775 16.87548447 130 137 145
245893.38421631 3357477.81527710 17.59955215 145 159 168
245895.24566650 3357478.94577026 16.08263588 68 74 70
245891.16455078 3357476.78515625 16.43442345 28 29 24
245895.42138672 3357477.48141479 15.87475777 67 69 68
245894.16223145 3357478.48654175 17.54741287 179 193 204
245891.10241699 3357476.20559692 16.00877380 48 50 36
245894.21563721 3357478.99691772 16.85614777 92 95 102
245893.37762451 3357478.69848633 16.04545975 49 53 54
245894.98547363 3357477.82006836 17.53714752 120 133 139
245895.22247314 3357478.95593262 16.12238503 60 67 60
245895.19720459 3357478.35311890 16.65379906 66 70 71
245894.22387695 3357478.62136841 17.52861214 233 243 253
245895.45581055 3357477.64996338 15.85739899 50 54 53
245890.75573730 3357477.03680420 15.99945164 79 81 80
245891.51727295 3357477.86895752 16.96706200 45 50 53
245892.91003418 3357478.76507568 16.93968773 112 115 122
245891.53820801 3357476.33120728 16.22941399 37 40 29
245895.26538086 3357477.83657837 16.24025154 62 71 70
245891.88031006 3357478.06018066 17.19515610 49 57 59
245891.16058350 3357478.39605713 16.72624969 223 228 247
245892.81640625 3357478.77859497 16.88020897 127 127 135
245895.24011230 3357477.60452271 16.07758713 73 79 79
245891.55578613 3357476.59661865 16.53281593 35 38 29
245893.70574951 3357478.86624146 16.73709869 107 115 118
245893.67218018 3357478.67001343 17.10273743 53 54 58
245894.86700439 3357477.91952515 17.53261757 149 166 174
245891.31262207 3357476.66131592 16.45986748 32 35 26
245893.56774902 3357478.69729614 17.35158348 35 39 42
245895.19934082 3357478.24191284 16.77938080 47 52 48
245892.28845215 3357477.51248169 17.13233185 33 34 38
245890.73425293 3357478.00238037 16.09551430 58 58 58
245893.02899170 3357477.91333008 17.55628967 152 169 177
245891.58270264 3357478.56188965 16.93725967 166 172 188
245890.80035400 3357478.20483398 16.20951462 55 61 59
245892.78533936 3357478.39828491 17.58821487 175 184 199
245892.61364746 3357477.60656738 17.48694229 150 161 167
245894.93579102 3357479.09741211 16.32155800 44 50 40
245894.10369873 3357478.97540283 16.80625916 92 95 102
245895.24163818 3357478.79656982 16.99402428 23 29 27
245892.66259766 3357478.37615967 17.57396317 164 174 184
245891.35504150 3357478.58139038 16.33340645 34 38 39
245891.83471680 3357477.68701172 17.07580566 46 54 56
245893.56762695 3357478.70574951 17.22571945 50 54 55
245895.28570557 3357477.80352783 17.30344582 14 18 17
245890.86102295 3357477.27307129 16.41113281 86 90 91
245895.16497803 3357477.55056763 16.22427940 129 140 126
245894.85736084 3357478.84106445 17.25881386 153 166 175
245894.70489502 3357478.11227417 17.44793892 163 177 188
245893.53649902 3357477.47988892 17.59481621 72 82 81
245893.05236816 3357478.05566406 17.58478546 151 168 176
245895.22253418 3357478.24404907 17.40109444 21 27 27
245894.40509033 3357478.52246094 17.51551628 194 206 218
245892.31982422 3357477.46484375 17.21125793 28 34 34
245892.93035889 3357478.60998535 17.43660355 70 77 85
245890.39605713 3357476.75064087 15.83132648 85 85 83
245894.51715088 3357478.12622070 17.42082596 161 177 190
245890.49639893 3357477.77890015 15.81448364 96 98 95
245895.23272705 3357477.94253540 16.36656761 57 63 59
245892.60083008 3357478.66564941 15.89849567 32 38 36
245892.47070313 3357478.76995850 16.43722534 37 41 42
245895.28906250 3357477.46444702 16.03002167 74 79 75
245893.85559082 3357478.88833618 16.27593613 39 43 44
245891.43609619 3357477.15356445 16.79840088 117 126 125
245892.54119873 3357477.54943848 17.45690346 116 127 131
245893.01666260 3357478.30343628 17.61853790 166 178 190
245895.31634521 3357478.79022217 16.20772743 37 42 46
245891.21472168 3357476.56015015 16.27898026 41 44 33
245895.26501465 3357478.10461426 17.09551430 50 56 54
245890.74841309 3357477.64837646 16.12198830 59 64 68
245890.81311035 3357477.54833984 16.42961311 84 89 93
245895.18054199 3357478.09417725 16.63848305 59 68 63
245895.18688965 3357477.92733765 17.49302101 114 124 133
245890.79040527 3357477.10455322 16.10017014 76 76 74
245895.17584229 3357477.87634277 16.50951385 71 81 72
245891.80627441 3357478.65490723 16.58790207 97 98 103
245894.77203369 3357478.70733643 17.43009567 213 225 237
245894.73193359 3357478.52011108 17.50656319 170 184 195
245891.08947754 3357476.46755981 16.10010719 43 47 33
245895.22705078 3357478.47732544 16.50375938 44 53 52
245892.29144287 3357477.79275513 17.24908447 21 27 27
245894.11560059 3357477.93814087 17.57364655 147 164 172
245892.28546143 3357478.68081665 17.01504707 25 29 30
245895.13726807 3357478.86975098 17.13759995 77 91 94
245891.40051270 3357476.50006104 16.33907509 38 41 34
245895.33105469 3357477.63803101 17.21348572 21 28 21
245891.66906738 3357478.46374512 17.03735161 44 49 53
245890.41546631 3357476.92971802 15.81968689 89 91 86
245891.26586914 3357476.52120972 16.27581787 40 43 34
245891.75390625 3357477.20562744 17.00852394 36 37 39
245892.24407959 3357478.58724976 16.09737015 42 46 47
245890.83184814 3357477.18826294 16.24308968 61 61 59
245892.76379395 3357478.74694824 16.29887199 37 43 41
245895.26751709 3357478.92239380 16.07618141 44 51 44
245895.23504639 3357478.78912354 17.09003258 37 43 43
245894.66821289 3357478.37539673 17.47101212 169 183 194
245893.19317627 3357477.81646729 17.56878853 156 171 178
245891.74505615 3357478.62533569 16.94027710 87 88 93
245892.98071289 3357478.32601929 17.61604118 168 180 194
245890.63543701 3357476.65017700 15.89238930 53 55 50
245893.36169434 3357478.59603882 17.56056023 181 191 201
245892.55426025 3357478.70617676 16.95331192 55 58 63
245891.99835205 3357478.68365479 16.60239029 99 102 109
245893.73675537 3357478.84951782 16.22232056 42 46 47
245893.54937744 3357478.74633789 16.96105194 33 36 41
245894.50054932 3357477.69458008 17.54257965 151 166 173
245890.60900879 3357476.63659668 15.89272690 53 55 50
245890.83367920 3357476.82250977 15.92920017 67 69 68
245890.97351074 3357478.49078369 15.84734058 93 95 90
245891.21746826 3357478.56549072 16.59908867 87 90 95
245891.26208496 3357477.54745483 16.66760635 155 165 167
245892.96813965 3357478.05209351 17.57979774 154 168 177
245895.19647217 3357478.05459595 16.68347168 69 75 71
245891.67364502 3357477.91174316 17.06377029 32 40 42
245892.45330811 3357478.56454468 17.35582924 27 35 37
245890.63140869 3357477.42712402 16.01604652 74 74 74
245891.03454590 3357478.43338013 15.91111565 73 74 69
245893.92083740 3357477.72149658 17.58587074 147 164 172
245892.26263428 3357478.36206055 17.41953468 65 76 80
245894.03594971 3357478.68521118 17.48290443 167 175 188
245895.31640625 3357477.84854126 17.09236526 47 53 49
245894.66448975 3357477.93161011 17.46769905 153 170 180
245891.99737549 3357476.80157471 16.97119141 33 39 29
245893.27551270 3357478.81594849 16.97447014 60 64 67
245891.24114990 3357478.26425171 16.82226181 209 214 233
245892.70611572 3357478.78564453 16.44646072 42 46 47
245891.01104736 3357478.39874268 15.95745754 96 98 97
245895.48614502 3357478.27957153 15.93877983 40 41 43
245891.41540527 3357476.65835571 16.52872849 33 36 29
245892.78967285 3357478.69113159 17.06252670 81 84 91
245895.27142334 3357478.54843140 16.35870171 49 57 60
245890.93292236 3357477.13873291 16.46728897 38 43 39
245895.23522949 3357478.38711548 16.38644981 49 57 60
245890.79321289 3357477.66806030 16.42169762 81 89 92
245894.39843750 3357478.41891479 17.49254227 171 185 196
245894.06335449 3357478.46585083 17.56262970 174 188 197
245893.05749512 3357478.81320190 16.73887444 113 116 123
245893.51678467 3357478.86721802 16.45349693 53 57 60
245891.48803711 3357477.80743408 16.94014359 118 125 131
245893.40460205 3357478.70339966 17.37856674 27 32 35
245893.73071289 3357478.78909302 16.04227829 47 51 52
245895.30004883 3357478.67907715 16.33945274 33 37 38
245891.58312988 3357476.62524414 16.57655525 37 40 31
245892.69244385 3357478.64315796 17.13448906 79 83 84
245893.85668945 3357478.66607666 17.18214226 41 45 46
245895.30780029 3357477.10012817 16.08215523 54 64 56
245895.24359131 3357478.67123413 16.66389847 55 61 61
245892.64379883 3357478.20013428 17.55148315 173 186 195
245891.94714355 3357477.14736938 17.06394577 44 50 48
245891.93182373 3357478.59295654 15.93657970 18 22 23
245895.24761963 3357478.24642944 17.19228363 29 37 39
245890.81549072 3357476.86813354 15.93896198 79 79 79
245891.80090332 3357477.97683716 17.13437653 41 51 52
245893.30578613 3357478.76998901 16.22140694 46 48 47
245893.21057129 3357478.66394043 16.01526833 49 50 52
245894.37359619 3357477.62628174 17.56977654 131 140 147
245893.24517822 3357478.83660889 16.50481415 75 79 82
245893.18548584 3357478.39370728 17.63154411 171 183 197
245891.08520508 3357476.80334473 16.29797554 44 44 42
245893.91656494 3357478.70333862 17.40756798 158 165 175
245891.44482422 3357476.41250610 16.27087402 37 43 33
245894.13433838 3357477.89578247 17.57538795 145 162 172
245894.68334961 3357479.07305908 16.51043510 69 73 72
245891.23632813 3357478.55639648 16.36578751 48 53 57
245895.27832031 3357478.59289551 16.36512947 43 48 51
245893.37542725 3357477.93368530 17.60955811 141 156 163
245894.29351807 3357478.98425293 16.37120438 33 35 34
245895.23614502 3357478.29650879 17.26651192 28 37 36
245895.26275635 3357478.82360840 16.47313690 74 80 76
245891.41931152 3357476.77322388 16.67633057 33 36 29
245890.98529053 3357476.17065430 16.00829506 51 53 40
245895.40344238 3357478.77941895 15.90234089 46 50 49
245895.28063965 3357478.03952026 17.09731865 46 52 48
245891.28558350 3357476.49044800 16.25750542 40 43 34
245895.20141602 3357478.31414795 16.75725365 37 42 38
245891.30255127 3357477.41629028 16.66063309 160 168 170
245891.22357178 3357476.35437012 16.07501411 40 44 29
245893.77526855 3357478.40203857 17.61525536 175 189 200
245891.55047607 3357477.79165649 16.97803879 41 46 49
245892.14160156 3357478.60650635 17.24653053 24 35 37
245893.01422119 3357478.35882568 17.61849403 171 183 195
245894.63348389 3357477.77075195 17.52142525 154 168 179
245893.06286621 3357478.71267700 16.16383553 44 45 47
245893.86437988 3357478.68365479 17.08107948 64 70 70
245892.55603027 3357478.40768433 17.53392220 184 194 204
245893.70184326 3357478.86773682 16.34757996 44 48 49
245890.99725342 3357478.43341064 16.17518234 46 48 47
245891.24304199 3357476.69885254 16.43307686 35 38 29
245894.04864502 3357478.94726563 16.36878395 42 43 45
245890.68676758 3357477.91424561 15.99212551 72 72 70
245890.78466797 3357477.13439941 16.13486290 74 73 71
245890.44934082 3357477.93145752 15.82139492 86 88 87
245891.68023682 3357476.76281738 16.77817154 36 42 32
245893.47137451 3357478.64184570 17.50860596 178 187 196
245895.16424561 3357479.03335571 16.56646729 108 111 116
245894.74188232 3357478.91461182 17.09189415 64 68 71
245892.70971680 3357477.73965454 17.51854324 174 188 197
245891.23760986 3357476.92477417 16.62772369 65 69 68
245891.19195557 3357477.62881470 16.64968681 158 168 170
245891.56677246 3357478.61398315 16.75391769 89 90 95
245892.00018311 3357478.47247314 17.27498817 88 99 101
245894.24127197 3357477.97836304 17.53651047 151 165 174
245893.72314453 3357478.75234985 16.88252068 44 47 52
245892.04589844 3357478.67947388 16.92653275 119 122 129
245891.75213623 3357478.64453125 16.66564178 96 97 101
245892.21612549 3357477.82412720 17.21547699 20 26 24
245892.38696289 3357477.57208252 17.32137680 48 53 59
245892.99908447 3357478.79010010 16.34283257 29 33 34
245891.30590820 3357477.15795898 16.68850708 156 166 167
245891.27520752 3357478.57144165 16.41632462 57 62 66
245891.23815918 3357477.95492554 16.79794693 173 177 189
245893.66021729 3357478.70581055 17.30782509 41 42 46
245891.54437256 3357478.60397339 16.11116600 119 123 132
245894.82116699 3357478.93655396 17.07706070 103 108 112
245891.75329590 3357478.13546753 17.11540413 30 38 40
245891.91351318 3357477.72714233 17.08301353 44 53 50
245890.91467285 3357476.72616577 15.97793198 43 47 46
245892.30230713 3357478.60275269 16.10206223 42 46 47
245895.24908447 3357478.21701050 17.18798065 30 39 38
245891.78668213 3357476.88632202 16.95233154 34 41 33
245892.29882813 3357478.70123291 16.94652939 65 66 71
245890.65209961 3357477.63339233 15.94829082 79 81 80
245891.57757568 3357476.55313110 16.49228859 37 40 31
245891.34484863 3357477.63375854 16.76210213 181 188 196
245890.40930176 3357476.97476196 15.81876183 92 97 93
245893.62023926 3357478.37457275 17.64197540 172 189 199
245893.36987305 3357477.84365845 17.60188293 149 164 171
245895.22790527 3357478.94430542 16.14291000 51 58 51
245893.34808350 3357478.75732422 17.09655762 24 29 32
245893.25982666 3357477.98376465 17.60783195 151 168 176
245895.01483154 3357478.26287842 17.55813789 140 152 164
245890.62670898 3357476.62762451 15.89769459 53 55 50
245891.20629883 3357477.17776489 16.62711143 152 157 161
245894.76757813 3357477.93069458 17.49641800 155 171 184
245890.41754150 3357477.40576172 15.83107281 84 86 83
245894.38305664 3357478.62277222 17.49827576 232 245 254
245893.33862305 3357478.68972778 15.94266701 55 56 60
245891.76568604 3357477.16928101 17.00760078 31 35 34
245891.54272461 3357476.35769653 16.25759506 37 43 31
245893.18060303 3357478.82446289 16.41476822 35 39 42
245890.97503662 3357476.58761597 16.05197906 47 53 43
245890.42114258 3357477.71255493 15.80662727 88 90 89
245891.79522705 3357477.88894653 17.10787582 44 56 54
245895.29083252 3357478.68133545 16.38303185 42 46 47
245891.09289551 3357477.91369629 16.67653465 190 194 206
245895.24298096 3357478.85513306 16.72924042 57 62 65
245892.40423584 3357477.49551392 17.34989357 30 35 39
245890.90808105 3357477.94741821 16.55297470 195 197 212
245893.22161865 3357478.66607666 15.93122387 58 59 61
245891.02514648 3357477.62799072 16.59400749 203 207 219
245892.44659424 3357478.75344849 16.40229797 36 40 41
245892.01806641 3357477.11120605 17.08261299 62 67 63
245895.20074463 3357477.81320190 17.50889015 113 122 127
245892.45031738 3357478.73733521 16.85494995 122 122 130
245895.31756592 3357478.57522583 16.17267990 38 43 46
245891.50793457 3357477.51882935 16.90473175 115 120 126
245894.69531250 3357479.06546021 16.59895515 117 122 125
245892.31536865 3357478.60449219 15.99754429 39 40 42
245895.23522949 3357478.58950806 16.59118843 45 51 51
245890.98535156 3357477.03811646 16.42770767 38 42 41
245895.24261475 3357478.78921509 16.97298813 20 29 28
245894.80554199 3357478.69436646 17.43555641 216 228 240
245893.04205322 3357478.78863525 16.93910027 128 133 139
245892.28991699 3357477.79296875 17.24797249 21 27 27
245895.16973877 3357477.51931763 16.35698700 70 81 67
245890.93627930 3357478.37246704 15.94879627 87 87 89
245894.58764648 3357478.97363281 16.94052315 167 171 182
245891.07098389 3357476.69161987 16.17692757 37 42 35
245891.14227295 3357476.69314575 16.29161453 33 38 31
245893.53088379 3357477.58978271 17.57931709 132 147 150
245891.47930908 3357477.15618896 16.83457184 120 130 129
245893.18536377 3357478.69183350 16.08313560 49 53 52
245890.74884033 3357477.16790771 16.11237335 72 72 72
245894.81420898 3357477.96957397 17.50628662 154 168 179
245891.45733643 3357476.68444824 16.58763123 32 35 28
245893.35302734 3357478.72192383 17.25261688 21 27 27
245892.40924072 3357478.61968994 16.09462166 45 49 50
245894.89245605 3357478.03161621 17.52504730 156 169 178
245895.38104248 3357477.28970337 15.93605709 63 65 62
245894.93151855 3357479.02743530 16.85003090 94 99 102
245890.91540527 3357477.11587524 16.42725563 31 33 30
245895.17871094 3357478.11654663 16.56855583 56 62 60
245893.45440674 3357478.84844971 16.39105797 49 53 54
245891.75213623 3357476.71777344 16.77293396 36 43 35
245893.45092773 3357478.87347412 16.71738052 106 111 114
245893.35546875 3357478.87020874 16.77852249 108 113 117
245890.85583496 3357478.12173462 16.48056793 168 174 186
245890.74023438 3357476.61523438 15.92664814 67 70 63
245892.22680664 3357478.59677124 17.27576256 6 16 18
245890.58386230 3357476.58364868 15.90773010 66 67 61
245895.18707275 3357478.52517700 17.45430946 25 35 36
245891.59667969 3357478.65185547 15.92501926 67 68 70
245891.72558594 3357478.63723755 16.78177261 99 98 106
245891.32354736 3357476.83651733 16.64565849 28 30 25
245891.21746826 3357476.65829468 16.36342621 37 40 29
245892.94274902 3357477.90081787 17.54948425 154 168 177
245895.29833984 3357478.44921875 16.21751785 36 40 43
245894.65954590 3357477.98452759 17.44835854 158 175 185
245893.88275146 3357478.92218018 16.43185997 49 53 54
245894.43328857 3357478.17117310 17.44811249 161 177 190
245892.67297363 3357478.48995972 17.52091789 212 219 235
245892.77575684 3357478.22195435 17.57564354 166 178 190
245895.10668945 3357479.03890991 16.27940559 45 47 42
245893.69879150 3357478.65042114 17.46820450 174 183 192
245895.23162842 3357477.30026245 16.22094727 60 70 61
245890.96575928 3357477.31646729 16.54112434 97 105 108
245891.80895996 3357478.64166260 16.96741867 52 53 58
245890.84454346 3357478.36526489 15.88799477 73 72 70
245895.28234863 3357477.46276855 16.89512444 45 57 47
245894.95312500 3357478.97894287 17.04191017 113 118 124
245892.34594727 3357478.60403442 16.01169395 43 47 48
245891.11975098 3357478.11663818 16.72924614 209 215 231
245892.73773193 3357478.60494995 15.94514275 49 51 48
245893.83288574 3357477.98916626 17.60100174 132 146 155
245893.69256592 3357477.62777710 17.58035469 135 150 155
245890.73364258 3357477.84619141 16.18894005 102 107 110
245893.96185303 3357478.92169189 16.72798157 105 108 113
245894.94830322 3357479.10437012 16.40920067 47 52 46
245895.02392578 3357479.07690430 16.40438271 41 43 38
245891.02630615 3357476.71136475 16.11119080 38 43 36
245895.35522461 3357477.24969482 15.97855377 50 55 49
245895.18334961 3357477.50268555 16.53330612 59 70 56
245891.16229248 3357478.20968628 16.75919151 228 231 250
245890.99261475 3357476.84085083 16.09548378 38 42 41
245892.63781738 3357478.69592285 16.20508194 40 45 49
245893.70404053 3357477.82730103 17.59936905 139 153 162
245893.40600586 3357477.72802734 17.59226227 141 155 164
245894.01190186 3357478.73614502 17.34546661 55 63 66
245894.72460938 3357478.97232056 16.98418617 44 47 52
245892.84295654 3357478.79370117 16.45668793 46 50 51
245894.85388184 3357477.94509888 17.52516747 156 170 181
245890.58355713 3357476.86563110 15.85697556 83 85 84
245892.98925781 3357478.80105591 16.78779793 89 94 97
245895.25952148 3357478.72714233 17.04392815 30 36 36
245895.07446289 3357479.06552124 16.47472000 91 95 96
245893.55419922 3357478.69812012 17.06430054 63 66 71
245894.12762451 3357477.91326904 17.57455444 145 162 172
245890.78979492 3357476.58236694 15.95848274 76 79 70
245892.58087158 3357478.52420044 17.48247719 197 205 216
245892.16802979 3357478.70690918 16.69337654 84 87 94
245891.48291016 3357477.16796875 16.83720970 116 126 125
245892.93719482 3357478.62664795 16.01836777 42 46 47
245895.22998047 3357478.79974365 17.10154152 45 50 53
245890.49841309 3357477.00778198 15.85986614 100 105 101
245891.98309326 3357478.67623901 16.78491783 97 97 105
245893.72979736 3357478.67926025 17.19019508 45 46 48
245891.44964600 3357478.57980347 16.00241089 128 131 136
245892.18402100 3357476.88671875 17.08806610 34 36 31
245894.51953125 3357479.04187012 16.43696785 38 40 37
245891.13555908 3357478.46087646 16.07674789 43 43 41
245894.55151367 3357478.37152100 17.46316719 172 186 199
245892.05145264 3357478.67919922 16.37858200 38 42 45
245891.75927734 3357476.93115234 16.97040939 32 39 31
245893.15368652 3357478.76110840 17.04829788 24 28 29
245892.85070801 3357478.37222290 17.59988403 168 177 192
