245940.66503906 3357596.58813477 15.17893124 20 35 30
245940.82226563 3357595.22821045 15.09118271 89 99 108
245942.22875977 3357596.19116211 15.30644035 122 157 185
245915.28393555 3357596.52124023 14.68432713 244 246 243
245938.08020020 3357596.65643311 14.96039486 156 169 186
245938.08312988 3357596.96307373 14.51929855 87 88 83
245915.86193848 3357598.18847656 14.50666428 161 163 162
245915.07489014 3357597.68518066 14.53249073 173 175 170
245927.88409424 3357596.00183105 15.80603504 29 43 54
245927.61352539 3357595.94573975 15.76886272 34 48 59
245941.09832764 3357596.38690186 14.29795551 60 58 46
245939.52777100 3357595.69415283 15.45517731 139 163 209
245940.30938721 3357596.45501709 15.08993530 143 148 128
245912.62127686 3357598.65527344 14.54554939 198 192 168
245929.77532959 3357597.09161377 14.55631447 56 64 67
245925.35858154 3357595.83618164 14.82353401 214 203 197
245940.64208984 3357595.94268799 15.66050053 19 35 50
245939.45410156 3357595.49951172 15.37917995 121 155 201
245917.25512695 3357597.09234619 14.86455250 172 192 199
245928.19494629 3357595.53057861 15.39134121 92 94 93
245941.31732178 3357595.28100586 14.87484264 102 110 121
245929.70178223 3357595.86633301 14.69614315 54 59 62
245917.55249023 3357597.77838135 14.62996769 51 50 56
245938.54840088 3357595.88903809 15.18212414 122 141 171
245939.67968750 3357596.25714111 14.32145786 145 144 142
245929.00970459 3357597.43200684 14.72308922 74 79 73
245939.57861328 3357596.36352539 15.55752563 88 103 126
245929.02014160 3357596.19812012 15.38061237 54 71 91
245927.14605713 3357597.21179199 15.05063629 31 35 34
245940.45489502 3357597.03845215 14.61680031 54 63 62
245941.18572998 3357595.33654785 14.86514950 85 95 105
245927.66986084 3357597.85870361 14.56230354 115 132 78
245941.35919189 3357595.66418457 15.51214123 15 22 38
245942.42572021 3357595.83532715 14.64509583 96 107 109
245939.12426758 3357596.75231934 15.05437374 120 131 133
245927.75915527 3357595.53485107 14.94004536 47 47 45
245929.70721436 3357597.28344727 14.46705151 56 63 69
245926.95391846 3357597.42303467 14.65258980 52 63 59
245939.33605957 3357596.78350830 15.25650311 168 176 179
245942.41979980 3357596.00585938 14.68948269 96 107 109
245913.55688477 3357597.77642822 14.60371304 187 189 186
245942.01629639 3357595.23095703 15.27429771 196 215 232
245914.21533203 3357598.12048340 14.55247307 172 177 171
245929.86584473 3357597.75140381 14.62623119 97 127 65
245925.39654541 3357596.13488770 15.22586918 92 101 110
245928.12292480 3357596.44549561 15.64133358 18 36 48
245924.86877441 3357597.47406006 14.43958855 208 201 185
245927.22155762 3357596.75866699 15.36050606 28 36 38
245929.36694336 3357595.64294434 15.19787025 56 64 77
245923.99945068 3357596.22351074 14.48264885 217 210 200
245926.25506592 3357597.25830078 14.84987736 68 72 58
245940.37689209 3357595.46124268 14.68515968 78 81 86
245928.77197266 3357595.55633545 15.07617474 55 55 55
245912.87939453 3357598.77209473 14.59611893 170 165 125
245926.15362549 3357596.89086914 15.74759769 120 110 119
245928.43206787 3357597.20996094 15.34656525 31 36 39
245913.62445068 3357596.52746582 14.77119446 167 172 176
245926.48809814 3357596.33587646 15.75173473 24 33 38
245941.45135498 3357595.43847656 14.77176666 119 125 125
245915.32659912 3357597.14233398 14.65877724 252 254 253
245928.56951904 3357597.68768311 14.54424095 45 50 46
245937.27117920 3357597.22717285 14.28822517 201 194 175
245927.53021240 3357596.33581543 15.63747787 45 61 77
245916.60943604 3357598.42102051 14.57830811 158 153 150
245925.13922119 3357596.45025635 14.58594131 210 201 192
245915.69653320 3357598.13165283 14.48768520 196 196 196
245924.79028320 3357597.03234863 14.48522377 206 197 190
245925.56896973 3357595.62603760 15.17919540 190 181 184
245941.13305664 3357595.45593262 15.55696106 138 158 183
245927.05200195 3357596.15899658 15.78428936 43 50 58
245917.25585938 3357596.67687988 14.96779060 121 134 150
245941.32189941 3357596.16046143 14.29445171 178 181 170
245924.99316406 3357597.38146973 14.45583630 206 199 183
245925.62658691 3357597.16967773 15.11639786 27 26 21
245925.66583252 3357595.71258545 15.61339760 240 180 192
245939.56408691 3357595.38183594 15.13954639 172 173 159
245940.96697998 3357595.06787109 14.59575939 85 82 75
245925.51989746 3357596.32989502 15.57147694 79 86 96
245941.46508789 3357595.33630371 15.46566868 36 45 54
245925.70153809 3357595.60046387 15.47683144 98 57 61
245925.65460205 3357597.88146973 14.51957226 167 166 109
245927.63024902 3357597.44860840 14.75871944 44 48 49
245925.37573242 3357595.93420410 15.04051304 119 110 113
245929.54064941 3357597.23510742 14.68409061 30 36 36
245940.29937744 3357596.50030518 14.57169914 104 111 104
245941.37658691 3357597.11047363 14.26186562 68 76 78
245927.21905518 3357596.01049805 15.87886906 64 73 80
245926.51873779 3357597.23675537 15.01659489 17 24 16
245942.23376465 3357595.84625244 15.29129410 137 168 196
245913.03295898 3357598.40417480 14.54457188 190 186 174
245941.40661621 3357595.55352783 14.77093601 103 112 107
245942.28863525 3357595.27929688 15.03528118 99 102 111
245940.16925049 3357596.60900879 14.75263882 86 96 85
245940.81646729 3357595.77917480 14.37299633 112 114 113
245915.77838135 3357596.91442871 14.71080589 189 189 189
245914.48687744 3357596.74810791 14.75689411 238 239 234
245914.09252930 3357596.45697021 14.76356030 191 195 194
245940.08251953 3357595.67431641 15.07918453 141 143 129
245939.60046387 3357595.47436523 14.78220081 26 31 37
245924.07220459 3357596.20849609 14.48208904 212 205 195
245915.15832520 3357598.27557373 14.49573803 161 162 157
245937.66748047 3357595.46032715 14.90191364 230 233 238
245939.20477295 3357595.48480225 14.62390327 83 83 83
245939.31628418 3357596.46746826 14.46706295 147 150 143
245937.51452637 3357595.55438232 14.70026302 138 140 152
245928.26049805 3357596.37554932 15.50271320 31 54 72
245937.41180420 3357596.77386475 14.46001434 198 191 183
245929.39874268 3357595.80554199 15.29550266 192 209 225
245942.16851807 3357595.26904297 15.24361706 180 192 214
245940.90454102 3357596.68383789 14.37295818 29 34 40
245929.17425537 3357597.16143799 15.27199841 55 55 63
245942.45251465 3357597.00720215 14.17596912 73 84 88
245940.96722412 3357596.48138428 15.53847122 107 125 145
245928.44012451 3357596.02862549 15.47993851 55 84 100
245940.62854004 3357597.18463135 14.32654190 65 76 70
245926.59936523 3357596.36322021 15.70204926 24 31 37
245927.92272949 3357596.89276123 15.42647457 34 48 59
245941.58300781 3357596.03747559 15.37915897 41 55 64
245927.38415527 3357597.61395264 14.56417847 50 56 54
245939.40679932 3357596.22351074 15.36794662 82 124 166
245939.63958740 3357595.98754883 14.29334164 167 170 159
245938.84173584 3357596.69213867 15.21350956 133 150 170
245941.57019043 3357595.99536133 14.47775459 112 117 113
245926.86669922 3357596.95391846 15.42075348 51 55 56
245927.98156738 3357595.89306641 15.75869179 13 26 35
245925.23760986 3357596.61816406 14.67721844 207 198 193
245916.39202881 3357597.90893555 14.56590176 164 169 165
245927.71490479 3357597.33856201 15.16883564 15 24 21
245926.28863525 3357596.39166260 15.78893566 34 43 52
245926.35589600 3357597.26507568 14.87908077 69 75 61
245942.39837646 3357595.59130859 14.64164352 93 104 106
245939.32116699 3357595.96942139 14.34893036 163 166 157
245928.89843750 3357596.70581055 15.40804195 68 82 95
245938.40692139 3357595.15203857 14.60185432 118 121 126
245924.67926025 3357597.38482666 14.44419861 200 192 179
245939.52008057 3357596.52899170 15.48888779 106 128 151
245941.68218994 3357596.18420410 15.35354710 27 40 48
245940.99804688 3357595.74810791 15.59252548 116 143 173
245927.08819580 3357595.58947754 15.54631710 85 89 92
245917.69860840 3357597.21697998 14.66544533 54 59 63
245940.26794434 3357595.78466797 15.07181931 125 131 119
245917.22875977 3357597.32580566 14.78414440 178 193 200
245916.42388916 3357597.37615967 14.56444645 172 173 175
245940.28802490 3357596.39733887 14.37954330 136 139 144
245940.72119141 3357596.23016357 14.26310921 54 66 66
245913.52868652 3357597.47558594 14.62980652 185 189 190
245928.66455078 3357595.55657959 14.89799595 58 58 56
245941.09075928 3357596.39996338 14.30073261 89 89 81
245940.12084961 3357596.66497803 15.25298309 85 85 83
245939.22247314 3357595.94335938 14.38088989 188 191 180
245927.19000244 3357596.34564209 15.63187122 55 67 79
245942.07220459 3357596.74188232 15.03121948 33 34 38
245942.26794434 3357596.57769775 14.94193554 59 63 64
245915.69158936 3357598.12695313 14.48697472 196 196 196
245938.34832764 3357595.69506836 15.11535740 134 158 186
245938.71984863 3357595.18804932 14.61624527 113 117 120
245938.29760742 3357595.87152100 15.02470589 138 157 187
245942.37249756 3357596.31848145 14.64919281 45 50 54
245913.74279785 3357598.01116943 14.57096195 174 179 173
245929.83398438 3357596.15295410 14.83606529 24 38 51
245926.68786621 3357597.73419189 14.56125927 174 171 138
245926.07556152 3357595.74566650 15.83903027 38 29 32
245915.03826904 3357598.06610107 14.50489330 172 174 171
245940.33996582 3357595.96093750 14.26691723 69 75 75
245927.52502441 3357597.33911133 15.07591152 21 30 27
245928.57525635 3357597.59191895 14.58523750 64 66 65
245941.88873291 3357596.76611328 14.84975052 50 49 47
245939.35070801 3357595.57617188 14.97421837 191 192 176
245938.22326660 3357596.56640625 14.97106266 111 127 150
245927.44146729 3357595.54138184 14.89973450 48 44 41
245928.97662354 3357595.89447021 15.39462948 44 60 76
245942.25244141 3357595.80059814 15.28897381 137 168 196
245938.76409912 3357596.37799072 14.48746014 129 134 127
245937.39501953 3357596.72790527 14.46981144 202 193 184
245941.27044678 3357595.16076660 15.35094833 112 109 118
245924.85931396 3357596.74731445 14.49674320 215 207 196
245914.48406982 3357597.76336670 14.53827095 183 185 182
245937.94995117 3357596.58447266 14.92268372 139 152 171
245917.24768066 3357597.36511230 14.78137589 177 192 199
245942.63146973 3357595.26373291 14.22492981 132 130 131
245926.13903809 3357597.24310303 14.89943790 24 27 18
245928.17156982 3357595.57690430 15.47615147 229 233 234
245915.37268066 3357598.55975342 14.58652306 157 158 140
245924.99139404 3357597.07189941 14.50936794 209 201 190
245939.39959717 3357595.91680908 14.31926823 179 183 169
245940.20629883 3357594.97290039 14.49389362 190 179 161
245941.28607178 3357596.60736084 14.94646358 116 124 109
245920.20263672 3357596.36767578 14.51708984 207 198 191
245927.35632324 3357596.86553955 15.33325386 32 36 39
245939.93164063 3357596.45874023 15.07446575 156 162 148
245914.04138184 3357597.70300293 14.54066753 185 187 184
245942.51556396 3357597.19415283 14.17133236 90 99 106
245913.76007080 3357598.52868652 14.57262993 174 176 163
245925.41149902 3357596.54412842 15.22015762 27 43 76
245939.91052246 3357596.69488525 15.23359680 173 176 169
245927.24047852 3357596.08209229 15.81946468 53 63 73
245913.66143799 3357597.78820801 14.59555244 183 185 182
245942.27722168 3357595.35253906 15.21167278 145 158 174
245939.72894287 3357596.76574707 14.64206982 52 63 57
245913.97320557 3357596.87890625 14.84162426 146 136 135
245916.21594238 3357598.51507568 14.59983063 135 135 127
245940.09997559 3357596.44287109 15.08195877 145 149 135
245927.62432861 3357596.60729980 15.50786114 33 49 65
245914.05847168 3357597.74688721 14.53557205 181 183 180
245937.94647217 3357596.91046143 14.72395420 115 114 110
245914.89410400 3357598.01599121 14.51228333 175 177 174
245937.94561768 3357595.62628174 15.00049973 184 194 206
245941.63891602 3357596.20288086 15.37626076 26 40 49
245916.38208008 3357597.20025635 14.57828712 169 170 172
245926.65447998 3357597.91174316 14.63434410 105 130 46
245916.88220215 3357598.44134521 14.61402798 120 123 106
245929.19458008 3357597.47265625 14.63691425 65 71 67
245942.37145996 3357596.13110352 15.08324432 87 92 98
245915.74853516 3357597.98364258 14.49589920 156 160 159
245925.94714355 3357597.10723877 15.60743427 63 45 33
245940.76965332 3357596.11334229 14.23230743 69 78 85
245939.76501465 3357595.58215332 14.65909576 115 118 111
245916.02301025 3357597.32318115 14.58607578 153 157 160
245929.32507324 3357595.55499268 14.98766518 55 56 58
245914.68701172 3357598.42694092 14.52566242 170 171 163
245926.11859131 3357595.69360352 15.75903034 72 72 74
245912.91229248 3357597.76953125 14.55606556 186 186 178
245927.90570068 3357595.55358887 15.36411190 27 29 28
245942.57806396 3357596.76983643 14.19565964 72 83 89
245925.76129150 3357596.34289551 15.66866112 100 121 124
245939.20947266 3357595.71783447 15.28538895 95 136 190
245941.53314209 3357595.27246094 14.80144787 78 89 95
245942.42340088 3357595.82366943 14.66823101 98 109 111
245929.66778564 3357596.75128174 15.12128162 99 106 116
245938.27819824 3357596.03350830 14.98632336 133 154 183
245939.66552734 3357597.27062988 14.30053234 75 76 81
245938.50323486 3357595.86743164 15.14756775 123 142 174
245939.70660400 3357596.19024658 14.28770542 171 168 163
245941.80065918 3357596.86724854 14.33972168 43 51 53
245938.65826416 3357596.41735840 15.22681427 142 162 189
245938.75988770 3357596.89031982 14.68634033 47 51 50
245940.68005371 3357595.09173584 14.68526554 94 95 89
245929.02545166 3357596.24731445 15.37222004 52 70 92
245940.58532715 3357597.35705566 14.29434681 54 67 49
245939.03698730 3357596.02288818 14.78094387 191 192 176
245940.31121826 3357596.35076904 15.64360046 37 53 69
245929.57818604 3357595.67755127 14.68766308 63 63 65
245939.43865967 3357596.42950439 14.40448570 96 101 97
245940.74011230 3357596.57678223 15.11340904 29 42 32
245942.29986572 3357595.47991943 15.21672535 179 194 213
245942.65081787 3357595.27331543 14.22096920 152 148 147
245941.57550049 3357596.80743408 15.06066513 47 57 49
245941.48394775 3357595.91186523 15.42965412 21 35 48
245939.62640381 3357596.71295166 15.26719952 189 193 179
245939.44860840 3357596.02807617 15.04000664 102 111 64
245928.87646484 3357595.54119873 15.00751591 106 108 103
245941.79956055 3357596.57116699 15.31156063 78 95 103
245938.83123779 3357596.10137939 14.47269917 157 158 150
245929.56109619 3357595.68218994 14.82818031 58 59 61
245926.43750000 3357597.66180420 14.57196903 164 160 135
245940.55340576 3357596.06732178 15.65594673 11 23 35
245925.55804443 3357596.70104980 15.62472820 62 67 63
245938.87213135 3357596.73590088 14.98060131 193 194 196
245928.85797119 3357596.54638672 15.46960545 27 40 49
245938.52313232 3357597.01745605 14.50417423 56 60 59
245927.38543701 3357597.67456055 14.53893661 57 63 63
245926.82116699 3357597.64166260 14.55696011 58 62 61
245913.18945313 3357597.84906006 14.57296181 183 184 178
245927.02221680 3357596.82873535 15.40607071 24 29 32
245929.47344971 3357597.30017090 14.66155338 34 40 40
245940.53643799 3357596.34106445 15.65147877 22 38 54
245939.33605957 3357596.11370850 15.33271599 42 84 126
245928.05102539 3357597.89965820 14.59305763 108 128 69
245926.76745605 3357596.73022461 15.45699787 25 30 33
245939.95916748 3357595.95971680 15.09666443 134 139 117
245916.33947754 3357596.40222168 14.71904182 87 97 98
245941.27770996 3357595.23175049 15.45894718 129 131 143
245939.88854980 3357595.87933350 15.09719563 136 141 118
245941.86865234 3357595.06439209 15.04782200 98 86 98
245941.73052979 3357595.10247803 14.60760117 74 76 73
245913.64886475 3357598.71685791 14.59444237 152 153 119
245925.78131104 3357597.55657959 14.45737934 191 183 164
245914.11895752 3357596.62310791 14.82801247 244 246 245
245939.17559814 3357596.39556885 14.46505547 114 120 108
245925.37530518 3357595.93542480 14.98884296 126 116 117
245929.10839844 3357596.75091553 15.23778725 49 62 78
245925.48992920 3357595.64691162 14.97108936 214 210 209
245939.55181885 3357595.64727783 15.52330017 124 147 188
245926.68927002 3357597.53393555 14.65650272 61 66 62
245939.62048340 3357595.64703369 15.09614277 163 165 141
245942.39154053 3357596.10821533 14.92198753 50 54 57
245941.52984619 3357596.75811768 14.97371483 49 60 52
245938.83325195 3357596.53393555 14.52772045 187 187 177
245940.62060547 3357595.22863770 15.12078667 99 107 110
245939.70361328 3357596.34344482 14.35057068 117 116 114
245939.42437744 3357596.57226563 14.53473091 141 145 144
245915.81164551 3357598.16888428 14.50046062 182 184 183
245940.76165771 3357596.18878174 14.25007534 62 72 74
245928.03601074 3357597.37286377 15.31277370 17 22 25
245928.86529541 3357597.50317383 14.67993259 60 64 65
245939.73333740 3357596.68627930 14.63050842 119 132 112
245940.44171143 3357595.67700195 14.49696255 18 22 25
245915.26037598 3357597.66058350 14.54104900 166 170 169
245915.72412109 3357597.03973389 14.69366646 212 212 212
245940.56060791 3357595.03015137 14.59206104 113 105 92
245942.40423584 3357595.97064209 15.05125046 103 106 115
245928.57421875 3357597.25109863 15.19447613 29 35 35
245942.56549072 3357595.70849609 14.36356068 62 73 79
245942.39953613 3357596.14050293 14.67206669 60 69 74
245914.32519531 3357598.05944824 14.55141926 170 175 171
245926.95147705 3357596.34002686 15.66032696 34 45 51
245929.43530273 3357597.25817871 14.83479881 20 26 24
245937.88037109 3357595.09881592 14.58369255 199 205 203
245940.00244141 3357595.43518066 14.78901291 44 48 49
245941.75122070 3357595.30059814 14.60257912 67 76 81
245926.33410645 3357595.53479004 15.25352478 24 24 24
245938.69952393 3357595.22998047 14.63223839 144 153 168
245916.19104004 3357597.05133057 14.61415291 173 173 173
245928.32281494 3357595.54736328 15.25205040 38 38 36
245940.89410400 3357595.77954102 14.36066437 131 137 137
245940.75469971 3357596.37316895 14.30117893 21 27 27
245941.62023926 3357595.07293701 15.10305595 172 182 194
245939.17083740 3357595.61791992 14.87680244 190 191 175
245939.46801758 3357596.49645996 15.05407810 112 132 79
245913.54223633 3357597.43157959 14.63784313 173 177 178
245938.23339844 3357597.25006104 14.30381680 181 173 160
245940.52832031 3357595.80194092 15.66686916 12 21 38
245942.00677490 3357595.06988525 15.09674644 114 104 113
245941.25286865 3357597.14379883 14.25940895 73 82 79
245925.42388916 3357596.73272705 15.30444431 26 27 32
245927.89263916 3357597.46459961 15.00217915 35 37 36
245925.36053467 3357596.09301758 14.97798920 123 113 114
245941.57843018 3357595.46386719 15.41182804 31 44 53
245917.89123535 3357597.16381836 14.60357857 80 84 85
245929.43029785 3357597.37329102 14.58816147 38 46 48
245928.60107422 3357595.62091064 15.34021759 30 32 31
245938.62957764 3357595.70697021 14.48973560 180 179 174
245927.00799561 3357595.55566406 15.17473221 42 43 45
245937.47778320 3357596.12872314 14.76049232 222 230 233
245914.42749023 3357597.84173584 14.54143810 176 178 175
245940.44573975 3357595.56079102 15.65958118 27 43 56
245937.29223633 3357596.81774902 14.39907932 200 193 183
245941.26794434 3357595.09405518 14.65440178 80 82 77
245914.13671875 3357596.96514893 14.80255413 59 55 54
245940.53881836 3357596.77642822 14.83166790 60 71 67
245927.47186279 3357597.40734863 14.89293766 34 40 36
245940.87677002 3357597.12817383 14.36552811 61 69 71
245939.71380615 3357595.85272217 14.34259605 121 125 110
245925.60034180 3357596.95086670 15.59544468 43 30 24
245928.19104004 3357595.65130615 15.52807713 144 148 151
245926.68359375 3357597.39630127 14.71891594 61 65 64
245914.20318604 3357597.12121582 14.73969078 25 41 57
245941.41760254 3357596.44732666 14.69015789 169 174 154
245937.33770752 3357596.50836182 14.48781586 202 195 187
245926.69000244 3357595.73437500 15.75907421 17 18 20
245940.99713135 3357595.18017578 15.37925816 30 31 36
245941.84020996 3357595.06573486 14.60933018 84 83 79
245939.22106934 3357596.61956787 14.59136772 112 120 105
245913.70233154 3357596.52056885 14.79006100 151 156 159
245941.30664063 3357595.85852051 15.54179096 6 18 34
245914.85046387 3357598.46893311 14.51587963 170 173 166
245940.39050293 3357596.41668701 15.64649773 111 129 149
245942.40936279 3357596.71997070 14.24603367 59 70 76
245937.31652832 3357596.83093262 14.40584373 198 191 181
245939.14868164 3357595.83868408 14.84949780 194 197 178
245917.02648926 3357597.31768799 14.70916462 186 194 197
245928.62036133 3357597.20745850 15.33062077 20 28 30
245916.04211426 3357597.49761963 14.56502247 160 161 163
245925.59741211 3357596.44061279 15.59356308 53 62 61
245939.97558594 3357595.30242920 15.51917458 141 151 161
245940.32891846 3357595.01715088 14.55040932 140 128 114
245940.62341309 3357595.62121582 15.66405678 20 31 49
245914.81292725 3357598.09149170 14.51458645 173 175 172
245915.75396729 3357597.09307861 14.66697407 137 143 143
245938.50750732 3357595.08636475 14.51936817 115 116 111
245926.83666992 3357597.34552002 14.68990707 48 52 51
245939.52105713 3357596.33251953 15.06315327 113 131 79
245940.37231445 3357595.02026367 14.55910110 127 115 99
245940.59259033 3357596.55712891 15.21147728 24 35 27
245916.54827881 3357596.93493652 14.62161827 187 191 190
245923.42468262 3357596.26666260 14.47947693 213 204 195
245940.21282959 3357595.61529541 15.67790699 8 20 34
245938.92535400 3357595.35717773 14.87944412 195 196 191
245921.69818115 3357596.26751709 14.50580502 207 200 190
245939.32629395 3357596.66137695 15.03600025 132 142 143
245913.26422119 3357597.75555420 14.58492565 180 181 176
245926.49182129 3357596.34082031 15.74719620 24 33 38
245926.98431396 3357597.44189453 14.64416599 51 61 60
245941.97943115 3357596.30474854 15.31463051 55 89 116
245913.97387695 3357598.07623291 14.55271149 170 175 169
245917.03564453 3357597.61016846 14.66891193 183 191 194
245938.94012451 3357595.22149658 15.26448631 222 233 239
245914.94226074 3357598.26434326 14.50566959 171 173 168
245916.84545898 3357596.68377686 14.82012081 221 223 222
245927.42590332 3357596.04174805 15.82670498 56 69 85
245938.61193848 3357596.63128662 15.16823101 137 159 183
245927.50518799 3357596.69897461 15.40559864 37 51 64
245939.63977051 3357596.72784424 14.61910725 76 84 71
245941.77148438 3357595.48986816 14.52158642 84 88 89
245916.32690430 3357596.72491455 14.65932655 208 212 211
245926.17718506 3357596.74951172 15.76866436 43 43 53
245938.50524902 3357597.02050781 14.49287033 60 62 59
245939.63043213 3357596.46295166 15.58414364 134 156 170
245925.81805420 3357597.87121582 14.53216076 162 172 101
245939.95666504 3357596.41735840 15.62165546 109 120 138
245938.40130615 3357595.10278320 14.53779602 107 108 103
245937.86047363 3357596.79150391 14.94661903 156 163 171
245941.76312256 3357596.54718018 15.33227634 67 84 91
245917.00201416 3357596.62530518 14.90587044 220 228 230
245914.61987305 3357596.55218506 14.66463280 244 244 242
245929.74157715 3357596.77526855 15.03266144 95 109 112
245937.36108398 3357596.72766113 14.45510960 202 193 184
245940.10668945 3357595.64935303 15.07573414 140 142 129
245940.14587402 3357596.63653564 14.79226780 122 129 121
245937.69348145 3357597.46685791 14.46090984 122 148 57
245939.59173584 3357596.02569580 15.07897854 116 125 82
245942.14453125 3357596.70239258 14.49082184 59 64 68
245914.11370850 3357597.55981445 14.55028629 199 201 200
245939.25445557 3357595.92761230 14.36410999 185 188 177
245927.51593018 3357595.55755615 15.02536011 44 46 45
245939.45373535 3357595.63653564 15.35058498 98 134 182
245929.80468750 3357596.73712158 14.88347816 33 43 52
245939.34960938 3357596.18865967 14.97917271 95 105 52
245924.66149902 3357597.73046875 14.42164230 200 188 172
245940.09472656 3357595.26733398 15.42084599 62 65 70
245927.48760986 3357596.32049561 15.64021683 42 58 74
245938.74383545 3357596.15789795 14.48875141 160 164 150
245927.89404297 3357596.39599609 15.76369953 31 45 58
245928.80102539 3357595.64819336 15.31918430 29 32 37
245927.25982666 3357595.55798340 15.18324852 44 45 49
245942.07257080 3357596.55505371 15.23455143 118 144 169
245929.50653076 3357595.66882324 15.05894184 46 47 51
245928.39038086 3357597.47900391 14.76276588 40 42 39
245913.20672607 3357598.66491699 14.56250095 183 177 153
245939.54858398 3357596.44000244 14.41146851 145 146 141
245928.26922607 3357595.80895996 15.59301949 39 49 59
245937.80535889 3357596.76336670 14.94810581 130 137 145
245916.13659668 3357596.90557861 14.63603497 199 199 199
245940.94165039 3357595.72497559 14.41037083 138 142 141
245939.44110107 3357596.53985596 15.41311455 125 155 183
245928.83032227 3357595.66168213 15.33129978 33 37 46
245941.62030029 3357596.74261475 14.63977718 63 69 67
245928.27630615 3357597.64074707 14.64482594 56 62 60
245942.21282959 3357597.40509033 14.29642010 92 117 59
245926.36676025 3357596.56652832 15.69817352 22 22 30
245928.51153564 3357595.54034424 14.73790169 121 114 106
245938.38848877 3357596.48162842 15.05880165 129 150 179
245941.39483643 3357595.79254150 14.72207832 87 97 88
245938.76684570 3357597.22723389 14.40806580 75 75 75
245929.06353760 3357596.35534668 15.32989311 48 66 86
245939.14074707 3357595.47155762 14.60626316 83 83 83
245917.08697510 3357596.51129150 14.93101597 133 141 152
245927.65557861 3357595.81451416 15.68691063 24 38 41
245916.20056152 3357597.45239258 14.56055546 164 165 167
245917.23516846 3357597.89520264 14.64993763 149 157 159
245928.40112305 3357596.05804443 15.47260475 54 83 99
245939.73059082 3357596.50238037 14.49256325 212 221 220
245926.09613037 3357597.53118896 14.46481228 147 143 132
245937.50122070 3357595.63671875 14.65916061 135 138 145
245939.84045410 3357594.99072266 14.52303696 190 182 163
245917.96478271 3357596.76336670 14.59039974 111 107 106
245913.41442871 3357596.82751465 14.80108833 238 240 239
245939.91625977 3357596.30108643 14.31584549 93 92 90
245928.79052734 3357597.07855225 15.39810371 46 54 67
245925.47229004 3357596.24963379 15.52965546 208 215 234
245926.18994141 3357596.94744873 15.70255566 42 33 36
245938.04467773 3357596.48370361 14.87734985 153 168 191
245942.69561768 3357595.41424561 14.26120377 94 103 108
245927.60791016 3357597.40832520 14.95990086 30 36 32
245926.31079102 3357597.74920654 14.53337765 167 164 119
245928.06317139 3357595.50555420 14.94054222 58 59 54
245938.87133789 3357595.30676270 15.26325512 129 150 169
245942.34088135 3357595.26757813 14.45253277 56 61 65
245927.98950195 3357597.37622070 15.26992321 2 7 10
245938.62145996 3357595.48474121 14.57797527 215 215 205
245929.73400879 3357596.02362061 15.01987934 44 51 57
245938.96563721 3357595.62908936 15.27871037 128 157 199
245913.21557617 3357598.51275635 14.54254913 184 182 167
245940.00604248 3357596.30615234 15.08392906 139 146 128
245929.65197754 3357595.84375000 15.05251789 73 84 90
245939.49475098 3357596.66412354 15.46315193 141 159 169
245941.86584473 3357595.35675049 14.67344952 91 99 102
245913.28289795 3357598.29022217 14.56964874 184 182 169
245926.47863770 3357597.24023438 14.99843502 25 31 21
245925.62481689 3357595.67022705 15.55711079 255 245 246
245928.74572754 3357597.36810303 14.82940197 56 60 59
245925.52508545 3357595.77380371 15.49058247 71 67 68
245926.47271729 3357596.72790527 15.58631325 32 35 40
245917.34899902 3357597.72161865 14.69893932 110 119 128
245937.14495850 3357597.05981445 14.31295013 201 193 180
245927.07000732 3357596.75268555 15.41095161 30 40 41
245928.17492676 3357596.77532959 15.44980335 29 50 69
245942.39147949 3357595.66082764 14.97930050 61 68 78
245941.75518799 3357595.01184082 14.43733597 87 82 76
245926.59594727 3357597.73059082 14.56526184 175 169 135
245942.21057129 3357596.34735107 15.28441334 126 160 188
245917.22790527 3357597.80468750 14.66751480 180 193 199
245942.51641846 3357596.68182373 14.22831917 71 82 88
245913.13897705 3357598.65936279 14.53486919 187 181 165
245941.63671875 3357596.75292969 14.64341450 78 83 79
245914.10015869 3357596.42846680 14.74330139 191 195 194
245938.69458008 3357595.16473389 15.21174812 164 183 198
245922.49932861 3357596.21752930 14.49204636 211 204 194
245939.82598877 3357595.98474121 15.09020615 133 139 111
245926.93505859 3357595.55450439 14.97790909 39 39 37
245939.46997070 3357596.03094482 15.49650955 63 84 113
245915.52740479 3357597.83538818 14.51627827 166 168 165
245929.32470703 3357595.72943115 15.28641319 194 207 226
245939.91088867 3357596.10266113 14.23301411 177 176 174
245916.50402832 3357597.74346924 14.57674026 168 170 165
245915.31353760 3357597.26434326 14.61171627 143 147 146
245929.36474609 3357597.06658936 15.24969006 214 227 246
245916.87695313 3357596.64550781 14.84687805 222 224 223
245926.49273682 3357597.02124023 15.49753380 11 16 12
245926.13610840 3357597.26531982 15.15587044 15 20 14
245939.17822266 3357595.74133301 14.86718559 193 196 177
245926.29089355 3357596.40093994 15.78528309 34 43 52
245927.62060547 3357597.41589355 14.92456436 32 38 34
245940.46697998 3357597.01068115 14.67755795 53 59 59
245928.64166260 3357596.28234863 15.49343491 63 90 107
245937.53662109 3357595.26055908 14.48428154 196 194 195
245939.47015381 3357596.33776855 15.39544582 125 153 190
245927.05133057 3357595.62786865 15.59042263 47 48 52
245915.65454102 3357597.84436035 14.51737499 159 161 158
245939.00781250 3357596.53363037 15.22949696 132 158 183
245926.43518066 3357596.54132080 15.67197132 42 45 52
245938.96734619 3357595.04895020 14.50657940 121 111 102
245915.38543701 3357598.34600830 14.49466705 90 89 85
245939.58135986 3357597.12310791 14.34624195 52 57 63
245915.62646484 3357596.58251953 14.68642044 242 244 239
245942.50579834 3357597.37017822 14.26292324 120 138 90
245941.53173828 3357595.65368652 14.44258022 88 91 96
245941.50836182 3357595.00231934 14.53177261 112 112 110
245926.09503174 3357595.93859863 15.93447971 62 67 71
245941.96374512 3357595.61163330 14.56092644 139 142 131
245928.85089111 3357597.07434082 15.37099648 55 67 79
245939.10650635 3357596.76940918 15.06439877 98 112 113
245942.41015625 3357595.71051025 14.75906181 93 104 106
245914.56719971 3357597.82080078 14.53678513 177 179 176
245940.81671143 3357595.99316406 14.24917603 70 82 80
245938.13354492 3357596.79974365 14.94873810 127 136 151
245941.38482666 3357596.85736084 14.34212112 43 55 45
245939.15032959 3357596.41961670 14.47963524 128 130 116
245916.73846436 3357597.12255859 14.62522507 177 178 180
245926.68011475 3357597.96673584 14.69158459 89 129 33
245913.69317627 3357598.56396484 14.55771637 184 185 171
245941.43078613 3357596.59271240 14.52851486 93 99 99
245942.36254883 3357595.60180664 15.17558861 65 74 91
245942.30621338 3357595.59063721 15.24296284 190 207 227
245939.23260498 3357595.91595459 15.30434608 229 253 255
245929.61682129 3357597.44464111 14.41156006 61 68 74
245940.68389893 3357596.33605957 15.00780678 49 62 52
245927.06188965 3357595.90362549 15.95067787 65 73 76
245941.10565186 3357596.40844727 14.88957882 53 71 45
245937.55871582 3357595.39636230 14.58647728 229 230 235
245928.13299561 3357596.04785156 15.64003944 51 68 88
245939.90222168 3357596.19378662 14.25165844 169 165 164
245925.86309814 3357597.79718018 14.46322727 197 196 150
245939.38488770 3357595.33972168 15.11560154 170 171 155
245925.86206055 3357597.24700928 15.22702980 37 43 39
245940.23571777 3357595.90277100 15.62856007 17 27 39
245939.91760254 3357595.70635986 14.49527073 128 140 128
245916.13238525 3357597.29016113 14.58319664 172 173 177
245941.13256836 3357595.80676270 14.37181854 112 121 120
245926.04461670 3357597.21087646 15.38687229 26 36 27
245940.83575439 3357595.36621094 14.97225189 101 112 114
245927.75805664 3357596.11962891 15.75764847 31 48 58
245926.45751953 3357595.52160645 15.06058311 92 86 88
245922.35858154 3357596.22851563 14.49486828 211 204 194
245941.72015381 3357595.45751953 15.39004898 26 40 51
245927.33007813 3357595.86181641 15.83911610 70 79 86
245940.07293701 3357596.78112793 14.82625771 60 75 68
245926.75292969 3357597.50213623 14.67048168 56 62 60
245938.28967285 3357595.09594727 14.84459686 102 114 126
245917.69067383 3357596.99963379 14.69052124 56 61 67
245941.58026123 3357595.34185791 14.72660351 114 116 113
245913.35986328 3357597.37707520 14.66322708 172 181 180
245939.93157959 3357595.28405762 14.84350681 185 195 197
245929.18127441 3357597.26989746 14.89385700 8 18 9
245928.94104004 3357597.22326660 15.24081421 23 30 36
245924.51348877 3357597.92926025 14.48456192 198 189 146
245915.33465576 3357596.99597168 14.73366833 48 52 55
245928.84204102 3357596.59857178 15.47891140 46 58 70
245938.68792725 3357595.69897461 14.42743492 196 195 191
245926.43078613 3357595.53662109 15.29003429 32 32 32
245926.57415771 3357595.74810791 15.79434586 26 31 34
245926.52770996 3357595.53710938 15.31378937 32 32 34
245940.52789307 3357595.54455566 15.65020561 65 82 100
245939.09826660 3357596.64654541 14.89900303 84 92 95
245941.21612549 3357595.89703369 14.80142212 63 77 64
245929.74096680 3357596.10046387 15.07193375 110 123 132
245938.54541016 3357595.10150146 15.06161118 160 172 186
245914.04766846 3357596.82818604 14.83976746 205 200 197
245925.94036865 3357595.72338867 15.79279137 70 8 23
245940.70812988 3357595.63256836 14.52782345 74 78 81
245914.35253906 3357597.49047852 14.56729984 190 194 193
245940.49804688 3357595.67535400 14.49672699 27 31 34
245939.44378662 3357596.00775146 14.32501888 172 173 165
245913.43328857 3357596.97253418 14.79806423 243 242 237
245938.94934082 3357596.85797119 14.69283104 49 54 47
245929.57287598 3357596.23583984 15.18482685 27 40 57
245925.42077637 3357596.67950439 15.21109104 36 38 50
245928.30694580 3357597.02276611 15.37596512 34 51 61
245942.35778809 3357595.56188965 14.63487339 91 103 103
245941.84826660 3357596.72375488 15.20652580 98 108 110
245916.34423828 3357598.07232666 14.55195904 161 162 166
245939.67767334 3357596.38549805 15.62495518 173 189 212
245926.62683105 3357597.01782227 15.42503262 12 18 14
245926.29809570 3357597.95251465 14.68780613 109 149 50
245940.65173340 3357595.21289063 15.39016342 8 13 17
245926.90728760 3357595.55712891 15.05196667 44 46 45
245927.01281738 3357596.39331055 15.61479092 35 44 49
245941.48785400 3357596.96612549 14.31937790 49 59 51
245939.28253174 3357595.27435303 14.74298286 255 255 255
245941.07470703 3357595.11157227 14.66540813 97 99 98
245917.81359863 3357597.62536621 14.55088139 70 75 78
245929.60241699 3357595.76190186 14.97578716 58 66 68
245917.47222900 3357596.41491699 14.67998791 107 102 99
245925.60070801 3357597.15362549 14.96709061 32 31 26
245942.00048828 3357596.98034668 14.21834660 67 77 78
245929.46936035 3357596.61285400 15.14924335 26 39 58
245940.44415283 3357597.42987061 14.32547569 39 55 28
245940.37744141 3357596.44464111 15.09313297 118 125 107
245928.04547119 3357595.89990234 15.76550865 50 67 75
245913.59338379 3357597.07867432 14.76891899 97 102 108
245927.56274414 3357596.56750488 15.50125217 42 58 74
245925.34332275 3357598.05285645 14.65211582 113 143 53
245927.11444092 3357597.10870361 15.26518917 49 56 48
245927.50262451 3357596.69244385 15.40894413 37 51 64
245925.72509766 3357597.19830322 15.25052452 47 49 44
245939.62127686 3357595.77380371 15.09081936 144 149 119
245927.79473877 3357595.51538086 14.78361988 89 88 83
245941.62072754 3357596.76434326 14.54109001 79 81 76
245928.51660156 3357595.61474609 15.39501381 51 55 54
245941.30316162 3357595.38183594 15.51618481 8 16 27
245925.35015869 3357595.99938965 14.85485268 213 198 193
245914.34924316 3357598.24786377 14.55718231 175 178 171
245941.15740967 3357596.55194092 14.94701767 87 100 82
245939.77178955 3357595.44952393 14.85240841 29 32 37
245913.21649170 3357598.55999756 14.53952026 180 177 160
245941.48016357 3357595.82958984 15.43262959 19 33 42
245940.64434814 3357596.36456299 15.02413559 36 49 40
245916.23321533 3357597.44219971 14.55973530 164 165 167
245940.82623291 3357596.14703369 14.96930790 62 74 64
245942.26684570 3357595.29089355 14.54393005 58 66 69
245941.21600342 3357595.48944092 14.58633232 174 178 179
245927.64544678 3357596.27154541 15.67617702 40 56 71
245928.94647217 3357597.46838379 14.69704342 58 64 62
245929.73498535 3357596.10968018 15.08440113 110 123 132
245915.77941895 3357597.85113525 14.51990986 165 167 166
245942.09277344 3357595.54846191 14.57872677 144 144 134
245937.31054688 3357595.97619629 14.46486378 202 195 189
245940.94061279 3357595.20965576 15.10694599 103 109 121
245926.20861816 3357595.54168701 15.40801716 35 37 36
245916.66613770 3357597.52398682 14.59260368 185 187 182
245939.58160400 3357596.09686279 15.07556343 114 125 82
245926.07818604 3357596.96746826 15.74440956 25 11 8
245938.32379150 3357596.60803223 15.02002525 109 129 154
245925.92639160 3357595.57055664 15.36810398 55 56 51
245938.46435547 3357596.80090332 14.67544365 107 112 106
245927.89276123 3357597.47674561 14.96331024 40 42 41
245929.50073242 3357596.66687012 15.16148567 25 38 57
245914.40148926 3357596.75402832 14.79317570 234 233 229
245941.30255127 3357595.53137207 14.53428555 129 137 140
245941.69561768 3357596.32885742 15.37101269 22 36 47
245925.39862061 3357596.14837646 15.23630714 92 101 110
245939.50030518 3357595.39288330 15.10350704 179 180 162
245938.66381836 3357595.78308105 14.47521687 198 198 186
245928.53289795 3357595.58648682 15.23896599 36 37 32
245942.39868164 3357595.65728760 14.87545681 72 79 87
245940.87780762 3357596.69970703 15.31892014 32 32 30
245927.07714844 3357595.54687500 14.93445683 51 50 48
245941.06433105 3357596.32470703 14.86936855 47 65 43
245939.11297607 3357596.09466553 14.82943058 192 194 173
245914.72625732 3357597.64361572 14.53186226 188 192 191
245935.97521973 3357595.35650635 14.31435299 205 197 194
245941.92724609 3357595.50280762 14.59819794 110 119 116
245939.30169678 3357596.14239502 14.94862556 109 118 75
245939.45593262 3357596.20422363 14.34963131 134 138 124
245925.47369385 3357595.94470215 15.50574875 160 160 170
245929.66644287 3357597.03643799 14.90459633 18 28 30
245940.79602051 3357596.93481445 14.53439331 39 43 46
245914.29461670 3357596.44616699 14.74120522 168 169 171
245927.06896973 3357597.96606445 14.65846825 87 109 37
245912.90258789 3357597.79034424 14.55437946 186 186 178
245941.15441895 3357595.39227295 14.67767811 191 197 197
245937.72442627 3357595.16125488 14.59347534 217 216 221
245917.33990479 3357597.56787109 14.76524162 136 148 160
245927.93511963 3357596.49035645 15.75742340 38 54 67
245938.51007080 3357596.66540527 14.55348682 125 128 121
245940.43170166 3357595.51232910 15.04192924 127 132 126
245938.77862549 3357597.12829590 14.48075676 63 68 72
245939.60217285 3357595.25274658 15.29089737 136 138 135
245938.71459961 3357595.16058350 15.18410206 177 193 206
245926.31561279 3357597.62268066 14.54430103 153 150 135
245916.65399170 3357596.91821289 14.65527248 205 206 208
245940.52532959 3357595.87567139 15.05430412 104 112 101
245938.42944336 3357595.17596436 14.62219524 134 137 142
245939.56713867 3357595.70263672 15.09163189 162 165 138
245928.07855225 3357597.75726318 14.59177589 24 39 18
245928.60919189 3357597.53521729 14.61550426 56 60 59
245942.52532959 3357596.99096680 14.16225529 89 98 105
245939.38586426 3357596.06018066 15.41592121 52 86 124
245915.42407227 3357597.00433350 14.72435188 67 72 75
245939.37512207 3357596.62170410 14.58867264 111 117 113
245926.70532227 3357596.26000977 15.76802540 28 35 41
245927.60986328 3357595.82006836 15.70655537 35 46 52
245942.33111572 3357595.99444580 15.24110508 192 210 230
245925.42224121 3357596.47265625 15.35992432 105 127 168
245940.17999268 3357595.43188477 15.62775230 132 150 172
245913.97656250 3357597.11352539 14.75214863 43 43 51
245925.41308594 3357596.14111328 15.31118965 45 61 77
245938.84490967 3357596.02569580 15.27786446 99 141 181
245926.60504150 3357597.23199463 15.04447365 18 25 17
245937.36828613 3357596.42749023 14.50413132 203 196 188
245914.27416992 3357598.45715332 14.56496143 171 167 156
245917.36846924 3357596.79138184 14.96982861 159 168 183
245927.93719482 3357595.60711670 15.48613644 94 95 99
245939.09710693 3357595.70721436 14.39908218 193 195 190
245941.88513184 3357595.19793701 15.30059719 173 191 211
245940.50366211 3357595.17486572 14.72039795 106 110 111
245940.68444824 3357595.98175049 15.02790260 85 95 86
245915.33514404 3357597.55688477 14.56103420 163 167 166
245940.75396729 3357595.09716797 14.70285702 93 94 88
245926.84100342 3357596.29821777 15.70752430 36 43 49
245937.69622803 3357596.84619141 14.53416538 159 158 153
245913.89978027 3357598.19439697 14.56130695 171 173 168
245941.19726563 3357595.55828857 14.85763073 93 104 100
245929.31439209 3357597.16748047 15.23816204 220 229 244
245937.73760986 3357596.06298828 14.86100292 212 219 229
245927.30657959 3357596.60900879 15.41523838 44 56 68
245927.94842529 3357595.53100586 15.30027866 39 41 40
245925.31121826 3357595.95184326 14.76109695 213 200 192
245928.03417969 3357596.46643066 15.75159073 28 44 57
245926.23150635 3357595.57055664 15.56761074 32 36 37
245937.75305176 3357595.64733887 14.93127346 238 237 242
245938.84796143 3357597.12792969 14.48804379 56 64 66
245935.77478027 3357595.36767578 14.31863689 207 198 193
245940.66717529 3357596.68542480 14.66419125 56 69 62
245939.18200684 3357596.46789551 14.50597382 133 134 118
245913.99633789 3357596.52893066 14.80852699 199 201 200
245915.97393799 3357598.53265381 14.59438324 138 141 124
245927.74450684 3357597.28387451 15.23217201 18 24 22
245937.52954102 3357595.36505127 14.52830505 224 224 226
245923.89593506 3357596.25903320 14.48319912 213 206 196
245939.77972412 3357596.59271240 14.57466602 144 158 145
245927.85375977 3357595.57916260 15.45637226 44 45 47
245925.47589111 3357596.93249512 15.41816998 52 47 51
245939.28527832 3357595.17340088 15.22365379 171 166 162
245930.23553467 3357595.62207031 14.39883709 198 195 186
245938.50598145 3357597.31628418 14.35565376 176 167 152
245925.26220703 3357597.56842041 14.43974113 200 192 173
245927.06365967 3357597.51275635 14.61124134 54 65 61
245926.78216553 3357596.15075684 15.86214542 33 38 42
245925.48071289 3357595.73541260 15.27459240 156 155 161
245926.02850342 3357597.26660156 14.68888760 75 75 65
245942.32812500 3357595.38995361 14.76048088 102 108 108
245928.98687744 3357596.28930664 15.38641834 65 82 100
245937.67950439 3357595.34735107 14.86539459 213 216 223
245916.98986816 3357596.78430176 14.86856556 212 217 220
245924.38446045 3357598.11224365 14.59120560 120 139 58
245939.12945557 3357597.31884766 14.34181499 50 58 45
245927.44128418 3357595.55560303 15.19882488 43 44 48
245925.03631592 3357597.34173584 14.46233559 209 200 185
245938.40112305 3357595.11297607 15.03308392 159 172 191
245940.70843506 3357597.07379150 14.46835327 58 67 66
245941.57824707 3357596.80841064 15.06147861 47 57 49
245926.86383057 3357597.19903564 15.03404427 39 41 38
245941.42303467 3357596.09722900 14.34219646 158 160 155
245926.64947510 3357597.58892822 14.63593006 60 62 57
245937.48907471 3357595.72027588 14.61109829 173 174 179
245941.46978760 3357596.25659180 14.56736469 157 162 142
245937.58984375 3357596.51147461 14.81489086 118 119 121
245928.91613770 3357596.44964600 15.42919827 62 76 89
245940.76190186 3357595.92852783 15.00227737 81 93 83
245939.09954834 3357596.64453125 14.60787773 239 247 232
245940.52929688 3357595.48895264 15.63569546 110 135 157
245940.15490723 3357595.77581787 15.08000565 132 136 122
245929.41052246 3357596.05767822 15.26265621 35 50 71
245937.77587891 3357596.74737549 14.90999317 131 136 142
245939.54107666 3357597.06951904 14.43149281 48 56 59
245938.53027344 3357595.83782959 15.17031384 123 142 174
245916.45312500 3357598.31146240 14.56541920 149 151 150
245927.04547119 3357597.12322998 15.22689438 31 38 31
245940.34149170 3357597.08081055 14.52577877 56 66 65
245942.57861328 3357595.23150635 14.23340797 134 134 134
245925.86248779 3357597.21075439 14.94604492 73 74 68
245927.85717773 3357597.55346680 14.67916965 52 56 57
245938.82147217 3357595.86413574 14.65427303 214 214 204
245915.63415527 3357598.03729248 14.48315430 156 158 155
245927.07592773 3357597.93005371 14.63402176 91 111 42
245915.84790039 3357596.54772949 14.63024807 244 244 242
245913.11468506 3357597.47448730 14.59980106 190 192 187
245927.55523682 3357595.52209473 14.80626488 83 76 70
245939.46313477 3357595.80444336 14.35559654 198 200 179
245914.43914795 3357596.84991455 14.79420757 157 154 149
245939.59960938 3357595.50622559 15.55698681 74 98 132
245940.56555176 3357595.71997070 14.44920540 34 39 42
245939.68652344 3357596.26116943 14.32109070 145 144 142
245916.56896973 3357596.84045410 14.66689873 200 201 203
245940.99151611 3357595.46112061 14.66002560 154 154 156
245941.17266846 3357595.86621094 14.35197735 121 130 129
245940.68310547 3357596.31011963 14.28887558 33 39 39
245938.14672852 3357596.95019531 14.50574684 85 85 83
245929.10205078 3357597.50244141 14.65032482 62 67 63
245940.63537598 3357595.27258301 15.52667046 33 42 49
245928.55462646 3357597.79180908 14.54465199 46 56 45
245938.83984375 3357596.13653564 14.64973354 188 191 174
245941.56927490 3357595.33361816 15.43068123 21 31 41
245938.48461914 3357595.44171143 15.24018192 124 149 171
245925.98028564 3357596.51971436 15.94483662 27 32 36
245938.77606201 3357596.60046387 14.72259903 130 132 131
245940.02941895 3357595.65850830 15.08229160 142 144 130
245942.22430420 3357597.35437012 14.26922894 43 62 34
245942.24548340 3357596.60906982 15.00712585 58 62 65
245931.74963379 3357595.54779053 14.39188480 198 195 186
245925.93536377 3357596.64831543 15.86621666 51 54 61
245939.57788086 3357595.41827393 14.79040527 58 65 73
245927.66339111 3357595.54663086 14.98136330 40 39 35
245942.34796143 3357595.54595947 14.60677052 91 101 102
245940.64147949 3357597.03155518 14.57622433 55 61 61
245928.75408936 3357597.25909424 15.16822624 27 33 33
245939.42395020 3357597.11541748 14.42950726 54 62 65
245927.88031006 3357596.46166992 15.74168587 30 44 57
245929.04156494 3357596.76733398 15.28283691 53 66 82
245939.31091309 3357595.38208008 15.34028530 116 150 187
245939.21795654 3357596.11132813 14.89563847 151 156 126
245928.89593506 3357596.99450684 15.35754967 46 59 75
245938.73645020 3357596.51812744 14.52445984 222 223 215
245916.27526855 3357596.51116943 14.67910194 215 226 228
245925.47796631 3357595.68322754 15.03540611 234 232 235
245940.90490723 3357596.47265625 14.31285667 98 104 102
245925.99377441 3357595.96105957 15.92179775 103 83 92
245925.72454834 3357597.19232178 15.38805389 45 52 45
245916.30261230 3357597.50476074 14.55224705 170 172 171
245928.60455322 3357595.56005859 14.84428883 48 47 43
245929.63092041 3357595.71441650 14.63448334 77 76 81
245939.95568848 3357596.64959717 14.65202713 119 130 113
245939.76477051 3357596.01226807 14.26920986 153 156 149
245939.06103516 3357596.06683350 14.46157551 199 200 195
245929.13763428 3357596.08789063 15.32571125 40 58 78
245939.67211914 3357596.76013184 14.64060593 43 53 45
245917.00842285 3357597.65008545 14.65972710 183 191 194
245914.56420898 3357596.54986572 14.67054653 243 245 244
245926.63714600 3357597.34381104 14.78561020 65 69 68
245941.17401123 3357597.12799072 14.28922558 71 77 75
245917.49145508 3357597.13354492 14.84227371 133 151 165
245928.80297852 3357595.55218506 15.07139683 59 59 59
245940.48944092 3357596.38830566 15.64946270 80 99 114
245929.63897705 3357595.82440186 15.04991150 73 84 90
245929.08770752 3357597.59582520 14.61384678 72 74 73
245915.54931641 3357597.71569824 14.53759384 161 165 164
245940.41607666 3357595.99963379 15.64043617 23 33 45
245929.55535889 3357596.27502441 15.18096352 27 40 56
245928.69030762 3357597.19232178 15.34400940 21 26 29
245941.01025391 3357595.16326904 15.23916435 117 123 135
245915.17260742 3357598.25427246 14.49547577 161 162 157
245937.26190186 3357596.18591309 14.44426250 205 198 190
245919.79095459 3357596.46191406 14.51348495 203 194 185
245925.39678955 3357596.41986084 15.19875336 59 75 108
245915.76281738 3357598.40777588 14.51048470 99 94 91
245915.04864502 3357597.90850830 14.50724697 173 173 171
245928.26092529 3357596.32751465 15.50591469 32 55 73
245915.20324707 3357596.45111084 14.65790558 243 245 242
245940.22473145 3357596.45489502 14.48304653 144 151 144
245925.36633301 3357596.02954102 14.95753574 138 126 126
245940.24591064 3357595.27618408 15.51052761 15 23 26
245916.71368408 3357597.51806641 14.59780598 171 173 168
