246123.18579102 3357711.36547852 14.11160564 28 36 21
246117.19531250 3357713.64978027 14.03323650 45 33 19
246118.55541992 3357711.85491943 12.65813065 85 86 78
246123.23229980 3357711.06506348 13.18277836 9 15 5
246125.83911133 3357709.25665283 13.06248569 20 33 16
246124.90222168 3357708.32800293 12.96773720 10 18 20
246125.62145996 3357708.55053711 13.13341618 12 16 17
246122.48962402 3357709.93554688 13.84114933 32 37 31
246119.08703613 3357712.73065186 14.23263550 201 192 183
246129.06103516 3357707.43951416 11.95182419 34 38 37
246120.76367188 3357710.51660156 12.73594952 93 94 88
246123.78979492 3357710.82019043 11.59570599 54 65 61
246122.20397949 3357711.29516602 14.21970844 217 203 190
246128.92980957 3357707.57830811 12.10715675 25 31 27
246123.11901855 3357710.53393555 11.99760246 32 37 33
246120.53503418 3357710.61700439 12.95734406 106 105 101
246118.01220703 3357712.60272217 14.20041084 214 207 197
246126.23034668 3357708.73583984 13.20821285 88 92 93
246127.90893555 3357706.74163818 12.55817032 17 21 24
246123.91284180 3357711.27301025 12.77458096 30 41 27
246118.97253418 3357711.57305908 13.83078575 12 12 10
246120.96020508 3357710.40502930 13.85716438 14 13 8
246116.90234375 3357712.72863770 13.17633247 24 26 25
246119.26196289 3357712.79833984 14.22628403 248 242 230
246123.77844238 3357710.43707275 11.55945587 79 81 76
246123.20971680 3357710.87176514 12.07297611 57 62 56
246121.08337402 3357712.50787354 14.10506248 72 65 57
246121.55505371 3357712.29217529 14.11447906 16 14 2
246128.88732910 3357707.18780518 12.37493134 23 25 24
246119.33996582 3357712.33148193 14.24337387 210 203 193
246123.20568848 3357710.15612793 11.67805004 68 70 69
246119.96093750 3357711.85241699 14.25141335 158 155 148
246127.50109863 3357707.47149658 12.68616199 47 49 48
246128.31457520 3357705.97442627 12.08434296 9 14 18
246120.18298340 3357710.84637451 13.77307129 10 11 13
246120.28967285 3357710.73645020 12.81220341 90 92 79
246123.08044434 3357710.86138916 13.43019009 53 62 57
246116.71813965 3357714.01623535 12.38391399 75 74 70
246120.38073730 3357711.17047119 14.18365669 241 232 227
246126.67321777 3357707.12835693 13.09022522 25 30 33
246118.71374512 3357712.03826904 14.15486431 183 184 188
246126.78271484 3357706.91760254 12.89051056 40 46 46
246122.59802246 3357710.14044189 13.80601883 23 30 23
246118.54821777 3357711.96380615 13.36945724 14 17 22
246124.00451660 3357711.21118164 12.13587189 22 34 22
246126.95190430 3357706.96795654 12.84206772 22 28 28
246125.39501953 3357708.64843750 13.05871582 14 20 20
246122.96069336 3357710.63043213 13.59949493 35 46 40
246121.56701660 3357710.97900391 14.24162292 207 200 184
246129.04370117 3357707.63293457 11.78873539 36 40 39
246119.37292480 3357712.12115479 14.23892403 218 209 200
246118.04150391 3357712.10577393 12.51795769 75 74 70
246122.20361328 3357710.74383545 14.24731827 236 229 211
246127.58642578 3357706.71160889 12.62704659 8 13 16
246120.42736816 3357711.21362305 14.21887684 212 202 200
246124.72277832 3357708.29162598 12.70829010 35 35 37
246119.92163086 3357712.44232178 14.20895004 235 227 216
246128.79296875 3357706.53643799 11.88065243 59 69 71
246123.38403320 3357711.12158203 12.54833984 31 34 27
246127.72033691 3357706.03039551 12.20786572 20 21 25
246117.89196777 3357712.29101563 13.36396027 8 12 15
246122.84338379 3357709.94342041 11.81678104 55 55 57
246117.77148438 3357712.28125000 12.07519150 90 89 84
246128.75036621 3357706.40142822 11.82151890 13 23 24
246128.36218262 3357708.37506104 12.04657555 30 41 25
246123.62597656 3357711.20764160 12.52880764 23 31 20
246123.38610840 3357711.40490723 13.90485954 33 44 28
246127.05786133 3357706.98632813 12.80704117 22 28 28
246127.54101563 3357706.17803955 12.06899452 41 42 46
246118.37377930 3357711.90966797 13.86134434 18 22 25
246128.64147949 3357706.31146240 12.31178284 71 82 86
246122.69152832 3357710.25634766 13.99028969 40 45 38
246129.15039063 3357707.53515625 11.76838970 40 42 41
246126.29553223 3357707.06402588 12.65592098 57 66 71
246127.22229004 3357706.44958496 12.34848213 16 20 21
246120.40307617 3357711.54199219 14.26593971 183 179 170
246120.39221191 3357710.70886230 13.51073742 17 17 15
246124.90405273 3357708.33300781 12.96916199 10 18 20
246129.17968750 3357707.20721436 11.87008953 33 37 38
246119.67504883 3357711.43731689 14.11339188 249 245 244
246124.48498535 3357708.92065430 11.57807064 129 133 132
246125.47009277 3357707.65509033 12.66254711 57 65 67
246127.66906738 3357707.20117188 12.62742615 41 42 44
246128.32568359 3357706.13439941 12.46425915 28 35 45
246122.63977051 3357711.26940918 14.17952347 182 170 156
246118.49804688 3357711.91088867 13.69300938 16 21 24
246123.97045898 3357711.13867188 11.80913830 20 31 17
246126.87731934 3357708.33905029 13.20670223 35 45 37
246122.87438965 3357711.17907715 14.17564964 178 170 157
246123.60498047 3357709.80297852 11.53003883 186 186 178
246128.60559082 3357706.98449707 12.37788582 63 65 64
246123.56457520 3357711.18994141 11.72474384 29 36 29
246120.18554688 3357711.75219727 14.26150799 195 191 190
246120.71765137 3357710.51654053 13.18686295 21 20 18
246121.93701172 3357711.18841553 14.23478985 230 221 206
246123.05908203 3357710.66491699 12.64592838 85 83 71
246124.23461914 3357710.87921143 11.65749741 26 36 28
246125.66149902 3357708.20111084 13.18843937 13 17 20
246129.39318848 3357707.22497559 11.69840145 45 51 51
246128.55725098 3357706.19342041 12.24210072 16 24 27
246122.14062500 3357711.57379150 14.17694473 193 184 167
246117.82885742 3357712.27203369 13.68549156 15 19 22
246127.28613281 3357706.42730713 12.37046432 14 18 21
246128.21997070 3357707.97729492 12.28036594 43 49 39
246120.00573730 3357711.01654053 13.97292614 173 170 165
246123.90991211 3357710.42535400 11.52933407 122 122 112
246122.86132813 3357710.01031494 11.94567871 43 45 44
246126.68615723 3357708.25415039 13.16478157 6 10 9
246127.30383301 3357707.68707275 12.87201881 10 19 18
246128.40930176 3357707.85418701 12.19929409 25 31 27
246125.13586426 3357707.82116699 12.49297905 8 13 17
246116.49572754 3357712.96221924 12.88490582 69 71 70
246117.12341309 3357713.85137939 13.08458996 7 26 24
246121.98388672 3357709.76495361 13.79224777 38 37 35
246116.99035645 3357712.73156738 12.92828560 25 27 26
246123.49719238 3357711.49572754 13.94678307 67 69 64
246120.94921875 3357710.41320801 13.85122681 11 10 6
246118.98181152 3357713.12207031 14.21810722 205 188 180
246116.77404785 3357712.94903564 13.76357174 114 116 113
246123.20031738 3357710.09069824 11.64809608 71 73 72
246125.66015625 3357707.44726563 12.38206387 16 20 23
246118.99523926 3357711.58410645 13.64927578 8 10 9
246119.65966797 3357711.29119873 13.34613609 6 7 12
246123.00488281 3357710.78948975 13.67580223 12 21 16
246117.37866211 3357712.92626953 14.14839172 250 241 234
246120.33972168 3357710.71319580 12.82579613 92 93 85
246121.29638672 3357710.16772461 13.04924488 112 109 102
246117.31140137 3357713.10601807 14.17552185 224 215 200
246122.01086426 3357709.76147461 13.16513348 59 48 46
246121.44714355 3357710.11175537 13.12347412 42 35 29
246117.08605957 3357712.66180420 13.58594894 14 16 15
246128.27294922 3357708.15942383 12.19021416 33 41 28
246128.11230469 3357706.85424805 12.53097248 18 23 26
246129.10668945 3357707.55084229 11.78612137 41 43 42
246121.83801270 3357710.28649902 14.16841316 237 232 228
246122.40710449 3357709.76049805 13.68210316 26 28 23
246117.51391602 3357712.39611816 12.21077061 22 24 23
246126.08007813 3357707.99670410 13.18972874 7 13 13
246117.65295410 3357712.35852051 11.84182739 35 35 33
246116.63659668 3357713.39715576 13.03277969 88 92 95
246121.15576172 3357710.47180176 14.04231167 253 249 238
246126.11352539 3357708.02532959 13.18185043 7 11 12
246126.64794922 3357708.74243164 13.24873924 34 45 28
246122.78845215 3357710.23736572 13.04212093 95 97 84
246126.56188965 3357707.90362549 13.15275288 8 14 14
246123.59960938 3357711.53894043 13.68408585 96 105 88
246121.15319824 3357710.28393555 13.91932583 13 10 3
246118.39868164 3357711.91943359 12.00679970 107 106 102
246120.02551270 3357711.31713867 14.15796757 228 225 216
246129.01416016 3357707.61932373 11.87608528 29 35 33
246122.87597656 3357710.51715088 13.42666531 52 56 55
246116.58361816 3357712.87591553 13.17265320 0 2 1
246119.13366699 3357711.54620361 11.97033215 74 75 69
246123.09887695 3357710.74456787 12.23109341 67 69 55
246120.95043945 3357712.14752197 14.20531845 188 180 161
246119.85974121 3357711.10192871 13.76536942 12 14 13
246125.19506836 3357709.01599121 12.79444504 20 21 23
246119.14392090 3357711.75231934 14.12410069 248 245 238
246126.02282715 3357709.76507568 12.53175259 25 39 24
246121.78625488 3357709.94146729 13.94573307 180 173 165
246129.07177734 3357707.05963135 12.06447983 21 22 24
246128.40991211 3357708.26635742 12.03901863 31 39 28
246122.90258789 3357710.24633789 12.09405041 78 79 71
246123.84619141 3357710.95312500 11.60384655 55 64 63
246125.61486816 3357707.78820801 13.01929379 26 36 37
246125.06616211 3357708.02465820 12.74162102 141 149 152
246118.89611816 3357711.62908936 13.64697456 13 14 18
246128.91674805 3357707.05163574 12.35737038 17 21 22
246125.70129395 3357708.45660400 13.16154385 14 18 21
246120.13684082 3357711.51892090 14.23977852 102 97 93
246125.64550781 3357707.78869629 13.07357788 34 46 46
246124.10192871 3357711.19512939 12.02905941 20 30 19
246118.64868164 3357711.81256104 13.75578117 11 15 18
246128.42773438 3357707.55334473 12.30201054 60 66 62
246125.88659668 3357708.81677246 13.15377140 4 13 12
246125.81359863 3357708.78009033 13.11624622 6 14 16
246120.62316895 3357711.93194580 14.24110699 175 172 165
246119.70922852 3357711.19311523 13.97658253 235 232 225
246127.57690430 3357706.51538086 12.55329323 5 10 14
246129.05493164 3357707.18090820 12.11519527 22 23 27
246122.58984375 3357710.32989502 14.12880325 139 141 127
246125.76623535 3357707.38446045 12.49403763 10 14 17
246118.66540527 3357711.80718994 13.74814701 11 15 18
246123.09619141 3357711.07464600 14.07575512 84 87 76
246122.10034180 3357709.97546387 14.09479523 255 255 255
246125.63061523 3357708.57214355 13.12878609 11 17 17
246129.36279297 3357706.79510498 11.69076061 62 68 68
246123.36364746 3357711.10424805 12.51397705 44 46 41
246125.81604004 3357707.46826172 12.69400501 92 102 104
246118.87268066 3357711.60656738 13.03784943 74 76 73
246128.97644043 3357707.01245117 12.28869534 7 8 12
246129.44860840 3357707.24230957 11.68246365 47 53 53
246128.43493652 3357706.16076660 12.38967514 21 34 42
246119.95434570 3357712.46057129 14.20821762 216 208 197
246120.28417969 3357710.76385498 13.75789070 10 12 11
246119.69567871 3357711.11370850 13.00589466 102 102 100
246118.36730957 3357711.95532227 12.48714733 77 78 70
246120.92724609 3357710.59936523 14.03569317 254 247 231
246127.94921875 3357706.87567139 12.55618191 29 33 36
246118.48120117 3357711.85363770 13.92970276 20 24 25
246119.42504883 3357711.45196533 14.02614784 232 226 214
246127.97583008 3357708.23596191 12.56947041 31 46 23
246122.26770020 3357710.32965088 14.23848915 223 217 205
246119.84057617 3357713.05993652 14.13926983 212 198 185
246121.37622070 3357710.10443115 13.00876045 175 171 162
246125.17297363 3357707.80352783 12.52104187 9 14 18
246120.32043457 3357711.08178711 14.11598396 238 233 229
246117.71801758 3357713.18640137 14.24271965 251 237 226
246128.36328125 3357706.15600586 12.44772434 32 41 50
246123.19116211 3357710.94616699 12.45781708 61 62 54
246118.19189453 3357712.05126953 12.25173473 73 74 69
246120.18823242 3357711.45935059 14.23446751 223 219 216
246123.03308105 3357710.57666016 12.75607109 74 74 62
246117.84704590 3357712.99206543 14.25348186 212 204 191
246117.83923340 3357713.28613281 14.24947071 201 189 175
246118.18041992 3357712.05798340 12.26171303 74 75 70
246118.20043945 3357712.04321289 13.10407734 6 8 3
246122.40332031 3357709.72601318 13.50229263 33 35 30
246121.73205566 3357709.96545410 13.16366768 57 54 47
246127.12890625 3357706.60528564 12.64972305 21 25 28
246120.41394043 3357710.68981934 12.69587135 90 92 81
246118.48266602 3357711.90423584 12.47499275 77 80 71
246129.04345703 3357706.32427979 11.62325096 66 70 73
246123.61315918 3357711.23565674 12.84019375 26 37 23
246123.35107422 3357711.13311768 12.10436344 42 45 38
246118.81359863 3357711.73474121 14.01352024 115 115 115
246120.98461914 3357710.69738770 14.11843681 224 220 209
246123.33715820 3357711.31164551 13.76513863 38 42 27
246123.55163574 3357711.19964600 12.21591759 25 32 25
246119.88793945 3357711.31628418 14.10705853 252 248 249
246118.60571289 3357711.88629150 14.02602959 84 90 88
246123.09509277 3357710.71911621 12.90228176 49 50 42
246119.13439941 3357711.66540527 14.06623554 255 253 241
246127.73193359 3357707.48492432 12.61478329 48 48 46
246120.79541016 3357711.45214844 14.26371861 208 199 184
246119.84375000 3357710.99475098 12.46153069 84 85 80
246123.30187988 3357711.51892090 14.16081047 30 42 20
246120.18151855 3357710.84295654 13.82565689 13 15 14
246125.95947266 3357708.05297852 13.18671989 8 9 13
246117.59851074 3357713.57122803 14.22746849 221 204 184
246122.24658203 3357711.55371094 14.16956997 186 176 166
246116.60900879 3357713.51580811 12.94367218 10 14 13
246121.38757324 3357710.58752441 14.18804550 226 222 213
246119.08654785 3357711.52532959 13.96166039 50 42 39
246125.60437012 3357708.71856689 13.07865143 14 20 20
246123.81396484 3357711.23303223 12.52044868 21 33 19
246122.58178711 3357710.27362061 14.09640121 120 124 109
246128.63476563 3357705.99017334 11.65610123 58 62 65
246121.23876953 3357710.30163574 13.96882057 229 217 203
246126.14514160 3357707.38769531 13.06345654 14 23 20
246120.61743164 3357710.60894775 13.49414635 30 30 30
246127.84802246 3357706.14141846 12.50640011 53 60 68
246121.77844238 3357710.46643066 14.22416878 239 232 226
246120.85278320 3357711.72534180 14.24887562 205 193 181
246128.70751953 3357706.68963623 12.38967133 58 63 66
246118.17016602 3357712.60876465 14.21586895 220 212 199
246121.29235840 3357710.19464111 13.82535744 35 36 31
246128.12622070 3357707.06018066 12.50310612 72 72 72
246122.41601563 3357709.72613525 13.06704426 96 96 86
246122.36791992 3357709.71832275 13.63235760 46 49 42
246118.45703125 3357711.89581299 13.04879284 22 24 23
246119.06640625 3357712.34564209 14.24524975 255 247 240
246125.48779297 3357707.58471680 12.12558746 21 20 25
246127.91052246 3357707.74450684 12.52501488 60 65 59
246118.17651367 3357712.01776123 12.68633175 79 80 74
246126.95544434 3357707.88000488 13.08836651 9 14 17
246123.09606934 3357710.80517578 12.36575985 74 75 59
246118.07263184 3357712.17352295 13.62721252 13 18 22
246121.77392578 3357710.62915039 14.25983620 227 213 202
246119.27661133 3357711.40100098 13.76933575 15 16 18
246119.12866211 3357711.42962646 12.74342060 73 74 69
246120.62756348 3357710.57928467 12.88874245 101 102 96
246116.92565918 3357713.32250977 13.47615337 56 70 70
246125.60424805 3357707.81939697 13.06568050 35 49 50
246123.38403320 3357711.47662354 14.01857376 42 50 35
246123.14221191 3357710.94128418 13.47875690 56 65 60
246123.43884277 3357711.20080566 12.99910069 34 40 28
246120.26708984 3357712.81536865 14.15394878 202 188 175
246122.21948242 3357710.34008789 14.24014854 219 213 199
246120.30541992 3357712.92773438 14.14690113 60 57 40
246128.44250488 3357706.01293945 11.78962135 28 33 36
246127.91088867 3357708.26922607 12.71237183 32 47 24
246119.65112305 3357713.33618164 14.13414955 95 93 72
246122.55554199 3357709.94073486 13.08498573 92 95 88
246118.58349609 3357712.96606445 14.23648167 216 200 185
246119.58581543 3357711.40637207 14.06701946 255 254 250
246126.76367188 3357707.27264404 13.12240791 0 5 8
246125.52453613 3357707.54718018 12.24178410 15 18 23
246117.59912109 3357712.39788818 13.42158604 73 75 70
246125.40673828 3357707.60870361 12.13567257 25 26 31
246127.92333984 3357707.97351074 12.56112194 27 39 27
246124.12927246 3357711.17413330 11.96914005 20 30 19
246121.06701660 3357710.96551514 14.23763752 224 216 205
246122.85632324 3357710.48461914 13.52688980 51 60 57
246120.40209961 3357710.70550537 13.17879391 19 19 17
246121.21447754 3357710.27331543 13.32083225 15 17 14
246118.21789551 3357713.56115723 14.23011112 197 184 168
246117.81030273 3357712.27258301 11.86124611 71 71 71
246125.86853027 3357708.28173828 13.16449738 10 14 17
246119.06958008 3357711.48919678 13.05789185 41 43 42
246117.20849609 3357712.64593506 11.80231190 77 79 78
246117.27795410 3357712.55358887 12.99137688 8 9 11
246122.47045898 3357710.98187256 14.24598789 195 178 168
246126.67028809 3357707.41394043 13.18453693 4 9 12
246127.87316895 3357706.73651123 12.56093311 15 19 22
246125.78503418 3357709.52453613 12.58273506 31 41 30
246126.05554199 3357708.57373047 13.12497807 5 9 12
246122.19982910 3357709.65173340 13.26548958 167 153 142
246125.60766602 3357707.47283936 12.48711681 12 17 20
246122.75915527 3357710.26287842 13.19485569 21 19 22
246117.41882324 3357712.43249512 12.82101440 101 101 99
246126.29541016 3357707.24871826 12.92213631 13 17 18
246117.62158203 3357712.83380127 14.18798542 216 207 198
246128.28405762 3357706.76715088 12.51038551 42 43 45
246116.82250977 3357713.21118164 13.54324150 28 39 35
246127.08740234 3357706.53173828 12.43037510 23 24 26
246119.79052734 3357711.01794434 12.84284687 91 91 83
246125.27221680 3357707.68292236 12.32613182 24 24 24
246122.79589844 3357711.29400635 14.15990925 207 201 189
246120.91955566 3357710.52288818 13.98517418 223 211 195
246127.04272461 3357707.12750244 12.86996174 19 25 23
246124.05627441 3357711.08001709 11.76920414 17 24 16
246121.34387207 3357711.84283447 14.23424530 233 221 207
246121.75183105 3357710.69152832 14.25845718 213 203 191
246119.84240723 3357711.79772949 14.24511337 222 218 209
246118.08349609 3357712.15850830 13.23190594 14 18 19
246116.68566895 3357713.72625732 12.89711761 11 13 10
246119.63122559 3357711.33868408 13.42974281 10 11 15
246116.90307617 3357712.81750488 13.66302967 5 6 10
246122.48413086 3357709.83215332 13.03196335 96 97 89
246127.95324707 3357707.38171387 12.54145050 54 54 54
246125.96960449 3357708.19702148 13.16497326 8 12 13
246117.27990723 3357712.57513428 11.90293789 31 35 34
246128.62536621 3357706.19696045 11.78195000 24 34 36
246128.15075684 3357707.43530273 12.43687344 65 67 66
246125.60668945 3357709.31860352 12.69989872 10 20 12
246116.84619141 3357713.25170898 13.45999050 20 30 29
246118.74365234 3357711.75408936 12.06382751 92 89 80
246123.24658203 3357711.08215332 13.00726700 60 66 52
246125.99218750 3357709.80712891 12.42586136 12 26 11
246123.93774414 3357709.44299316 11.55708313 131 136 132
246128.19287109 3357707.33258057 12.43698215 66 67 69
246122.92761230 3357710.29772949 12.10688305 96 96 86
246126.90808105 3357706.60949707 12.35742950 30 31 33
246127.47424316 3357708.10791016 12.91752625 13 23 14
246122.30493164 3357710.07305908 14.14709473 221 221 211
246122.91223145 3357710.20983887 12.04086590 57 58 52
246125.61328125 3357709.03125000 13.00144672 4 9 12
246116.73046875 3357712.85186768 13.44396591 21 22 24
246118.92712402 3357711.80352783 14.10010147 247 246 242
246125.38269043 3357708.14990234 13.11782265 132 142 144
246128.73046875 3357706.43505859 12.29713440 21 29 32
246125.27087402 3357708.95562744 12.86312866 13 19 19
246120.39514160 3357711.67138672 14.26587772 194 195 189
246128.24853516 3357706.51892090 12.61087799 4 12 15
246120.54309082 3357710.61981201 13.10417175 41 40 36
246122.50646973 3357709.92535400 13.68974781 33 35 32
246120.18566895 3357712.97875977 14.14815426 98 95 76
246128.91613770 3357707.49633789 12.20335770 45 51 47
246128.86828613 3357706.32836914 11.67486382 51 55 58
246126.69152832 3357706.87640381 12.79509354 30 38 40
246116.78442383 3357712.72235107 13.19171143 33 39 39
246123.10449219 3357710.96746826 13.81835461 11 16 9
246125.51989746 3357708.51019287 13.13388157 19 25 25
246126.45190430 3357709.01263428 13.43600368 21 33 19
246116.59313965 3357712.75836182 13.13008785 2 2 0
246129.07604980 3357707.07214355 12.05747890 21 22 24
246118.23657227 3357712.19586182 14.07923317 229 232 239
246122.47485352 3357711.85400391 14.08709908 17 20 11
246117.76855469 3357712.92199707 14.23963070 216 206 196
246124.55810547 3357708.72369385 11.89784908 194 194 196
246121.75805664 3357710.70233154 14.25830555 230 222 209
246119.96264648 3357711.82513428 14.25125027 174 171 164
246117.50402832 3357712.36596680 12.75334167 79 78 74
246121.19592285 3357710.99005127 14.24449921 225 213 201
246120.46032715 3357711.34533691 14.23538971 227 210 203
246118.12292480 3357712.09820557 13.75534058 19 20 24
246120.65917969 3357711.42993164 14.25529003 253 241 229
246126.21240234 3357708.47338867 13.12436962 5 9 12
246117.95568848 3357712.20697021 13.72435760 16 21 25
246118.11523438 3357712.07690430 13.06706524 12 17 13
246127.82373047 3357706.87652588 12.58781052 24 28 31
246121.95385742 3357710.55798340 14.25200844 214 206 193
246122.97863770 3357710.80749512 14.04535484 69 73 59
246116.84838867 3357712.75915527 12.99734688 16 18 17
246117.85473633 3357712.18084717 12.97266865 72 73 68
246127.38549805 3357706.69689941 12.67048836 12 17 20
246118.36401367 3357713.54492188 14.22353840 222 205 198
246122.99609375 3357710.79278564 13.94673252 40 46 36
246121.50549316 3357710.83819580 14.24546146 224 211 202
246118.45410156 3357711.97998047 14.02167130 146 147 152
246118.04699707 3357712.07312012 12.81507015 72 71 67
246119.52795410 3357711.30798340 13.18840981 36 40 41
246124.17285156 3357710.53503418 11.51860046 149 142 132
246126.12304688 3357709.14367676 13.34097862 21 32 16
246118.95800781 3357712.54345703 14.23707294 211 198 190
246117.95458984 3357712.30340576 14.03011513 154 156 153
246117.80004883 3357712.29559326 13.49423790 9 15 13
246122.30651855 3357709.92297363 14.07883644 193 198 191
246117.66186523 3357712.88409424 14.22534847 232 221 215
246120.49401855 3357710.65509033 13.34911346 24 26 25
246121.24523926 3357710.25683594 13.34580135 18 20 19
246123.58691406 3357710.10626221 11.52515030 176 170 156
246121.72241211 3357710.15515137 14.06162930 255 250 244
246125.27954102 3357708.26922607 13.13435936 118 123 129
246127.48022461 3357706.91821289 12.67632198 18 23 26
246117.85583496 3357713.48358154 14.24821091 203 193 168
246125.40063477 3357708.39453125 13.16163158 14 18 19
246123.32763672 3357709.93969727 11.56409836 154 151 142
246117.30566406 3357712.55267334 11.92599869 32 36 35
246128.32287598 3357708.21435547 12.12732506 29 37 26
246125.20312500 3357709.04803467 12.77809811 18 19 23
246124.31713867 3357710.98132324 11.79426861 15 27 15
246126.30578613 3357709.00378418 13.34257126 25 33 22
246126.34667969 3357707.69342041 13.20757961 8 12 13
246118.53234863 3357712.03411865 14.08981228 240 243 250
246122.97045898 3357710.62518311 13.87795639 8 15 7
246123.43896484 3357711.17663574 12.76208401 31 37 25
246120.36511230 3357710.70361328 12.88913155 99 99 91
246122.19030762 3357710.19250488 14.20229626 226 221 215
246120.54492188 3357710.61987305 13.17194939 21 20 18
246120.25256348 3357711.84826660 14.26027489 197 193 194
246126.42712402 3357709.04101563 13.44823837 24 36 22
246122.39697266 3357711.97802734 14.05296707 1 7 3
246117.45788574 3357712.39031982 12.72191143 83 82 78
246123.05859375 3357710.62432861 12.82432461 54 55 47
246123.43444824 3357711.42022705 13.73219204 27 33 19
246119.17639160 3357711.40283203 12.73723030 75 76 71
246125.67248535 3357709.44763184 12.57951832 21 31 22
246128.27746582 3357707.98944092 12.24940777 42 48 38
246119.41809082 3357711.43133545 13.56968689 19 18 14
246117.65270996 3357713.51013184 14.23404503 235 220 199
246120.32153320 3357711.06286621 14.10660458 238 233 229
246127.94226074 3357707.61456299 12.50783348 73 75 74
246122.87426758 3357710.62811279 14.09308434 63 65 51
246120.91845703 3357712.46978760 14.14611626 222 212 203
246127.82592773 3357707.68780518 12.58326435 65 66 61
246122.44604492 3357711.08001709 14.23686790 200 186 177
246121.98828125 3357709.78875732 13.92070961 47 47 45
246127.73132324 3357708.10369873 12.78441906 27 44 25
246120.27905273 3357712.91998291 14.14812756 102 96 80
246124.70727539 3357708.34777832 12.78932667 21 22 24
246126.10559082 3357709.85717773 12.52465725 10 24 9
246123.07922363 3357710.84027100 13.29316425 28 33 29
246127.77294922 3357708.22540283 12.82847023 29 47 25
246117.28088379 3357712.49023438 12.59917164 83 85 82
246127.34704590 3357706.47796631 12.47832298 12 17 21
246123.63476563 3357710.09240723 11.52061653 179 173 159
246125.83154297 3357709.00921631 13.12846565 77 88 84
246118.01123047 3357712.62609863 14.20685863 215 207 196
246118.68872070 3357711.86419678 13.51062012 6 12 12
246118.99694824 3357712.92608643 14.22889328 231 221 209
246123.83288574 3357709.89508057 11.52873135 144 144 132
246127.85180664 3357706.28521729 12.55784702 8 15 21
246126.00915527 3357709.98992920 12.20489216 18 31 14
246117.00390625 3357713.57849121 13.20944786 91 110 114
246118.09533691 3357713.57202148 14.23566532 193 186 160
246128.51196289 3357707.98602295 12.08036137 25 31 27
246122.48559570 3357709.83386230 13.05002213 96 97 89
246125.08642578 3357708.80151367 12.86395931 21 25 24
246122.71679688 3357710.08911133 12.36022568 104 96 83
246122.98168945 3357710.66058350 13.71293640 9 20 14
246118.81311035 3357712.08111572 14.20420170 244 240 237
246118.82849121 3357711.68688965 13.61577225 35 36 41
246128.84399414 3357706.19396973 11.64900017 58 61 66
246122.46459961 3357709.79980469 13.12491608 82 83 77
246120.58032227 3357711.68914795 14.25463104 123 110 101
246122.83569336 3357710.81982422 14.17588043 177 174 155
246117.95861816 3357712.16546631 12.31854057 67 66 61
246122.23254395 3357711.65887451 14.15380192 207 203 192
246126.03698730 3357709.68652344 12.69492817 24 38 21
246118.18872070 3357712.07733154 13.71316910 19 20 24
246116.80969238 3357714.17321777 12.40835667 74 74 74
246122.16357422 3357709.67126465 13.18893433 173 155 145
246125.78918457 3357708.72247314 13.11727428 5 13 15
246117.97473145 3357713.30670166 14.24547100 246 232 219
246118.12597656 3357712.67462158 14.21360397 227 215 203
246123.09020996 3357710.90020752 13.59727955 19 28 25
246124.92321777 3357707.93597412 12.35201645 27 28 30
246124.78466797 3357708.26922607 12.77330112 21 22 24
246119.27941895 3357711.41564941 12.22713757 76 76 74
246122.70166016 3357710.31585693 14.04613304 44 49 42
246116.88024902 3357713.26696777 13.54614353 30 42 40
246118.63635254 3357711.84313965 13.69050884 6 14 16
246125.96618652 3357709.77502441 12.41963100 14 26 12
246123.39685059 3357711.01806641 11.80857277 38 42 41
246118.90686035 3357712.01141357 14.19683170 247 242 238
246118.44042969 3357711.88836670 12.74233246 95 98 89
246118.35400391 3357712.30773926 14.17417240 191 191 193
246128.92834473 3357706.75140381 11.96125412 64 69 72
246116.83093262 3357712.76226807 12.73403740 70 71 66
246117.14660645 3357713.43664551 14.06553364 183 160 144
246119.03381348 3357712.98156738 14.22619629 218 211 193
246119.78881836 3357711.07171631 13.03170586 121 120 116
246122.53503418 3357709.87786865 12.75573540 99 97 85
246126.47351074 3357707.08294678 12.86593342 19 25 25
246120.74340820 3357711.14099121 14.23130608 216 208 195
246120.30322266 3357711.45977783 14.24599171 112 107 103
246129.41723633 3357707.43481445 11.69353390 43 49 47
246119.40576172 3357711.46093750 13.30491829 10 14 17
246125.41760254 3357707.83441162 12.86757183 11 16 20
246120.92211914 3357710.46020508 13.71299458 137 141 140
246123.43151855 3357710.22174072 11.57433891 72 73 68
246128.37414551 3357706.97668457 12.43917751 65 69 70
246128.48291016 3357706.00646973 11.73435974 51 55 56
246119.83276367 3357712.72094727 14.19355869 214 204 195
246117.27978516 3357713.53918457 14.11494827 212 200 178
246122.35107422 3357710.54992676 14.23620319 215 206 191
246120.24401855 3357710.83532715 13.45267487 7 8 10
246118.71142578 3357711.70428467 12.90269089 75 75 73
246117.10449219 3357713.55670166 13.96929741 22 22 14
246123.15295410 3357710.45947266 11.89681435 41 47 43
246122.92468262 3357710.69854736 14.07999325 63 67 52
246121.81506348 3357711.26702881 14.22839642 228 222 200
246123.32519531 3357711.44268799 14.05192280 33 45 25
246123.54772949 3357711.19860840 12.66556835 26 33 25
246124.52709961 3357708.73449707 11.76238155 151 152 154
246120.79394531 3357711.68579102 14.25348949 203 191 179
246125.63146973 3357709.45922852 12.56331730 12 19 11
246117.98376465 3357712.63830566 14.20594692 213 207 195
246118.70153809 3357711.83978271 11.82129955 117 111 87
246121.60180664 3357711.84838867 14.17590809 186 174 162
246120.97778320 3357710.36828613 12.79214764 92 93 87
246129.18725586 3357707.52954102 11.74659920 37 39 38
246120.42321777 3357711.73602295 14.26251030 194 193 188
246126.65917969 3357706.90954590 12.80961514 18 24 24
246117.54248047 3357712.39099121 12.11604786 26 26 26
246116.66333008 3357713.07702637 13.31169796 14 20 20
246123.05493164 3357710.66772461 12.58721924 86 84 71
246120.64929199 3357710.57843018 12.77092838 92 93 87
246120.72790527 3357711.90173340 14.23270512 137 123 112
246116.49975586 3357713.01910400 12.97117329 50 52 51
246121.04882813 3357710.75775146 14.18024731 235 225 215
246122.90527344 3357710.33776855 12.39898014 126 122 74
246123.16540527 3357710.97369385 13.37267685 47 52 48
246127.86047363 3357707.82794189 12.59024715 46 51 44
246122.59289551 3357709.93652344 12.50507355 102 98 86
246118.38525391 3357711.96746826 13.70399189 27 30 35
246118.84472656 3357711.68402100 13.36966515 26 31 35
246123.29101563 3357711.06494141 12.62001991 43 44 36
246127.82019043 3357706.68457031 12.57212734 14 18 21
246123.42834473 3357711.18859863 12.12358475 19 24 18
246121.23706055 3357710.83374023 14.22251892 235 223 211
246129.11889648 3357706.51342773 11.66858101 54 60 60
246118.59692383 3357713.36694336 14.23066807 196 179 163
246118.05212402 3357712.09466553 13.92391682 6 7 11
246128.10559082 3357707.84735107 12.31628227 48 53 49
246129.07214355 3357706.96710205 12.02366257 18 22 23
246117.24707031 3357713.72222900 13.67979717 4 6 5
246126.38696289 3357708.66101074 13.21059799 25 30 26
246128.67102051 3357706.33148193 12.06713390 28 38 40
246117.62390137 3357713.57257080 14.23090744 214 198 175
246119.51452637 3357711.59301758 14.14624023 195 190 184
246125.10522461 3357708.08795166 12.89676666 33 36 41
246123.00256348 3357710.61517334 12.42517662 109 105 76
246127.90014648 3357706.15899658 12.55322075 52 61 66
246121.28588867 3357710.90661621 14.24165249 225 215 203
246125.46972656 3357707.61761475 12.62714100 70 76 76
246116.78039551 3357713.20690918 13.38706970 19 28 27
246127.88464355 3357706.84875488 12.57021236 20 24 27
246117.37451172 3357712.49395752 13.05022430 11 11 9
246128.31262207 3357707.50524902 12.34142017 64 66 65
246128.45007324 3357708.09704590 12.06734943 29 34 28
246118.75903320 3357712.24841309 14.23562431 255 250 247
246118.95153809 3357711.60668945 13.29073620 8 9 13
246118.84191895 3357711.70257568 12.13930988 94 94 86
246123.81127930 3357710.64068604 11.57960510 60 65 68
246119.95568848 3357711.35229492 14.15146828 214 209 203
246116.70825195 3357713.34967041 13.14991188 10 22 20
246121.34252930 3357710.18121338 13.74855232 31 32 34
246122.96044922 3357711.49786377 14.21276379 39 39 27
246128.17724609 3357705.96337891 12.40789700 65 72 78
246117.40258789 3357712.48437500 11.69738007 60 64 67
246118.52099609 3357713.25732422 14.23705292 201 184 166
246120.30249023 3357710.82830811 13.96557713 174 170 161
246121.62231445 3357712.03259277 14.13775539 211 201 189
246125.26672363 3357708.68182373 12.98778534 21 30 29
246127.16589355 3357706.58947754 12.64370823 13 17 20
246121.02880859 3357710.35852051 13.87903976 13 10 5
246117.76684570 3357712.60180664 14.11789131 221 218 211
246122.83764648 3357709.97613525 11.90527058 46 46 46
246128.56835938 3357707.75317383 12.19498920 18 24 22
246116.67944336 3357713.85754395 12.74910259 108 109 104
246121.72717285 3357710.90606689 14.25185299 213 199 186
246118.39038086 3357712.82189941 14.23909092 221 208 192
246116.90332031 3357712.73394775 12.70417786 77 78 73
246119.69238281 3357711.08410645 12.90790749 74 73 68
246124.28295898 3357711.10791016 11.91819572 22 32 21
246120.37341309 3357710.72570801 13.30286407 27 25 26
246120.40649414 3357711.70300293 14.26464653 193 194 189
246127.64123535 3357706.12518311 12.25549412 29 30 35
246126.98352051 3357708.53149414 13.21572304 36 45 28
246116.69189453 3357712.86004639 12.59864426 72 73 68
246129.09765625 3357707.62634277 11.72450638 43 47 46
246119.15991211 3357711.50219727 12.20360947 77 78 73
246125.01037598 3357708.84112549 12.81785679 16 20 23
246117.50451660 3357712.43316650 11.90768528 45 49 48
246118.59204102 3357712.04962158 14.11804485 233 234 239
246122.95178223 3357710.53417969 13.11735058 67 70 61
246118.43066406 3357711.90875244 13.78820801 19 24 27
246125.08825684 3357708.09307861 12.88663197 33 36 41
246116.90185547 3357712.75750732 12.84918213 13 15 14
246118.41491699 3357711.91711426 12.06074810 94 93 89
246121.43347168 3357710.15582275 13.65816689 29 30 34
246118.89794922 3357711.63452148 12.68365574 78 79 74
246121.79833984 3357710.78356934 14.25614738 231 224 208
246127.03283691 3357707.81463623 13.05033779 7 11 14
246118.78356934 3357712.57458496 14.24228001 222 213 206
246128.42541504 3357706.00256348 11.80271816 29 35 35
246123.55432129 3357710.27789307 11.53824234 82 83 78
246118.79748535 3357711.73693848 13.26546097 27 30 35
246116.64416504 3357712.85052490 12.77080250 74 74 72
246128.02319336 3357708.01147461 12.45272923 20 30 21
246121.38464355 3357710.38604736 14.08174324 255 254 247
246121.38806152 3357711.72711182 14.25669670 199 191 170
246121.35827637 3357710.72332764 14.22609329 248 242 228
246127.06384277 3357707.22125244 12.89550114 13 19 17
246118.16613770 3357712.01251221 12.79079247 71 72 64
246121.08093262 3357710.31884766 13.09450722 28 29 24
246120.74035645 3357710.49682617 12.95544624 100 99 94
246116.80590820 3357713.54260254 13.12283516 0 16 15
246120.92382813 3357710.41772461 13.20052147 25 26 21
246120.08886719 3357710.95574951 13.48227215 9 11 10
246120.12268066 3357710.99096680 14.00347424 192 185 179
246120.96447754 3357710.77813721 14.15906429 217 210 200
246121.81091309 3357709.90899658 13.50212097 26 26 26
246129.04101563 3357706.63104248 11.72059250 42 47 50
246123.31542969 3357711.10021973 12.10462952 51 54 47
246121.42138672 3357710.41278076 14.11239338 247 242 236
246120.41198730 3357710.70544434 13.41668797 16 18 15
246119.14074707 3357711.45568848 12.51090145 72 73 68
246119.29663086 3357711.41351318 12.13131332 82 83 78
246123.40148926 3357711.19439697 13.04331779 36 39 28
246128.48852539 3357707.40142822 12.36181259 62 67 63
246119.97875977 3357710.94848633 12.99001217 121 118 111
246125.89099121 3357709.70428467 12.42805958 22 33 19
246120.37268066 3357712.21429443 14.24353027 184 183 179
246118.84667969 3357711.68170166 13.97075176 114 115 110
246121.20727539 3357710.25396729 13.87997150 8 9 3
246121.32019043 3357711.86987305 14.23151207 220 208 192
246123.97692871 3357710.99871826 11.67934227 25 31 27
246126.65405273 3357708.09765625 13.14263344 0 7 9
246121.28015137 3357710.27081299 13.52218056 17 19 16
246116.83691406 3357713.59655762 13.09423161 5 21 18
246120.62048340 3357710.57861328 13.82302475 22 22 20
246117.18420410 3357713.60601807 13.61830139 29 31 28
246122.42041016 3357711.36151123 14.18364429 193 182 164
246118.76708984 3357711.66125488 12.98437500 87 87 87
246126.61901855 3357708.24517822 13.15582371 5 9 10
246117.26342773 3357712.67230225 13.97033978 124 125 120
246128.66577148 3357706.19549561 11.73973465 34 42 44
246120.13476563 3357712.57537842 14.20075035 205 198 192
246118.88964844 3357713.22723389 14.22187519 209 190 183
246128.96215820 3357706.40802002 11.66247749 53 57 60
246118.97265625 3357711.56616211 12.68716908 75 76 70
246123.16040039 3357710.80407715 12.13500118 74 79 72
246125.10961914 3357708.96844482 12.78794956 16 19 24
246117.61193848 3357713.26977539 14.23427391 223 210 201
246118.11987305 3357712.10418701 13.74581718 14 18 21
246116.48168945 3357713.13739014 12.94171143 4 8 7
246118.72192383 3357711.81878662 13.25606632 6 7 12
246120.03112793 3357713.11614990 14.13548183 56 52 25
246126.84997559 3357707.63720703 13.10807896 5 9 12
246127.49829102 3357707.89880371 12.77640152 26 31 27
246125.70532227 3357707.41375732 12.34676647 22 23 25
246118.62414551 3357711.90454102 13.54234409 6 14 16
246122.42980957 3357710.50909424 14.23337078 213 205 192
246118.16271973 3357712.39776611 14.16011429 199 199 197
246126.29699707 3357707.64331055 13.21627712 7 13 13
246122.14367676 3357710.47607422 14.24334431 224 215 200
246117.27978516 3357712.55133057 12.96034431 12 13 15
246129.17163086 3357707.24798584 11.86945248 36 40 41
246127.80114746 3357707.27575684 12.59652615 47 49 48
246116.69384766 3357712.79602051 12.88143253 37 37 35
246117.21984863 3357713.67846680 13.49388218 163 167 166
246126.29479980 3357709.63787842 12.94524956 31 41 16
246128.66442871 3357706.31286621 12.10033321 29 37 40
246128.23168945 3357707.45483398 12.38153172 66 68 67
246124.01721191 3357710.49346924 11.51837921 106 106 96
246118.72827148 3357712.94091797 14.23365784 210 196 183
246125.37207031 3357707.82550049 12.80133724 33 41 44
246117.23718262 3357712.53521729 12.40200615 119 123 122
246126.57641602 3357708.43786621 13.18346500 25 29 28
246126.28125000 3357709.69744873 12.80676270 28 39 22
246123.54565430 3357710.80590820 11.66398811 52 60 62
246129.01586914 3357707.90240479 11.78554916 29 38 33
246120.68481445 3357710.57379150 13.56043816 42 42 40
246125.10021973 3357708.04046631 12.80774879 30 35 39
246127.79772949 3357706.16003418 12.49028778 45 50 56
246126.10253906 3357708.05920410 13.17590523 7 11 12
246126.02783203 3357709.48828125 13.02322865 74 90 54
246119.89123535 3357710.99890137 12.99324703 120 117 112
246128.61022949 3357706.26690674 12.28134537 33 43 45
246122.25744629 3357712.11962891 13.99886131 47 56 55
246123.95715332 3357711.31494141 12.97921658 30 42 28
246122.53186035 3357709.97747803 13.62122440 36 38 35
246123.88537598 3357711.31188965 13.04081631 46 57 43
246121.93823242 3357710.62298584 14.25354767 247 237 225
246127.80554199 3357706.03973389 12.40957165 13 16 21
246120.82678223 3357711.56323242 14.26579952 237 222 215
246118.26269531 3357711.95916748 12.81275272 92 92 82
246128.24816895 3357707.64837646 12.30585957 63 65 62
246127.55444336 3357706.72326660 12.63679504 9 14 17
246123.07226563 3357710.88177490 13.61049938 7 18 12
246117.57824707 3357712.36285400 12.22798443 25 25 23
246124.97363281 3357707.89605713 12.38445854 21 22 26
246116.90588379 3357713.21588135 13.86683178 48 51 42
246122.21057129 3357709.64910889 13.19984436 188 172 159
246118.16003418 3357712.32916260 14.12479591 220 224 227
246122.98352051 3357711.37371826 14.17456818 37 37 27
246127.36047363 3357708.42828369 13.12885189 26 37 23
246120.53735352 3357710.62438965 12.83920288 88 89 84
246122.58215332 3357709.85498047 12.26976299 101 101 91
246116.98291016 3357713.31311035 14.01535892 36 22 9
246117.36315918 3357712.53393555 11.75486755 58 62 63
246121.36242676 3357712.30657959 14.14011002 89 82 72
246125.87805176 3357709.35998535 13.00102425 34 47 29
246117.17114258 3357713.59747314 13.66254616 29 31 28
246119.28466797 3357712.00579834 14.23398972 237 228 223
246125.93603516 3357709.88226318 12.20217419 15 28 10
246119.02343750 3357712.53540039 14.23683929 213 203 194
246119.49230957 3357713.07019043 14.17827988 191 179 165
246119.06457520 3357713.22631836 14.18498039 250 237 229
246129.01855469 3357706.68688965 11.76856232 33 38 41
246126.87463379 3357706.73181152 12.70766163 15 20 23
246121.01208496 3357710.93951416 14.22797585 240 234 222
246119.52978516 3357711.43255615 13.48830414 36 37 32
246116.67773438 3357712.85589600 13.41842079 32 32 32
246122.63098145 3357709.99810791 12.51800442 104 101 84
246117.18676758 3357712.58471680 12.22547245 97 101 100
246126.93884277 3357706.59368896 12.24927044 33 35 34
246121.01745605 3357710.35900879 13.12862396 24 24 22
246125.76208496 3357707.56274414 12.81003761 21 31 32
246123.55480957 3357711.23382568 12.98987389 29 37 24
246122.23571777 3357709.66027832 13.45934296 106 101 95
246126.17785645 3357709.60748291 12.90029240 36 48 26
246127.48913574 3357706.24285889 12.23079681 20 24 27
246121.04150391 3357710.79394531 14.19484234 218 210 199
246124.66479492 3357708.25988770 12.48054981 43 39 38
246123.00561523 3357710.60815430 13.09222603 80 83 76
246121.05798340 3357710.47619629 14.00824833 215 208 190
246119.89672852 3357711.04278564 13.11092377 28 29 24
246119.50598145 3357711.59167480 14.14183617 195 190 184
246123.27416992 3357711.03063965 12.11911106 63 66 57
246122.18322754 3357710.00128174 14.13542461 212 213 208
246116.82739258 3357713.27124023 13.35670662 43 57 57
246120.85583496 3357712.29150391 14.19298744 224 215 208
246127.53356934 3357708.32513428 12.99643898 29 40 23
246116.96618652 3357713.71667480 13.05072498 8 24 24
246120.99096680 3357710.36340332 12.74461079 95 96 90
246125.76562500 3357709.62414551 12.38351059 14 24 15
246120.79919434 3357710.50769043 13.36269283 85 87 86
246119.34399414 3357712.88476563 14.22145939 191 183 170
246118.71496582 3357712.23345947 14.23295593 223 214 215
246118.53491211 3357711.87274170 12.40429020 83 84 76
246121.27294922 3357710.70111084 14.20848560 213 205 192
246118.84240723 3357711.68389893 12.68793201 82 83 78
246116.80090332 3357712.77093506 12.73316383 74 75 70
246124.27941895 3357711.02526855 11.81431103 16 26 15
246125.01574707 3357708.25006104 13.02144623 13 17 26
246118.74328613 3357711.73364258 13.80958080 24 25 30
246120.78662109 3357710.59527588 13.98019314 215 208 192
246123.63049316 3357710.22137451 11.52618694 154 152 139
246122.03588867 3357712.05584717 14.05857182 14 14 4
246124.60791016 3357708.37042236 12.17545414 48 43 39
246118.15966797 3357712.14361572 13.57343674 13 17 20
246117.33288574 3357713.38970947 14.17243004 223 210 194
246116.98779297 3357712.79925537 13.87635803 121 122 124
246119.53173828 3357711.43029785 13.48561001 36 37 32
246119.33117676 3357711.44305420 13.56164646 11 13 12
246120.45043945 3357710.66064453 12.87371731 100 100 92
246117.62817383 3357712.29046631 12.73627377 66 67 59
246119.44531250 3357711.36816406 13.18881416 20 24 23
246125.35791016 3357708.74359131 12.99799347 23 29 29
246122.96630859 3357710.61755371 13.85682774 15 22 15
246128.39428711 3357706.04827881 12.23068905 2 6 9
246125.15625000 3357707.99774170 12.80364609 15 23 25
246127.70117188 3357707.96008301 12.72376823 38 48 37
246117.65136719 3357712.33081055 12.18585110 56 57 51
246127.28967285 3357706.37322998 12.17324638 31 31 31
246121.01171875 3357710.37127686 13.18170357 27 27 25
246118.42687988 3357712.81695557 14.24206161 216 200 187
246128.69360352 3357706.38287354 12.05564594 35 45 47
246118.10632324 3357712.17724609 14.02837658 81 85 88
246122.59619141 3357711.90698242 14.08539009 15 20 13
246117.11816406 3357712.65338135 13.48010349 18 18 18
246129.22839355 3357706.62127686 11.69919682 54 60 60
246120.18469238 3357710.84875488 13.16805267 13 14 9
246122.68847656 3357711.65576172 14.14933014 36 37 23
246121.45874023 3357710.11743164 13.20295429 24 19 13
246124.08361816 3357711.21246338 12.28016090 23 35 23
246118.70288086 3357712.41320801 14.24548149 209 195 192
246123.15527344 3357710.93554688 13.04988289 61 64 53
246128.76794434 3357706.58068848 12.09366226 10 17 23
246122.86743164 3357710.42260742 13.85552216 56 62 58
246116.77673340 3357712.81231689 12.53204918 80 81 76
246116.47290039 3357713.19769287 12.90971088 9 11 10
246125.98962402 3357709.27062988 13.21113014 34 46 24
246120.73620605 3357712.66656494 14.11745453 122 118 106
246123.38183594 3357711.19842529 13.45744991 34 42 31
246117.11206055 3357713.01324463 14.06143665 213 216 209
246127.40295410 3357707.96331787 12.87443256 12 18 18
246127.73095703 3357706.14215088 12.40031815 12 15 20
246116.59936523 3357713.53833008 12.91975021 12 16 15
246123.49560547 3357711.10711670 11.71448421 39 43 44
246124.98388672 3357708.16894531 12.90213585 6 14 17
246118.56066895 3357711.95947266 13.34257507 14 17 22
246125.69445801 3357708.33123779 13.17313194 19 23 26
246121.28869629 3357712.23297119 14.15946198 217 203 194
246119.07153320 3357711.67565918 14.05497074 243 240 225
246116.99804688 3357712.86267090 13.92905045 213 214 218
246128.43750000 3357706.39746094 12.47562790 52 60 63
246121.73388672 3357711.46539307 14.24393177 192 178 165
246120.55297852 3357711.21954346 14.22563744 244 235 228
246126.77722168 3357707.33184814 13.11868477 7 12 15
246126.20507813 3357708.01092529 13.17563629 7 11 12
246118.01269531 3357712.40844727 14.10499763 245 247 246
246125.45373535 3357708.50866699 13.13054180 12 18 18
246119.17724609 3357713.47827148 14.13783264 214 200 191
246123.58898926 3357711.22271729 12.78314781 23 34 20
246122.37548828 3357711.64727783 14.14548206 113 113 101
246122.17468262 3357711.46002197 14.19083118 184 170 159
246128.21679688 3357708.31213379 12.19783783 33 44 27
246117.08154297 3357713.80371094 13.06570148 7 25 25
246121.05908203 3357710.31311035 12.75380898 89 89 81
246129.06140137 3357706.54687500 11.68704510 48 54 54
246122.41809082 3357712.14239502 13.92361641 26 34 37
246116.71960449 3357712.84704590 12.56157875 73 74 69
246127.57849121 3357706.14611816 12.08477116 62 63 67
246117.57653809 3357713.53485107 14.22319794 222 205 187
246119.03015137 3357713.36120605 14.17049503 198 180 170
246125.74133301 3357709.30816650 12.90009689 20 30 19
246125.28967285 3357708.66448975 13.00499725 21 30 29
246119.13952637 3357711.52429199 12.18109798 85 86 80
246119.42431641 3357713.35821533 14.13149738 223 212 206
246125.84899902 3357707.43475342 12.67864418 60 70 72
246120.84277344 3357710.46447754 12.74654484 85 86 78
246123.69433594 3357710.58520508 11.59897709 63 75 73
246125.73132324 3357707.73870850 13.10426617 37 49 47
246121.11230469 3357710.36846924 13.44408321 18 20 19
246125.46374512 3357708.19213867 13.16275883 33 41 43
246119.00329590 3357712.19958496 14.23588753 215 204 200
246123.30822754 3357711.14514160 13.24725819 7 12 5
246120.34851074 3357710.72656250 12.58989906 92 92 84
246122.73266602 3357710.32299805 13.46462345 62 68 64
246122.53845215 3357710.04815674 13.83110332 34 39 35
246117.02441406 3357712.70629883 12.81219673 15 15 13
246124.09472656 3357710.89880371 11.62687397 39 45 45
246119.24121094 3357712.99725342 14.21212578 208 193 186
246122.02832031 3357709.76446533 13.88235092 10 9 7
246124.88659668 3357708.50408936 12.92476273 23 31 34
246119.01269531 3357713.38690186 14.17029381 198 180 170
246120.82592773 3357710.67810059 14.04571915 255 251 240
246121.00219727 3357710.35491943 12.74775505 95 96 90
246116.79736328 3357712.87152100 13.58841515 113 114 118
246121.71850586 3357710.00213623 13.42638111 20 20 20
246117.42565918 3357713.25628662 14.19670677 222 210 196
246120.37133789 3357710.84851074 14.01016712 206 200 186
246122.54882813 3357709.89630127 12.68114662 100 98 85
246118.06896973 3357712.10906982 11.86739731 79 85 83
246118.56933594 3357712.78033447 14.24051476 222 208 199
246119.25952148 3357711.35095215 12.76291466 71 72 67
246117.18237305 3357712.76617432 13.98359203 203 208 204
246119.99560547 3357710.99060059 13.12866211 25 25 23
246117.84814453 3357712.23626709 13.81388283 11 14 19
246119.37231445 3357711.43444824 13.57380009 12 12 10
246123.58044434 3357711.27227783 11.91798973 16 26 17
246128.22485352 3357708.02783203 12.28139496 43 49 37
246119.52453613 3357713.38891602 14.14340973 96 88 75
246118.15112305 3357712.12896729 13.25426197 10 14 13
246128.26293945 3357706.54412842 12.60636044 6 11 15
246121.13732910 3357710.38647461 13.62503624 21 20 18
246123.79919434 3357711.35760498 13.25933743 32 40 27
246129.08459473 3357707.47796631 11.86799240 34 38 37
246118.34472656 3357711.97369385 12.36251354 81 82 74
246117.41979980 3357712.47900391 11.94461155 84 88 91
246116.85217285 3357712.76025391 13.30654621 22 23 27
