246150.52197266 3357690.93902588 12.39895058 5 6 10
246148.18603516 3357694.55694580 11.63171959 22 32 24
246149.20983887 3357692.86578369 12.76779556 10 16 12
246138.75146484 3357700.10736084 12.90957546 51 53 50
246146.49633789 3357693.22247314 11.84187317 60 64 65
246139.18762207 3357700.39752197 12.74253559 32 38 28
246147.82788086 3357692.31469727 12.55202961 31 43 43
246139.33203125 3357699.10278320 12.49342442 45 54 53
246140.94262695 3357697.39343262 11.49178314 114 110 98
246148.48168945 3357693.07055664 12.54486942 7 15 17
246148.79541016 3357693.81170654 11.84135628 13 17 16
246140.73864746 3357699.67608643 11.75728607 37 43 39
246150.58520508 3357690.44036865 11.57230949 84 88 91
246136.63793945 3357700.42144775 12.17819023 31 30 28
246150.90100098 3357690.82446289 11.74629593 41 45 44
246146.52282715 3357693.28656006 11.67779732 75 79 80
246137.15246582 3357699.93444824 12.18065357 38 39 34
246136.62573242 3357700.50335693 12.35136890 36 38 33
246147.65673828 3357692.82580566 12.50457954 17 20 25
246136.34228516 3357702.11968994 12.16409111 40 45 38
246150.12524414 3357690.43395996 12.13339806 42 21 26
246150.50659180 3357690.32025146 11.45626259 99 99 91
246136.36364746 3357700.55493164 11.81623554 65 65 67
246137.93896484 3357700.46545410 12.95370483 5 11 11
246148.32885742 3357692.23712158 12.81886959 10 16 16
246146.78356934 3357692.82574463 11.99367332 10 11 15
246136.40246582 3357700.83874512 12.52577782 106 108 103
246149.97399902 3357692.47094727 12.47615910 12 17 13
246135.95947266 3357701.74237061 12.19523525 54 64 65
246140.57458496 3357700.05511475 11.85653782 50 62 52
246136.82702637 3357700.65301514 12.44396305 52 60 62
246136.84643555 3357700.84045410 12.47449112 34 43 42
246138.03564453 3357699.40039063 11.92672443 55 55 55
246140.14868164 3357698.92315674 12.02338982 202 214 212
246138.08361816 3357699.36187744 11.90909767 54 54 52
246140.23022461 3357698.65856934 11.76422405 203 208 211
246148.36083984 3357691.99176025 12.89887619 24 32 35
246148.75573730 3357693.69000244 12.06910992 6 12 8
246136.55419922 3357700.48364258 12.20053101 30 31 26
246140.54357910 3357699.62609863 12.24891281 193 204 198
246135.79064941 3357701.18823242 11.94976711 127 132 136
246148.49023438 3357691.84930420 12.82778931 107 127 128
246138.00439453 3357700.62878418 12.94760513 3 9 7
246150.45800781 3357691.56744385 12.46597767 2 6 7
246137.48168945 3357700.44409180 12.87699318 98 103 99
246146.51647949 3357693.33593750 11.75253391 95 99 102
246140.82214355 3357699.43896484 11.69607830 32 36 35
246149.63110352 3357690.92071533 12.57608414 72 75 80
246136.62768555 3357702.18298340 12.16587448 50 55 49
246138.89355469 3357699.75476074 12.76167393 5 9 12
246150.51062012 3357690.99182129 12.39728642 4 5 7
246146.99597168 3357692.81713867 12.22585964 127 131 142
246137.28649902 3357700.33526611 12.81727314 214 216 213
246137.20190430 3357700.20556641 12.63131237 11 15 18
246140.12731934 3357699.63458252 12.48449135 246 246 244
246150.43872070 3357690.43261719 11.58909130 78 78 76
246140.39099121 3357698.83856201 11.63772583 156 168 168
246148.71093750 3357693.56121826 12.28883743 4 11 4
246148.22766113 3357691.87353516 12.52371120 9 13 16
246138.22680664 3357699.50164795 12.72210217 8 9 14
246139.84619141 3357700.14691162 12.54072475 18 24 12
246139.13635254 3357699.02124023 12.51456261 79 80 82
246148.85327148 3357693.62548828 12.12027454 8 17 12
246150.09094238 3357691.16320801 12.51567936 3 7 10
246147.98010254 3357692.89221191 12.54824066 42 53 57
246147.22326660 3357693.73413086 12.46089840 28 16 18
246150.05175781 3357691.59112549 12.56452751 8 12 15
246135.94335938 3357701.46343994 12.27851391 173 186 194
246137.33203125 3357700.10021973 12.69091129 11 11 13
246138.82458496 3357699.13134766 12.58764744 120 121 123
246136.42492676 3357701.57012939 12.23982906 93 97 83
246140.06274414 3357700.05401611 12.44234562 39 50 34
246136.78833008 3357701.59039307 12.32852459 67 70 61
246137.41149902 3357699.74664307 11.91493034 71 72 74
246146.39147949 3357693.44549561 11.50304317 95 98 87
246148.83532715 3357692.20153809 12.84987831 1 5 6
246147.21533203 3357693.51281738 12.63601589 59 30 35
246148.58325195 3357693.57104492 12.34426975 9 18 15
246138.41748047 3357699.44512939 12.79081345 82 88 88
246137.11389160 3357699.96966553 12.19736195 41 40 35
246134.91003418 3357697.22283936 18.64128876 66 91 23
246150.32397461 3357692.01147461 12.50730324 5 10 6
246139.70971680 3357700.10565186 12.60232639 53 56 49
246141.12927246 3357697.29980469 11.47657681 85 86 81
246140.24719238 3357699.78784180 12.43574429 81 87 83
246137.56591797 3357699.67041016 12.15677452 50 50 48
246149.55151367 3357690.63317871 12.16097355 16 21 25
246149.61083984 3357691.57525635 12.71981812 0 4 5
246139.18420410 3357700.18334961 12.76554298 11 15 14
246139.82336426 3357698.84307861 12.42140865 218 220 217
246136.24365234 3357701.31689453 12.35114098 130 138 140
246140.42480469 3357698.54858398 11.50185776 72 77 73
246139.68640137 3357698.55609131 11.85764217 174 170 169
246150.34497070 3357691.03912354 12.42804146 4 5 7
246137.10803223 3357700.90057373 12.58234787 28 39 31
246137.12695313 3357700.77301025 12.60815048 20 30 22
246148.39294434 3357692.89636230 12.60647774 1 5 8
246149.59191895 3357692.10034180 12.73929882 8 12 13
246148.48889160 3357693.02288818 12.56048203 6 11 14
246151.03698730 3357691.15325928 12.04660797 21 23 20
246140.94787598 3357699.79473877 11.56407166 66 72 60
246149.65478516 3357691.41339111 12.69549179 0 4 5
246138.14611816 3357699.48883057 12.50394630 81 85 84
246147.18066406 3357693.96099854 12.25970268 11 11 13
246147.02722168 3357693.84735107 12.29845333 20 20 20
246140.30432129 3357699.90209961 12.37262154 37 51 38
246136.39978027 3357700.51245117 11.81512737 71 71 71
246147.88635254 3357694.38031006 11.87341976 22 28 26
246136.08020020 3357700.90985107 12.29860497 178 185 195
246139.01281738 3357698.82519531 12.42294502 41 27 27
246139.74353027 3357698.53350830 11.84162903 150 150 148
246140.56933594 3357698.88500977 11.54952240 76 87 81
246148.09619141 3357691.88494873 12.45160294 60 67 75
246148.54406738 3357693.78570557 12.11295128 12 16 15
246137.59240723 3357699.65319824 12.18739796 49 49 49
246139.21899414 3357699.40960693 12.54711628 51 57 57
246148.55139160 3357691.40710449 12.31885338 3 10 26
246148.61596680 3357691.71533203 12.64703560 12 20 22
246148.50976563 3357693.62768555 12.31121159 21 27 23
246148.55908203 3357692.53778076 12.72943020 3 8 11
246149.21228027 3357691.97070313 12.86554241 1 2 4
246140.57873535 3357699.27178955 12.12945175 218 219 221
246137.73730469 3357699.58551025 12.28385258 44 46 45
246147.84069824 3357694.48602295 11.75922966 22 26 25
246149.66284180 3357691.32153320 12.68692398 1 2 4
246148.51794434 3357691.42962646 12.32061672 2 10 23
246137.44787598 3357699.87622070 12.46227360 183 185 182
246137.88793945 3357699.46051025 12.13763905 44 44 42
246139.35070801 3357698.64508057 12.07565784 99 100 95
246150.58032227 3357691.59228516 12.42712212 2 4 3
246140.29309082 3357698.12603760 11.50567722 109 110 112
246139.81359863 3357699.50659180 12.54352856 34 35 37
246148.03308105 3357691.97283936 12.49308395 3 7 8
246149.02087402 3357693.69848633 11.90766335 15 21 17
246150.21813965 3357691.22705078 12.48823166 2 6 7
246137.74865723 3357699.54937744 11.99690151 72 73 68
246139.78967285 3357698.64147949 12.28799248 200 200 202
246147.66076660 3357694.62261963 11.61617661 31 42 36
246137.53710938 3357699.68933105 12.08320236 48 48 48
246139.90246582 3357698.33905029 11.55018139 126 125 121
246147.25720215 3357693.96337891 12.28374100 12 8 9
246137.69018555 3357701.13208008 12.80048370 10 16 16
246148.09814453 3357694.10241699 12.06774616 28 38 29
246148.14843750 3357692.42138672 12.67137814 2 11 10
246139.25451660 3357700.14056396 12.72031689 15 20 16
246138.51647949 3357699.63372803 12.86373425 31 37 37
246138.36071777 3357699.41906738 12.74539566 48 52 51
246140.55664063 3357699.33459473 12.17827129 227 229 228
246138.99304199 3357698.77575684 12.26830006 48 43 40
246139.88720703 3357698.64752197 12.23069954 205 207 206
246136.41137695 3357700.57348633 12.16644478 58 57 52
246139.99475098 3357700.01037598 12.50864983 49 57 44
246150.82238770 3357691.14215088 12.30155468 20 22 21
246137.90283203 3357699.48138428 11.93826008 50 49 47
246146.69653320 3357693.63452148 12.15052319 11 17 17
246137.04663086 3357700.74493408 12.56099224 21 32 28
246148.43151855 3357691.87402344 12.78277206 69 85 85
246137.99426270 3357699.98553467 12.89426899 77 83 83
246136.08325195 3357700.96624756 12.38563538 180 187 195
246140.90441895 3357699.96588135 11.61251736 43 55 33
246148.44470215 3357693.44061279 12.41918564 80 88 90
246138.17224121 3357700.34533691 12.94586182 56 60 59
246147.23632813 3357694.27050781 11.83933449 4 9 5
246148.73339844 3357692.80200195 12.66543007 4 9 13
246148.13769531 3357691.73614502 12.31781292 8 15 21
246136.61157227 3357701.19903564 12.37503624 90 97 89
246137.67932129 3357699.58410645 11.89188766 91 91 89
246150.27868652 3357691.10205078 12.45483971 3 7 8
246137.67529297 3357700.87756348 12.88896084 61 63 58
246138.32019043 3357699.40100098 12.63323879 8 12 11
246140.63574219 3357699.79888916 12.00206184 42 53 47
246139.40856934 3357698.56689453 11.63434792 125 125 117
246136.59143066 3357701.67395020 12.26085186 67 73 61
246140.27539063 3357700.01147461 12.33286381 41 54 37
246135.78857422 3357701.41577148 12.07028008 132 132 132
246148.17468262 3357693.70501709 12.31357288 4 8 9
246138.58081055 3357698.98034668 11.97288895 18 22 21
246148.24328613 3357694.16296387 11.91759968 77 92 71
246146.94421387 3357693.30725098 12.49245262 0 0 0
246137.24914551 3357700.09057617 12.57868195 25 29 28
246138.06542969 3357699.34631348 12.21815681 41 41 39
246148.02709961 3357694.56286621 11.65258980 36 45 40
246150.88098145 3357691.86273193 12.25761890 17 21 22
246147.95117188 3357693.60113525 12.38354874 10 9 14
246139.62561035 3357699.28295898 12.50097370 44 54 55
246147.97912598 3357691.93603516 12.37214279 56 65 74
246139.37194824 3357698.65911865 12.23101330 125 126 121
246150.95739746 3357691.51599121 12.25903130 17 19 16
246138.19104004 3357699.26019287 12.29105473 61 63 60
246136.47607422 3357700.68548584 12.48357105 124 123 119
246146.91259766 3357693.11499023 12.39397335 64 64 66
246138.68225098 3357700.04254150 12.91227627 52 54 53
246147.40136719 3357693.74890137 12.47887611 29 23 27
246139.16076660 3357699.54449463 12.59429455 7 11 14
246140.65832520 3357699.53625488 12.09875774 44 53 50
246147.96520996 3357692.12298584 12.59864521 17 18 22
246140.50207520 3357699.20971680 12.01113033 182 192 193
246148.68347168 3357693.33520508 12.53252411 26 36 37
246136.14428711 3357700.84051514 12.28669167 128 135 141
246149.77465820 3357690.54547119 11.87368393 24 24 26
246140.95202637 3357700.00311279 11.62242889 55 65 41
246148.34289551 3357693.43615723 12.40702343 12 18 16
246139.22167969 3357699.55236816 12.56437874 23 27 30
246138.00939941 3357699.56262207 12.52714157 138 142 141
246148.76062012 3357693.73071289 12.00218678 8 14 10
246149.46520996 3357691.91625977 12.77210903 2 6 7
246137.81042480 3357699.65808105 12.47168541 176 180 183
246147.42480469 3357692.68701172 12.43153095 21 24 29
246138.89318848 3357698.84429932 11.74819565 88 88 86
246137.10229492 3357701.54077148 12.43719292 39 48 47
246150.50659180 3357691.24182129 12.40954685 4 8 9
246147.26489258 3357694.22924805 11.98580742 23 27 26
246138.10205078 3357700.07940674 12.91300297 64 70 70
246148.16137695 3357694.06152344 12.04593945 35 45 34
246149.17309570 3357691.27368164 12.72382641 112 121 130
246140.63281250 3357699.56420898 12.13271618 121 127 125
246148.57055664 3357692.93310547 12.59972858 15 20 24
246150.50341797 3357691.94415283 12.46870995 26 28 25
246140.32421875 3357698.04980469 11.50536537 86 90 89
246137.30432129 3357700.25030518 12.77635098 118 118 118
246143.05334473 3357695.86560059 11.47285843 97 103 103
246137.70117188 3357700.06542969 12.85252476 92 95 100
246139.56567383 3357699.40509033 12.47783756 39 45 45
246140.76574707 3357699.47735596 11.78579426 23 29 25
246149.31469727 3357691.17041016 12.73299503 50 55 59
246149.76708984 3357690.60650635 12.40541267 125 153 167
246149.70471191 3357691.84973145 12.67739201 2 6 7
246139.84436035 3357698.36492920 11.54067898 135 132 127
246135.78002930 3357701.26080322 11.88162231 102 100 101
246148.88122559 3357693.76202393 11.85726261 13 20 13
246136.23352051 3357700.72747803 12.12702656 68 68 68
246136.28918457 3357702.07238770 12.17371178 46 51 44
246138.51794434 3357699.18572998 12.49550533 85 91 87
246148.19262695 3357694.09942627 11.99872303 39 51 37
246147.82006836 3357694.79705811 11.54800701 42 55 48
246148.70739746 3357692.94384766 12.63272762 8 13 16
246138.75952148 3357700.50543213 12.86262798 52 54 49
246150.68139648 3357691.05328369 12.35605907 6 7 9
246148.74121094 3357693.69195557 12.07921028 8 14 10
246140.50048828 3357698.27435303 11.46880436 119 123 126
246138.21130371 3357700.25421143 12.93227768 53 57 58
246138.89587402 3357699.10162354 12.57454014 91 96 99
246148.03149414 3357692.73211670 12.59791088 13 23 22
246138.21911621 3357700.81420898 12.90872860 6 10 11
246137.73413086 3357700.08868408 12.86959743 113 117 120
246140.50280762 3357699.67706299 12.28955841 143 154 150
246149.80993652 3357690.52349854 11.88644886 30 28 33
246134.66748047 3357697.35272217 18.60912323 132 158 69
246149.74865723 3357690.78887939 12.53257561 66 70 79
246139.37353516 3357698.62402344 11.75413322 91 93 88
246147.99328613 3357691.84497070 12.13523674 13 16 21
246138.71716309 3357698.91925049 11.90969467 47 47 45
246139.58178711 3357699.91302490 12.56814289 11 13 12
246147.04394531 3357693.22064209 12.52844715 0 0 0
246147.83325195 3357691.95623779 11.87094593 51 53 52
246149.12255859 3357690.96124268 11.90570545 15 16 20
246138.13427734 3357700.83215332 12.90862560 6 10 11
246146.80847168 3357693.33563232 12.38951683 27 27 29
246136.88818359 3357700.55303955 12.43140507 94 103 102
246139.87475586 3357698.90692139 12.44562340 230 232 229
246138.46423340 3357700.01269531 12.89614487 56 61 57
246147.58972168 3357693.36914063 12.63850117 19 14 18
246151.06542969 3357691.82977295 12.10836124 17 22 16
246140.13037109 3357699.47631836 12.48057938 242 242 244
246148.22644043 3357693.16687012 12.49064350 6 16 17
246136.76074219 3357700.71118164 12.45940208 36 41 44
246146.69567871 3357693.20562744 12.26477242 14 21 29
246140.78723145 3357699.25805664 11.61504173 135 137 134
246136.42504883 3357700.53985596 12.03781509 29 30 25
246139.13159180 3357699.65539551 12.62973404 6 11 14
246150.84594727 3357691.74688721 12.28948212 15 15 15
246148.78637695 3357694.06597900 11.66632366 14 19 13
246147.65576172 3357693.05926514 12.57515812 47 40 47
246137.32153320 3357699.79034424 11.95652294 83 87 88
246139.34411621 3357699.26904297 12.48876572 43 52 51
246149.93200684 3357692.59875488 12.39501572 12 17 13
246140.59082031 3357698.83795166 11.52458954 0 3 0
246137.44445801 3357701.54376221 12.50392246 16 21 17
246139.43347168 3357699.97113037 12.59578419 11 13 12
246147.32299805 3357693.94519043 12.30512524 25 23 24
246149.98791504 3357690.47528076 12.30393410 69 57 69
246150.04235840 3357692.60839844 12.31527901 13 18 14
246137.75219727 3357700.35406494 12.93733883 8 12 13
246138.07153320 3357699.90655518 12.87383556 87 96 95
246135.03454590 3357696.99298096 18.48368454 47 73 25
246147.54956055 3357692.22851563 12.33153725 42 46 47
246148.40551758 3357691.75939941 12.55055332 11 14 19
246148.08374023 3357691.83874512 12.37469196 48 58 67
246149.60205078 3357692.46728516 12.75199127 12 14 11
246134.67968750 3357697.19598389 18.70003510 95 118 50
246136.50402832 3357702.12353516 12.17829323 42 47 41
246151.06738281 3357691.45812988 12.19603729 18 20 15
246138.54638672 3357700.42401123 12.90824127 51 53 50
246151.75891113 3357691.68469238 11.62877178 49 52 43
246138.52197266 3357699.86578369 12.88982487 53 57 56
246138.82714844 3357699.42272949 12.68810272 9 13 16
246138.93237305 3357698.79357910 12.30032063 50 47 42
246146.32092285 3357693.39440918 11.48116302 148 148 136
246150.70068359 3357691.76770020 12.37220001 9 11 8
246137.21447754 3357701.73529053 12.38309765 59 65 61
246150.34545898 3357690.45141602 11.79765606 32 32 30
246140.00231934 3357698.07067871 11.51140785 119 119 109
246149.90185547 3357690.48663330 11.83065891 36 22 22
246139.62902832 3357698.72662354 12.36199188 198 197 195
246139.84973145 3357698.46038818 11.57741165 134 130 127
246146.83996582 3357692.79559326 11.99175549 8 8 10
246137.54040527 3357699.88439941 12.59999561 19 21 20
246140.29223633 3357699.07928467 12.01139736 195 207 207
246139.60058594 3357699.23565674 12.50630188 41 51 50
246137.76965332 3357699.51544189 11.80739784 133 134 129
246140.62365723 3357700.18414307 11.69470882 57 63 49
246147.85290527 3357693.83374023 12.33643532 13 14 16
246151.55590820 3357691.78039551 11.83098125 23 28 21
246147.84179688 3357692.07067871 12.44741726 79 84 90
246149.00610352 3357693.19287109 12.65630531 20 28 15
246147.98730469 3357694.36566162 11.82785416 19 28 23
246149.16589355 3357690.92266846 11.98287487 12 16 19
246148.43627930 3357694.29443359 11.71076298 17 24 17
246137.99682617 3357699.75537109 12.81560898 3 7 8
246147.59020996 3357694.22515869 12.20408058 17 23 21
246148.55358887 3357694.04858398 11.78660107 27 29 24
246148.13500977 3357691.72424316 12.24789333 17 22 26
246135.14843750 3357697.13726807 18.43447113 74 100 55
246148.00781250 3357694.60729980 11.62481308 34 45 39
246139.76342773 3357700.07299805 12.59137630 27 28 22
246148.25402832 3357691.75897217 12.46416759 63 69 81
246147.37487793 3357692.37219238 11.82253170 130 125 121
246147.33349609 3357693.51104736 12.63581562 42 11 17
246150.61511230 3357690.97875977 12.37075901 12 13 15
246136.86059570 3357700.20874023 12.04030228 37 38 33
246137.74829102 3357699.64361572 12.41850567 51 55 54
246140.41601563 3357698.86041260 11.63063145 154 168 168
246147.20825195 3357692.46929932 11.89963531 104 97 89
246138.66687012 3357698.92730713 11.97281170 42 42 40
246147.72583008 3357692.10687256 12.38268566 32 35 40
246139.70104980 3357698.55737305 11.81532955 170 169 167
246149.08532715 3357691.72546387 12.93185139 2 6 7
246138.13269043 3357700.17218018 12.92696762 58 64 64
246138.51684570 3357700.50085449 12.90315437 51 53 50
246149.49011230 3357691.47125244 12.76969719 1 5 6
246138.09777832 3357700.44818115 12.95506573 29 33 32
246148.97656250 3357693.56823730 12.13904572 4 9 3
246135.15441895 3357697.15209961 18.41631889 73 98 58
246147.66516113 3357692.72583008 12.48238945 73 78 82
246139.11730957 3357698.84442139 12.44560146 54 44 43
246140.62377930 3357699.21954346 11.86183643 177 182 185
246138.47717285 3357699.03094482 11.78322029 46 46 44
246136.38989258 3357701.62670898 12.23002720 99 105 95
246148.11450195 3357694.16546631 12.01150036 29 39 30
246136.61889648 3357700.36425781 11.95957470 74 73 71
246140.51306152 3357699.88153076 12.18117523 41 55 42
246149.98266602 3357690.59106445 12.45465565 50 54 65
246137.11999512 3357700.74353027 12.61004829 21 32 26
246149.51733398 3357690.66717529 11.94755936 22 23 27
246148.97192383 3357692.97686768 12.72872829 2 6 7
246139.59594727 3357699.49554443 12.49081898 36 41 37
246134.88452148 3357697.29644775 18.57250786 72 93 36
246135.06945801 3357697.08105469 18.53250885 85 114 50
246135.84484863 3357701.09735107 12.08289623 129 137 139
246149.07641602 3357692.65429688 12.78422165 3 3 5
246139.26281738 3357699.01678467 12.49144363 52 56 57
246148.92675781 3357691.52636719 12.83180714 125 138 147
246148.63037109 3357692.45111084 12.76773357 2 3 5
246137.06506348 3357700.48339844 12.57284164 109 115 115
246134.60937500 3357697.26983643 18.68830299 128 152 68
246150.11315918 3357692.40112305 12.48718357 14 18 17
246140.38745117 3357698.50146484 11.50322914 85 85 83
246149.07971191 3357692.93768311 12.74933529 25 29 28
246140.09033203 3357698.86193848 12.14305496 207 217 218
246137.03942871 3357700.06024170 12.29023933 40 41 35
246148.42749023 3357693.74365234 12.22667217 19 23 22
246150.39587402 3357690.47381592 11.99012947 18 23 26
246140.36059570 3357699.66467285 12.36078644 241 241 241
246137.72338867 3357699.55523682 11.90683842 76 76 74
246149.85607910 3357690.51849365 11.73681450 49 36 30
246151.37097168 3357691.49676514 11.96310997 33 40 33
246147.58105469 3357693.22192383 12.65308952 44 18 31
246145.99316406 3357693.62524414 11.46022892 151 152 138
246147.89196777 3357692.08843994 12.51737118 1 2 6
246137.94079590 3357699.46667480 12.30678558 44 44 42
246136.98632813 3357700.24786377 12.50489998 69 73 72
246137.18762207 3357701.32800293 12.51052475 22 31 28
246148.75634766 3357693.72393799 12.01646042 8 14 10
246146.55554199 3357693.53497314 11.93550205 22 26 29
246148.47180176 3357694.29010010 11.69135284 18 25 18
246139.76794434 3357698.79962158 12.40910435 210 212 209
246148.99841309 3357691.38128662 12.64291859 27 31 40
246148.44091797 3357694.27258301 11.72118664 21 26 20
246136.94482422 3357701.24603271 12.49975777 8 14 14
246148.45275879 3357693.15936279 12.51430988 23 29 29
246149.37353516 3357690.77496338 12.35295486 6 16 26
246146.53918457 3357693.26092529 12.07816887 202 206 218
246136.42968750 3357701.46966553 12.26302433 97 103 93
246138.06457520 3357699.58245850 12.63572407 2 4 3
246137.07275391 3357700.02008057 12.25210094 35 36 30
246149.31311035 3357691.11761475 12.68628311 122 129 137
246139.81713867 3357699.78320313 12.55396175 83 85 82
246140.46716309 3357699.29614258 12.22970390 213 213 215
246139.06945801 3357699.98901367 12.78494263 7 11 10
246146.81408691 3357693.78613281 12.17136574 13 14 19
246138.31274414 3357699.19763184 12.01608181 110 111 113
246136.83630371 3357700.19329834 11.90337753 88 85 80
246136.62683105 3357700.41204834 12.11330605 37 36 34
246148.92932129 3357691.13146973 12.17273235 10 17 27
246148.90136719 3357693.75860596 11.85347271 17 24 17
246138.96691895 3357699.91772461 12.80432892 5 11 11
246138.59802246 3357700.69012451 12.85683537 47 52 46
246148.27307129 3357694.08721924 11.97407532 57 72 51
246137.41015625 3357701.07489014 12.68063831 16 22 18
246147.43615723 3357694.13415527 12.21722507 7 8 13
246149.19506836 3357691.15447998 12.63741875 28 33 37
246138.06591797 3357700.64324951 12.94730759 4 8 9
246140.75683594 3357698.92883301 11.46844006 32 33 28
246137.84973145 3357700.62896729 12.94693279 2 11 8
246146.87817383 3357693.67535400 12.34605503 22 17 24
246149.55065918 3357690.62316895 12.27992344 13 24 28
246146.83752441 3357692.82012939 12.02873611 0 1 6
246151.25329590 3357691.61419678 12.05042648 22 27 23
246147.17968750 3357694.23425293 11.83546925 11 16 12
246138.45568848 3357700.03283691 12.89596367 55 60 56
246139.89331055 3357700.01495361 12.54656696 23 28 21
246147.45397949 3357692.32476807 12.23752594 8 9 14
246137.28320313 3357701.61694336 12.44149494 20 25 28
246139.80932617 3357698.30926514 11.52840996 149 145 136
246136.51525879 3357702.16784668 12.16747761 38 43 37
246148.20434570 3357691.91784668 12.55325031 9 10 12
246149.42431641 3357692.52471924 12.78349113 12 12 10
246136.37609863 3357702.03833008 12.19925594 67 72 65
246148.03332520 3357691.81011963 12.19865417 7 10 17
246138.23645020 3357700.43804932 12.94400501 53 59 57
246150.12988281 3357690.43457031 12.13621521 42 21 26
246136.28076172 3357701.41790771 12.29481030 115 124 119
246148.65441895 3357692.58477783 12.72848511 3 7 10
246149.52453613 3357692.17321777 12.76932144 5 7 6
246134.70605469 3357697.44995117 18.22511292 76 100 42
246147.85034180 3357694.68829346 11.57949257 36 47 41
246135.77172852 3357701.37701416 11.90252972 140 127 121
246142.81469727 3357696.00750732 11.46334171 114 119 122
246138.40417480 3357700.21752930 12.89871883 52 58 56
246150.16735840 3357690.43945313 12.09388924 36 24 24
246148.64611816 3357692.51068115 12.75270939 0 4 5
246151.46337891 3357691.72979736 11.89034843 23 28 22
246150.83203125 3357691.72851563 12.29853535 15 15 15
246137.57702637 3357699.76892090 12.46087837 73 74 76
246150.06579590 3357690.43768311 11.78483105 29 16 7
246150.22644043 3357691.49389648 12.52127075 2 6 9
246140.78283691 3357699.63482666 11.63069057 35 39 40
246150.05224609 3357691.36505127 12.55339146 1 5 8
246148.62133789 3357692.37536621 12.78848648 2 3 5
246139.39392090 3357698.90313721 12.44815445 28 32 33
246147.91662598 3357692.86846924 12.54096031 40 51 55
246138.85803223 3357698.83410645 12.23339558 43 44 39
246148.00769043 3357691.83740234 11.92988396 41 42 47
246147.80346680 3357693.77563477 12.39647102 14 15 19
246137.31921387 3357700.70953369 12.80155468 27 30 19
246141.03381348 3357699.84887695 11.58454227 47 59 39
246136.38085938 3357700.66009521 12.37230110 143 144 139
246149.64990234 3357692.35186768 12.73271942 7 7 5
246146.88500977 3357693.58557129 12.42745495 24 19 23
246136.61279297 3357702.34527588 12.09787560 42 45 38
246147.64050293 3357694.33093262 12.04980183 27 31 32
246136.89331055 3357700.97021484 12.51189137 31 40 35
246149.23950195 3357690.85858154 12.03001690 26 27 29
246147.57678223 3357692.19378662 12.19351196 13 15 14
246148.92614746 3357691.14825439 12.34020996 37 56 70
246150.92529297 3357690.88360596 11.78354168 35 39 38
246136.73828125 3357700.30615234 11.99727917 35 35 35
246144.53356934 3357694.73809814 11.50726414 102 104 90
246137.52795410 3357699.69317627 11.91626644 78 78 80
246135.88476563 3357701.01452637 11.80817604 76 81 77
246139.59826660 3357699.74285889 12.52712917 26 30 29
246149.12329102 3357691.49041748 12.88321590 4 11 17
246137.77600098 3357699.61389160 12.39441967 45 49 48
246147.52124023 3357692.60870361 12.43666363 12 15 20
246147.88281250 3357693.11334229 12.49575806 16 20 21
246149.45947266 3357691.03881836 12.66169167 112 121 128
246138.31994629 3357700.39221191 12.93404579 50 55 51
246138.74230957 3357698.94580078 12.36886120 34 32 33
246136.71960449 3357701.26000977 12.41118050 85 90 86
246144.78491211 3357694.61450195 11.51856327 76 79 72
246149.72998047 3357690.58300781 11.80480385 25 25 25
246136.40002441 3357701.04382324 12.47903919 131 136 132
246148.14697266 3357693.26513672 12.45096588 19 28 25
246147.37585449 3357694.31542969 11.89431095 11 16 12
246150.11816406 3357690.44042969 12.27993488 71 34 42
246148.69348145 3357691.66394043 12.62479019 10 20 21
246139.51159668 3357699.91638184 12.57395744 6 12 12
246148.65661621 3357692.43896484 12.77523041 2 3 5
246134.61767578 3357697.55187988 18.45063591 58 83 15
246148.82604980 3357691.50122070 12.59484768 10 15 19
246148.20214844 3357693.55572510 12.33948326 54 59 63
246147.80236816 3357694.26788330 12.14054108 33 42 37
246135.96862793 3357700.96307373 12.16631126 105 108 113
246148.60742188 3357693.55957031 12.34560680 8 17 14
246147.08593750 3357693.63092041 12.52574348 48 32 33
246138.35742188 3357700.34075928 12.92816067 50 55 51
246140.93115234 3357699.82806396 11.56978798 59 67 54
246137.16503906 3357701.27276611 12.52085590 18 27 22
246140.85632324 3357699.15374756 11.47658348 34 33 31
246148.91296387 3357693.37298584 12.51273823 6 12 10
246147.57592773 3357692.89495850 12.51794147 14 18 21
246136.53857422 3357700.60540771 12.41814041 209 208 203
246136.78173828 3357700.29992676 12.12646294 59 60 55
246139.42871094 3357698.48309326 11.59552479 168 164 153
246140.74780273 3357699.70458984 11.66980839 30 35 31
246137.01977539 3357701.17749023 12.52688503 33 42 39
246146.69555664 3357692.86212158 11.92775345 31 30 35
246150.91845703 3357691.79718018 12.22585392 16 20 19
246147.69616699 3357693.74365234 12.46279049 16 17 19
246150.43225098 3357691.20214844 12.42509270 2 6 7
246148.16979980 3357691.92510986 12.53979397 10 11 13
246148.61828613 3357693.93652344 11.83028221 12 16 17
246137.01525879 3357700.06994629 12.23221970 52 52 44
246134.76184082 3357697.46191406 18.40033150 101 127 66
246148.33044434 3357691.57409668 12.07561588 20 24 27
246140.80444336 3357699.33074951 11.70852661 4 8 7
246140.00866699 3357698.50988770 11.75241852 160 159 155
246139.00170898 3357700.46691895 12.82219601 42 49 42
246146.72570801 3357693.52502441 12.26315784 18 19 24
246140.71191406 3357700.03814697 11.64993286 42 48 36
246148.31433105 3357693.82238770 12.19704914 20 22 21
246137.78552246 3357699.84106445 12.79178715 10 11 15
246134.30969238 3357697.57196045 18.42207146 95 120 54
246136.12756348 3357701.62310791 12.21709251 141 149 151
246150.28930664 3357691.65447998 12.51698399 3 7 8
246149.07263184 3357692.61352539 12.78682709 3 3 5
246150.32409668 3357690.40997314 11.47873783 86 77 62
246134.78247070 3357697.38366699 18.18296051 65 88 36
246139.82983398 3357698.49682617 11.92014694 143 143 141
246147.86865234 3357694.19555664 12.17026424 29 36 29
246146.56640625 3357693.21557617 12.12562275 205 211 227
246147.98620605 3357693.88403320 12.25862694 11 15 16
246149.64660645 3357692.52923584 12.73130131 28 27 25
246147.99304199 3357692.56445313 12.59114838 13 21 23
246150.78540039 3357690.87310791 12.01535702 13 19 19
246146.67724609 3357692.85516357 11.85270214 35 39 42
246148.70654297 3357692.80096436 12.66145134 3 8 14
246147.24902344 3357692.50775146 12.25800514 76 89 98
246140.37109375 3357699.19122314 12.22269917 194 203 200
246138.41064453 3357700.12719727 12.89471817 54 59 55
246149.81701660 3357692.21215820 12.66537189 11 11 11
246148.01367188 3357693.27349854 12.45119095 9 11 10
246146.83251953 3357693.80670166 12.17770004 11 12 17
246136.19580078 3357700.95977783 12.51129532 156 161 164
246150.34460449 3357691.35693359 12.46996784 0 4 7
246150.89843750 3357691.47052002 12.28938293 11 13 10
246147.85510254 3357694.61181641 11.63031197 27 36 31
246148.29345703 3357694.06121826 11.98436356 37 48 34
246136.60314941 3357700.63439941 12.45442677 125 125 123
246150.35046387 3357690.47943115 12.06918240 11 12 14
246138.94226074 3357698.78674316 12.14992237 47 43 40
246149.64270020 3357691.31970215 12.69534492 0 1 3
246150.49890137 3357690.86590576 12.40277100 9 13 16
246146.82751465 3357693.54919434 12.37341976 18 16 21
246136.88806152 3357701.80761719 12.31084347 39 44 38
246140.08081055 3357699.17895508 12.46615219 236 235 240
246148.96545410 3357692.27386475 12.83006096 3 4 6
246135.14331055 3357697.14111328 18.38022423 59 84 45
246134.54650879 3357697.39086914 18.64512253 103 128 26
246147.05871582 3357693.99945068 12.16543961 7 8 12
246140.70617676 3357699.48736572 12.02206039 104 110 110
246139.00244141 3357698.81231689 11.82838440 158 158 156
246147.52807617 3357692.42736816 12.45040798 33 38 42
246134.79077148 3357697.30340576 18.59924507 43 65 3
246137.78503418 3357701.18377686 12.80035877 16 20 21
246137.77392578 3357699.53833008 11.97981167 88 87 83
246148.47766113 3357692.74798584 12.65181637 3 4 9
246148.24133301 3357691.64514160 12.31884193 4 11 19
246139.31872559 3357699.57592773 12.51467037 41 45 48
246137.33349609 3357700.27136230 12.81452274 149 151 150
246140.68029785 3357699.73870850 11.91076756 48 58 50
246147.83227539 3357692.81567383 12.52512360 24 34 36
246150.13366699 3357691.75170898 12.54825211 16 18 17
246138.95324707 3357698.78588867 12.35848618 52 44 41
246140.47912598 3357699.75402832 12.30554390 48 63 56
246136.59667969 3357700.58782959 12.43856239 167 168 163
246140.18200684 3357699.97167969 12.43253517 51 61 50
246150.24108887 3357691.97125244 12.52500629 7 13 13
246140.41674805 3357699.97467041 12.22381878 49 61 47
246149.12902832 3357690.99047852 12.29461956 11 25 34
246140.48706055 3357698.67364502 11.52823639 18 25 18
246149.98193359 3357692.32135010 12.59745693 7 9 8
246140.78942871 3357699.92443848 11.60594463 46 54 39
246134.74084473 3357697.04949951 18.74814987 66 88 26
246138.14038086 3357700.70916748 12.93410110 4 8 9
246137.28552246 3357700.56921387 12.84062767 30 33 24
246150.43469238 3357690.46777344 11.88166714 24 25 29
246149.76977539 3357691.78552246 12.64921284 4 5 7
246139.14904785 3357699.93804932 12.71114731 9 13 14
246148.24707031 3357691.65161133 11.84805393 49 51 50
246147.86816406 3357694.37585449 11.89187622 22 28 26
246137.49816895 3357701.26556396 12.63439274 9 15 13
246148.00158691 3357694.59338379 11.63543320 34 43 38
246136.21862793 3357701.04400635 12.49913597 150 156 156
246140.47863770 3357698.30273438 11.46984959 138 142 145
246140.74768066 3357699.09826660 11.49514675 0 0 0
246138.16589355 3357699.28259277 12.08485794 30 30 28
246150.43383789 3357691.22613525 12.42779160 2 6 7
246136.54772949 3357701.94335938 12.21133041 66 69 60
246145.92687988 3357693.81835938 11.46543884 131 133 120
246147.70886230 3357692.92639160 12.52743816 10 14 17
246150.79345703 3357691.46533203 12.33697414 5 7 6
246136.63305664 3357702.19445801 12.16425991 57 64 56
246147.81323242 3357693.07897949 12.51447296 14 15 17
246136.02832031 3357700.88232422 11.93827057 41 46 40
246137.72155762 3357700.61883545 12.93087196 13 17 16
246138.83654785 3357699.49310303 12.67247009 10 14 17
246146.52160645 3357693.23101807 12.00336552 27 28 30
246147.30786133 3357692.64526367 12.37330914 34 45 51
246148.04687500 3357693.04211426 12.51410389 21 30 29
246149.78735352 3357691.41760254 12.63735390 2 6 7
246137.23596191 3357700.25329590 12.70605373 6 7 9
246148.03234863 3357693.89593506 12.23415756 15 19 18
246147.76208496 3357693.65972900 12.48797321 12 13 15
246138.65979004 3357699.57287598 12.82925797 8 12 15
246148.98437500 3357693.04107666 12.71644402 31 32 34
246148.24377441 3357693.96411133 12.09772587 24 31 24
246134.58081055 3357697.57012939 18.38889503 89 113 51
246137.40258789 3357699.91656494 12.47587204 190 190 188
246150.22534180 3357690.46380615 12.30125332 56 27 32
246137.90832520 3357700.94891357 12.89319420 27 33 31
246140.80041504 3357699.41638184 11.77442837 29 33 32
246137.38940430 3357700.98431396 12.71571445 10 15 9
246140.75952148 3357699.32287598 11.83371639 191 192 194
246148.32812500 3357693.57672119 12.35571957 48 49 51
246148.64978027 3357694.16345215 11.67068958 18 20 15
246150.33154297 3357692.27252197 12.45439816 4 9 5
246135.93981934 3357701.27465820 12.32460690 155 162 170
246147.13427734 3357694.18615723 11.92790985 19 23 22
246140.41784668 3357699.39349365 12.29118538 236 234 235
246149.45849609 3357690.74084473 12.41875172 36 54 64
246150.32812500 3357691.34991455 12.47365475 0 3 6
246147.27185059 3357692.84313965 12.42428875 36 37 41
246137.55310059 3357700.88848877 12.86221504 32 37 31
246148.03442383 3357692.00421143 12.53650951 13 17 20
246148.05847168 3357692.67761230 12.60849571 6 16 15
246147.06530762 3357693.61273193 12.53781509 59 40 42
246151.37805176 3357691.66784668 11.95260048 23 28 22
246137.01831055 3357701.11578369 12.54235268 37 48 44
246136.82043457 3357700.55139160 12.40124226 97 103 103
246146.55151367 3357693.53088379 11.92995071 24 25 29
246145.30407715 3357694.13983154 11.45025826 152 148 119
246140.71789551 3357700.09277344 11.63354874 51 55 40
246138.29736328 3357699.42108154 12.64169407 1 5 4
246140.05065918 3357699.02325439 12.41401768 224 226 225
246149.76757813 3357690.53894043 11.99443817 21 21 29
246149.44323730 3357690.68402100 12.05495834 18 22 25
246145.96704102 3357693.77294922 11.46317768 104 105 97
246134.53613281 3357697.20501709 18.77317810 126 150 66
246140.02331543 3357698.48773193 11.70010281 229 225 222
246136.37658691 3357702.11755371 12.16999054 46 51 44
246136.31701660 3357701.55969238 12.23055553 115 121 117
246135.02014160 3357697.05468750 18.56333351 71 98 31
246147.48693848 3357692.27673340 12.06236553 31 32 34
246148.71203613 3357691.54809570 12.55233669 14 18 21
246140.96813965 3357699.68206787 11.49049568 42 45 38
246148.19641113 3357692.42181396 12.68556595 2 11 10
246138.30029297 3357699.19738770 12.12559414 62 64 63
246139.87145996 3357699.64709473 12.54945755 22 26 25
246149.81054688 3357690.74493408 12.52050495 36 39 46
246147.85815430 3357694.63195801 11.61278057 27 36 31
246140.32592773 3357699.76202393 12.39260483 122 131 126
246149.10058594 3357692.07012939 12.85360432 5 6 10
246150.33300781 3357691.78826904 12.50619316 0 3 2
246139.84765625 3357698.46966553 11.59855938 190 189 185
246139.45581055 3357699.61297607 12.49247932 41 42 44
246139.83935547 3357698.21624756 11.52600288 154 151 136
246145.79943848 3357693.89794922 11.47594547 93 94 76
246150.00256348 3357692.01623535 12.58137417 2 6 7
246149.60400391 3357690.62286377 12.02803040 19 18 24
246147.90917969 3357694.02618408 12.23866844 8 17 14
246135.75939941 3357701.16119385 11.73029613 118 109 100
246147.18847656 3357692.50762939 12.20310497 12 13 17
246138.99438477 3357700.30407715 12.87590694 29 34 28
246149.87683105 3357692.58947754 12.52998543 22 17 14
246149.02880859 3357693.61993408 12.02850819 5 12 5
246149.73840332 3357692.09539795 12.68604946 8 10 9
246147.01318359 3357693.75103760 12.39233685 30 24 26
246136.70007324 3357700.68817139 12.45380974 39 40 42
246138.51049805 3357699.01342773 11.82504272 33 35 30
246140.65161133 3357698.92108154 11.51385403 0 2 1
246137.70751953 3357701.24151611 12.74560452 6 12 12
246137.89318848 3357700.40588379 12.95583439 7 13 13
246149.91955566 3357692.69146729 12.36510658 77 81 54
246147.29760742 3357694.13995361 12.13689613 4 8 11
246149.38232422 3357690.73718262 12.00383282 27 28 33
246147.26464844 3357693.34838867 12.67957592 119 81 92
246149.07690430 3357692.29260254 12.82133389 4 5 9
246137.16870117 3357701.80688477 12.36130047 43 48 42
246139.00634766 3357698.77038574 12.32387352 54 44 42
246140.90869141 3357697.40350342 11.49495220 113 111 98
246140.00256348 3357699.56414795 12.56681538 11 17 17
246149.71545410 3357691.32403564 12.66478729 0 3 4
246147.72033691 3357692.07427979 12.27280045 10 11 13
246140.72021484 3357699.88562012 11.67682076 51 56 49
246137.13732910 3357700.63500977 12.67486191 12 18 14
246139.86230469 3357698.50030518 11.84628487 139 141 140
246138.67175293 3357698.99066162 12.35731411 29 31 30
246148.22546387 3357692.53247070 12.68391418 3 12 11
246147.65283203 3357692.25152588 12.46403217 44 49 55
246147.48461914 3357692.48547363 12.41581440 33 40 50
246149.01123047 3357692.47064209 12.80463600 3 3 3
246137.51232910 3357699.71575928 12.29253292 40 40 40
246138.35046387 3357699.97894287 12.88662052 61 65 64
246136.48510742 3357700.59442139 12.36404896 167 166 161
246151.44775391 3357691.56225586 11.90185356 32 39 32
246135.79089355 3357701.40972900 12.09518719 132 132 132
246140.16979980 3357698.99121094 12.08654594 207 219 219
246139.85705566 3357698.27636719 11.53513908 144 141 136
246148.07202148 3357692.05920410 12.66810322 3 3 5
246148.96093750 3357691.09814453 11.87001610 32 32 34
246138.56945801 3357698.98602295 12.18868160 29 34 30
246136.62524414 3357702.41235352 12.02075195 43 46 37
246135.07214355 3357697.17016602 18.54252243 67 99 26
246149.82910156 3357691.47100830 12.62064743 1 5 6
246148.44775391 3357691.47869873 12.26190567 9 16 26
246140.69873047 3357699.16888428 11.67730618 109 113 114
246149.32495117 3357690.93347168 12.49373531 172 189 197
246138.67358398 3357699.22546387 12.68142414 73 74 76
246148.65100098 3357691.34667969 11.87671089 27 32 36
246147.71606445 3357692.76983643 12.49357510 44 49 53
246149.67773438 3357691.89971924 12.69129181 6 10 11
246147.41430664 3357693.11895752 12.62893486 31 19 21
246149.36889648 3357690.84729004 12.44170475 63 83 94
246139.06750488 3357699.93762207 12.76235676 7 11 10
246136.52026367 3357700.94738770 12.46201611 109 115 113
246139.38317871 3357698.65283203 12.20478153 125 126 121
246148.64367676 3357693.41418457 12.47078323 24 34 33
246140.64086914 3357699.72326660 12.07798862 46 59 52
246138.56176758 3357699.39013672 12.81847572 32 34 33
246140.42968750 3357699.13958740 11.87376499 177 187 188
246139.73034668 3357698.42419434 11.54635906 147 143 132
246150.57678223 3357691.10290527 12.38691235 3 7 8
246148.88281250 3357691.91583252 12.91163445 9 13 14
246149.59936523 3357692.70031738 12.66593933 25 20 16
246139.25329590 3357699.18316650 12.50854397 53 58 61
246148.56384277 3357691.40423584 12.23926926 5 9 21
246138.06701660 3357700.06549072 12.91507912 66 72 72
246147.96166992 3357693.04815674 12.49161625 14 23 22
246140.13183594 3357698.20770264 11.51715469 102 100 101
246145.39636230 3357694.14416504 11.45887661 137 134 115
246148.02905273 3357692.10913086 12.63620377 20 21 25
246136.82275391 3357700.33380127 12.44782448 125 127 124
246134.62170410 3357697.40075684 18.60519981 152 178 79
246135.95410156 3357701.19085693 12.34999943 211 218 226
246148.17419434 3357691.99133301 12.66350746 0 3 6
246146.65588379 3357693.65936279 12.04058933 30 34 35
246136.48559570 3357700.64105225 12.42747688 216 213 208
246135.03161621 3357696.99609375 18.50776291 45 69 19
246150.91918945 3357691.15093994 12.17130184 9 10 12
246145.21472168 3357694.29052734 11.47125340 163 160 119
246135.90441895 3357701.67474365 12.19392109 56 65 70
246149.89501953 3357691.79998779 12.60545921 2 3 5
246136.24841309 3357701.02197266 12.50981140 153 159 159
246138.28942871 3357699.16046143 11.84801292 97 98 102
246138.00939941 3357700.16967773 12.94333172 65 69 68
246138.54309082 3357700.43341064 12.90749264 51 53 50
246149.34655762 3357691.46960449 12.83272839 3 4 6
246138.70544434 3357700.36816406 12.89766979 51 53 48
246149.66101074 3357692.29626465 12.72997379 12 14 11
246139.31884766 3357699.94683838 12.61843300 8 14 14
246148.47912598 3357694.04254150 11.83853340 8 8 8
246147.46557617 3357692.64727783 12.42666912 19 22 27
246135.76098633 3357701.18212891 11.73908901 118 109 100
246147.84704590 3357691.94757080 11.94770432 39 40 42
246138.65356445 3357700.23779297 12.91079330 53 55 52
246135.76281738 3357701.22570801 11.75498104 118 109 100
246136.53723145 3357702.22888184 12.14738464 40 43 36
246147.53625488 3357692.98400879 12.56051731 1 0 2
246137.88171387 3357699.73321533 12.73487377 6 6 8
246149.01147461 3357691.06097412 12.10458565 17 24 32
246149.71606445 3357691.03747559 12.61366272 3 7 8
246140.53393555 3357699.19274902 11.92726231 179 189 190
246147.33886719 3357692.55364990 12.35075188 90 104 117
246149.81323242 3357691.76019287 12.63179302 4 6 5
246149.04101563 3357693.80151367 11.74963093 4 10 6
246147.71777344 3357694.65435791 11.60086060 28 39 33
246140.83154297 3357699.42065430 11.60674191 46 48 47
246150.79321289 3357691.05664063 12.30022430 18 20 19
246147.87573242 3357691.92559814 11.98783398 29 30 32
246139.71032715 3357698.54290771 11.87076855 169 168 166
246149.25122070 3357690.85284424 12.21858215 12 18 18
246138.33935547 3357699.87536621 12.87996960 63 67 66
246147.38671875 3357693.30682373 12.67120457 71 29 43
246144.67089844 3357694.69757080 11.51198387 88 93 87
246148.57128906 3357691.39855957 12.25035954 3 6 21
246139.16894531 3357700.32342529 12.76914978 24 26 21
246138.02770996 3357699.39331055 11.85960865 88 88 86
246151.61437988 3357691.65728760 11.77023029 34 39 32
246149.78283691 3357690.57794189 12.36483765 100 129 145
246139.37878418 3357699.93310547 12.59997940 7 11 12
246149.92321777 3357692.30584717 12.62171173 7 9 6
246139.44079590 3357698.61871338 11.96211052 137 138 133
246137.07092285 3357700.60375977 12.57583332 21 30 29
246136.41662598 3357701.40087891 12.29041386 106 111 104
246148.41247559 3357691.51440430 12.10551929 16 21 25
246139.31408691 3357698.52380371 11.62244034 111 105 89
246148.94665527 3357691.11022949 12.05714607 19 24 30
246137.00073242 3357700.13940430 12.39204884 53 56 49
246148.65783691 3357691.36285400 12.40405178 67 82 105
246136.09301758 3357700.77764893 11.77043152 143 143 145
246137.55419922 3357700.09027100 12.79186821 4 8 9
246149.74890137 3357691.92169189 12.66861248 7 8 10
246137.26989746 3357700.23376465 12.72825050 5 5 7
246150.61535645 3357691.93640137 12.41185188 23 25 22
246148.25488281 3357693.87921143 12.17001247 20 24 23
246137.28112793 3357700.90197754 12.68924046 25 32 24
246149.15051270 3357691.02020264 12.39886570 96 125 129
246148.33959961 3357691.62145996 12.43041992 73 82 97
246137.27795410 3357701.82037354 12.34098816 37 43 41
246148.02404785 3357692.15118408 12.66613293 54 58 61
246139.66381836 3357698.79571533 12.40711021 219 214 211
246149.94641113 3357691.51354980 12.58462715 3 7 8
246147.48425293 3357693.97955322 12.30586529 22 23 27
246147.67639160 3357692.61926270 12.47321701 214 225 229
246139.24792480 3357699.87817383 12.62588406 10 14 15
246140.59655762 3357699.24255371 12.01097679 194 199 202
246148.03967285 3357692.86572266 12.57139874 25 39 40
246138.38220215 3357699.14813232 12.12309361 32 34 31
246137.17724609 3357700.54974365 12.74061394 31 36 30
246137.72644043 3357700.35894775 12.93248272 6 8 7
246149.44006348 3357692.58721924 12.77903652 27 25 26
246149.31787109 3357690.79406738 12.29424667 13 22 27
246146.87475586 3357692.72552490 11.92631245 46 44 45
246146.52062988 3357693.32336426 12.05392265 51 51 59
246138.11120605 3357700.81884766 12.91239548 4 10 10
246150.29199219 3357690.45581055 12.02697182 17 19 18
246137.51330566 3357701.25939941 12.64707947 9 15 13
246138.33422852 3357699.94976807 12.88468838 60 64 63
246149.97119141 3357690.81085205 12.50256443 5 9 10
246148.97912598 3357692.04760742 12.87135220 4 10 10
246150.35644531 3357691.59893799 12.49850941 3 7 8
246138.69775391 3357699.38970947 12.76569939 12 13 17
246136.48205566 3357700.99816895 12.45957470 116 121 117
246149.95959473 3357692.47229004 12.48448658 12 17 13
246149.50024414 3357691.30145264 12.75434685 3 4 6
246147.15100098 3357693.80786133 12.38144779 23 14 15
246147.16821289 3357694.11279297 12.10242367 3 5 4
246136.90722656 3357700.79394531 12.49034977 31 40 39
246137.25305176 3357700.62463379 12.80012321 40 46 36
246138.87145996 3357699.02056885 12.49720001 93 98 101
246148.42199707 3357693.96185303 11.97841549 9 9 7
246148.36816406 3357691.56616211 11.86202335 47 48 50
246137.26611328 3357701.01226807 12.62405396 17 24 17
246137.44299316 3357699.93359375 12.56216431 93 95 94
246137.59143066 3357699.65258789 11.97010040 89 89 91
246147.87451172 3357692.17907715 12.57514000 18 22 25
246140.09838867 3357699.08294678 12.40535259 225 229 230
246148.31506348 3357692.70391846 12.67686081 31 36 40
246136.33203125 3357701.00244141 12.51877594 141 150 147
246150.34777832 3357691.49591064 12.48736763 2 8 8
246148.97949219 3357693.83532715 11.73321724 12 19 11
246139.75964355 3357698.95855713 12.48372078 165 167 166
246140.28991699 3357699.00659180 11.81981564 177 189 189
246147.60522461 3357692.36523438 12.47447109 30 40 42
246138.41564941 3357699.75970459 12.87282848 59 65 65
246147.81909180 3357693.54174805 12.49113369 12 12 14
246149.29309082 3357692.33880615 12.80460358 3 5 4
246148.42456055 3357692.99945068 12.56564522 0 4 7
246140.14172363 3357699.83959961 12.48811054 52 62 53
246146.67114258 3357693.54675293 12.19147205 11 16 19
246140.21459961 3357698.96838379 11.91336060 191 203 203
246149.12207031 3357690.96362305 11.99422455 19 20 25
246136.64294434 3357702.04754639 12.18551540 41 47 37
246138.24938965 3357700.81628418 12.90593052 16 20 19
246144.15954590 3357695.05566406 11.48685455 108 110 96
246139.52746582 3357698.59832764 12.08920479 139 140 134
246139.51733398 3357698.62042236 11.79390049 132 132 130
246137.28942871 3357701.70489502 12.39175129 88 94 92
246137.32495117 3357701.08978271 12.61966705 17 24 17
246148.57299805 3357691.43267822 12.43350220 84 99 118
246149.45593262 3357691.37518311 12.77928925 2 4 3
246148.06835938 3357691.96905518 12.52231407 7 11 14
246147.83752441 3357693.33837891 12.50572205 19 20 22
246146.81140137 3357692.85681152 12.06565380 3 3 11
246138.26269531 3357700.10058594 12.89517689 60 64 63
246140.80651855 3357700.07287598 11.62546062 55 64 43
246137.81787109 3357699.82946777 12.79712677 4 5 9
246137.93298340 3357700.88256836 12.90674877 3 9 9
246139.59375000 3357698.81933594 12.41809177 210 205 202
246137.78601074 3357700.20489502 12.91459846 29 31 30
246149.48498535 3357691.25701904 12.75710869 2 2 4
246140.25146484 3357698.66992188 11.73510361 198 203 206
246151.00952148 3357691.66363525 12.19445324 16 21 17
246149.78125000 3357691.08972168 12.59405327 4 8 9
246139.12719727 3357698.73852539 11.95445061 84 84 84
246138.83239746 3357700.30718994 12.89488125 53 55 50
