245612.67590332 3357425.36209106 20.98142242 176 189 205
245611.96954346 3357430.03659058 19.99315643 29 39 49
245611.79296875 3357427.62731934 20.23919868 30 34 37
245613.26495361 3357426.82141113 19.93640900 29 30 34
245612.37145996 3357432.30987549 19.83863449 195 188 195
245612.87524414 3357431.16326904 19.66762543 178 171 165
245612.71185303 3357428.83621216 20.30770683 224 225 227
245613.42816162 3357427.42208862 19.72728729 58 62 65
245613.40338135 3357426.24716187 19.82429123 13 17 20
245613.40460205 3357428.07955933 19.83810043 123 129 141
245613.50054932 3357428.86096191 20.13454056 46 50 59
245613.13476563 3357424.52871704 20.14487457 43 44 48
245613.40216064 3357426.23284912 19.82155418 13 17 20
245613.31610107 3357431.32284546 19.76659775 177 175 176
245612.29382324 3357429.24932861 20.57281876 66 71 75
245612.63647461 3357425.19757080 20.96055412 167 181 194
245613.43615723 3357424.08709717 19.85424232 28 29 33
245613.41137695 3357432.25054932 20.14546204 232 233 238
245613.26824951 3357427.58041382 19.96126366 56 59 66
245612.69049072 3357432.39157104 20.07437706 215 219 220
245613.36334229 3357423.69204712 20.12508774 6 10 13
245613.12481689 3357424.70474243 20.59731293 9 14 17
245613.17712402 3357425.77749634 20.41402435 62 67 70
245613.19750977 3357432.24926758 19.92578125 111 107 108
245612.97320557 3357430.20858765 20.19075584 54 59 63
245612.21105957 3357427.16009521 20.06936264 16 21 25
245613.24621582 3357429.88803101 19.95973015 87 88 92
245612.01263428 3357429.14242554 20.12053490 167 172 176
245612.78845215 3357426.32107544 20.63134956 122 129 137
245613.61785889 3357432.25140381 19.79856300 88 93 97
245611.92895508 3357430.57489014 19.82673264 75 78 83
245613.15484619 3357424.28018188 20.60663414 17 18 20
245611.88244629 3357426.82464600 20.42092514 26 20 24
245612.84564209 3357432.20919800 20.20767403 97 98 103
245613.35552979 3357428.26501465 19.88738441 152 157 163
245612.38159180 3357425.53216553 20.99311066 182 190 201
245612.70776367 3357426.04885864 20.65423203 127 145 155
245613.38287354 3357430.03570557 20.30586624 159 155 169
245612.86053467 3357425.26818848 20.89216042 183 199 215
245613.44396973 3357432.29309082 19.97291183 211 213 225
245612.35125732 3357429.03811646 20.38064384 40 47 53
245612.98516846 3357424.86859131 20.17962074 48 53 56
245611.89984131 3357427.54116821 20.21488762 29 30 35
245613.21667480 3357423.98699951 20.45591354 47 52 56
245613.28002930 3357432.24398804 20.16080856 183 184 189
245613.15631104 3357424.55502319 20.29581261 66 67 71
245613.53460693 3357430.66448975 20.23173904 178 183 189
245613.34991455 3357427.49441528 19.78116608 62 67 71
245612.95721436 3357425.19348145 20.84152222 82 95 112
245612.49285889 3357432.11865234 19.91039276 180 178 181
245612.36352539 3357429.21777344 20.53346443 67 72 76
245613.05261230 3357430.07415771 20.30033112 55 56 61
245613.13397217 3357432.30468750 19.79407501 140 133 127
245613.34893799 3357429.26019287 20.34692001 34 38 47
245612.24829102 3357432.03524780 19.85409164 233 228 232
245612.46533203 3357429.82144165 19.88515854 78 78 78
245612.85858154 3357432.11187744 19.71285820 194 187 181
245611.95916748 3357427.61956787 20.23090744 25 29 32
245613.39044189 3357424.87683105 19.81466866 34 35 39
245613.25079346 3357427.95144653 20.02919006 135 145 155
245612.53479004 3357431.10739136 19.63998032 179 172 166
245613.30358887 3357424.08633423 20.00084305 20 21 26
245613.28704834 3357429.02194214 20.36084747 22 31 40
245613.22875977 3357429.55419922 20.10235214 53 58 61
245613.04278564 3357426.31408691 20.55839920 214 226 240
245613.39160156 3357428.34164429 19.83397102 148 151 158
245612.78527832 3357430.77258301 19.72578812 93 94 99
245613.46307373 3357430.82250977 19.82249260 156 160 163
245613.28173828 3357426.70870972 20.18513680 47 48 53
245613.01123047 3357425.59164429 20.75518036 90 94 106
245611.64764404 3357426.46215820 20.62811852 15 16 18
245612.62402344 3357429.63925171 19.88766479 196 195 193
245612.64593506 3357432.21469116 20.31390572 192 187 184
245613.44000244 3357428.07354736 19.81980896 97 102 108
245612.86572266 3357429.91812134 20.12084961 104 100 101
245612.24005127 3357429.70333862 20.12568283 42 43 48
245611.91180420 3357427.43954468 20.17661476 23 27 30
245613.53778076 3357427.34103394 19.67471886 58 62 65
245612.34600830 3357427.03445435 20.14861488 40 41 43
245613.51879883 3357430.94992065 19.73309135 121 125 126
245613.47174072 3357431.27139282 19.77288055 168 169 171
245612.28491211 3357430.37866211 19.87612724 71 70 76
245613.01617432 3357430.32299805 20.29263496 75 78 83
245612.15228271 3357429.71725464 20.14727974 25 28 33
245613.47802734 3357427.67871094 19.69223022 56 57 62
245612.48950195 3357432.47116089 19.64923859 146 137 130
245612.61499023 3357427.68609619 20.24043083 22 25 30
245613.25317383 3357429.98565674 20.08475304 52 53 58
245611.75048828 3357427.05389404 20.10322762 22 23 27
245611.91839600 3357428.89648438 20.05986595 103 117 128
245612.25207520 3357427.84439087 20.25421715 100 105 111
245612.74218750 3357431.39758301 19.72271347 166 159 151
245612.48748779 3357429.88525391 19.79139900 49 50 54
245611.95666504 3357430.23870850 19.89168930 69 74 80
245612.86126709 3357426.85913086 20.44543648 112 119 127
245612.90802002 3357426.18899536 20.62133026 127 142 149
245612.55548096 3357431.77197266 19.76670265 188 176 176
245612.50164795 3357430.29327393 19.80886459 69 70 75
245613.26635742 3357424.09909058 20.24131966 30 33 38
245613.30419922 3357424.91784668 19.83979034 25 24 29
245612.00616455 3357430.43463135 19.87953186 62 62 70
245612.26977539 3357430.09243774 19.86171913 38 38 40
245612.04931641 3357428.39254761 19.77972031 87 90 99
245612.47058105 3357430.94906616 19.61192131 167 157 155
245612.79602051 3357429.03051758 20.41539955 162 162 170
245613.46875000 3357428.44400024 19.76058388 51 52 57
245613.05749512 3357424.85119629 19.96529961 47 51 54
245612.11816406 3357428.81353760 20.07297516 25 29 38
245613.09112549 3357430.53158569 20.32725716 130 135 141
245612.67669678 3357428.38946533 20.12446785 134 138 147
245613.21405029 3357425.83572388 20.32606316 46 51 55
245613.19055176 3357424.17843628 20.51422501 69 70 74
245612.83892822 3357426.65859985 20.60200119 206 216 228
245613.46093750 3357427.77389526 19.74359703 61 62 67
245612.69543457 3357426.16070557 20.64978790 138 155 162
245611.78002930 3357428.17324829 19.90860748 29 34 38
245613.13568115 3357424.65576172 20.59302139 11 16 19
245613.01477051 3357428.16864014 20.10663605 103 110 118
245612.87243652 3357429.44177246 20.28162003 176 152 150
245613.49768066 3357426.82525635 19.76325035 42 45 50
245612.45471191 3357427.23843384 20.10656166 20 23 28
245612.54351807 3357425.98989868 20.67240334 163 182 189
245613.26721191 3357425.86895752 20.16453552 43 48 52
245612.79302979 3357431.54135132 19.71067047 182 171 169
245613.50018311 3357427.07144165 19.74752617 54 57 62
245612.14343262 3357428.20877075 20.11466599 52 55 60
245613.11895752 3357424.51510620 20.68930435 12 13 17
245612.98272705 3357427.61550903 20.17387199 39 42 47
245612.55584717 3357428.03790283 20.18681145 111 116 122
245613.39733887 3357428.05740356 19.85146523 119 126 136
245612.08410645 3357431.94235229 19.72211266 223 213 211
245613.25360107 3357432.17306519 19.86687088 135 127 125
245613.28826904 3357428.88214111 20.24524689 59 69 81
245613.57043457 3357429.63143921 20.25725555 73 77 86
245612.69079590 3357427.62448120 20.22334480 23 27 30
245612.12359619 3357426.09976196 20.69508743 166 185 192
245612.04168701 3357431.81640625 19.67959213 155 142 136
245613.04687500 3357424.78091431 20.30545807 51 56 59
245613.31323242 3357429.24465942 20.37277031 47 47 57
245611.63909912 3357426.65429688 20.56749153 12 13 15
245613.48358154 3357432.26861572 20.04229355 233 240 250
245613.18402100 3357430.86154175 19.77715302 125 127 124
245612.42614746 3357426.07415771 20.66961098 171 190 197
245612.52807617 3357427.00369263 20.22301292 142 149 159
245613.39978027 3357431.76950073 19.88130760 109 100 101
245613.54071045 3357428.42169189 19.67305565 44 45 47
245612.89190674 3357425.18734741 20.86429024 175 193 207
245613.25592041 3357431.78845215 19.82656097 168 158 156
245613.51159668 3357430.65298462 20.26521873 177 182 186
245612.86657715 3357426.41619873 20.60538673 211 219 230
245613.07604980 3357424.74719238 20.35183334 55 61 61
245612.48229980 3357429.12423706 20.40093231 82 83 87
245613.19641113 3357424.50738525 20.37233162 65 66 70
245613.30328369 3357430.11456299 20.40157890 105 102 111
245613.35125732 3357426.02548218 19.87560844 47 51 54
245612.70947266 3357432.47076416 19.60897636 67 69 68
245613.23596191 3357428.67724609 20.12497711 44 48 60
245613.34942627 3357426.08666992 19.87063408 49 50 54
245612.86114502 3357428.69284058 20.26350594 229 228 233
245612.35253906 3357429.38275146 20.57569885 88 93 99
245613.11822510 3357431.05386353 19.66844940 178 173 169
245612.28149414 3357431.28256226 19.65906525 193 184 185
245613.24896240 3357424.59008789 19.81775475 25 29 32
245611.98602295 3357428.92965698 20.10347557 20 33 42
245612.74432373 3357429.30844116 20.34859467 119 109 107
245613.38494873 3357429.03311157 20.30616570 50 59 68
245613.33593750 3357429.63455200 19.81419373 84 83 81
245612.35699463 3357429.54153442 20.15873146 51 52 54
245612.40679932 3357429.99768066 19.76294518 108 107 112
245613.42254639 3357425.51687622 19.97850609 31 32 36
245613.43713379 3357430.00399780 20.32993507 14 13 19
245612.28552246 3357431.90191650 19.81493187 111 105 107
245612.98040771 3357424.90414429 20.05139160 71 77 77
245613.01977539 3357429.45684814 20.32576561 46 44 47
245613.34899902 3357432.35754395 19.96444321 221 222 226
245612.52703857 3357428.67559814 20.09228325 47 54 62
245611.88214111 3357428.24560547 19.83345413 74 74 84
245613.09106445 3357428.62365723 20.14396477 66 69 76
245612.70288086 3357428.47698975 20.15664291 123 127 136
245613.08264160 3357430.44274902 20.35721779 111 119 122
245612.10180664 3357432.33395386 19.61254501 168 158 146
245612.98803711 3357427.81057739 20.17199326 158 173 180
245613.42590332 3357429.99371338 20.16669655 56 60 69
245612.54876709 3357429.47296143 19.95629501 87 92 88
245613.14837646 3357432.07394409 19.77895355 148 140 137
245612.31396484 3357431.79238892 19.78034592 201 189 189
245613.56304932 3357429.59240723 19.99161911 49 52 59
245612.94195557 3357425.12435913 20.06107712 66 70 73
245613.26501465 3357426.99023438 19.87318230 29 30 34
245613.33593750 3357427.50616455 19.80966187 61 66 70
245613.38183594 3357429.13961792 20.33119965 39 43 52
245613.06201172 3357427.73165894 20.17485046 47 54 62
245612.76104736 3357425.28485107 20.93343544 182 196 207
245613.34643555 3357426.06497192 19.87817764 45 46 50
245612.75329590 3357428.82794189 20.31305885 214 216 215
245613.08911133 3357424.98217773 20.51625824 31 36 39
245613.28656006 3357432.24060059 20.04770088 66 66 74
245613.56530762 3357430.19683838 20.46298218 183 186 195
245611.89239502 3357429.89779663 19.96163177 160 169 174
245613.09906006 3357425.16339111 20.60434532 31 35 38
245612.10937500 3357426.64666748 20.57815361 208 217 226
245612.73895264 3357429.47540283 20.05029488 196 179 169
245612.09777832 3357426.49456787 20.62130165 205 214 223
245612.80364990 3357432.28601074 19.84259033 210 206 203
245611.96990967 3357426.03628540 20.71847343 185 200 207
245611.74511719 3357427.08288574 20.11162376 17 18 20
245613.31146240 3357426.24356079 20.04494858 41 42 47
245612.92425537 3357430.89520264 19.62812805 155 151 150
245612.41424561 3357429.22259521 20.50852013 72 76 79
245613.41802979 3357432.31359863 20.11924934 251 255 255
245611.87164307 3357427.51727295 20.21511841 25 26 31
245613.56536865 3357429.68933105 20.26986885 116 124 135
245612.91455078 3357425.29360962 20.87403870 174 189 208
245613.34808350 3357426.99053955 19.82856750 37 38 42
245613.24011230 3357424.35977173 19.93933296 29 30 32
245613.48327637 3357426.48468018 19.79038811 29 30 35
245613.28015137 3357425.65463257 20.23876381 50 53 58
245612.16076660 3357430.05935669 20.04538155 41 45 46
245612.47991943 3357425.70660400 20.85892677 94 104 113
245613.47735596 3357426.11087036 19.76708984 27 26 31
245612.14361572 3357429.20141602 20.56954575 68 73 77
245612.99890137 3357432.27978516 20.28950500 188 189 194
245611.85675049 3357427.35406494 20.16469765 23 24 28
245612.06811523 3357430.11804199 19.98786354 101 102 104
245613.36773682 3357432.20205688 19.93518639 127 122 119
245613.11407471 3357426.79742432 20.37800407 55 42 49
245613.09246826 3357429.99780273 20.16168976 87 86 91
245613.04730225 3357430.89550781 19.67537689 157 153 150
245612.11920166 3357427.41122437 20.15346336 24 29 33
245611.98931885 3357428.09008789 20.16212082 49 52 57
245613.37774658 3357426.49429321 19.88291359 19 22 27
245612.86218262 3357430.78628540 19.74295044 90 89 94
245613.28643799 3357427.08151245 19.85664177 40 41 45
245612.67864990 3357428.22851563 20.14242363 96 103 111
245612.26489258 3357428.75878906 20.07809639 34 41 51
245613.44152832 3357431.25595093 19.76788902 167 167 169
245612.33868408 3357428.34744263 20.08284187 110 113 118
245612.90856934 3357430.03738403 20.17585373 152 153 157
245612.02374268 3357426.56491089 20.59804916 200 207 215
245612.21612549 3357427.14141846 20.06303406 17 22 26
245612.23010254 3357430.46429443 19.88668633 65 64 70
245612.31970215 3357429.85260010 19.98842621 51 50 55
245613.33032227 3357426.58346558 19.98670769 27 30 35
245612.69818115 3357432.37762451 20.13506317 203 207 206
245612.61041260 3357426.92297363 20.34230042 81 91 103
245612.02069092 3357428.88079834 20.07948303 20 24 36
245613.38171387 3357429.66012573 19.77226257 86 84 87
245612.64288330 3357426.87985229 20.43262100 87 101 114
245613.20861816 3357430.66882324 20.32995415 150 160 162
245613.22216797 3357424.60858154 19.84648705 29 30 34
245613.18481445 3357430.52832031 20.41614914 142 151 158
245612.39532471 3357426.59350586 20.60188293 197 210 218
245611.96405029 3357431.80572510 19.64432526 155 141 132
245612.96630859 3357430.28491211 20.11850548 69 77 79
245613.26245117 3357424.19976807 20.02512932 30 31 35
245613.16522217 3357425.63751221 20.47296524 66 71 75
245611.93353271 3357429.81671143 19.97089767 174 179 183
245613.57781982 3357431.79101563 19.88163567 189 183 185
245612.78753662 3357427.29858398 20.12085152 30 31 33
245612.26751709 3357426.22583008 20.65959167 159 177 181
245613.27972412 3357427.19284058 19.86766434 48 49 53
245611.92193604 3357431.27188110 19.61665154 170 160 159
245613.14904785 3357424.55184937 20.26358986 58 59 63
245612.95770264 3357425.77297974 20.65430260 74 87 96
245611.96087646 3357427.61297607 20.22999382 25 29 32
245612.87982178 3357426.59451294 20.59354019 203 213 222
245613.36920166 3357425.16891479 19.86898232 28 27 32
245612.25488281 3357425.71572876 20.83032799 102 111 116
245612.17437744 3357429.37295532 20.46310234 99 104 107
245613.37365723 3357429.47058105 19.96076202 41 45 48
245612.90728760 3357427.54510498 20.16039848 49 50 52
245611.96301270 3357429.27847290 20.02110863 40 47 57
245612.53497314 3357430.14102173 19.71179771 95 96 101
245613.14398193 3357424.76748657 19.90534592 35 36 40
245612.70849609 3357428.09976196 20.17174721 115 122 128
245612.69720459 3357429.93276978 19.77137375 33 38 41
245612.83905029 3357426.08981323 20.64587784 134 151 161
245611.75238037 3357426.11846924 20.66902161 134 139 142
245611.83221436 3357428.26049805 19.71533966 68 69 74
245613.28576660 3357432.38455200 20.03937721 225 228 233
245612.73449707 3357429.37469482 20.28939247 147 139 136
245613.28393555 3357430.98431396 19.71898460 176 172 171
245613.29119873 3357427.36077881 19.86521721 56 59 66
245613.46154785 3357425.52087402 19.92256927 31 32 36
245612.55432129 3357431.76760864 19.76599884 188 176 176
245613.38439941 3357430.32754517 20.53680038 18 25 31
245612.80291748 3357431.66732788 19.71668053 180 166 165
245612.10815430 3357428.92358398 20.19411469 34 42 45
245612.16809082 3357430.06027222 20.04651070 45 45 47
245612.26318359 3357428.05535889 20.17498779 86 91 95
245611.92425537 3357430.06723022 19.95457649 30 36 48
245612.80895996 3357428.23248291 20.13575363 144 149 153
245612.83947754 3357428.28326416 20.12514305 158 163 169
245612.38806152 3357432.40567017 19.66872597 143 136 128
245613.16674805 3357427.31271362 19.97739792 40 44 45
245613.18762207 3357424.95172119 19.87408447 44 45 47
245612.67401123 3357430.60522461 19.89212418 71 74 79
245613.29919434 3357425.09762573 19.86917496 33 32 37
245612.13446045 3357429.58483887 20.15044594 39 43 46
245613.05059814 3357428.77398682 20.25158119 49 50 52
245612.65045166 3357426.91815186 20.34800529 77 89 101
245612.62493896 3357431.09472656 19.62171745 172 167 163
245613.10589600 3357424.87042236 19.92993164 40 41 46
245613.33544922 3357423.83111572 20.05455780 24 27 32
245613.27471924 3357424.00003052 20.23593330 31 35 38
245612.60144043 3357429.39910889 20.04562187 94 89 86
245612.34967041 3357432.35827637 19.70300865 136 129 123
245612.78131104 3357428.63104248 20.25691986 188 193 197
245613.28649902 3357429.93902588 19.99995613 62 63 67
245612.02551270 3357427.10348511 20.08893394 15 19 22
245612.95983887 3357432.38906860 19.75892448 74 74 82
245612.65460205 3357431.80355835 19.76089478 185 171 171
245612.40209961 3357429.65087891 19.98748398 50 51 53
245612.33142090 3357430.81512451 19.66709518 101 95 97
245613.27722168 3357424.37664795 19.84950829 22 23 25
245612.66168213 3357428.38763428 20.11629677 130 134 143
245611.84436035 3357426.16452026 20.67971992 177 186 191
245611.99237061 3357432.60430908 19.53279877 168 157 151
245611.95996094 3357427.14498901 20.05894279 20 24 27
245612.14801025 3357429.25170898 20.53204727 101 106 109
245612.08636475 3357428.56594849 19.80184174 41 44 49
245613.32110596 3357426.57775879 20.14443207 39 42 47
245613.27166748 3357431.30331421 19.75972939 174 173 171
245612.51416016 3357430.83062744 19.63245583 131 125 125
245613.44891357 3357431.41299438 19.79937553 165 165 165
245612.88635254 3357431.87536621 19.69648743 180 169 165
245613.03564453 3357425.34170532 20.80093575 20 32 46
245612.90686035 3357426.86340332 20.40357208 45 45 55
245612.57067871 3357431.94540405 19.82407188 178 169 170
245611.93457031 3357431.02505493 19.60826302 162 155 147
245613.11767578 3357425.45275879 20.64469910 19 23 26
245612.89202881 3357429.93176270 20.12803078 91 89 92
245613.25000000 3357424.01779175 20.38616371 27 32 36
245612.37542725 3357432.45129395 19.62064743 149 140 131
245612.45953369 3357428.55191040 20.03681755 71 75 86
245613.33435059 3357430.76089478 20.29103279 99 108 115
245613.49963379 3357428.89663696 20.15925407 35 38 47
245612.95092773 3357427.08422852 20.05924034 23 23 31
245612.91497803 3357430.83905029 19.66287613 122 120 121
245613.44549561 3357426.03964233 19.76302528 24 25 29
245612.78161621 3357429.93496704 19.87133598 232 233 238
245611.78625488 3357426.28167725 20.65583038 160 165 168
245613.10778809 3357425.31814575 20.67938232 19 24 30
245612.16113281 3357428.50930786 19.85344124 86 89 94
245613.37219238 3357432.34158325 20.10258102 252 253 255
245612.89672852 3357428.15591431 20.13114357 89 98 105
245612.54083252 3357428.66598511 20.10319710 47 54 62
245612.73211670 3357430.06320190 19.75840569 71 74 79
245612.22216797 3357425.96981812 20.70737839 163 182 189
245612.90124512 3357425.75942993 20.70020103 100 112 126
245613.29559326 3357430.72323608 20.33547401 127 134 142
245613.08502197 3357432.27404785 20.05894470 75 74 79
245612.13372803 3357428.92813110 20.23542786 28 38 40
245613.00537109 3357430.29983521 20.25024033 72 73 78
245612.27783203 3357427.38223267 20.14919472 21 24 31
245613.23773193 3357426.79217529 20.08679199 47 50 57
245613.33123779 3357429.96371460 20.03097916 49 49 57
245612.72998047 3357432.12197876 19.79599953 190 182 179
245612.41125488 3357430.96646118 19.62398338 169 160 155
245613.07446289 3357426.76327515 20.45348167 82 75 82
245612.10406494 3357431.84582520 19.73529053 241 233 231
245612.91015625 3357432.40985107 19.84298897 147 149 164
245612.75292969 3357427.62988281 20.21545219 19 24 27
245611.93347168 3357428.53491211 19.71918106 35 42 48
245612.25976563 3357430.58053589 19.88339806 78 78 86
245613.28961182 3357424.34124756 19.85699272 21 22 24
245613.30688477 3357429.80227661 19.87274170 55 56 58
245613.37219238 3357432.26657104 20.19480515 225 228 235
245613.33166504 3357429.95095825 20.00087738 47 48 53
245611.79296875 3357426.93478394 20.23213387 41 42 44
245612.05523682 3357430.70892334 19.72917557 82 83 87
245612.46234131 3357428.55676270 20.03657722 71 75 86
245611.64172363 3357426.73110962 20.51927376 14 18 19
245613.12042236 3357428.22940063 20.05033493 164 171 179
245612.97625732 3357432.33670044 19.96755219 168 168 168
245612.71954346 3357432.42300415 19.92076683 176 176 186
245612.81500244 3357427.12899780 20.10510063 18 21 26
245612.35479736 3357428.91915894 20.20263290 35 42 48
245612.84039307 3357430.99172974 19.56879616 181 176 170
245613.09204102 3357424.95211792 20.57709312 24 28 31
245611.67962646 3357427.18206787 20.21446419 24 25 27
245612.54309082 3357427.28097534 20.12484932 27 28 32
245613.44268799 3357426.24026489 19.80047035 19 20 24
245612.77600098 3357429.91360474 19.87750626 217 218 222
245611.96392822 3357428.27194214 19.86975670 84 87 96
245612.89794922 3357429.23526001 20.41939926 27 37 39
245611.97515869 3357430.80056763 19.66384888 94 94 94
245612.23944092 3357428.97485352 20.31858253 32 40 43
245612.23394775 3357425.73541260 20.80138588 132 143 147
245613.13201904 3357424.53817749 20.15591812 43 44 48
245613.26141357 3357424.10174561 20.34703255 29 34 37
245613.08203125 3357432.28717041 20.03253746 83 83 85
245612.83087158 3357426.90573120 20.29689026 148 154 166
245613.04095459 3357428.82446289 20.30333900 44 48 51
245612.31683350 3357431.67120361 19.74532890 220 206 205
245612.72265625 3357426.76693726 20.56339645 207 220 228
245613.23852539 3357432.39831543 19.95239258 247 247 249
245613.30999756 3357425.60321045 20.18610001 45 46 51
245612.13586426 3357431.57382202 19.68637466 219 207 211
245611.70587158 3357426.27917480 20.65824699 55 59 60
245612.39355469 3357428.96719360 20.24923515 36 43 51
245612.58251953 3357429.93508911 19.73659515 53 56 61
245612.23541260 3357426.96817017 20.22842026 205 205 213
245612.89898682 3357432.34564209 19.92144585 199 198 196
245613.04174805 3357427.04830933 20.02856636 17 22 26
245612.66723633 3357429.26031494 20.41892815 116 112 109
245612.12152100 3357426.34002686 20.65382195 152 167 174
245612.01989746 3357429.16000366 20.12350273 167 172 176
245613.27850342 3357425.68356323 20.22824478 50 53 58
245612.35913086 3357426.95974731 20.25641632 161 168 178
245613.27197266 3357426.05981445 20.22499847 46 54 57
245612.12762451 3357431.62380981 19.69293785 211 199 201
245612.57672119 3357430.01950073 19.71551514 58 62 65
245612.86236572 3357426.73123169 20.58856010 209 223 232
245612.31616211 3357430.07101440 19.82695961 47 47 49
245613.08056641 3357424.96389771 20.44013214 39 44 47
245612.53204346 3357429.08447266 20.37103081 50 55 58
245612.36828613 3357430.26519775 19.82641983 63 64 68
245613.49975586 3357427.40112305 19.68513298 58 61 66
245612.67590332 3357431.19155884 19.65838242 175 168 162
245612.23229980 3357426.34277344 20.64328003 143 158 163
245611.78607178 3357428.75305176 19.85260201 27 32 36
245612.33325195 3357427.26745605 20.10883522 22 25 30
245611.91235352 3357429.77523804 19.94710922 233 234 239
245612.56933594 3357431.67773438 19.74683571 193 179 178
245612.70739746 3357428.11914063 20.16931915 92 99 105
245612.53417969 3357426.45773315 20.62355804 201 211 220
245612.40167236 3357429.53839111 20.09674072 58 64 64
245613.49914551 3357428.90631104 20.16615105 35 38 47
245613.38146973 3357427.12936401 19.80122757 45 49 52
245612.82977295 3357431.93768311 19.70190430 184 173 169
245612.43591309 3357428.19570923 20.13524437 76 84 87
245613.46154785 3357426.14413452 19.78497696 27 28 32
245612.73028564 3357425.62512207 20.90147781 116 125 132
245612.54101563 3357429.46084595 19.97886086 79 84 80
245612.96820068 3357430.31124878 20.13589859 73 78 81
245612.33062744 3357428.98046875 20.30472946 37 44 50
245612.68743896 3357428.73965454 20.27582359 211 216 222
245612.22167969 3357427.32388306 20.12713432 20 23 28
245612.56286621 3357429.45251465 20.15097427 75 80 74
245612.89343262 3357425.58303833 20.86768150 147 157 169
245612.66119385 3357427.92303467 20.20422935 123 132 139
245612.97607422 3357430.96188354 19.62563324 177 172 168
245613.24194336 3357426.12878418 20.33504295 51 60 65
245612.40893555 3357425.34530640 21.00444031 159 171 183
245612.75518799 3357430.00689697 19.76742363 57 61 64
245613.21887207 3357426.73107910 20.37013626 60 49 55
245612.61169434 3357432.15017700 19.88131523 187 181 181
245613.09899902 3357431.59442139 19.77194786 178 170 167
245613.44396973 3357426.76449585 19.79261971 35 36 41
245612.15045166 3357430.92767334 19.63847542 140 132 130
245613.09045410 3357432.39236450 19.74881172 110 109 107
245613.13116455 3357432.24279785 20.09158897 56 57 61
245613.44940186 3357429.60336304 19.80642509 79 77 80
245613.25860596 3357424.42135620 19.84521675 24 25 29
245613.12548828 3357427.61953735 20.09969902 37 37 45
245612.35571289 3357426.92987061 20.33371162 82 90 101
245612.95007324 3357429.66177368 20.20108604 68 49 43
245612.79760742 3357426.86782837 20.44010544 101 114 123
245612.09368896 3357428.74420166 19.98702621 30 34 43
245612.70654297 3357431.18176270 19.65888977 180 173 167
245613.26593018 3357423.94738770 20.35364723 28 33 37
245613.18878174 3357424.56036377 19.89846420 33 34 39
245613.03546143 3357430.35018921 20.43820190 113 118 122
245613.07293701 3357426.98623657 20.02637100 29 34 37
245613.25695801 3357431.13876343 19.73402786 180 179 177
245612.30841064 3357426.74749756 20.56307793 210 223 231
245613.14746094 3357429.84268188 19.99368858 61 62 66
245613.07733154 3357427.32186890 20.02656364 43 44 48
245613.15026855 3357426.85211182 20.17649841 110 114 123
245613.28417969 3357429.51763916 20.00479507 57 61 62
245612.07891846 3357431.48400879 19.64939880 210 201 206
245613.14929199 3357428.21548462 20.03431702 130 137 145
245612.46520996 3357428.33135986 20.09820557 123 126 135
245612.91070557 3357430.23580933 20.00280190 56 61 65
245613.45263672 3357429.99862671 20.33943367 14 13 19
245612.75268555 3357432.43148804 19.97961998 145 148 155
245613.32403564 3357426.47891235 20.21378136 43 47 50
245613.14141846 3357432.24758911 20.17004395 133 133 141
245612.81762695 3357428.62551880 20.24351120 189 192 197
245612.36932373 3357428.89169312 20.16463280 36 45 52
245612.28295898 3357428.39505005 20.04372406 105 108 115
245613.54681396 3357431.77227783 19.87997246 189 183 185
245612.86834717 3357428.95861816 20.43955803 160 159 164
245613.26391602 3357428.57720947 20.06844139 106 110 119
245613.13928223 3357425.40609741 20.59041595 23 28 31
245611.95129395 3357429.79299927 19.99932098 174 179 183
245613.06109619 3357425.17300415 19.93087006 69 72 77
245613.21594238 3357425.77273560 20.33812332 48 53 57
245612.81982422 3357424.94097900 20.89551926 177 193 206
245612.39099121 3357428.85217285 20.12344933 33 44 50
245613.53015137 3357430.71063232 20.08864403 174 179 183
245613.22247314 3357425.36752319 20.21173668 57 61 64
245612.03894043 3357431.46383667 19.63977051 198 192 196
245611.93817139 3357429.47216797 19.97945786 50 49 54
245612.84783936 3357430.17169189 19.85983467 50 53 58
245612.22875977 3357425.79290771 20.75496292 139 152 160
245612.21258545 3357432.17202759 19.79921341 244 238 240
245613.15380859 3357432.35485840 20.22422218 170 174 183
245612.07714844 3357429.15008545 20.24828911 25 30 33
245612.88690186 3357426.79104614 20.53714371 146 157 163
245613.14294434 3357430.85861206 19.76739120 124 124 124
245612.69769287 3357426.91384888 20.34577942 88 98 110
245612.87829590 3357425.57229614 20.88295174 188 198 210
245612.59985352 3357428.06744385 20.18194771 101 106 112
245612.96954346 3357426.85086060 20.40586281 28 23 30
245612.99853516 3357425.68453979 20.67455101 88 96 109
245613.30749512 3357430.22561646 20.53046227 143 143 155
245613.40716553 3357430.01626587 20.23989677 107 109 121
245612.08514404 3357428.50720215 19.78884315 60 63 68
245612.45672607 3357429.60040283 19.95741463 44 44 44
245612.34997559 3357425.65014648 20.92413712 97 106 113
245612.21997070 3357428.21008301 20.12135315 68 71 76
245611.91503906 3357426.44973755 20.62689781 218 223 227
245612.42340088 3357428.35702515 20.08903885 114 117 124
245611.82116699 3357426.82025146 20.42342377 23 19 20
245613.36193848 3357424.92184448 19.82978058 31 32 34
245613.32733154 3357426.56793213 20.05728531 36 44 47
245612.14208984 3357427.90557861 20.24037933 68 73 77
245613.15026855 3357426.52609253 20.49385262 126 134 147
245613.10778809 3357430.60516357 20.30708885 143 151 154
245613.02886963 3357428.61685181 20.16157532 63 64 69
245612.53411865 3357425.90133667 20.68887329 173 192 199
245612.80798340 3357432.10787964 19.73864555 195 186 181
245612.13208008 3357430.28494263 19.87176514 51 50 55
245613.05682373 3357432.37554932 19.86667442 138 134 131
245613.03570557 3357426.23931885 20.56436729 179 191 203
245613.16577148 3357426.25787354 20.47996902 88 97 106
245613.15014648 3357430.85925293 19.76508713 124 124 124
245612.69390869 3357427.44561768 20.16526794 34 33 39
245612.61901855 3357428.77804565 20.24484825 231 236 242
245613.23889160 3357430.18707275 20.51134300 172 171 179
245612.70635986 3357429.59442139 19.98800468 234 233 231
245612.42297363 3357425.88989258 20.70143318 166 184 194
245613.34063721 3357426.51770020 19.91272545 21 25 28
245613.41351318 3357425.28887939 19.89782143 31 32 36
245612.39801025 3357430.45455933 19.88090897 71 72 77
245612.08074951 3357432.23870850 19.63878441 173 156 146
245613.10321045 3357425.66958618 20.58810616 57 61 64
245612.38238525 3357430.18966675 19.80105019 54 54 56
245612.27624512 3357430.45910645 19.88629532 68 67 73
245612.89306641 3357425.78784180 20.69030571 115 129 142
245613.20983887 3357430.96997070 19.70020676 175 174 172
245611.82684326 3357429.19131470 20.01990700 63 73 82
245613.21697998 3357429.57177734 20.10151291 50 53 58
245612.92675781 3357430.37268066 20.09467888 67 72 76
245613.24591064 3357426.01928711 20.28420067 49 57 60
245612.61877441 3357428.91394043 20.24946785 200 203 210
245613.26214600 3357425.40283203 20.19446945 70 71 75
245613.25213623 3357425.77468872 20.26566505 51 56 60
245612.63745117 3357427.43408203 20.17199326 31 32 36
245613.29290771 3357424.32766724 19.86257362 18 19 21
245613.18066406 3357424.26785278 20.54367065 54 55 57
245613.08288574 3357431.62490845 19.76203728 175 166 159
245612.54418945 3357430.01889038 19.71080589 77 81 84
245613.24249268 3357425.13372803 19.88423729 40 41 45
245613.19958496 3357432.11108398 19.80539322 146 138 135
245613.15136719 3357424.51522827 20.60726166 23 24 28
245612.37286377 3357425.77911377 20.74376869 155 170 177
245611.86566162 3357427.61422729 20.22877693 22 26 29
245613.61694336 3357432.20825195 19.86673927 163 164 169
245612.28375244 3357429.78219604 20.05315590 44 45 50
245612.37622070 3357429.94723511 19.83571434 59 59 61
245612.41711426 3357428.47909546 20.04028702 115 118 127
245612.51678467 3357429.07339478 20.36884880 41 45 48
245612.16729736 3357431.22650146 19.64029503 183 173 174
245613.49829102 3357431.41659546 19.80571938 169 169 169
245612.05505371 3357425.84130859 20.77526474 157 170 176
245613.23577881 3357429.47512817 20.26645088 63 68 74
245613.21276855 3357431.73480225 19.80987549 169 160 155
245612.93695068 3357426.41442871 20.59136581 212 224 236
245611.80920410 3357428.92199707 20.04846764 21 28 36
245612.76049805 3357425.89736938 20.69798660 156 172 187
245613.09045410 3357425.02020264 20.53110123 28 32 35
245612.32086182 3357427.57699585 20.21867943 20 20 28
245613.06958008 3357424.99282837 20.75883865 24 33 38
245613.25164795 3357429.67123413 19.88635254 85 85 85
245613.61816406 3357431.96185303 19.89924812 188 189 194
245612.80041504 3357426.80880737 20.52167892 147 160 168
245613.17059326 3357425.48370361 20.47800446 68 73 77
245612.42816162 3357429.21823120 20.49866867 72 76 79
245613.28820801 3357427.18783569 19.85958672 48 49 53
245613.04736328 3357425.16085815 19.93547821 69 72 77
245612.78387451 3357432.17895508 20.33917046 189 189 189
245613.53826904 3357432.11013794 19.93953133 170 171 173
245612.63452148 3357427.01855469 20.18225288 73 76 83
245613.18878174 3357429.42556763 20.34208488 63 70 78
245612.48803711 3357430.61080933 19.83090782 80 80 88
245612.55456543 3357431.37255859 19.70093918 197 189 187
245611.88092041 3357429.40478516 19.94113159 54 53 61
245612.98760986 3357430.32818604 20.19375420 71 76 80
245612.86022949 3357429.80496216 20.12321472 123 110 104
245612.84143066 3357428.13934326 20.14243317 101 108 116
245612.55725098 3357427.81988525 20.23647118 119 128 135
245612.14416504 3357429.35473633 20.25410080 23 28 32
245613.49304199 3357425.89929199 19.75803375 30 34 37
245612.93988037 3357432.19955444 20.22307396 75 76 81
245613.58050537 3357431.84732056 19.88808632 180 178 181
245613.05200195 3357430.84490967 19.89732742 103 101 102
245613.04888916 3357425.04461670 20.32385063 50 53 58
245613.52911377 3357429.67874146 19.80088806 125 126 128
245612.43524170 3357429.46011353 20.59105110 180 184 187
245612.97418213 3357425.17636108 20.06624413 80 91 87
245611.96002197 3357428.72393799 19.82677078 12 20 31
245613.16925049 3357424.53854370 20.30168724 66 67 71
245613.27465820 3357424.07400513 20.11960220 29 30 34
245611.97058105 3357432.40280151 19.54178429 160 152 141
245612.03271484 3357431.33566284 19.63018036 178 167 173
245611.93640137 3357430.70941162 19.72278786 82 83 87
245612.09289551 3357428.23013306 20.07619858 54 59 63
245612.76483154 3357425.72836304 20.80116463 76 89 98
245613.64245605 3357432.06723022 19.87458992 181 184 189
245612.15264893 3357427.29000854 20.11235046 24 28 29
245612.80786133 3357425.53445435 20.93117142 209 219 229
245612.24780273 3357430.29791260 19.85973358 61 60 66
245613.31713867 3357426.23748779 20.22169495 46 54 56
245612.14672852 3357431.67276001 19.70101738 208 194 194
245613.03179932 3357431.58908081 19.75007057 175 166 161
245613.31207275 3357426.06597900 19.94954491 34 35 40
245613.37371826 3357423.56970215 20.28637695 26 27 31
245613.54571533 3357432.16598511 19.94295692 177 178 182
245612.41760254 3357427.86111450 20.23464012 108 113 117
245612.93261719 3357427.66363525 20.19917488 24 27 32
245612.30242920 3357426.23776245 20.65412903 158 176 180
245613.15118408 3357429.03689575 20.47501183 31 38 48
245613.38476563 3357431.04626465 19.72972298 173 173 173
245613.31982422 3357425.66583252 20.14538002 31 32 37
245613.35302734 3357431.61553955 19.83885765 106 100 100
245613.40570068 3357426.32238770 19.84260368 16 20 23
245612.17199707 3357426.93420410 20.28600311 110 114 123
245613.38037109 3357425.75588989 19.96920776 32 34 33
245612.82238770 3357428.68682861 20.27201271 228 229 234
245613.18457031 3357431.88427734 19.79534149 158 150 147
245612.26434326 3357426.51791382 20.61050224 198 207 214
245612.79077148 3357427.62234497 20.20674133 25 29 32
245613.45825195 3357425.31655884 19.87886238 33 34 38
245613.16302490 3357424.56329346 20.56287575 32 33 35
245613.54083252 3357431.75537109 19.87811852 184 178 180
245612.22576904 3357432.44561768 19.60755920 160 147 138
245612.71936035 3357426.98040771 20.22670364 163 170 178
245613.42590332 3357424.32638550 19.75532532 37 38 42
245612.50091553 3357429.48361206 20.14478111 81 87 83
245612.00714111 3357426.23406982 20.67660522 177 192 199
245613.04010010 3357425.20214844 20.08092690 74 80 80
245612.07958984 3357429.62277222 20.13770485 49 53 56
245612.18988037 3357426.90386963 20.35684967 101 105 114
245613.27618408 3357428.66128540 20.10562134 79 83 95
245612.29516602 3357426.04998779 20.68659782 160 179 185
245613.02404785 3357425.01135254 20.29218102 49 54 58
245612.04077148 3357428.85220337 20.06532288 31 38 48
245613.04809570 3357426.82711792 20.39322853 35 25 33
245612.95184326 3357425.02410889 20.84292221 74 86 100
245613.41162109 3357430.79870605 20.07323647 156 164 167
245613.36486816 3357427.22521973 19.80362892 57 60 65
245611.93383789 3357427.14953613 20.06691360 20 24 27
245611.92205811 3357426.53475952 20.60052872 206 209 216
245612.40759277 3357432.44860840 19.63648987 139 130 121
245612.34991455 3357429.38372803 20.57515717 88 93 99
245613.16094971 3357430.05798340 20.26014137 58 61 70
245612.53405762 3357426.47381592 20.62237358 201 211 220
245612.86950684 3357428.43865967 20.14821625 139 141 153
245612.34722900 3357426.05221558 20.68109703 162 181 187
245612.48870850 3357426.72918701 20.57343102 205 218 224
245613.32910156 3357427.49472046 19.82662010 61 66 70
245613.07812500 3357425.67834473 20.62360764 49 54 60
245613.31988525 3357423.81140137 20.11478233 26 31 35
245613.15960693 3357428.75573730 20.19201469 40 44 53
245613.49218750 3357427.29022217 19.71728706 57 60 65
245612.65167236 3357431.32116699 19.69657326 186 178 175
245613.00000000 3357425.69198608 20.66947174 88 96 109
245612.59680176 3357425.80847168 20.74066544 158 176 186
245612.40417480 3357427.41867065 20.16210175 23 26 31
245612.13970947 3357432.34497070 19.62508583 164 154 142
245613.19903564 3357428.33575439 19.98914719 143 151 162
245611.83685303 3357428.79467773 19.89577866 7 12 18
245612.42657471 3357431.03359985 19.63544655 168 157 153
245612.51916504 3357430.54385376 19.88867760 76 76 84
245613.16046143 3357429.11087036 20.52240181 35 39 48
245612.98187256 3357430.15081787 20.29926682 46 51 54
245612.81408691 3357432.42987061 20.04938316 187 191 194
245611.98278809 3357429.88104248 20.02324677 144 155 159
245613.43914795 3357426.24261475 19.80215073 19 20 24
245612.20642090 3357426.14410400 20.67942619 164 182 186
245612.48803711 3357426.88421631 20.44185638 128 145 155
245612.78363037 3357431.84054565 19.72299957 183 172 170
245611.75134277 3357424.88616943 20.92018318 35 34 40
245612.13916016 3357423.19424438 20.58541870 106 113 121
245611.62799072 3357425.11688232 20.85615158 14 19 22
245612.35705566 3357425.34719849 21.00231934 158 170 182
245613.28576660 3357423.68630981 20.47710419 28 29 33
245612.35998535 3357425.18554688 20.99102211 150 159 174
245612.33441162 3357424.94104004 20.99372673 153 161 172
245611.83319092 3357425.63549805 20.82803726 122 125 130
245611.57385254 3357424.10873413 20.66920853 22 23 27
245612.76995850 3357422.65423584 20.37506676 120 133 149
245612.82562256 3357423.98110962 20.83150482 12 23 25
245611.81134033 3357425.35244751 20.86572075 149 152 159
245612.12628174 3357424.21118164 20.95694923 61 66 69
245612.87432861 3357422.28497314 20.31225586 22 31 40
245612.58123779 3357423.98977661 20.86702728 16 24 27
245611.80871582 3357424.07827759 20.85890388 30 31 33
245612.89080811 3357424.39837646 20.92334557 153 157 168
245612.12939453 3357423.95263672 20.83369827 17 23 23
245612.14337158 3357425.58300781 20.94892311 199 208 217
245612.10687256 3357424.96368408 20.96705627 145 149 160
245611.46368408 3357422.78851318 20.48353958 24 23 28
245612.16735840 3357424.45941162 20.98823929 9 14 17
245612.97137451 3357423.26660156 20.51124001 150 160 169
245613.06439209 3357422.28997803 20.26677322 28 36 39
245611.59179688 3357424.18710327 20.71492004 25 26 30
245612.31976318 3357423.76028442 20.67787170 28 31 36
245611.64947510 3357423.68411255 20.59027863 29 30 32
245612.57714844 3357423.76620483 20.72930145 27 35 38
245612.55090332 3357424.06777954 20.89753342 9 14 18
245612.05664063 3357425.26828003 20.96107864 153 161 172
245612.10430908 3357425.34072876 20.97845078 157 165 176
245611.67059326 3357424.67877197 20.88879776 20 20 22
245612.09460449 3357423.67379761 20.60554123 27 35 38
245612.68548584 3357424.11141968 20.90639687 22 30 32
245612.23937988 3357424.62658691 21.00725937 16 20 23
245611.69750977 3357423.45281982 20.54788589 48 51 58
245613.02447510 3357423.77713013 20.65175247 33 37 40
245612.07684326 3357422.29873657 20.38706970 22 27 33
245612.27709961 3357423.11672974 20.57065964 99 108 117
245612.16748047 3357423.97595215 20.85266495 20 26 26
245612.31860352 3357425.43530273 21.00687408 161 171 183
245611.93725586 3357424.83023071 20.96234703 134 137 146
245613.36389160 3357422.16995239 20.11011314 32 37 43
245612.41851807 3357424.27084351 20.96223831 114 122 125
245612.28228760 3357424.34375000 20.96835709 78 83 87
245611.55963135 3357423.69018555 20.58518219 37 41 44
245612.64227295 3357424.66482544 21.00248528 21 26 32
245612.86035156 3357422.61328125 20.37422180 86 100 113
245611.98278809 3357424.85440063 20.96992683 126 128 140
245612.09277344 3357423.47998047 20.56499481 19 27 30
245613.27917480 3357422.38238525 20.21415710 31 36 40
245612.55908203 3357423.69790649 20.68722916 24 32 35
245611.53302002 3357423.31243896 20.48828316 45 46 50
245613.28106689 3357422.30947876 20.20073128 30 35 39
245612.18218994 3357423.80996704 20.71225548 25 30 33
245613.00280762 3357422.24295044 20.27269173 31 38 44
245613.25109863 3357423.23715210 20.41167641 19 27 30
245612.10430908 3357423.56991577 20.58578682 21 29 32
245612.21667480 3357424.02410889 20.88288689 15 19 22
245611.72943115 3357424.77493286 20.91737938 46 45 51
245612.76574707 3357423.19873047 20.51573563 139 147 158
245613.29888916 3357422.26147461 20.17958832 29 34 38
245613.01263428 3357423.30392456 20.51383591 156 167 173
245611.55731201 3357422.87753296 20.46776390 48 51 58
245612.87133789 3357422.88375854 20.43437576 134 147 163
245612.01733398 3357424.42260742 20.97253990 34 37 42
245612.73748779 3357424.65676880 20.99114418 16 21 25
245611.65960693 3357426.11553955 20.66866302 19 20 22
245612.05224609 3357423.98468018 20.86918068 15 21 21
245612.84033203 3357424.14688110 20.89628410 43 46 51
245612.82281494 3357424.49459839 20.95208168 102 109 115
245613.20928955 3357423.83700562 20.53939438 85 86 91
245612.27221680 3357423.99441528 20.87061882 18 23 26
245612.30126953 3357423.35922241 20.55044556 10 13 18
245611.62432861 3357424.64715576 20.85631752 19 20 22
245612.92175293 3357422.55227661 20.35573578 36 50 59
245612.54779053 3357425.13925171 20.97256088 158 171 187
245611.80023193 3357424.78237915 20.93496323 97 97 105
245613.03131104 3357424.21902466 20.78444290 3 8 12
245612.51531982 3357422.63986206 20.38948250 113 126 142
245611.44464111 3357422.90347290 20.45996475 20 21 26
245613.09973145 3357424.20031738 20.70627022 19 23 26
245611.86132813 3357425.94250488 20.71995735 174 181 189
245612.79364014 3357423.11035156 20.49480820 136 148 160
245613.28137207 3357423.32769775 20.42471886 29 34 37
245613.21264648 3357422.29135132 20.23096275 30 35 41
245612.11450195 3357424.96771240 20.96726227 146 150 161
245612.79516602 3357424.27804565 20.93716621 141 149 152
245612.33496094 3357424.43234253 20.97269249 16 19 24
245611.59613037 3357423.41268921 20.51681328 68 69 73
245612.01123047 3357424.26361084 20.96047211 83 88 92
245612.53857422 3357423.46563721 20.57582664 17 25 28
245612.06121826 3357424.35372925 20.97637177 92 97 100
245612.54949951 3357423.99603271 20.87017632 16 24 27
245612.23132324 3357423.99185181 20.86663055 19 24 27
245612.88909912 3357423.06661987 20.47597504 150 162 174
245612.11529541 3357422.41421509 20.39147949 34 43 52
245613.18225098 3357422.48706055 20.27989388 29 33 42
245611.77691650 3357422.70468140 20.42423058 77 84 94
245612.67547607 3357425.01547241 20.93547249 166 175 190
245612.78771973 3357423.57260132 20.58801079 32 37 40
245611.65960693 3357424.11080933 20.71838951 40 41 45
245612.66540527 3357423.78857422 20.72659302 21 29 32
245612.46966553 3357424.84719849 20.99935341 161 170 179
245611.70501709 3357424.38388062 20.82428169 48 51 56
245611.68084717 3357422.76193237 20.45003891 57 62 68
245612.42303467 3357423.43023682 20.56812096 20 23 28
245611.50830078 3357424.11251831 20.65131760 15 16 20
245612.04479980 3357422.91500854 20.47994041 85 95 104
245612.76354980 3357423.61312866 20.60727882 31 39 42
245611.67211914 3357425.85980225 20.69404030 52 53 55
245612.08770752 3357425.39920044 20.98343277 161 170 179
245612.30096436 3357422.25238037 20.38481140 26 31 37
245612.22283936 3357423.72598267 20.64266586 28 31 36
245611.58813477 3357424.72906494 20.86575127 17 21 24
245611.77459717 3357423.52838135 20.55400467 12 15 20
245613.04266357 3357424.15426636 20.75839806 8 16 19
245612.11065674 3357425.56301880 20.95654106 183 190 200
245612.86956787 3357424.62136841 20.94160080 162 170 181
245612.56958008 3357425.11267090 20.96426010 161 173 189
245612.21020508 3357422.33105469 20.38869476 17 24 32
245612.47351074 3357424.49911499 20.97808456 13 17 20
245613.19293213 3357423.87744141 20.54416656 53 54 59
245611.92785645 3357423.73794556 20.65095711 31 39 42
245613.35284424 3357423.19702148 20.28204155 20 21 26
245612.07562256 3357422.54531860 20.38971710 81 91 101
245611.66827393 3357425.90527344 20.68753242 39 40 42
245613.04846191 3357424.35900879 20.79924583 7 12 16
245612.21350098 3357423.67501831 20.60535431 27 30 35
245613.28167725 3357423.70278931 20.46713066 50 51 55
245612.58544922 3357423.92526245 20.83386612 22 30 33
245613.11175537 3357423.69479370 20.60540390 32 36 39
245612.79187012 3357424.79635620 20.93937683 170 181 187
245613.14520264 3357424.03091431 20.61455345 36 41 45
245612.56524658 3357423.65927124 20.66015434 19 29 31
245612.66821289 3357423.17556763 20.53012085 132 140 151
245612.07867432 3357422.32336426 20.38783073 21 26 32
245612.53857422 3357423.74749756 20.71512604 27 35 38
245611.56451416 3357423.69018555 20.58548164 37 41 44
245611.50994873 3357424.20294189 20.68457985 15 16 21
245612.64758301 3357423.46804810 20.56307983 23 31 34
245612.56079102 3357424.29733276 20.96525764 132 137 141
245613.14910889 3357422.58905029 20.30994034 29 33 42
245612.30566406 3357424.93151855 20.99213028 151 159 170
245612.25854492 3357425.14077759 20.97740555 151 161 173
245613.35943604 3357422.59152222 20.18449211 33 36 41
245613.18286133 3357423.17761230 20.43803787 52 59 65
245612.14746094 3357423.04937744 20.54495430 96 105 114
245612.60223389 3357423.99700928 20.86927986 17 25 28
245612.42828369 3357423.40551758 20.56274605 15 18 23
245613.08319092 3357423.58645630 20.57231712 25 34 33
245612.82312012 3357423.34643555 20.52504921 53 58 64
245611.86926270 3357424.05618286 20.89036179 14 15 19
245611.61706543 3357422.94964600 20.45186043 54 58 67
245612.61334229 3357423.69464111 20.67418289 21 29 32
245612.85644531 3357423.43109131 20.53349686 12 17 21
245612.41357422 3357424.54998779 20.99072838 13 16 21
245612.94152832 3357424.14981079 20.86442375 52 61 68
245612.90887451 3357423.79873657 20.68464279 23 28 31
245611.61816406 3357423.90960693 20.63447189 22 26 27
245611.98675537 3357425.36047363 20.95363426 165 169 180
245612.48968506 3357423.25051880 20.54940224 111 118 126
245611.76928711 3357425.96426392 20.69798851 155 158 163
245612.13098145 3357425.21481323 20.96623039 155 163 176
245611.94146729 3357424.43298340 20.95598984 57 60 67
245612.48150635 3357424.63867188 21.00484085 21 24 29
245613.16119385 3357423.71566772 20.57482338 56 60 63
245611.63525391 3357422.70455933 20.46263123 32 35 40
245612.87664795 3357423.29321289 20.51552773 154 163 172
245612.84252930 3357423.97964478 20.82747459 12 23 25
245611.84173584 3357423.99984741 20.83284187 9 10 14
245612.27404785 3357422.32409668 20.38533401 23 30 38
245612.40478516 3357422.42184448 20.36980057 85 95 107
245612.70611572 3357423.55325317 20.58750916 28 38 40
245612.75878906 3357422.24636841 20.33314705 29 36 46
245612.89385986 3357423.97940063 20.81838417 17 27 29
245611.80590820 3357422.94473267 20.43966293 86 95 102
245612.68127441 3357423.13290405 20.51784325 134 142 155
245612.84136963 3357423.41183472 20.53166008 11 16 20
245611.56951904 3357424.25524902 20.73712921 28 29 33
245612.64904785 3357423.15200806 20.52835464 132 140 151
245612.63488770 3357423.76565552 20.71737862 22 30 32
245612.69335938 3357424.95742798 20.94175148 165 177 191
245611.55059814 3357424.99658203 20.89140892 18 22 25
