246104.48583984 3357691.99072266 13.20714569 15 24 23
246101.63574219 3357693.62542725 12.33586788 53 53 51
246104.82629395 3357693.87457275 12.80023861 48 52 53
246105.10534668 3357693.77703857 12.36147118 59 52 44
246104.18041992 3357691.06457520 13.45252419 27 31 32
246104.06958008 3357691.96881104 13.35490608 25 29 30
246101.17871094 3357694.35845947 12.52951717 42 55 71
246105.63024902 3357694.18432617 12.78759861 63 64 46
246104.82983398 3357692.47601318 12.63859272 42 47 50
246102.51806641 3357693.66137695 12.43589115 53 48 42
246102.55834961 3357690.86145020 13.69706154 18 30 16
246101.35424805 3357690.78234863 13.76317692 37 53 27
246105.07421875 3357692.27130127 12.81744862 199 208 215
246104.23132324 3357693.92578125 13.03541374 113 115 112
246103.44396973 3357691.25860596 13.45722675 12 17 20
246103.88232422 3357693.81542969 12.88321590 23 31 33
246103.27380371 3357691.12115479 13.49749756 4 9 12
246103.32849121 3357691.37982178 13.39219475 11 16 19
246105.15808105 3357694.14782715 12.93062687 44 46 45
246102.44982910 3357693.66680908 12.45067787 53 50 45
246101.46191406 3357692.11151123 12.56764221 191 190 188
246105.10095215 3357692.29394531 12.79862690 209 220 224
246101.68847656 3357692.49243164 12.11379242 47 48 42
246104.92431641 3357693.83959961 12.68078136 35 35 33
246102.82226563 3357692.41497803 12.98157310 212 212 212
246101.48803711 3357691.09332275 13.15712357 90 92 89
246101.97180176 3357694.66528320 12.84021854 33 36 41
246104.75903320 3357691.73889160 12.95843983 70 75 69
246105.41674805 3357694.00268555 12.71098328 21 21 13
246101.40087891 3357690.59973145 12.18895531 149 146 131
246105.21923828 3357694.44769287 12.98775673 32 34 29
246104.93127441 3357691.74176025 12.90921783 83 85 82
246101.71911621 3357694.39984131 12.74535656 25 33 44
246105.83679199 3357691.89062500 12.88341522 54 58 41
246101.28198242 3357693.61962891 12.08468723 153 148 142
246101.52160645 3357693.63433838 12.29710579 73 72 68
246105.31982422 3357694.12152100 12.84845734 15 17 16
246101.52526855 3357691.06683350 13.05367184 110 112 107
246102.86865234 3357691.01123047 13.43358898 7 16 13
246100.89477539 3357694.40893555 12.26592636 126 127 122
246103.49328613 3357693.67559814 12.66924763 40 41 36
246101.44006348 3357693.73461914 12.58509541 65 69 78
246104.95837402 3357691.95733643 12.88126659 70 72 67
246105.79833984 3357692.50848389 12.55199051 53 62 45
246101.28625488 3357693.70153809 12.20158482 106 102 103
246102.11718750 3357695.02178955 12.86209106 143 144 146
246103.68408203 3357694.04309082 13.23490047 3 7 8
246101.02209473 3357691.60931396 12.51430893 217 219 218
246102.80700684 3357694.60644531 12.71763039 44 63 70
246104.83337402 3357693.74963379 12.25024796 74 71 66
246102.42858887 3357694.56732178 12.80974865 25 44 48
246103.05834961 3357694.70288086 12.92679214 187 194 176
246102.60583496 3357694.75140381 12.77988243 17 26 25
246101.90051270 3357695.37933350 12.84646702 112 114 103
246105.15930176 3357692.51855469 12.36306095 50 52 51
246102.88281250 3357693.68072510 12.81696415 6 10 13
246103.82824707 3357691.19146729 13.50288773 16 24 26
246105.30041504 3357692.59686279 12.15458202 66 68 65
246102.04663086 3357694.81634521 12.85154819 50 54 57
246102.36022949 3357690.83026123 13.06789684 13 19 19
246103.19177246 3357692.63720703 12.30382729 55 61 59
246101.52331543 3357690.78173828 12.69429874 185 185 187
246103.26647949 3357694.12182617 13.11770630 75 75 77
246101.75512695 3357690.81805420 14.84599686 128 139 99
246104.34716797 3357691.80169678 13.27545547 23 29 27
246103.91931152 3357693.68414307 12.55453491 48 50 45
246102.41577148 3357692.60369873 12.25788689 60 64 63
246104.14416504 3357691.87646484 13.35805321 21 25 24
246102.65148926 3357692.50109863 12.65190792 57 63 61
246101.71594238 3357695.11773682 12.84047031 22 26 25
246104.06286621 3357691.98345947 13.35349083 26 32 32
246105.19543457 3357691.39819336 13.08332253 77 80 73
246101.73059082 3357690.69903564 13.67832088 27 47 22
246101.95593262 3357693.34307861 12.00322056 160 142 118
246102.76818848 3357691.67980957 13.09259129 103 131 143
246101.39636230 3357691.45068359 12.54872894 177 176 172
246104.40124512 3357694.23596191 13.29655075 13 18 22
246101.43310547 3357692.27288818 12.54254055 181 181 181
246101.91149902 3357692.52972412 12.05962658 36 41 37
246102.24011230 3357690.85137939 14.09214401 53 72 52
246101.92492676 3357694.95245361 12.84455967 67 72 76
246103.70922852 3357692.19750977 13.20250511 40 46 44
246101.64794922 3357691.17645264 13.25913620 46 51 47
246102.49377441 3357691.02069092 13.01819038 12 24 22
246101.03576660 3357691.71954346 12.52709198 201 203 202
246103.59313965 3357692.27215576 12.94473076 97 105 107
246103.62097168 3357693.71783447 12.26387119 54 49 43
246103.05029297 3357693.68914795 12.21840572 88 79 70
246103.63012695 3357693.68774414 12.43499374 32 29 24
246104.25207520 3357693.87738037 12.94744682 99 103 104
246105.51831055 3357692.48876953 12.55644989 53 59 49
246104.08984375 3357693.66943359 12.06195641 185 178 159
246101.69580078 3357692.32391357 12.43367958 150 150 150
246103.09289551 3357694.04254150 12.83570671 99 104 107
246104.36279297 3357691.66052246 13.30489826 27 29 28
246104.10217285 3357693.57116699 12.01139069 182 175 156
246104.94604492 3357694.45996094 13.19509411 116 120 119
246103.09033203 3357694.51446533 12.75230885 44 62 66
246104.17102051 3357694.10876465 13.28327084 0 0 0
246101.50903320 3357695.33111572 12.76363468 119 120 124
246100.93847656 3357694.63183594 12.54753685 112 123 125
246102.82250977 3357691.01464844 13.26639843 0 1 0
246104.72045898 3357693.75506592 12.42993355 75 75 75
246103.86059570 3357694.43566895 13.41050625 33 45 45
246101.33166504 3357692.32269287 12.33529282 185 181 182
246105.50891113 3357692.26501465 12.80735779 29 32 23
246102.95971680 3357691.71130371 13.30548573 64 73 80
246105.33251953 3357692.23748779 12.85845184 234 240 240
246103.50244141 3357694.11022949 13.24967098 4 11 17
246103.10620117 3357694.43615723 12.84340572 59 76 84
246101.37072754 3357690.73559570 14.28927135 55 72 38
246103.03332520 3357692.63281250 12.27077579 63 68 64
246101.21813965 3357690.75115967 13.49464989 36 42 30
246101.68969727 3357690.85003662 13.30758095 95 96 98
246102.25598145 3357692.64459229 12.07007313 69 70 72
246101.57849121 3357690.80651855 13.98869514 18 41 13
246101.35864258 3357693.22393799 12.00292587 252 243 210
246102.25964355 3357692.00823975 12.92440987 161 155 155
246104.44482422 3357693.60278320 11.97816086 186 179 163
246103.53576660 3357692.46124268 12.73266315 29 35 33
246101.67614746 3357691.03521729 12.62274933 164 164 152
246103.41845703 3357694.31610107 13.34591961 50 64 75
246101.26989746 3357692.26104736 12.34639072 226 225 230
246103.84826660 3357692.10986328 13.31109047 158 166 168
246103.86657715 3357693.91741943 13.03644562 191 193 190
246101.02270508 3357691.62182617 12.47176743 216 218 217
246102.84277344 3357692.22454834 13.10208988 153 152 150
246105.43859863 3357694.01025391 12.71322823 21 21 13
246104.71386719 3357693.83789063 12.75697136 18 22 21
246105.76110840 3357692.17785645 12.80267143 63 66 49
246105.88696289 3357692.23016357 12.68939495 68 71 52
246105.55126953 3357693.99884033 12.60313511 37 34 19
246105.75659180 3357692.57464600 12.46788025 51 59 44
246101.41467285 3357692.96502686 12.00077343 151 140 122
246106.04650879 3357692.00512695 12.72792149 87 90 73
246104.61560059 3357694.02233887 13.09326744 177 173 170
246101.05578613 3357691.88861084 12.51994514 221 221 221
246102.03662109 3357691.51269531 12.80270290 121 122 117
246101.71801758 3357692.09436035 12.49702263 166 165 161
246101.51342773 3357690.90557861 13.36564159 36 41 34
246104.33349609 3357694.30743408 13.32068825 12 22 23
246102.39868164 3357694.06951904 12.84491158 87 122 142
246102.15185547 3357692.24462891 12.66058731 186 185 181
246105.33813477 3357691.95733643 12.96138954 215 220 216
246101.06762695 3357691.45306396 12.63386250 225 225 225
246101.43762207 3357694.08160400 12.74984646 22 31 40
246104.73229980 3357691.81329346 12.94143677 64 69 63
246101.55236816 3357695.06750488 12.76703262 11 21 22
246102.04089355 3357693.65673828 12.32335758 53 56 49
246101.29431152 3357690.76007080 13.57433891 34 43 26
246102.82324219 3357692.46569824 12.85094547 143 144 139
246104.36389160 3357694.31811523 13.32033634 16 24 27
246105.61718750 3357692.57275391 12.35625076 58 65 57
246101.26062012 3357695.09826660 12.62212658 22 30 33
246101.13012695 3357692.03649902 12.44221115 201 201 201
246105.34326172 3357691.34765625 13.12938309 49 56 40
246104.76110840 3357693.92309570 12.91239738 129 131 130
246102.70764160 3357693.71545410 12.24265003 60 54 42
246104.72619629 3357693.96508789 12.98841476 215 211 208
246102.45434570 3357692.20758057 12.98720551 167 168 170
246101.87841797 3357691.11987305 13.13686752 215 219 228
246102.40734863 3357692.17089844 12.97302532 115 119 120
246101.09094238 3357690.98834229 12.35121822 216 216 216
246101.52673340 3357692.09057617 12.54799175 183 182 180
246104.51318359 3357693.78332520 12.67551804 10 14 17
246101.38806152 3357690.90020752 13.26858330 29 31 26
246101.37841797 3357694.36071777 12.62811184 30 40 52
246104.08642578 3357692.48913574 12.71081734 38 47 46
246102.54663086 3357693.62548828 12.02140999 183 171 159
246103.55151367 3357693.67053223 12.50936508 36 33 28
246103.09887695 3357693.65167236 12.57899952 48 47 43
246103.61828613 3357691.24975586 13.47825336 10 14 17
246101.80419922 3357691.41741943 12.45914364 140 139 135
246103.24072266 3357692.66168213 12.29219055 51 57 57
246104.24829102 3357692.05364990 13.30930805 193 202 201
246102.50854492 3357694.62402344 12.78975868 38 52 55
246103.32556152 3357691.62457275 13.33999634 13 19 19
246104.36962891 3357691.15399170 13.40033913 22 24 23
246104.91772461 3357692.53985596 12.43023872 52 56 57
246101.95825195 3357690.86810303 14.88836861 108 127 95
246101.13623047 3357694.09161377 12.54091644 205 208 213
246101.89624023 3357694.51892090 12.80721569 22 27 33
246100.90917969 3357694.46911621 12.35380554 205 209 208
246105.75512695 3357694.17590332 12.74493694 101 100 72
246102.62268066 3357690.90991211 13.81757355 22 39 21
246104.60485840 3357691.69476318 13.18057156 60 62 59
246102.17260742 3357691.62200928 12.95909595 167 166 164
246102.40588379 3357690.83636475 13.70775509 22 34 22
246105.33288574 3357694.05224609 12.77776337 17 17 15
246102.33947754 3357691.80499268 13.00022888 112 127 130
246101.27880859 3357694.59808350 12.61443424 26 34 45
246102.89184570 3357691.51116943 13.25080109 64 78 89
246105.76586914 3357693.95501709 12.49900723 132 128 83
246102.67712402 3357691.60754395 13.01913834 106 135 149
246101.63940430 3357691.39569092 12.39553928 147 143 140
246103.66613770 3357694.09771729 13.26419830 14 19 22
246101.91662598 3357694.98602295 12.85221577 62 67 70
246104.01940918 3357693.82452393 12.88878918 59 65 65
246103.93530273 3357691.71386719 13.39716721 14 19 22
246101.78137207 3357693.25067139 12.00089645 234 224 189
246104.35327148 3357692.44439697 12.76485538 65 74 73
246101.72082520 3357691.00549316 13.25945759 117 118 120
246101.94152832 3357692.75988770 11.98770523 139 134 128
246101.64916992 3357693.42388916 12.00649452 157 149 130
246101.89379883 3357692.33813477 12.41165638 207 205 206
246103.65649414 3357693.54052734 12.02071667 176 169 150
246103.79516602 3357692.18194580 13.22619915 42 51 50
246103.82812500 3357692.60552979 12.51379490 41 49 51
246104.34594727 3357691.11212158 13.41190529 18 22 21
246101.82214355 3357690.86932373 14.97866535 96 114 66
246101.87207031 3357691.33923340 12.54171181 137 134 125
246101.41711426 3357693.64648438 12.24108315 110 109 104
246105.66064453 3357693.88439941 12.31209755 152 149 116
246105.70092773 3357691.75787354 12.94919682 43 47 32
246104.49304199 3357692.32202148 12.86632347 188 199 201
246101.10192871 3357695.47564697 12.04350853 155 149 137
246103.45385742 3357692.11053467 13.30408096 143 149 149
246102.95422363 3357693.68322754 12.16103077 151 139 123
246103.18835449 3357691.55920410 13.33451748 32 40 43
246101.40942383 3357690.94122314 12.45328712 197 197 197
246103.68872070 3357693.68701172 12.59505844 52 51 47
246101.35107422 3357691.98809814 12.58025932 192 191 189
246102.73413086 3357692.48187256 12.74736500 96 98 93
246102.43994141 3357692.21655273 12.96997356 167 168 170
246101.96276855 3357692.46752930 12.10273361 41 43 42
246101.14611816 3357694.70043945 12.56001282 14 24 34
246103.12170410 3357694.22351074 12.93593311 150 157 163
246101.48864746 3357693.58093262 12.11801815 160 156 147
246103.18225098 3357694.39337158 13.32388878 41 51 60
246101.00085449 3357690.60455322 13.66442108 103 118 89
246103.86169434 3357693.90734863 13.01181793 113 117 116
246104.15942383 3357693.52026367 11.98228073 190 181 164
246102.31689453 3357692.58135986 12.11688805 54 58 61
246102.89465332 3357691.74816895 13.25242901 148 162 171
246105.23962402 3357693.96936035 12.70733833 28 28 26
246101.54248047 3357691.52124023 12.48343468 153 150 145
246102.35681152 3357695.12597656 12.91545963 123 127 126
246104.78198242 3357692.40527344 12.71038055 153 163 165
246104.44128418 3357694.03649902 13.14850998 165 165 165
246104.39660645 3357691.48620605 13.35866547 25 26 28
246104.85693359 3357692.55682373 12.43487835 48 52 53
246104.38610840 3357693.76538086 12.24832630 57 59 56
246103.66210938 3357694.40191650 13.39737606 54 63 68
246103.05554199 3357691.02142334 13.67547703 14 25 17
246102.27978516 3357690.82427979 14.19951344 33 56 30
246105.58532715 3357693.92071533 12.34766197 127 120 101
246104.81176758 3357691.58917236 13.01850510 74 76 73
246103.67004395 3357693.95593262 13.13588333 233 231 234
246104.55517578 3357693.72235107 12.11655712 90 89 84
246104.02966309 3357692.20532227 13.09665394 46 55 54
246104.73193359 3357693.79046631 12.63883877 8 12 13
246104.83422852 3357694.32025146 13.21467972 18 23 26
246101.52160645 3357692.52313232 12.09875107 157 154 145
246102.37463379 3357693.63543701 12.02215385 151 144 134
246101.89782715 3357691.24652100 12.76611805 92 92 80
246101.70666504 3357691.07147217 13.25523090 62 66 65
246102.27404785 3357692.24780273 12.77995014 194 194 192
246101.82971191 3357691.52075195 12.48016262 165 161 158
246103.36352539 3357692.39733887 12.70334816 79 81 78
246101.56176758 3357691.93768311 12.52119160 175 171 168
246103.40673828 3357693.59997559 12.06880474 163 154 139
246102.92687988 3357692.50006104 12.54793549 95 98 91
246102.48229980 3357690.79675293 13.57487869 32 44 30
246102.83715820 3357690.98895264 13.82516861 17 31 14
246105.00231934 3357693.88690186 12.71443367 45 46 41
246102.38403320 3357692.32604980 12.79595375 201 203 198
246104.76599121 3357692.07275391 12.89979553 171 180 179
246105.13745117 3357692.10314941 12.93258667 213 213 211
246105.46215820 3357693.91729736 12.33042622 54 47 37
246102.01892090 3357692.16003418 12.57677650 204 200 197
246102.94885254 3357691.56994629 13.29540348 71 81 90
246105.43444824 3357693.83398438 12.18487644 199 190 175
246101.54968262 3357690.68090820 12.86248684 188 187 192
246103.88659668 3357693.69232178 12.60717964 50 52 49
246101.50280762 3357694.53369141 12.66350365 19 26 34
246103.51477051 3357691.63317871 13.35689354 12 13 15
246104.41271973 3357693.77246094 12.69706821 23 24 26
246102.19750977 3357692.73553467 12.01214504 189 188 186
246102.83703613 3357693.75817871 12.84834671 19 23 26
246104.84667969 3357693.94268799 12.93870449 154 154 152
246101.98132324 3357695.12896729 12.89719105 36 38 37
246101.29785156 3357690.81994629 12.40233517 221 221 221
246104.23388672 3357694.25054932 13.31698895 11 19 22
246101.72229004 3357695.40734863 12.74216843 12 12 10
246104.24401855 3357692.19299316 13.11773872 47 56 55
246105.44213867 3357694.24951172 12.85244942 15 15 17
246102.78442383 3357694.12902832 12.81222439 94 120 135
246104.14770508 3357693.72222900 12.13513279 158 152 136
246105.52746582 3357694.01617432 12.69368839 45 43 28
246101.26306152 3357690.79083252 13.97210407 65 89 55
246102.23754883 3357692.07409668 12.88958073 169 165 166
246103.54626465 3357693.75720215 12.83031082 0 4 5
246101.62182617 3357690.79943848 14.01299572 13 36 8
246102.21386719 3357694.02966309 12.88280010 90 113 129
246101.30798340 3357695.17687988 12.66024017 105 109 118
246101.70141602 3357694.80804443 12.76836872 23 28 31
246102.01538086 3357694.64996338 12.85306644 56 59 64
246100.95251465 3357694.19903564 12.20697880 128 130 127
246102.19226074 3357693.74841309 12.82467175 7 9 21
246100.99792480 3357694.51354980 12.53992176 37 48 52
246103.30969238 3357692.22460938 13.13337708 39 43 42
246102.74353027 3357691.25085449 13.08008194 123 150 159
246101.25952148 3357691.78045654 12.60347939 193 192 190
246102.39062500 3357691.25732422 12.98145103 134 170 184
246101.68957520 3357690.74505615 13.78275394 19 42 16
246102.07385254 3357692.59069824 12.04792023 71 75 76
246103.85827637 3357693.65069580 12.07005215 186 174 158
246101.58581543 3357691.86523438 12.50639629 161 162 157
246102.61120605 3357690.85064697 13.59045887 26 36 25
246102.19335938 3357691.69323730 12.96106815 158 156 157
246102.25683594 3357693.68908691 12.37700558 43 44 36
246101.53271484 3357690.64794922 12.92111301 182 181 186
246102.19543457 3357690.83697510 13.04785728 158 170 182
246104.29406738 3357691.30554199 13.44644451 18 22 23
246102.39111328 3357690.72161865 13.15292645 53 65 53
246102.37988281 3357693.62365723 12.01472092 160 156 145
246104.09606934 3357693.71343994 12.42642498 45 42 35
246101.03198242 3357695.17687988 12.10731792 144 139 133
246101.77954102 3357693.61676025 12.26152325 53 52 47
246101.53845215 3357695.38708496 12.70395374 33 33 33
246102.50524902 3357694.54772949 12.79280472 47 65 69
246104.48645020 3357693.74682617 12.27597427 71 72 74
246105.81433105 3357692.22930908 12.73811817 64 68 51
246103.38598633 3357694.37701416 13.38770008 47 59 71
246101.37646484 3357691.02972412 12.47716522 172 171 169
246101.55651855 3357693.85803223 12.74362278 219 226 234
246103.35583496 3357692.18164063 13.20066452 37 41 40
246103.39367676 3357693.64019775 12.08767319 164 157 141
246101.54357910 3357691.07153320 13.28723526 50 52 47
246104.92712402 3357691.51202393 13.01770020 76 77 79
246101.44287109 3357690.76867676 14.23144817 55 72 38
246102.24804688 3357690.86059570 13.83427429 38 52 35
246102.72814941 3357692.14733887 13.07453632 165 172 178
246103.30297852 3357691.38830566 13.38078594 12 16 19
246101.36474609 3357692.69244385 12.04239750 168 158 148
246104.43103027 3357691.34936523 13.35323524 26 28 27
246101.88610840 3357692.21850586 12.47717094 230 229 227
246104.87280273 3357692.56890869 12.39525509 54 56 55
246105.09375000 3357692.26708984 12.82209873 207 216 223
246102.10571289 3357692.05541992 12.78947067 167 166 162
246101.51867676 3357691.17346191 12.42921066 144 144 142
246102.91320801 3357690.97363281 13.92053318 25 42 24
246104.12280273 3357692.24243164 12.97835541 74 83 82
246101.49511719 3357690.71936035 12.90093327 180 179 184
246101.24023438 3357693.53753662 12.02972412 155 148 138
246104.95336914 3357694.34088135 13.17737007 137 139 138
246104.16833496 3357692.22497559 13.00460148 70 78 80
246104.19165039 3357692.24310303 12.97614288 85 95 96
246103.17553711 3357693.68634033 12.36732674 27 23 12
246104.66076660 3357693.75305176 12.49339104 57 58 60
246104.61193848 3357691.52087402 13.22275448 44 46 45
246102.51208496 3357693.93115234 12.87297821 85 104 118
246101.45495605 3357690.88586426 12.44544315 226 226 226
246102.07934570 3357692.08648682 12.72467613 157 156 151
246102.62084961 3357694.93096924 12.82916927 4 15 11
246105.17724609 3357692.44531250 12.64287376 28 37 34
246102.02673340 3357690.85974121 14.76663780 25 50 18
246101.46862793 3357694.67010498 12.66155720 11 19 22
246101.45642090 3357691.04809570 13.12534332 115 117 114
246101.44067383 3357690.79229736 12.97089291 162 161 156
246101.31091309 3357690.76440430 13.66839027 42 57 36
246103.98974609 3357692.22363281 13.04104900 65 73 75
246101.70397949 3357691.13513184 12.90471458 92 94 89
246102.72875977 3357691.42572021 13.11526775 115 144 160
246103.40966797 3357692.00109863 13.33970451 78 84 84
246102.12170410 3357690.82952881 14.14479351 38 57 37
246101.69506836 3357690.99359131 13.27832890 93 95 94
246101.28222656 3357690.74304199 12.30640507 215 216 211
246105.37988281 3357694.17504883 12.84943962 14 14 14
246101.44799805 3357691.71807861 12.52832985 164 163 159
246102.21582031 3357693.68750000 12.21644592 127 124 117
246102.25781250 3357694.29003906 12.86955643 69 98 114
246104.46508789 3357693.68273926 12.01181221 168 162 150
246104.35424805 3357693.75024414 12.40763950 42 44 43
246101.36499023 3357691.56237793 12.56088161 181 180 176
246101.36975098 3357690.71478271 12.32140446 228 230 229
246105.53466797 3357693.84796143 12.18595314 207 199 188
246102.21008301 3357690.71905518 13.09638691 44 58 45
246101.60327148 3357691.16253662 13.14236164 75 77 74
246102.93090820 3357694.39947510 12.75624657 53 81 93
246104.97351074 3357693.82879639 12.62274265 31 32 27
246105.41308594 3357693.98931885 12.68091583 24 23 18
246103.36804199 3357693.65814209 12.58760929 44 43 39
246105.20227051 3357693.82611084 12.37834835 82 75 65
246104.45422363 3357691.25738525 13.34046745 25 27 24
246103.41491699 3357693.85028076 12.91104126 50 56 56
246105.72399902 3357694.15704346 12.74896717 94 93 63
246101.27075195 3357690.75555420 13.38326454 55 58 51
246102.09350586 3357691.14959717 13.02712440 210 214 226
246101.80712891 3357690.86383057 14.95837212 81 96 53
246103.67443848 3357694.33374023 13.36832428 58 68 70
246101.48730469 3357693.33288574 12.00503731 142 127 104
246103.88854980 3357693.70324707 12.42004108 40 40 32
246102.86865234 3357691.04919434 13.31579018 2 7 11
246105.88806152 3357692.54437256 12.54179955 57 61 47
246102.41528320 3357690.81549072 13.10563755 16 20 23
246104.60717773 3357692.06390381 13.02334213 182 191 188
246103.29309082 3357692.37756348 12.72738838 136 136 134
246101.82409668 3357694.34802246 12.78480816 30 38 49
246101.63232422 3357692.35986328 12.34029675 131 131 131
246104.29077148 3357691.19714355 13.44915867 24 28 29
246102.47937012 3357694.64025879 12.79454231 26 40 41
246104.70947266 3357691.70794678 13.03821373 74 77 70
246101.40234375 3357693.39294434 12.00707436 153 140 123
246101.88085938 3357693.59490967 12.11964703 140 137 132
246101.57128906 3357693.27423096 12.00303936 229 216 181
246104.70495605 3357692.51232910 12.62804699 48 52 53
246101.65515137 3357693.08929443 12.00825977 165 154 124
246101.14746094 3357693.91870117 12.43476582 37 37 39
246103.82727051 3357691.86431885 13.37142944 7 16 15
246104.37524414 3357691.29797363 13.39218616 22 23 25
246102.50183105 3357694.77374268 12.78766346 17 27 26
246101.63623047 3357695.11035156 12.80887985 18 27 26
246101.66015625 3357691.95465088 12.49658871 146 145 141
246102.78662109 3357690.98199463 13.80845547 11 28 10
246102.96313477 3357693.86254883 12.82155514 17 16 21
246102.11865234 3357691.75946045 12.86846828 157 158 153
246102.10656738 3357691.50280762 12.94651604 155 156 151
246102.00500488 3357690.82458496 13.86840534 24 43 15
246105.14245605 3357693.86773682 12.54156971 30 27 20
246102.16625977 3357693.68072510 12.28050041 111 112 104
246100.94323730 3357690.61926270 14.08881760 82 99 55
246103.78515625 3357692.30078125 12.89870262 123 133 134
246101.47485352 3357691.76983643 12.52590179 158 159 154
246101.15173340 3357694.79064941 12.53604221 15 24 31
246101.65441895 3357690.56494141 12.75672245 78 80 77
246103.95068359 3357693.68530273 12.55857182 48 50 45
246101.27246094 3357695.32958984 12.53084660 17 21 20
246102.12951660 3357690.84381104 14.09805107 47 66 46
246103.07800293 3357693.58435059 12.05323029 151 142 125
246103.32458496 3357693.45117188 12.01049709 181 170 152
246102.80908203 3357691.84356689 13.09609890 96 123 134
246102.33227539 3357692.40283203 12.61385155 112 112 110
246101.55859375 3357690.94281006 12.57005501 160 160 148
246101.96203613 3357690.86492920 14.99263954 136 154 104
246104.00476074 3357692.26330566 12.94984722 88 98 99
246101.43188477 3357690.75848389 14.24708748 79 96 62
246103.62719727 3357693.85339355 12.98062706 20 30 31
246101.84277344 3357691.98791504 12.51973438 204 199 195
246101.01171875 3357694.93060303 12.40562439 47 51 50
246102.93920898 3357694.80340576 12.79308128 26 28 25
246102.98803711 3357693.70092773 12.22394657 85 75 63
246102.59680176 3357691.98956299 13.00637245 102 125 131
246104.76794434 3357691.57049561 13.08219051 64 66 63
246101.53588867 3357695.36328125 12.74151134 29 29 29
246104.74853516 3357692.52850342 12.56509304 49 53 54
246103.52404785 3357692.20849609 13.12274551 27 33 31
246105.70654297 3357692.13433838 12.86312675 60 64 47
246101.64501953 3357695.14349365 12.82031345 18 24 24
246105.06323242 3357694.14752197 13.00667286 120 120 118
246101.11657715 3357694.00640869 12.45166779 29 29 29
246104.50952148 3357693.61468506 11.97559357 186 180 166
246101.77294922 3357694.96343994 12.82500076 34 42 44
246101.37622070 3357693.73803711 12.56155682 60 61 66
246101.01635742 3357691.56005859 12.52370739 219 221 220
246102.96069336 3357694.38189697 12.77171612 49 76 87
246103.32067871 3357692.00781250 13.33541107 69 75 75
246104.88269043 3357693.76275635 12.44716454 79 78 76
246104.30590820 3357692.49694824 12.71562862 44 53 52
246101.42785645 3357695.04797363 12.70995903 17 27 29
246101.51269531 3357693.53076172 12.05217075 161 152 143
246103.00158691 3357694.48919678 13.21679211 31 40 37
246103.45080566 3357693.68090820 12.68468380 28 30 25
246104.44421387 3357693.61676025 11.98157978 186 179 163
246101.72924805 3357693.37060547 12.00683689 150 139 117
246102.53332520 3357690.78216553 13.23561954 53 64 48
246104.65124512 3357694.47863770 13.30735302 44 49 52
246105.29357910 3357694.24853516 12.88803005 28 30 27
246104.76647949 3357691.71282959 12.97084999 65 72 65
246101.61303711 3357690.87139893 13.37055302 69 74 68
246104.64440918 3357691.21136475 13.23817921 31 33 28
246103.10241699 3357690.94329834 13.84990406 30 39 34
246104.03833008 3357691.54876709 13.48339844 15 21 21
246103.81884766 3357691.97338867 13.35892582 50 56 56
246101.76074219 3357691.09539795 12.65248108 139 139 127
246101.51379395 3357690.89233398 12.55928516 187 184 177
246102.32019043 3357692.40039063 12.60642910 112 112 110
246101.39355469 3357690.77038574 13.54919624 67 80 62
246103.89660645 3357693.73419189 12.74611950 15 20 16
246105.01647949 3357691.72039795 12.93420792 84 86 85
246103.07885742 3357691.31152344 13.32502842 30 40 50
246104.03820801 3357693.71594238 12.25695419 88 84 73
246102.46997070 3357693.94824219 12.87121391 103 129 142
246101.54663086 3357690.67669678 12.38127041 249 248 253
246104.76452637 3357691.91857910 12.89189529 77 79 78
246101.48083496 3357692.46337891 12.15095901 155 152 147
246101.42016602 3357695.35852051 12.65585899 101 102 104
246101.30566406 3357693.21771240 12.00306129 249 240 209
246104.93762207 3357691.43597412 13.05909252 71 73 72
246103.58569336 3357691.40612793 13.43492603 12 18 18
246104.37976074 3357691.15594482 13.39349270 22 24 23
246104.94482422 3357692.52789307 12.43530560 45 49 50
246102.74743652 3357690.96032715 13.89585876 49 66 47
246101.80798340 3357691.14062500 12.80091572 161 161 151
246101.41979980 3357690.79968262 13.43592548 36 42 32
246101.98120117 3357691.61346436 12.65599251 138 138 130
246102.68481445 3357691.00341797 13.10493565 0 0 0
246101.16430664 3357692.15270996 12.37608147 215 215 217
246103.26867676 3357691.44134521 13.35285378 12 16 19
246104.80541992 3357692.49450684 12.60861111 54 58 61
246101.21716309 3357694.09899902 12.59165668 145 155 164
246104.47802734 3357691.45629883 13.31842995 31 33 32
246101.18884277 3357694.25054932 12.52187347 42 54 66
246105.58068848 3357694.02380371 12.67440796 59 58 38
246101.03747559 3357691.34588623 12.52540684 196 197 199
246102.37121582 3357693.69720459 12.32126045 65 62 53
246102.89990234 3357691.15313721 13.22529984 45 60 67
246102.28601074 3357694.45153809 12.85027695 64 91 102
246103.69409180 3357692.57806396 12.58473396 39 47 49
246103.39782715 3357694.09381104 13.18388081 10 11 15
246101.48291016 3357692.38330078 12.23918819 49 51 46
246101.79125977 3357691.15576172 13.18706322 147 146 151
246103.89062500 3357692.31225586 12.87976456 156 167 169
246105.16113281 3357694.24676514 12.99349689 61 66 62
246104.69873047 3357691.77337646 13.01434422 74 76 71
246103.12487793 3357694.50158691 12.83816338 32 50 54
246104.98693848 3357692.53845215 12.37178516 58 62 61
246101.26818848 3357690.75756836 12.31958008 222 222 220
246101.45471191 3357690.82440186 14.02361774 47 72 43
246101.48754883 3357692.64727783 12.04831028 168 159 150
246103.53015137 3357693.66693115 12.53521633 35 34 29
246101.45520020 3357690.75903320 14.24894619 55 72 38
246104.36938477 3357694.26226807 13.30610466 15 23 26
246102.94519043 3357691.07708740 13.33371353 9 19 21
246102.65673828 3357691.93182373 13.00317192 96 125 133
246101.52575684 3357694.44158936 12.67609978 27 35 46
246102.62902832 3357691.35852051 13.02661991 126 159 176
246101.21948242 3357695.39294434 12.14462471 142 138 129
246102.03234863 3357694.52410889 12.85667515 67 71 80
246102.88891602 3357691.65533447 13.27462196 153 166 174
246103.01037598 3357693.69396973 12.29930973 59 50 41
246103.73791504 3357694.08575439 13.26096153 11 15 18
246106.28295898 3357692.03289795 12.57250309 72 76 53
246102.50085449 3357693.61315918 12.58984852 56 53 48
246101.51855469 3357690.78900146 12.70382023 182 182 184
246101.61450195 3357691.17388916 13.16535664 71 73 70
246102.29882813 3357691.30603027 13.00303841 127 153 168
246101.12475586 3357693.76757813 12.10652828 159 143 143
246105.66479492 3357692.21679688 12.80778885 55 59 45
246103.06152344 3357694.59362793 13.07346821 70 76 74
246101.73413086 3357694.10351563 12.81325912 23 33 43
246102.96386719 3357692.49987793 12.50201893 61 64 57
246101.59936523 3357690.96771240 12.67026806 165 164 159
246101.96899414 3357690.86682129 14.87150955 108 127 95
246102.06396484 3357690.85913086 13.92847252 46 64 40
246101.41589355 3357690.73126221 12.37281799 240 242 241
246104.00524902 3357693.72631836 12.27921772 64 62 50
246102.53991699 3357693.81756592 12.90696239 32 39 45
246105.03393555 3357691.87133789 12.90942860 72 73 68
246102.03637695 3357693.66931152 12.49498844 26 31 25
246102.81054688 3357690.98559570 13.31610966 26 28 27
246101.16516113 3357693.84411621 12.30203056 249 248 254
246103.06176758 3357691.21594238 13.31025982 31 41 51
246102.28295898 3357692.56878662 12.10144424 57 60 65
246101.71801758 3357693.23718262 12.00828171 253 243 207
246105.62976074 3357692.44769287 12.58876228 49 53 38
246101.29138184 3357690.77984619 13.37884045 58 61 54
246104.60522461 3357691.90466309 13.06889439 33 39 37
246101.29541016 3357694.33050537 12.58181477 30 41 59
246102.48400879 3357694.99566650 12.83110714 18 27 26
246105.95507813 3357692.00567627 12.77087498 77 80 63
246101.00134277 3357690.65350342 14.00597286 52 69 35
246103.01928711 3357694.35461426 12.81251621 39 61 74
246102.61181641 3357694.94769287 12.85243225 1 10 7
246102.25988770 3357694.20416260 12.87274170 79 108 126
246101.04589844 3357691.83502197 12.44423771 237 237 239
246101.71850586 3357691.70440674 12.45257664 123 124 116
246101.54113770 3357690.78204346 13.72022247 22 40 14
246103.82971191 3357692.30926514 12.88531113 150 160 162
246101.76635742 3357690.66583252 13.51615906 33 46 26
246101.75646973 3357693.72814941 12.71497345 27 35 38
246101.41113281 3357691.14398193 12.47960091 164 164 164
246104.13342285 3357691.12347412 13.48516273 22 26 27
246104.14416504 3357694.00537109 13.17180157 23 27 26
246104.50268555 3357693.77905273 12.65319920 13 17 20
246103.24304199 3357691.44598389 13.34256077 15 18 23
246105.72875977 3357693.78137207 12.22451305 159 156 113
246104.88781738 3357692.41223145 12.69700241 163 173 175
246103.66711426 3357693.95776367 13.13791275 233 231 234
246102.85327148 3357690.98864746 13.49517536 21 30 27
246103.07043457 3357690.98443604 13.80050087 19 28 23
246105.70300293 3357691.63391113 12.95798588 44 48 31
246104.16662598 3357694.28747559 13.33472824 15 23 26
246102.29687500 3357691.65264893 13.00141716 101 111 120
246102.45910645 3357690.79644775 13.13917351 51 62 58
246101.89514160 3357691.30047607 12.57785225 112 112 102
246104.74694824 3357693.77642822 12.57920647 2 4 3
246101.86254883 3357692.02038574 12.51228237 210 207 202
246104.84582520 3357694.11352539 13.14579678 167 168 163
246101.91040039 3357691.45446777 12.58038998 153 152 147
246101.86010742 3357692.61547852 12.03390598 142 143 138
246101.99475098 3357693.66015625 12.45286846 56 61 55
246103.10510254 3357694.41497803 12.89284420 64 79 86
246105.77734375 3357691.84973145 12.91765499 51 58 42
246102.73608398 3357693.67431641 12.07963085 178 169 152
246103.62426758 3357693.87451172 13.02922440 96 101 104
246103.44201660 3357692.10351563 13.30869102 177 183 183
246102.18371582 3357693.68066406 12.43079758 64 67 58
246102.95495605 3357693.62750244 12.03970337 174 166 147
246101.26928711 3357693.75128174 12.33073616 49 54 57
246102.34106445 3357690.84124756 13.75274754 12 26 11
246101.36877441 3357691.54229736 12.55981159 182 181 177
246102.39746094 3357692.12939453 12.98118114 92 97 100
246104.85803223 3357691.70623779 12.91509247 81 83 80
246103.76525879 3357691.89007568 13.36080551 8 17 16
246105.12536621 3357693.97485352 12.76630020 42 42 40
246102.48425293 3357690.86389160 13.75488091 15 29 14
246101.90551758 3357690.82873535 14.64274120 48 73 41
246104.80834961 3357692.34423828 12.75462246 182 193 195
246102.35522461 3357692.30401611 12.80478477 211 213 210
246102.07373047 3357694.62219238 12.86142349 35 40 46
246103.75500488 3357691.05755615 13.47946072 35 41 39
246105.20935059 3357694.27734375 12.95712757 35 37 36
246101.41796875 3357693.15545654 12.00081348 251 241 205
246102.52770996 3357694.68975830 12.79202461 21 31 30
246104.83435059 3357693.75445557 12.30967426 76 75 73
246101.50122070 3357691.09899902 12.43344021 145 145 143
246103.91674805 3357692.31085205 12.88133240 157 168 172
246103.18176270 3357692.65820313 12.28086948 55 61 59
246104.76782227 3357691.88098145 12.88264370 74 76 75
246101.54455566 3357695.41528320 12.64203930 30 30 28
246102.60949707 3357690.82409668 13.27817154 46 57 41
246103.02465820 3357694.67230225 12.75634956 205 210 204
246102.68457031 3357691.01757813 13.09275341 13 28 25
246101.80895996 3357690.83325195 14.73109913 45 65 28
246104.01745605 3357691.67877197 13.40874100 15 20 23
246104.13989258 3357691.97613525 13.34225845 61 65 66
246105.59936523 3357694.18725586 12.79650497 68 67 47
246104.21459961 3357692.51043701 12.69681168 42 51 50
246101.69982910 3357693.25836182 12.00741196 216 207 174
246102.70507813 3357691.10040283 13.07999229 12 26 27
246104.28942871 3357693.73126221 12.49045277 34 36 35
246102.65600586 3357692.14758301 13.05538082 146 155 160
246105.29833984 3357693.71368408 12.11608601 213 200 184
246101.33825684 3357692.33496094 12.28453350 146 142 139
246103.29223633 3357692.59057617 12.39029980 49 55 53
246103.23535156 3357692.47918701 12.47265244 54 59 55
246101.00280762 3357690.61364746 13.73260784 93 110 78
246101.97473145 3357692.24560547 12.50615120 217 218 213
246103.62316895 3357692.19104004 13.21415043 33 42 41
246102.86999512 3357691.19458008 13.20865917 93 110 118
246104.59545898 3357694.44940186 13.31908321 39 47 49
246102.05541992 3357692.25164795 12.54510307 186 185 180
246101.40063477 3357693.67034912 12.46959496 27 29 28
246103.18774414 3357691.55194092 13.33454990 30 38 41
246103.29992676 3357693.48339844 12.02687645 171 163 144
246102.62280273 3357693.71667480 12.24894428 56 49 39
246101.58752441 3357691.11199951 12.45642757 113 114 106
246104.21325684 3357694.45385742 13.37043667 29 37 40
246104.34570313 3357691.70245361 13.29776382 28 30 29
246101.02172852 3357694.60168457 12.57160854 43 56 62
246104.14123535 3357691.22058105 13.51178360 18 27 26
246105.58776855 3357692.03991699 12.93142605 30 30 18
246105.67468262 3357692.13232422 12.88573360 59 63 46
246102.43286133 3357692.38323975 12.74455738 144 146 143
246104.30493164 3357694.46624756 13.36238766 31 39 42
246102.02355957 3357694.83892822 12.85371399 62 65 70
246101.24633789 3357690.70965576 14.38598824 66 88 42
246102.27795410 3357693.69799805 12.16787624 106 103 94
246102.01159668 3357691.40032959 12.98734188 214 215 217
246100.92871094 3357694.69580078 12.50011253 163 171 173
246104.54455566 3357691.20867920 13.29066658 25 27 24
246101.68420410 3357690.62933350 12.50240517 227 226 232
246103.36926270 3357692.48394775 12.58911705 33 39 37
246105.75939941 3357694.22503662 12.76162910 88 87 59
246103.84619141 3357693.68237305 12.56318665 50 51 46
246101.25939941 3357690.79345703 13.93975544 65 86 53
246103.36877441 3357691.38592529 13.40429974 12 18 18
246102.58715820 3357692.46289063 12.71268177 60 64 65
246103.51879883 3357692.08935547 13.31195259 186 192 192
246101.48754883 3357693.26196289 12.00319290 220 210 174
246102.70715332 3357692.56829834 12.52384567 74 79 75
246101.82666016 3357691.56866455 12.46561146 176 172 171
246102.65893555 3357692.46887207 12.74689007 69 75 73
246101.69042969 3357690.90197754 13.29250908 100 101 105
246102.70092773 3357693.62811279 12.03755093 178 169 152
246104.15527344 3357691.49853516 13.50796413 17 22 25
246104.15502930 3357692.23937988 12.98230553 70 78 80
246104.62011719 3357691.63885498 13.19230366 54 54 52
246102.46899414 3357691.31597900 12.98619938 123 160 176
246101.29821777 3357693.76092529 12.46375465 32 33 35
246100.91223145 3357694.61114502 12.39985847 228 232 231
246101.27868652 3357690.76629639 13.70787048 45 59 36
246103.47204590 3357692.12603760 13.29532433 143 149 149
246102.69470215 3357694.18621826 12.79802227 88 115 132
246104.16430664 3357694.37060547 13.35581398 22 29 35
246103.23181152 3357694.17657471 13.15298462 0 0 0
246103.37109375 3357694.43145752 13.43057156 52 62 71
246103.29235840 3357692.33435059 12.89181042 126 130 129
246103.61120605 3357691.38165283 13.44591236 10 16 16
246105.19030762 3357694.14233398 12.89066505 24 26 25
246104.09045410 3357691.37030029 13.54941940 6 16 17
246101.96630859 3357692.41772461 12.17640018 45 47 46
246101.26391602 3357690.99908447 12.47000599 174 172 173
246101.38610840 3357693.18395996 12.00173378 248 240 204
246104.68603516 3357693.91412354 12.90351105 92 96 95
246105.59545898 3357693.98297119 12.48347759 32 27 8
246103.91955566 3357693.72351074 12.28337955 42 38 27
246104.74145508 3357693.75494385 12.32959366 74 76 75
246101.98132324 3357693.69085693 12.64263058 21 22 24
246103.90344238 3357691.87530518 13.37988091 13 19 19
246102.65454102 3357690.99389648 13.08187580 0 1 0
246101.91271973 3357691.69097900 12.52040195 178 175 168
246104.55651855 3357691.63165283 13.22233486 40 40 38
246101.84008789 3357695.05426025 12.87186146 41 45 46
246101.72973633 3357691.21954346 13.18370724 91 93 88
246102.27770996 3357693.69885254 12.18297100 106 103 94
246104.41967773 3357694.30749512 13.31224823 31 36 40
246103.38647461 3357691.75396729 13.34117222 13 19 19
246102.42382813 3357692.67736816 12.10101128 71 71 71
246103.94897461 3357693.87835693 12.97285652 24 29 32
246104.08862305 3357691.24700928 13.52540398 13 23 22
246103.35192871 3357693.97277832 13.01079082 178 179 181
246104.07617188 3357694.27673340 13.34348965 16 21 25
246101.43493652 3357690.83044434 12.98917866 162 161 156
246104.93029785 3357691.93646240 12.87705421 70 72 67
246101.57092285 3357690.89923096 13.37177658 77 79 74
246104.79211426 3357693.75555420 12.31847763 72 72 72
246104.17773438 3357693.73852539 12.19095612 60 56 44
246103.15063477 3357691.44274902 13.33384228 30 37 45
246104.76074219 3357693.78198242 12.60127354 2 4 3
246102.55444336 3357692.53314209 12.52488613 58 60 59
246101.25927734 3357691.64276123 12.60991955 193 192 190
246103.62573242 3357691.76440430 13.35670185 9 18 17
246104.06250000 3357692.14794922 13.23706055 78 88 87
246105.11572266 3357692.38787842 12.71769810 82 92 93
246103.11572266 3357693.66424561 12.45289612 34 30 19
246105.47167969 3357692.19097900 12.87473679 74 79 73
246101.70544434 3357693.69104004 12.63057518 30 35 39
246104.87963867 3357693.75897217 12.37012672 82 81 79
246101.68164063 3357690.61126709 12.39794731 175 176 180
246101.04748535 3357691.88848877 12.34999943 234 235 237
246102.00036621 3357691.83728027 12.65152836 168 165 160
246104.35095215 3357693.81524658 12.81251144 27 29 28
246104.41394043 3357694.29467773 13.30967236 31 36 40
246104.75073242 3357691.78643799 12.92990875 68 73 67
246102.46350098 3357693.71484375 12.26198864 67 58 51
246101.13122559 3357694.49951172 12.58220100 24 36 48
246105.47985840 3357692.42639160 12.63541698 51 54 45
246101.22778320 3357691.33795166 12.61432457 193 192 190
246102.55261230 3357690.99859619 13.04261971 12 24 20
246102.97888184 3357692.62927246 12.29889774 66 68 63
246101.46142578 3357690.82250977 14.01307869 47 72 43
246102.26269531 3357690.83441162 14.16117001 44 63 41
246104.91943359 3357694.40570068 13.20274544 109 113 114
246102.29516602 3357690.86889648 13.97764683 44 66 45
246101.74169922 3357692.60504150 12.04359245 162 163 157
246102.59460449 3357693.64019775 12.46089935 52 49 42
246101.84985352 3357694.58160400 12.78886986 18 25 31
246104.26049805 3357691.81036377 13.31087303 22 26 25
246104.01013184 3357693.71832275 12.23762798 96 92 80
246102.01367188 3357690.87353516 13.08689213 179 196 216
246102.85937500 3357693.64477539 12.78985500 25 29 30
246104.30664063 3357693.74560547 12.60059834 43 45 44
246104.60778809 3357694.51208496 13.33136368 48 53 56
246102.05249023 3357694.46343994 12.85577583 61 65 76
246102.10302734 3357691.70092773 12.86424160 151 154 147
246101.81335449 3357692.56542969 12.05294514 60 61 56
246101.47998047 3357693.71630859 12.57902050 28 31 38
246101.84338379 3357693.62854004 12.30873680 58 57 53
246103.47912598 3357693.47259521 12.00660133 177 169 148
246103.82775879 3357693.72705078 12.18191624 152 146 134
246102.65295410 3357692.54321289 12.55980206 66 68 67
246102.26000977 3357690.85742188 14.05220127 36 55 36
246103.56469727 3357694.31622314 13.35320950 52 63 69
246101.16345215 3357690.77197266 14.13661194 33 59 22
246104.07031250 3357691.84613037 13.37034512 17 23 23
246102.99670410 3357691.15966797 13.30118561 35 46 52
246103.02905273 3357694.47363281 12.72844696 52 72 83
246101.30834961 3357690.76647949 14.26784515 59 81 45
246105.61364746 3357691.64062500 12.98150349 54 60 46
246103.51013184 3357691.78381348 13.34682369 9 18 17
246103.20532227 3357694.13928223 13.05786896 132 132 134
246103.60546875 3357692.40728760 12.77973652 107 113 113
246101.63293457 3357692.33209229 12.42436790 138 138 138
246102.60510254 3357695.00860596 12.94417000 150 150 148
246102.49536133 3357692.53265381 12.49041176 55 57 56
246101.96789551 3357691.80798340 12.59217930 185 182 175
246102.53698730 3357692.14410400 13.02581978 127 136 141
246105.11584473 3357691.85119629 12.94356728 81 82 77
246101.27746582 3357691.07550049 12.49776363 155 154 152
246103.48986816 3357691.99810791 13.34266758 63 69 69
246101.24841309 3357695.30218506 12.46911240 28 32 33
246105.68505859 3357692.41870117 12.60590839 44 48 33
246104.70019531 3357693.74310303 12.15583801 54 53 49
246103.12854004 3357690.92529297 13.83116150 30 39 34
246104.90808105 3357693.73260498 12.17014408 80 76 73
246101.41503906 3357693.59350586 12.10587788 158 153 147
246102.38732910 3357694.82238770 12.79721642 19 31 31
246104.98425293 3357691.16192627 13.12122917 66 71 67
246101.18408203 3357692.04974365 12.52810860 203 201 202
246103.36120605 3357693.89770508 12.90227890 52 58 58
246104.99658203 3357693.96972656 12.86912537 73 73 71
246103.99060059 3357692.54968262 12.62449265 44 54 55
246102.05541992 3357695.23333740 12.93690109 70 72 69
246102.27172852 3357691.33081055 13.01443386 122 138 151
246105.78332520 3357692.05987549 12.85159969 56 60 45
246102.61267090 3357691.72821045 12.98344994 115 143 155
246103.56335449 3357692.51348877 12.69241142 28 32 31
246101.58435059 3357691.03289795 12.52080441 110 110 102
246102.06176758 3357691.54235840 12.88862419 136 138 133
246103.66833496 3357693.68835449 12.44469547 40 37 32
246101.42382813 3357694.76159668 12.62948895 20 27 33
246101.36413574 3357692.69805908 12.04091454 168 158 148
246101.97485352 3357694.88507080 12.84565544 60 65 68
246101.80676270 3357690.75439453 13.84465122 43 66 38
246103.34729004 3357693.47833252 12.02046204 174 166 147
246101.63073730 3357691.06408691 13.29908371 78 83 79
246103.29223633 3357691.74121094 13.33732510 13 22 21
246105.38940430 3357694.35437012 12.89300632 23 24 26
246101.99645996 3357693.39678955 11.99993515 186 172 163
246101.67468262 3357691.10003662 13.26619339 54 60 56
246104.40136719 3357692.10644531 13.18961716 195 205 207
246102.63244629 3357694.54803467 12.77444649 74 94 101
246101.66870117 3357690.79101563 14.14551926 92 106 80
246102.31420898 3357692.47509766 12.43820000 49 53 52
246103.72656250 3357692.26525879 12.95228100 91 101 102
246105.76660156 3357692.09698486 12.84274483 61 65 50
246102.17456055 3357692.47778320 12.13457489 51 55 58
246104.32824707 3357694.55102539 13.38085175 30 38 41
246101.31958008 3357690.96398926 12.46006680 179 178 176
246104.48986816 3357691.46557617 13.30788803 32 34 33
246103.94702148 3357693.70904541 12.65565205 41 43 40
246104.61096191 3357692.11975098 12.99423599 195 205 206
246102.04040527 3357690.82836914 13.84096622 42 57 34
246102.00195313 3357694.99377441 12.86647987 102 103 108
246103.02832031 3357694.60748291 12.71560478 63 73 75
246101.40490723 3357695.42663574 12.43910789 49 51 48
246102.90063477 3357691.19781494 13.22232246 98 115 123
246102.57824707 3357693.52087402 11.99174309 186 174 162
246104.31799316 3357694.46545410 13.36091805 31 39 42
246101.54260254 3357695.32708740 12.77240181 27 27 29
246101.78674316 3357692.97412109 11.99510860 164 151 142
246105.32739258 3357693.97882080 12.69201469 28 28 26
246102.79943848 3357693.61553955 12.53498363 43 40 35
246102.01623535 3357693.36132813 12.00030708 219 205 192
246101.45141602 3357695.48962402 12.30344963 40 46 34
246104.73730469 3357692.17852783 12.87853241 173 183 185
246102.08190918 3357693.42669678 11.99567699 213 202 198
246101.80847168 3357690.83245850 14.72874832 45 65 28
246101.63012695 3357693.59881592 12.14438057 122 117 111
246102.92260742 3357691.95971680 13.19918919 92 104 116
246101.84716797 3357693.66595459 12.58065224 61 65 68
246102.82421875 3357693.58929443 12.72213364 42 44 41
246102.08679199 3357695.20672607 12.91147137 64 66 63
246102.63464355 3357690.91217041 13.84370518 27 44 26
246104.17773438 3357691.66552734 13.39787769 20 24 23
246104.54162598 3357692.20233154 12.97824764 100 110 111
246101.01623535 3357690.67944336 14.05016994 50 70 33
246103.87353516 3357691.47827148 13.45629215 22 27 30
246105.05651855 3357694.18756104 13.05468941 160 161 156
246103.41772461 3357691.71331787 13.34323788 13 17 18
246105.94628906 3357691.97485352 12.79291534 64 68 53
246105.75244141 3357692.02783203 12.88304615 59 63 48
246104.30236816 3357694.34204102 13.33222294 19 29 30
246103.50549316 3357691.97497559 13.34504128 18 24 24
246101.38146973 3357692.42199707 12.18651009 160 156 153
246102.34045410 3357690.86456299 13.97883320 26 48 27
246104.29675293 3357694.07000732 13.21492386 0 1 0
246102.53320313 3357691.80224609 12.98652649 114 141 152
246103.75439453 3357692.31384277 12.87994194 147 157 159
246102.69592285 3357690.91394043 13.69500732 16 28 14
246101.53869629 3357691.79986572 12.51158524 151 152 147
246103.91198730 3357693.59924316 12.04251766 190 182 163
246104.14501953 3357694.23028564 13.32315731 5 10 14
246102.03430176 3357693.64166260 12.18521976 110 111 105
246102.06726074 3357691.60607910 12.83402729 151 152 147
246104.83569336 3357693.74560547 12.20124817 71 70 65
246101.86279297 3357695.11389160 12.90893745 39 43 42
246103.50915527 3357692.33483887 12.84644794 144 153 152
246101.30102539 3357691.05426025 12.48904228 159 158 156
246104.57434082 3357693.74822998 12.42194366 78 79 83
