246103.15600586 3357637.23980713 14.02892113 94 87 81
246099.69409180 3357637.63568115 13.51350307 173 87 112
246101.49023438 3357639.79504395 13.46380234 225 225 227
246100.29394531 3357635.93890381 14.90738010 98 115 83
246101.60522461 3357638.15765381 14.07758045 115 117 114
246099.78271484 3357638.22656250 13.40169430 245 255 255
246099.64489746 3357637.94512939 13.47914600 150 76 99
246103.72900391 3357641.67315674 12.80509281 88 84 73
246102.87731934 3357640.74102783 13.25221729 220 233 226
246102.77160645 3357637.66076660 14.14912319 156 159 148
246103.38916016 3357637.72070313 13.80638599 144 137 127
246101.74011230 3357639.65478516 13.09772491 85 84 80
246101.15100098 3357637.80609131 13.84393406 142 157 162
246100.49218750 3357640.21081543 14.99512768 83 93 59
246102.85729980 3357637.63934326 14.10859680 156 156 146
246102.22656250 3357637.19744873 14.22658539 76 54 56
246100.57983398 3357638.39813232 13.48359680 115 111 108
246100.89685059 3357637.92749023 13.78787994 151 169 173
246103.05859375 3357638.87658691 12.79528427 242 222 187
246101.88330078 3357636.63439941 13.86675549 22 22 22
246100.59692383 3357640.56622314 13.32706547 128 130 125
246099.74877930 3357637.06250000 13.55638790 223 120 141
246102.99487305 3357636.80883789 13.83551025 48 33 30
246100.51416016 3357638.62207031 12.76114750 46 46 44
246100.75158691 3357639.87036133 12.81413841 199 196 189
246102.66442871 3357639.85797119 12.80847836 145 141 129
246103.53027344 3357636.70806885 13.59999371 74 57 49
246101.83557129 3357640.72314453 13.96883202 236 242 242
246104.83020020 3357637.52728271 13.09821033 101 115 62
246100.44165039 3357635.64245605 15.69502068 38 56 34
246104.03698730 3357638.06066895 13.06510830 108 110 89
246102.28515625 3357636.67413330 13.81200123 28 16 18
246100.53076172 3357637.72766113 13.75140190 151 156 162
246102.17858887 3357638.63354492 12.97522545 42 44 43
246101.11767578 3357637.02294922 13.80187798 115 148 163
246102.26635742 3357638.59240723 13.28041267 32 32 34
246100.57287598 3357640.59930420 13.32863903 133 136 129
246101.04760742 3357638.73974609 12.77574921 76 76 64
246099.97045898 3357636.55865479 13.40953445 87 56 51
246099.91442871 3357638.75512695 12.85084343 112 113 107
246101.53173828 3357637.33282471 14.19623852 18 13 20
246100.66577148 3357636.89556885 13.79376030 141 184 201
246101.79370117 3357638.52789307 13.62672997 76 77 71
246100.22717285 3357639.26110840 12.76815987 127 125 113
246102.72009277 3357640.52368164 13.37791443 69 85 85
246100.46911621 3357640.10906982 12.86463642 161 158 149
246101.52575684 3357637.53997803 14.17635441 27 28 30
246100.37109375 3357639.57647705 12.77618885 134 134 124
246099.93969727 3357637.71600342 13.58150578 171 108 129
246100.00231934 3357637.66705322 13.61224747 170 111 133
246102.57775879 3357638.69476318 12.88855839 44 47 40
246102.33239746 3357638.87261963 12.72203636 145 129 96
246100.26428223 3357640.16119385 12.93137932 147 144 135
246103.85998535 3357641.08569336 12.68959713 173 162 142
246099.94018555 3357637.24426270 13.59761333 175 102 121
246104.65441895 3357637.99084473 12.99847984 29 31 17
246103.02819824 3357637.18157959 14.01949024 110 99 95
246099.80041504 3357638.30993652 13.31521893 65 74 71
246100.80541992 3357640.46166992 13.79116535 15 29 29
246101.31701660 3357638.58911133 12.98545933 31 31 31
246102.84399414 3357640.57971191 12.87595558 190 188 175
246102.96191406 3357640.85754395 13.18047428 217 229 217
246104.34667969 3357637.52160645 13.35212898 31 24 18
246102.64501953 3357636.78228760 13.83354282 89 28 36
246100.95971680 3357639.85748291 13.33572865 229 235 235
246101.96875000 3357640.18438721 13.83711147 86 95 92
246101.17138672 3357638.62945557 12.84052658 50 49 44
246101.40808105 3357638.55810547 13.60837555 81 82 76
246104.36828613 3357637.31353760 13.32006264 20 21 7
246101.10571289 3357639.50799561 12.81529236 144 134 122
246101.57897949 3357638.14984131 14.07936954 142 144 141
246101.19287109 3357639.82238770 13.50444317 248 248 250
246102.03149414 3357640.12426758 13.75381184 10 21 17
246100.49768066 3357640.01953125 12.82861614 163 160 151
246102.70874023 3357637.43243408 14.15659428 140 137 132
246102.42370605 3357638.56414795 13.12794018 37 37 35
246102.26110840 3357636.69439697 13.83859825 35 16 18
246101.87512207 3357639.91278076 13.59179306 254 255 255
246100.56127930 3357637.07043457 13.77576065 126 178 189
246104.13159180 3357638.21368408 12.79099941 57 65 44
246103.72656250 3357638.27673340 12.91699314 50 51 46
246100.69750977 3357640.46356201 13.56069374 75 86 82
246103.93627930 3357636.75256348 13.36816502 74 53 52
246099.97912598 3357636.74377441 13.57032967 185 83 97
246101.79248047 3357637.71655273 14.18463230 54 58 61
246102.98632813 3357638.69995117 12.95668793 46 51 47
246100.07958984 3357636.78826904 13.63949013 170 61 84
246101.64855957 3357636.62780762 13.82460403 29 27 30
246103.64819336 3357637.03179932 13.69613647 67 55 43
246101.28796387 3357637.46936035 14.12457752 51 52 56
246102.93640137 3357640.77612305 13.01643753 107 123 112
246104.98120117 3357637.47784424 13.08626461 82 99 28
246100.09265137 3357637.63836670 13.65874481 165 116 135
246103.52795410 3357637.69915771 13.70348549 145 131 120
246100.21948242 3357639.14123535 12.76344681 190 188 147
246100.43603516 3357637.26470947 13.74407768 74 104 112
246103.59973145 3357641.26971436 12.69600677 166 159 140
246100.12487793 3357636.57757568 13.47380257 72 23 19
246101.66210938 3357639.56207275 12.90680122 98 93 89
246101.59729004 3357638.69390869 13.04251957 38 38 36
246102.29528809 3357640.93218994 13.94138145 220 225 219
246100.38525391 3357638.42590332 13.14676666 63 64 58
246100.57482910 3357640.11425781 12.83261204 176 172 163
246100.73864746 3357639.61877441 12.76530266 189 182 172
246102.76672363 3357640.60821533 13.42113972 242 254 250
246102.08789063 3357639.73614502 13.09898758 176 175 170
246102.22802734 3357637.30169678 14.24252033 12 8 9
246102.87890625 3357637.18853760 14.03033543 109 98 94
246101.05883789 3357638.60546875 13.46400833 67 66 62
246100.76660156 3357640.09527588 13.67541504 211 211 211
246100.61132813 3357638.36340332 13.62478542 189 185 186
246103.54284668 3357636.82586670 13.67901325 97 74 66
246101.97619629 3357637.86755371 14.16538143 51 55 56
246100.77734375 3357638.44726563 13.00935841 76 75 71
246100.03369141 3357638.37310791 13.30577087 90 90 90
246101.25671387 3357637.14703369 14.04339314 141 146 152
246100.37634277 3357637.76690674 13.74548912 177 163 176
246103.64709473 3357637.83782959 13.61930656 93 84 67
246103.13732910 3357640.99066162 12.92471218 184 185 167
246101.12084961 3357638.26116943 13.94394875 173 179 177
246101.66992188 3357640.16479492 13.96120167 248 250 247
246102.15930176 3357639.95330811 13.38570786 240 245 248
246102.09179688 3357639.83300781 13.26873684 210 216 216
246101.90295410 3357639.36004639 12.78091717 147 136 116
246100.25842285 3357638.85400391 12.77967548 110 104 88
246100.55139160 3357638.73663330 12.74902344 105 102 87
246100.82727051 3357640.36590576 15.03593826 151 148 131
246101.39477539 3357640.21002197 14.04911137 254 254 254
246100.20043945 3357638.71734619 12.80427933 85 88 81
246103.27795410 3357641.08953857 12.86849785 186 183 168
246101.98156738 3357638.34191895 13.79572201 15 15 17
246101.08483887 3357637.08624268 13.78613281 105 138 153
246100.33837891 3357635.55157471 15.84012413 81 100 54
246102.05065918 3357638.63702393 13.22083187 35 35 35
246100.55187988 3357638.20989990 13.65614414 181 179 184
246102.62121582 3357640.14978027 12.92451382 215 217 203
246102.65466309 3357640.21105957 12.92349625 195 193 178
246099.78515625 3357637.25769043 13.54220390 186 108 132
246102.40686035 3357640.56854248 13.86807060 228 231 220
246102.60717773 3357640.04199219 12.87649918 237 233 222
246101.67675781 3357640.31506348 14.00809479 252 254 253
246099.84033203 3357636.59606934 13.27508068 78 40 37
246100.62023926 3357640.49279785 13.12643051 146 143 136
246102.19641113 3357637.51715088 14.23886204 16 20 21
246100.68530273 3357640.41033936 13.27215099 147 147 145
246103.28625488 3357641.21081543 12.89692879 192 188 176
246101.56982422 3357637.36914063 14.19544601 19 16 23
246103.43322754 3357637.28106689 13.88682175 78 74 62
246099.51794434 3357638.25354004 13.20670986 144 150 140
246102.31604004 3357639.69927979 12.91644669 86 82 79
246102.20349121 3357639.75671387 13.07207489 151 147 144
246099.77795410 3357636.71606445 13.48679352 216 184 199
246100.70434570 3357640.27636719 13.04954529 231 229 216
246103.01086426 3357641.14703369 13.54140186 33 35 34
246101.11791992 3357639.68566895 13.08330441 235 234 232
246102.08056641 3357638.90191650 12.73780632 245 237 190
246100.96154785 3357639.81134033 13.04790211 224 225 220
246102.33959961 3357639.53802490 12.83446312 123 113 103
246100.87536621 3357639.97235107 13.72562790 174 174 176
246101.38220215 3357639.51977539 12.89119911 125 117 104
246101.65917969 3357637.49859619 14.18939972 20 21 25
246102.54296875 3357640.34625244 13.49791145 56 76 75
246104.64465332 3357637.56683350 13.15252304 16 23 7
246102.06066895 3357637.66772461 14.20346165 15 23 25
246099.53747559 3357638.17578125 13.24931622 134 130 121
246102.21289063 3357638.61346436 13.16622639 33 34 36
246102.56896973 3357637.44311523 14.22684669 149 135 135
246100.24951172 3357639.57556152 12.78044987 147 147 137
246104.38256836 3357637.92230225 13.21913147 46 48 35
246101.53723145 3357638.71923828 12.94152260 38 41 34
246101.60009766 3357637.00317383 14.21197414 114 72 84
246100.92822266 3357638.89874268 12.75287628 146 134 110
246103.50927734 3357637.65234375 13.71859264 150 133 125
246101.41003418 3357638.41052246 13.88361263 13 17 18
246102.37109375 3357640.35021973 13.73188782 231 239 241
246102.25866699 3357638.52850342 13.50826263 60 63 56
246100.12500000 3357637.06799316 13.69214916 151 57 83
246102.00927734 3357636.74249268 13.97916508 61 41 40
246103.05615234 3357638.95428467 12.76515293 241 225 176
246100.48547363 3357638.45983887 12.98248196 62 63 55
246100.60668945 3357640.39642334 13.02210712 223 221 209
246101.31652832 3357636.70068359 13.88046455 21 15 15
246103.28601074 3357638.79663086 12.82240391 59 52 42
246103.14331055 3357638.47381592 13.19404030 33 32 28
246100.83581543 3357638.64965820 12.78492832 96 96 88
246102.20495605 3357640.43200684 13.81316280 241 242 234
246101.39245605 3357636.71771240 13.90104389 24 19 16
246101.71020508 3357638.70941162 12.99373055 45 47 46
246101.76879883 3357636.48638916 13.68392277 27 25 26
246103.90991211 3357638.12261963 13.08019161 67 71 56
246102.02856445 3357639.84350586 13.34142113 219 228 227
246103.44323730 3357637.07708740 13.83952618 88 81 73
246101.61865234 3357638.08605957 14.10282612 173 178 172
246100.75244141 3357640.22467041 13.04617023 229 225 213
246101.44348145 3357636.58935547 13.74104786 45 29 32
246104.24548340 3357638.44531250 12.77564430 59 65 63
246100.30371094 3357640.24707031 12.89385605 153 153 143
246102.03869629 3357640.34796143 13.86137199 243 247 246
246102.52832031 3357638.75183105 12.80957508 55 57 46
246102.79016113 3357640.68676758 13.48446941 254 255 255
246100.49450684 3357639.98242188 12.82282829 164 161 152
246102.29663086 3357640.03509521 13.30874825 246 252 252
246102.64135742 3357640.22540283 12.96560669 192 190 175
246102.88818359 3357640.73791504 13.17368984 148 165 159
246102.26403809 3357637.61578369 14.25283527 11 17 17
246100.40393066 3357638.29034424 13.58684921 144 138 142
246101.20825195 3357637.78167725 14.02015305 201 206 210
246101.44067383 3357640.68109131 14.11872292 10 14 17
246101.98376465 3357638.77264404 12.82462978 46 44 31
246100.55615234 3357640.00720215 12.81832790 165 162 155
246102.68225098 3357640.39709473 13.08808613 169 175 175
246101.73815918 3357640.54779053 14.00393867 224 233 232
246104.34533691 3357637.64849854 13.34040737 26 26 16
246103.05261230 3357636.69995117 13.71781635 72 54 52
246100.45837402 3357639.96026611 12.82471657 163 160 153
246100.09020996 3357637.61785889 13.65638447 165 114 133
246102.48498535 3357638.80035400 12.78331757 52 46 24
246102.73840332 3357640.48223877 13.07871532 238 242 243
246102.79003906 3357640.58007813 13.15325451 221 225 226
246100.88623047 3357636.38513184 13.76353359 89 58 63
246100.17700195 3357637.44232178 13.69338512 147 100 116
246102.42773438 3357637.09045410 14.09886169 142 79 90
246103.04577637 3357638.73803711 12.91569424 55 56 50
246100.59692383 3357638.19207764 13.67928600 181 181 183
246100.55383301 3357636.63104248 13.70600891 71 20 35
246102.94726563 3357640.79760742 13.03616428 86 101 94
246101.51171875 3357637.56500244 14.17304039 27 28 30
246103.17724609 3357637.67327881 13.94053459 141 139 126
246103.01062012 3357637.42712402 14.11084366 138 139 134
246100.74792480 3357640.01660156 13.51830769 183 183 173
246101.10595703 3357638.52709961 13.12651253 76 75 70
246103.36596680 3357638.38500977 13.13874054 30 28 29
246103.49645996 3357637.68652344 13.72727299 148 134 125
246100.25720215 3357636.56536865 13.38198662 139 109 119
246102.88623047 3357641.04986572 13.65815449 41 40 38
246102.71899414 3357640.22406006 12.80920219 211 210 192
246102.39233398 3357639.03179932 12.72755623 222 204 156
246101.00195313 3357638.54211426 13.71010017 98 98 96
246103.67468262 3357637.06591797 13.67854881 59 47 35
246101.81030273 3357639.93609619 13.64833164 207 207 207
246100.51953125 3357636.67639160 13.72454643 83 30 50
246100.74548340 3357640.21191406 13.21014023 235 237 213
246102.60803223 3357640.53454590 13.68694401 255 255 255
246100.61206055 3357636.56237793 13.67876816 46 6 15
246100.22033691 3357638.23913574 13.57610130 158 139 143
246101.59448242 3357638.24981689 14.03851891 84 84 84
246100.27343750 3357638.46435547 13.00433922 60 61 55
246102.97229004 3357636.67089844 13.70099735 82 61 60
246100.80822754 3357638.54595947 12.85299492 55 54 50
246102.15856934 3357639.71405029 13.02457905 65 61 58
246101.56750488 3357637.54351807 14.17889118 30 31 33
246102.61181641 3357640.62664795 13.81496811 251 245 245
246102.51464844 3357638.77661133 12.79447460 53 50 35
246103.73950195 3357636.68054199 13.46413994 86 52 51
246102.90917969 3357640.39160156 12.74497795 175 173 160
246100.65820313 3357637.54644775 13.75184250 130 154 166
246100.90588379 3357639.91223145 13.08063126 216 218 215
246102.63061523 3357639.93951416 12.83138180 96 94 82
246101.41992188 3357638.26763916 14.09879971 100 101 96
246099.55944824 3357636.84832764 13.34503078 209 191 205
246102.19323730 3357637.28515625 14.23948097 7 3 2
246102.14697266 3357638.53710938 13.52735519 64 65 59
246101.25280762 3357637.76239014 14.08254814 202 202 204
246102.64660645 3357638.58099365 13.12370014 31 31 33
246100.37976074 3357640.64819336 12.83283424 159 155 143
246104.30932617 3357637.68627930 13.36385632 29 29 17
246102.47131348 3357640.13116455 13.18211746 243 248 244
246100.21069336 3357639.44476318 12.77638149 137 136 131
246102.06274414 3357640.05889893 13.67595196 5 15 16
246101.82263184 3357638.71142578 12.99644184 46 45 43
246101.27819824 3357636.51696777 13.70639896 43 27 30
246100.99267578 3357636.66271973 13.84865284 65 14 21
246101.11315918 3357639.94219971 13.74301815 14 21 27
246100.72875977 3357637.64807129 13.74841595 129 147 159
246104.10705566 3357638.03283691 13.10734367 76 78 57
246102.38623047 3357640.15124512 13.36735916 246 248 247
246102.56042480 3357638.90686035 12.75593758 245 226 184
246099.45690918 3357637.43835449 13.45313454 250 255 255
246102.87280273 3357640.73126221 13.24244308 220 233 226
246099.97827148 3357636.55572510 13.29119492 125 102 94
246100.90405273 3357639.16687012 12.75902939 166 159 130
246103.25061035 3357640.37408447 12.70774174 170 159 139
246102.15478516 3357638.45983887 13.65915298 77 79 76
246102.01477051 3357639.86901855 13.40449619 226 235 234
246101.49780273 3357639.66918945 13.15390873 244 240 239
246103.47692871 3357641.52807617 12.97305298 158 153 147
246099.88049316 3357636.59515381 13.41964531 66 21 16
246101.74316406 3357637.24481201 14.21902370 20 18 19
246102.59240723 3357640.27124023 13.14788055 197 199 196
246101.97509766 3357638.58361816 13.45215797 47 50 43
246102.45190430 3357636.83642578 13.89165783 107 42 48
246102.36950684 3357638.57159424 13.21964073 34 34 32
246102.53100586 3357637.64215088 14.25590706 155 154 150
246104.10498047 3357637.10089111 13.39311790 76 65 45
246100.54394531 3357640.39538574 12.91340542 193 184 175
246103.99890137 3357641.41424561 12.64065933 140 129 109
246101.21252441 3357636.98248291 13.94168091 109 131 142
246100.91040039 3357639.78234863 12.88904762 151 150 145
246101.09692383 3357638.40100098 13.83628941 36 37 39
246102.56738281 3357639.69592285 12.81000423 123 115 102
246101.49291992 3357638.55499268 13.61409187 79 82 75
246101.90319824 3357636.81561279 14.06023788 86 37 41
246101.56188965 3357638.34960938 13.95909595 38 38 40
246102.82836914 3357640.77777100 13.50910568 217 218 212
246100.26928711 3357638.57672119 12.83105564 61 63 58
246102.10107422 3357639.56365967 12.88733578 119 110 101
246102.86376953 3357640.63055420 12.89585972 179 180 166
246100.71069336 3357636.55975342 13.71043873 51 21 29
246100.25073242 3357639.67730713 12.79491711 155 152 143
246100.13476563 3357636.52978516 13.25705910 216 212 209
246099.78967285 3357637.25946045 13.54377937 184 106 130
246101.68249512 3357637.60333252 14.18114853 21 26 29
246100.79150391 3357639.10742188 12.75825691 199 190 149
246101.28576660 3357638.42803955 13.86804295 9 13 14
246101.43359375 3357638.14660645 14.09424210 175 180 176
246100.71862793 3357638.43652344 13.13142681 78 77 72
246103.60473633 3357637.55487061 13.65001011 138 116 105
246099.81896973 3357638.52905273 13.01600647 120 120 112
246099.87329102 3357636.81414795 13.59564018 229 129 153
246104.39672852 3357637.22930908 13.29701519 22 27 5
246103.77478027 3357637.20086670 13.59325027 60 42 28
246100.67468262 3357638.43145752 13.11534786 77 78 72
246104.12817383 3357637.21710205 13.41791344 89 73 57
246103.08825684 3357640.25286865 12.72287655 170 163 145
246102.10778809 3357639.79034424 13.17902184 217 222 218
246102.54528809 3357637.05059814 14.01745605 115 57 71
246100.78283691 3357640.16387939 13.06768417 221 220 202
246102.17517090 3357639.24749756 12.75208664 159 145 119
246100.47680664 3357638.39801025 13.23012543 121 124 115
246102.20263672 3357638.86895752 12.70971966 96 91 51
246102.94494629 3357636.70733643 13.73898792 66 40 41
246101.59216309 3357637.14465332 14.21808529 143 124 130
246100.15942383 3357637.24652100 13.67643929 159 87 109
246101.95764160 3357638.68920898 13.00032711 39 39 39
246101.40905762 3357638.47259521 13.77917862 82 84 81
246100.95361328 3357637.28259277 13.77305889 109 132 148
246101.69433594 3357638.71343994 12.97084427 47 47 47
246099.96093750 3357637.49182129 13.59687710 170 105 125
246101.81909180 3357637.48577881 14.20157814 28 32 35
246100.32250977 3357638.37249756 13.32086849 121 120 116
246100.80993652 3357638.70068359 12.75082970 121 121 113
246103.76904297 3357638.20422363 13.03435421 86 87 79
246101.30920410 3357639.59869385 13.00164413 95 92 83
246100.89062500 3357640.50207520 13.96547985 37 52 57
246103.02404785 3357640.07122803 12.73220253 160 149 129
246102.45739746 3357639.98883057 13.06264591 235 238 231
246101.28930664 3357638.62438965 13.29004192 53 56 49
246104.22473145 3357637.57757568 13.43066597 45 35 25
246100.69689941 3357640.33062744 13.33163738 143 143 141
246102.27233887 3357638.51257324 13.56010723 59 62 55
246103.20532227 3357636.85705566 13.85455513 85 76 67
246100.19958496 3357635.96459961 14.81824398 141 158 122
246101.80578613 3357636.61322021 13.83769703 30 31 33
246102.75451660 3357640.32092285 12.81418228 192 190 175
246101.95336914 3357638.91912842 12.77199936 248 234 187
246104.50463867 3357637.72137451 13.18893433 27 34 18
246103.98254395 3357638.07464600 13.13500595 102 106 79
246100.84387207 3357638.34490967 13.74620438 111 115 118
246101.16467285 3357637.07476807 13.83766842 122 151 167
246100.99414063 3357637.59124756 13.76503944 116 135 149
246100.85839844 3357637.88134766 13.76717567 150 165 172
246103.99035645 3357641.64855957 12.59052849 78 68 56
246099.73071289 3357638.06231689 13.47392941 138 79 99
246100.37646484 3357639.22351074 12.76131535 126 125 105
246101.37805176 3357636.86688232 14.04393387 131 88 95
246104.05151367 3357638.04797363 13.10603333 87 91 68
246101.54284668 3357637.82531738 14.15773773 37 43 43
246102.84606934 3357640.66229248 13.13166142 141 150 149
246102.80651855 3357640.57739258 12.94745636 193 191 179
246100.30297852 3357637.53369141 13.72692776 121 103 115
246100.37036133 3357638.46643066 13.01633358 32 33 28
246102.15112305 3357639.75213623 13.09218025 208 207 203
246100.57910156 3357638.42779541 13.03484535 83 83 75
246101.37524414 3357636.59722900 13.75612354 54 34 36
246101.73046875 3357640.65710449 14.03174305 233 239 239
246100.59802246 3357636.60003662 13.70321846 66 24 36
246102.54431152 3357636.74841309 13.80626297 95 42 50
246100.84143066 3357640.40240479 14.93567753 30 36 24
246103.47949219 3357641.30163574 12.74584579 172 166 150
246102.27917480 3357639.78759766 13.04587078 185 181 180
246100.39929199 3357636.00262451 14.89242077 61 75 52
246104.15954590 3357636.83947754 13.19513226 100 79 62
246104.07080078 3357638.02539063 13.24329662 71 81 44
246101.01464844 3357637.01361084 13.78144646 114 147 162
246100.83300781 3357640.03552246 13.24181938 241 243 229
246101.27075195 3357638.60272217 13.23250866 52 53 47
246103.45996094 3357638.72821045 12.81672382 52 47 41
246100.97692871 3357638.51690674 12.93177700 42 41 39
246100.75207520 3357637.81378174 13.74702454 144 157 165
246101.43725586 3357640.50579834 14.10321236 29 33 36
246104.09777832 3357636.88684082 13.36022091 83 89 55
246101.47229004 3357638.63470459 13.41881371 55 56 48
246100.37854004 3357638.96997070 12.75549412 215 201 162
246101.10925293 3357640.01513672 13.87739277 34 36 35
246100.57617188 3357638.47583008 12.89689922 51 52 46
246100.69433594 3357638.59197998 12.79192638 70 71 65
246102.58435059 3357640.10894775 12.95433044 223 225 214
246100.87207031 3357639.24298096 12.76008701 178 171 152
246101.19384766 3357638.84545898 12.75658417 87 86 65
246101.02465820 3357639.73309326 13.07463455 239 241 238
246101.33642578 3357639.67370605 13.18941498 237 233 234
246102.23657227 3357638.73791504 12.78571510 47 49 48
246101.44702148 3357638.27197266 14.09735680 102 102 100
246103.17395020 3357641.19567871 13.31451130 42 44 43
246102.13220215 3357639.50463867 12.85104370 130 121 104
246101.07238770 3357637.63665771 13.79924107 128 148 159
246100.14038086 3357638.74102783 12.81195450 92 95 88
246101.25769043 3357637.73791504 14.09169292 211 211 213
246100.75073242 3357638.17413330 13.75162506 174 178 179
246099.86840820 3357638.58636475 12.94766808 109 112 105
246102.33959961 3357638.57574463 13.26888657 32 32 30
246102.69018555 3357639.15332031 12.75391865 153 135 97
246101.93750000 3357638.09039307 14.07871342 188 192 191
246100.54589844 3357636.62670898 13.69812775 72 15 32
246104.31518555 3357638.37500000 12.80515480 66 73 66
246102.12182617 3357640.41546631 13.83163929 233 236 227
246101.39038086 3357640.42980957 14.09458065 35 34 39
246102.04077148 3357638.55444336 13.51733589 61 60 55
246101.49963379 3357637.69055176 14.17583942 34 40 40
246101.69421387 3357639.91589355 13.66586399 152 152 152
246100.33837891 3357636.69763184 13.64610481 108 21 38
246104.49584961 3357637.94006348 13.12619400 55 61 47
246099.93017578 3357638.23718262 13.46874809 132 113 119
246102.51306152 3357640.34844971 13.56154728 103 119 118
246102.00744629 3357638.34332275 13.78573704 15 15 17
246100.35571289 3357636.96038818 13.73766518 131 82 101
246100.69750977 3357638.39727783 13.66508865 87 89 88
246103.69995117 3357638.35595703 12.83573818 41 41 41
246100.60375977 3357640.19812012 12.85265350 177 173 164
246100.27844238 3357640.01367188 12.89700222 154 151 142
246101.50012207 3357639.76586914 13.41060066 225 227 226
246100.75915527 3357637.60339355 13.74712276 126 148 159
246102.67919922 3357638.53314209 13.32513523 29 29 29
246101.81103516 3357639.08251953 12.75593662 196 182 137
246103.53564453 3357638.72760010 12.79336739 60 57 50
246102.87402344 3357638.62274170 13.08664131 31 33 32
246103.49731445 3357637.11187744 13.82789326 84 77 67
246102.11999512 3357639.15454102 12.73784637 168 152 119
246101.85229492 3357638.07922363 14.08191299 203 208 204
246103.05969238 3357637.37756348 14.09155369 128 127 122
246102.33435059 3357639.78039551 12.98489475 50 49 45
246103.44409180 3357641.03784180 12.76779175 168 160 147
246103.41967773 3357641.46990967 12.95846462 124 121 116
246104.19616699 3357637.36993408 13.45454311 47 30 20
246101.00244141 3357639.76879883 13.12111664 221 225 224
246100.00622559 3357638.13409424 13.54329300 142 92 104
246101.23986816 3357639.79101563 13.44112301 237 236 241
246104.28295898 3357637.20281982 13.34254742 17 19 0
246103.27014160 3357641.24780273 13.04147243 65 65 63
246100.55688477 3357639.22125244 12.75991344 125 120 91
246101.16186523 3357639.04931641 12.75660610 227 218 175
246100.43469238 3357638.71881104 12.76423836 93 93 81
246102.07653809 3357639.86022949 13.33616638 219 228 227
246100.74438477 3357637.94854736 13.75977802 162 169 175
246104.84814453 3357637.41442871 13.14639664 96 116 47
246102.97277832 3357638.57647705 13.12728882 33 35 34
246102.64746094 3357640.34423828 13.07721901 213 219 215
246101.65405273 3357638.71801758 12.95473671 47 47 45
246105.02673340 3357637.54809570 13.05963802 103 123 54
246101.48217773 3357640.66430664 14.10603333 5 10 14
246103.89733887 3357638.10522461 13.22509766 97 104 73
246100.73303223 3357640.39660645 13.65978241 60 70 71
246101.86145020 3357636.66082764 13.89736271 32 28 27
246101.79077148 3357639.81793213 13.47345257 238 244 244
246102.41003418 3357637.30749512 14.24640274 155 124 130
246100.82666016 3357639.99548340 13.71497917 149 147 152
246102.03271484 3357637.37030029 14.21398258 16 14 15
246099.77685547 3357636.72167969 13.49038124 216 184 199
246103.91333008 3357641.67608643 12.58718967 69 62 52
246099.56408691 3357637.74047852 13.50211239 175 136 155
246099.95251465 3357636.66455078 13.51909828 113 27 36
246103.40490723 3357637.49981689 13.81677818 116 106 97
246101.90612793 3357640.15661621 13.84159851 18 27 24
246101.98046875 3357636.49395752 13.70302105 29 29 27
246102.63842773 3357640.73522949 13.83280563 255 252 249
246104.20056152 3357641.50445557 12.62153435 190 179 157
246099.75952148 3357637.02911377 13.56972408 221 115 135
246101.40344238 3357636.60021973 13.75568962 52 31 36
246100.22167969 3357638.50793457 12.91371250 66 68 63
246101.26342773 3357638.37530518 14.01409817 43 45 44
246101.60290527 3357637.23333740 14.21047401 24 15 20
246101.12365723 3357639.83135986 13.48201942 238 242 245
246102.47753906 3357638.92840576 12.74519062 252 231 184
246104.12658691 3357637.29925537 13.46300125 86 70 55
246100.97668457 3357639.56524658 12.79439259 146 136 126
246104.08935547 3357638.40502930 12.72801208 71 70 66
246103.87878418 3357638.12988281 13.12378597 67 69 55
246102.07019043 3357638.24255371 13.90465736 44 44 44
246101.54504395 3357636.84533691 14.06872272 107 56 65
246101.08593750 3357639.59906006 12.89187241 126 117 108
246104.48974609 3357637.60394287 13.22503948 31 31 23
246103.25598145 3357637.09295654 13.93656158 84 77 69
246101.80908203 3357639.53552246 12.86659336 116 109 101
246101.30468750 3357636.70837402 13.89235210 23 17 17
246102.05017090 3357640.31982422 13.84948921 238 244 244
246100.03942871 3357637.69726563 13.63353634 170 115 136
246100.23193359 3357639.43890381 12.77538490 133 132 127
246101.26330566 3357638.50183105 13.74011898 110 112 111
246099.84863281 3357638.49340820 13.04386044 124 121 114
246102.08288574 3357636.87213135 14.05977821 111 43 56
246102.52697754 3357636.60668945 13.65708637 22 14 12
246100.93505859 3357637.69256592 13.73892021 132 155 169
246101.20043945 3357639.93902588 13.73876381 15 23 26
246101.81530762 3357638.90673828 12.77795506 243 227 178
246100.59997559 3357640.71313477 12.90486240 179 169 157
246103.26196289 3357638.59857178 12.93877506 42 39 30
246099.50927734 3357638.16125488 13.23839569 148 148 138
246102.78210449 3357640.71356201 13.53977966 254 255 250
246101.18103027 3357637.59320068 13.96816444 191 204 212
246099.49426270 3357638.20330811 13.21392250 142 145 136
246101.83386230 3357640.00823975 13.73533630 25 29 32
246103.65759277 3357638.31011963 12.94441605 40 39 37
246103.45886230 3357638.40502930 13.02733421 35 33 34
246101.58728027 3357638.43768311 13.80285072 62 67 63
246101.30920410 3357638.17102051 14.07755947 218 220 219
246101.60083008 3357640.38879395 14.06454086 83 86 93
246100.63940430 3357639.71148682 12.77889347 182 176 164
246102.14697266 3357638.91137695 12.71835327 193 187 139
246099.58837891 3357636.78820801 13.30403137 156 134 147
246102.97082520 3357640.93884277 13.36747265 108 113 107
246100.69604492 3357638.51629639 12.84290218 44 47 40
246101.95825195 3357638.30566406 13.83481884 31 32 34
246100.38623047 3357638.83599854 12.75985050 111 98 81
246101.91137695 3357640.29095459 13.89203167 246 250 249
246102.03613281 3357639.81799316 13.28719902 211 217 217
246100.95141602 3357637.60559082 13.74734306 124 143 157
246100.35888672 3357636.00280762 14.86105156 44 58 35
246101.71374512 3357637.55535889 14.18780804 16 20 23
246101.89111328 3357640.03497314 13.74027157 18 27 26
246102.81628418 3357640.34106445 12.77359962 187 185 170
246103.30456543 3357638.49029541 13.03578472 38 34 31
246102.08227539 3357637.80047607 14.17893887 23 31 33
246100.15588379 3357638.37695313 13.34139538 109 107 108
246102.88061523 3357638.57550049 13.20277309 24 26 25
246102.24365234 3357639.99340820 13.32182789 240 246 246
246100.17248535 3357637.57958984 13.69811249 155 112 129
246104.10192871 3357637.60284424 13.46879673 92 71 54
246101.71472168 3357638.68762207 13.19836903 43 45 40
246103.28173828 3357641.24755859 13.00441742 109 108 104
246102.14392090 3357638.99450684 12.71697426 245 235 186
246101.52514648 3357636.97332764 14.18803978 144 76 91
246101.14965820 3357638.07434082 13.97468185 220 226 226
246104.05456543 3357637.57403564 13.47732353 101 76 56
246100.63842773 3357636.46527100 13.64995289 41 22 18
246101.98791504 3357640.72113037 13.87233448 225 231 227
246101.88830566 3357638.30523682 13.85886383 25 26 28
246103.08959961 3357640.26959229 12.72243118 174 167 149
246103.81982422 3357638.15911865 13.24545288 75 79 56
246103.25952148 3357641.10778809 12.88801861 198 196 183
246103.03918457 3357640.94525146 13.05214596 209 216 200
246104.77416992 3357637.99859619 12.94458580 23 25 11
246101.65148926 3357636.88262939 14.13623810 120 56 70
246100.55090332 3357638.59747314 12.78023052 43 43 41
246100.52087402 3357637.35156250 13.76060200 233 248 251
246102.93945313 3357636.79174805 13.82245350 67 38 40
246102.50915527 3357640.24597168 13.35392284 46 56 58
246102.76049805 3357640.55938721 13.26133823 24 38 39
246100.13793945 3357637.59301758 13.68049717 162 115 133
246101.39562988 3357640.25793457 14.06107140 253 255 254
246102.17358398 3357638.62518311 13.13957024 35 35 37
246101.03430176 3357638.18688965 13.89225674 119 129 128
246100.53161621 3357637.26257324 13.76497269 135 180 185
246104.06311035 3357637.77368164 13.46617699 84 69 46
246101.15905762 3357637.29522705 13.89006805 131 153 164
246101.17785645 3357637.25054932 13.90615940 134 152 162
246100.42907715 3357635.52117920 15.91103363 93 113 62
246102.30212402 3357638.56927490 13.35188293 31 33 30
246103.89550781 3357637.04205322 13.49842739 62 44 32
246102.17504883 3357639.74621582 13.06961441 151 147 144
246100.78564453 3357638.01318359 13.78602028 159 169 170
246101.19995117 3357637.96527100 14.01185703 215 220 223
246103.96655273 3357641.60742188 12.59819794 78 66 54
246101.27697754 3357636.62902832 13.79335690 44 25 29
246102.42614746 3357637.09155273 14.10044670 130 68 79
246103.48107910 3357637.75769043 13.73696423 150 140 130
246100.80139160 3357638.42803955 13.70649242 198 200 199
246099.92395020 3357637.07592773 13.62696075 177 85 106
246103.78417969 3357637.28405762 13.54909801 107 83 71
246100.71691895 3357640.28118896 13.61659527 68 76 79
246099.94238281 3357638.53265381 12.95251846 97 98 92
246100.85791016 3357638.07025146 13.81616497 155 167 167
246101.18261719 3357639.36364746 12.78108215 150 142 123
246101.29052734 3357639.18328857 12.75910187 160 149 117
246102.17041016 3357638.54882813 13.47828770 68 69 64
246100.17004395 3357638.84979248 12.79522991 107 106 88
246104.69653320 3357637.49578857 13.15134239 25 33 9
246103.15954590 3357637.24481201 14.02920151 94 87 81
246102.53222656 3357640.09637451 13.04490948 221 224 215
246104.09387207 3357637.65112305 13.46466255 94 73 56
246101.28881836 3357637.55273438 14.12841415 70 71 75
246101.33935547 3357639.64062500 13.11106491 94 89 85
246102.15966797 3357637.82775879 14.15788841 26 36 37
246100.31469727 3357638.50616455 12.90143871 52 54 49
246101.67480469 3357639.99023438 13.77377224 24 30 28
246101.63854980 3357638.80981445 12.81840801 150 144 118
246101.04772949 3357638.85241699 12.74726391 105 99 77
246102.47875977 3357638.55139160 13.13366127 35 35 35
246103.88793945 3357641.72882080 12.59266567 55 51 40
246100.90942383 3357639.92877197 13.69265938 19 20 22
246100.86779785 3357638.51397705 13.26772594 73 74 69
246101.61267090 3357637.02038574 14.22229290 98 71 78
246100.87670898 3357640.44238281 13.90908051 30 41 43
246104.00463867 3357641.28033447 12.67743301 162 151 129
246101.24084473 3357638.04858398 14.03672981 207 213 213
246103.42749023 3357640.70513916 12.73796272 175 167 148
246100.49133301 3357639.43676758 12.76612949 120 112 99
246100.85986328 3357639.73535156 12.79778957 134 132 120
246101.55957031 3357638.25543213 14.05978870 91 91 91
246102.76184082 3357637.59533691 14.15114498 147 147 137
246102.08044434 3357638.28582764 13.84989166 35 36 38
246101.34155273 3357640.08251953 14.00328159 239 239 239
246100.70166016 3357638.48181152 12.86717510 43 46 39
246100.25390625 3357636.61944580 13.55596352 74 3 7
246103.69189453 3357641.66845703 12.71311855 80 76 65
246100.55090332 3357636.87878418 13.77878189 119 152 169
246100.75024414 3357639.91418457 12.82051945 201 201 193
246103.83764648 3357637.82275391 13.51967525 120 96 70
246100.84997559 3357638.55499268 13.70170021 241 240 236
246100.81298828 3357638.54284668 13.43613243 90 89 84
246103.49194336 3357641.43640137 12.74437237 181 177 165
246101.66564941 3357639.63256836 13.07754517 73 70 65
246103.72302246 3357636.66491699 13.46267891 86 52 51
246102.74060059 3357640.53790283 13.30198574 22 38 38
246100.96142578 3357639.81542969 13.09037495 221 221 219
246101.38854980 3357637.31823730 14.16853714 6 1 7
246100.53039551 3357636.84582520 13.77436447 126 139 156
246101.63977051 3357638.78643799 12.82857895 93 90 73
246102.39843750 3357640.11199951 13.27912712 255 255 255
246100.82434082 3357640.43206787 13.81918716 3 17 17
246102.55334473 3357640.64263916 13.85328865 243 235 233
246101.64892578 3357640.54113770 14.06739235 92 100 102
246103.99694824 3357641.31445313 12.66793919 161 150 128
246102.79724121 3357640.61047363 13.23534870 31 42 44
246103.64160156 3357637.74554443 13.62433910 107 91 78
246100.93164063 3357636.68432617 13.82499886 68 7 15
246099.78674316 3357636.65667725 13.43546009 202 168 182
246102.12377930 3357638.33117676 13.81620693 11 15 14
246102.54296875 3357640.38916016 13.58815289 240 244 245
246099.67175293 3357638.24731445 13.29785156 59 55 52
246102.71533203 3357640.88452148 13.77268124 243 236 228
246100.18859863 3357638.29510498 13.50027657 157 143 143
246102.50524902 3357640.23706055 13.34288597 73 78 82
246101.85046387 3357638.25799561 13.92852592 57 55 56
246103.82702637 3357636.87823486 13.53313732 72 52 41
246103.04003906 3357640.75616455 12.79750824 160 159 141
246102.01306152 3357638.57415771 13.46611023 54 55 49
246099.79516602 3357638.30407715 13.32273388 65 74 71
246102.59375000 3357637.22259521 14.11330795 142 99 106
246102.61621094 3357638.92114258 12.76070499 250 229 186
246101.88525391 3357640.78558350 13.95429897 239 245 245
246104.04333496 3357637.00683594 13.41301823 61 56 36
246100.70153809 3357638.45654297 12.90940094 61 62 54
246100.25927734 3357635.97570801 14.86119461 108 125 93
246103.62963867 3357638.55108643 12.79564381 52 51 49
246100.33154297 3357640.26934814 12.90110588 160 160 150
246100.84948730 3357639.91278076 13.44205475 248 248 248
246102.49694824 3357637.18780518 14.13789940 150 96 109
246100.89697266 3357637.67950439 13.74068165 135 157 170
246102.04699707 3357638.47015381 13.65232372 77 76 74
246102.41174316 3357637.37493896 14.25680542 167 144 150
246100.53173828 3357638.36242676 13.48105335 130 126 125
246101.98083496 3357636.67974854 13.92205524 37 36 34
246101.22216797 3357636.90856934 13.94099903 136 138 150
246100.43420410 3357639.70690918 12.79018307 150 146 135
246100.62988281 3357635.60699463 15.78141880 29 48 29
246103.34680176 3357640.79333496 12.75423145 172 163 146
246103.98071289 3357641.21667480 12.69436741 170 158 136
246100.76818848 3357638.99023438 12.75553322 205 200 160
246099.99719238 3357638.16595459 13.52284622 128 76 89
246102.29895020 3357639.27838135 12.75528812 162 148 122
246101.22839355 3357639.64288330 13.09865665 79 75 72
246103.20812988 3357641.14550781 13.03514671 225 225 213
246104.00231934 3357637.98876953 13.36147881 55 58 27
246102.31958008 3357639.71215820 12.92941189 75 74 70
246101.57312012 3357638.66333008 13.23822784 37 42 36
246100.98339844 3357639.86285400 13.55997467 241 241 243
246103.61560059 3357641.63409424 12.77382278 159 156 147
246103.95214844 3357637.04162598 13.46684265 60 46 33
246104.05554199 3357638.50024414 12.70484543 75 74 72
246102.60180664 3357638.74017334 12.84227753 54 56 43
246101.12402344 3357639.87097168 13.58993721 238 237 242
246102.16931152 3357639.36663818 12.78219032 148 138 113
246102.68823242 3357638.69769287 12.90799618 51 51 49
246100.50134277 3357638.39440918 13.27712727 133 134 128
246100.71044922 3357640.40081787 13.61249447 72 82 83
246101.63159180 3357639.08740234 12.75529766 187 179 130
246100.93286133 3357640.27569580 13.93642426 39 56 72
246103.84558105 3357641.66198730 12.60707474 57 53 41
246101.25817871 3357636.63775635 13.80652905 34 19 22
246100.32739258 3357638.18981934 13.64004993 146 131 138
246101.01232910 3357639.46002197 12.76301384 163 157 141
246100.96557617 3357636.39123535 13.82834435 58 35 41
246103.90051270 3357638.12982178 13.06817341 67 71 56
246101.48352051 3357639.22924805 12.77225018 159 145 119
246102.06115723 3357639.23901367 12.75030136 169 155 126
246099.90588379 3357638.10736084 13.51091194 157 89 110
246104.11950684 3357637.79150391 13.45269203 62 50 28
246101.90026855 3357640.69287109 13.91753101 229 233 232
246103.26635742 3357637.11853027 13.94247913 84 77 69
246102.53857422 3357638.96154785 12.74573612 249 229 179
246103.83703613 3357637.34533691 13.52929020 81 53 39
246100.66345215 3357639.70843506 12.77680397 182 176 164
246100.45141602 3357636.53759766 13.50412655 44 8 8
246103.52099609 3357641.35534668 12.71894646 167 161 145
246103.20202637 3357640.34472656 12.71212673 164 155 138
246102.41015625 3357637.31616211 14.24805164 164 137 142
246102.46032715 3357636.64544678 13.70426941 24 13 11
246102.08789063 3357639.36791992 12.78343678 149 137 113
246101.76257324 3357638.90112305 12.77951241 205 190 149
246102.42492676 3357639.81170654 12.91777992 56 55 50
246102.33862305 3357638.63909912 12.89750481 38 43 39
246100.27172852 3357635.99328613 14.83383179 79 96 64
246101.22607422 3357640.42181396 14.10657406 177 175 176
246100.64758301 3357639.55590820 12.76556015 169 163 149
246099.56604004 3357637.25726318 13.48121071 221 200 209
246101.04016113 3357638.55230713 13.64599991 99 98 94
246100.34265137 3357639.70520020 12.79529381 148 146 134
246101.64624023 3357636.68420410 13.88576508 20 10 8
246102.95690918 3357640.87658691 13.28497028 241 249 238
246100.75830078 3357640.20172119 13.18456173 224 226 202
246101.90576172 3357638.70532227 12.95403385 49 45 42
246102.47131348 3357637.15203857 14.12657642 142 84 98
246102.42895508 3357639.62554932 12.83438396 113 106 100
246101.16931152 3357638.39581299 13.88607216 43 47 46
246100.14172363 3357639.63629150 12.79278946 158 155 148
246100.19274902 3357636.56243896 13.38335609 155 129 132
246100.85620117 3357639.94494629 12.88852406 195 196 190
246100.07910156 3357636.54156494 13.34095383 157 138 134
246102.63024902 3357640.53668213 13.64339733 255 255 255
246102.34252930 3357637.50219727 14.27063274 39 37 38
246102.97790527 3357637.16125488 14.01590538 100 86 83
246100.01904297 3357638.67309570 12.84059238 99 102 95
246101.36804199 3357637.32757568 14.15995502 6 1 5
246102.24780273 3357640.06695557 13.43668747 248 249 251
246102.42749023 3357639.86297607 12.96502590 65 64 59
246100.11669922 3357638.41473389 13.21683788 72 72 72
246101.40380859 3357638.17639160 14.09495640 165 170 166
246101.49182129 3357638.76367188 12.86171150 47 50 33
246102.11804199 3357638.31402588 13.83076286 24 26 25
246100.49841309 3357639.23297119 12.76009750 130 126 101
246101.78466797 3357637.16058350 14.22375488 152 137 140
246104.07458496 3357637.83312988 13.45557117 78 67 45
246101.85668945 3357639.62933350 12.98203182 79 78 73
246100.18054199 3357638.48406982 12.94399166 63 65 60
246100.79809570 3357639.73748779 12.78836250 175 172 163
246102.34460449 3357639.38555908 12.79024220 140 127 108
246103.90649414 3357637.91259766 13.47714996 92 83 54
246102.55334473 3357637.46777344 14.23541451 151 137 136
246100.65991211 3357640.32305908 14.84174442 28 36 25
246102.52648926 3357636.66241455 13.71577549 31 11 12
246100.15026855 3357638.42022705 13.21380234 75 75 75
246101.01147461 3357639.91741943 13.68769264 12 16 19
246101.45837402 3357636.77954102 13.98168755 40 26 25
246101.27453613 3357637.23352051 14.09312725 72 70 75
246100.60180664 3357636.90130615 13.78824234 139 188 205
246100.70007324 3357640.29815674 12.92654324 231 228 219
246101.57910156 3357638.63330078 13.41043091 50 51 43
246102.75415039 3357639.06219482 12.74893093 191 174 131
246100.94628906 3357638.55841064 12.89010429 37 36 32
246100.10131836 3357638.73596191 12.81935596 94 97 90
246102.60815430 3357637.05731201 14.01931572 117 72 79
246100.70617676 3357637.78393555 13.74917698 143 156 162
246101.02343750 3357636.85357666 13.82560253 168 156 168
246101.56494141 3357638.99932861 12.75714970 236 227 172
246101.48974609 3357640.18676758 14.04077148 253 255 254
246101.76208496 3357636.99908447 14.20373917 94 65 70
246102.83837891 3357640.69293213 13.30666828 230 243 234
246103.17480469 3357638.43542480 13.23329258 39 38 34
246101.28198242 3357637.39508057 14.11681175 21 20 25
246101.38757324 3357638.96112061 12.78129673 198 192 160
246102.42333984 3357636.86529541 13.91307926 110 45 53
246101.87219238 3357636.62878418 13.85945225 22 22 22
246100.72924805 3357638.48437500 13.56355286 90 89 85
246101.11401367 3357640.14312744 14.01125240 246 252 252
246101.19860840 3357637.69775391 14.00239849 196 205 212
246101.17480469 3357639.85278320 13.57094669 255 253 255
246103.40930176 3357641.13183594 12.79320240 189 184 165
246101.74877930 3357639.82330322 13.49355030 239 243 244
246100.20349121 3357636.55444336 13.34498978 190 175 180
246103.55798340 3357638.33050537 13.02729893 35 34 32
246104.07812500 3357638.37036133 12.73032665 72 71 67
246100.63940430 3357640.65380859 12.97898769 190 178 164
246102.47412109 3357640.08630371 13.13352394 231 236 232
246102.17260742 3357637.97454834 14.13503456 69 77 79
246102.24365234 3357637.22698975 14.23210430 17 7 8
246101.10681152 3357636.44750977 13.76637745 32 21 17
246100.89978027 3357638.41925049 13.76610088 25 29 30
246103.50842285 3357641.49554443 12.80209827 182 178 166
246103.38073730 3357640.69976807 12.73712158 174 165 148
246103.64331055 3357641.64428711 12.73067093 82 80 68
246100.67126465 3357640.31201172 12.95673943 230 228 216
246102.75390625 3357640.92120361 13.74640369 175 170 164
246099.64929199 3357637.96881104 13.47486782 136 73 94
246100.71313477 3357640.40081787 13.62564182 71 79 81
246103.52380371 3357637.48486328 13.71185875 130 112 102
246103.94799805 3357637.39733887 13.48801613 62 39 21
246099.57788086 3357637.31079102 13.48510551 208 161 177
246102.98254395 3357640.00311279 12.73783112 161 148 131
246101.05664063 3357640.19519043 14.00729847 188 201 210
246103.62890625 3357636.87756348 13.65965271 88 65 57
246101.67822266 3357636.48956299 13.68048096 38 33 37
246101.04333496 3357638.55249023 13.64509296 99 98 94
246103.74548340 3357638.64300537 12.73825073 58 57 52
246104.31640625 3357636.92700195 13.20577431 44 40 13
246102.98071289 3357637.13220215 14.00666904 100 86 83
246103.60449219 3357636.90594482 13.68423080 86 68 58
246103.64477539 3357638.61004639 12.76712799 52 51 47
246100.75146484 3357638.14868164 13.75587463 169 175 175
246100.93225098 3357638.57910156 13.41634464 75 74 69
246101.93652344 3357639.81060791 13.35557747 223 229 229
246103.36865234 3357637.40026855 13.89785004 96 89 81
246102.36950684 3357636.60687256 13.70196152 35 26 29
246102.94250488 3357638.53515625 13.25205898 25 26 21
246099.78649902 3357637.24041748 13.54324627 186 108 130
246100.76721191 3357636.49951172 13.70465374 48 22 23
246100.76147461 3357638.50708008 13.54528427 83 82 78
246102.39526367 3357638.66363525 12.87747383 39 43 42
246100.84558105 3357639.92474365 13.37252522 240 242 237
246104.12243652 3357637.20715332 13.41741562 89 73 57
246101.39294434 3357638.45776367 13.80892658 46 50 49
246102.54821777 3357636.69702148 13.75209045 68 37 42
246101.09338379 3357638.99536133 12.75525093 223 214 173
246102.26025391 3357638.84069824 12.71627140 92 85 57
246101.28674316 3357640.43908691 14.10578156 40 38 39
246101.15747070 3357639.70843506 13.19225693 233 234 236
246103.54443359 3357641.56060791 12.80611515 166 162 153
246104.52050781 3357637.05169678 13.24904823 103 124 57
246102.71240234 3357640.86425781 13.76359272 242 235 229
246102.00927734 3357637.16320801 14.21540356 111 89 92
246101.48596191 3357636.68817139 13.86211681 24 15 16
246100.77270508 3357638.51013184 13.33512783 86 85 80
246102.82543945 3357636.91674805 13.91899109 88 57 54
246101.81799316 3357639.42590332 12.79686069 131 124 108
246102.83129883 3357640.87274170 13.61676979 124 123 118
246103.30114746 3357640.66125488 12.73035431 174 166 147
246101.43481445 3357636.75854492 13.95547295 34 23 21
246102.08386230 3357639.95184326 13.49884224 249 253 252
246101.99426270 3357636.69079590 13.93125916 34 33 31
246103.33093262 3357641.15173340 12.85713387 183 180 165
246099.98498535 3357638.09130859 13.55144882 157 103 117
246103.20214844 3357637.09460449 13.96113110 88 79 72
246101.97143555 3357637.58435059 14.20276451 21 27 25
246100.55590820 3357640.27233887 12.89956665 187 183 174
246099.96862793 3357638.18322754 13.50409794 127 77 89
246103.74365234 3357636.91296387 13.60486412 72 54 44
246103.26306152 3357637.19415283 13.97114944 86 82 73
246100.45593262 3357636.89447021 13.76012802 138 137 151
246100.86291504 3357636.72875977 13.79619312 103 59 72
246102.51916504 3357640.15991211 13.13038731 228 230 219
246103.98559570 3357637.64105225 13.47827625 105 77 56
246102.33020020 3357637.50384521 14.27048206 39 37 38
246103.68823242 3357637.37084961 13.59765911 107 80 69
246101.82031250 3357640.09301758 13.82527637 15 21 19
246101.28295898 3357640.25573730 14.06352329 255 255 255
246103.02783203 3357640.86334229 12.93050385 145 153 132
246101.54589844 3357636.55230713 13.71716022 20 14 18
246102.78674316 3357640.58929443 13.21449947 87 95 97
246101.12622070 3357637.47381592 13.89325428 108 128 139
246100.61340332 3357637.92889404 13.74907589 159 158 164
246102.32409668 3357637.21215820 14.22490025 87 61 64
