246099.88525391 3357620.62811279 13.66372776 39 40 45
246099.78149414 3357622.74084473 14.85242462 93 93 85
246099.73779297 3357621.03851318 13.22434998 76 72 63
246099.60253906 3357618.86596680 14.04399395 108 108 108
246099.44018555 3357619.96081543 14.08018780 142 146 149
246100.51110840 3357620.29748535 14.37657738 10 11 13
246099.98046875 3357620.67547607 13.80904293 48 49 51
246099.70874023 3357622.94317627 14.68031979 41 43 40
246099.32775879 3357619.41174316 13.81204510 165 169 178
246099.62976074 3357622.62951660 14.60048294 54 54 56
246100.34118652 3357620.35443115 14.23928356 21 22 26
246099.70007324 3357623.06134033 14.47314548 1 9 12
246098.99108887 3357621.74371338 13.72125912 167 169 166
246099.84020996 3357619.54443359 14.81536102 170 174 177
246099.90637207 3357623.20971680 13.89861965 84 87 76
246100.58129883 3357620.31250000 14.36190224 57 59 58
246099.37634277 3357619.13031006 13.86511135 177 181 182
246099.54199219 3357618.80926514 13.75628948 140 138 139
246099.16052246 3357621.76690674 14.30430603 100 94 96
246099.11389160 3357621.53692627 14.03883266 193 178 181
246100.33264160 3357621.30285645 14.27544785 226 222 221
246101.32800293 3357620.86120605 13.93703079 23 25 24
246099.95581055 3357623.22338867 13.93452930 98 101 90
246099.37158203 3357622.16302490 14.44525623 76 79 84
246100.45214844 3357621.57861328 14.73474407 77 77 77
246100.03942871 3357623.19641113 13.61244106 54 55 50
246099.55700684 3357623.12194824 13.98795509 185 186 181
246099.15039063 3357622.30676270 14.29962730 83 85 84
246099.94323730 3357620.97558594 13.94828606 64 64 64
246100.72277832 3357621.00903320 14.02643490 40 40 40
246099.23291016 3357622.87945557 14.26372337 83 83 85
246100.11291504 3357621.60052490 14.67656040 47 53 49
246099.10620117 3357622.75769043 14.22675610 230 230 230
246098.99230957 3357622.57574463 13.90762234 234 238 237
246100.64660645 3357620.88006592 14.08679199 42 41 39
246099.76916504 3357620.43035889 13.85319996 65 61 62
246099.95007324 3357621.48614502 14.45309258 85 91 89
246100.01489258 3357621.83312988 14.91693974 34 35 37
246099.95788574 3357621.68469238 14.76148224 69 75 73
246099.50732422 3357619.81140137 14.51465225 21 29 32
246099.67065430 3357618.71331787 13.46296310 71 71 71
246100.00390625 3357619.28686523 14.77307415 144 152 154
246099.37060547 3357620.07305908 13.64576435 139 140 142
246100.67675781 3357621.48468018 14.52612877 39 40 42
246099.87683105 3357620.24493408 14.49444294 34 34 34
246099.63146973 3357620.82507324 13.09002876 104 101 92
246099.79577637 3357620.25756836 14.48230648 65 65 65
246098.96069336 3357622.48980713 13.73082924 147 149 148
246100.19946289 3357620.76568604 14.07810593 49 51 48
246100.89477539 3357621.00744629 13.89050388 35 37 34
246099.95617676 3357620.71356201 13.57142639 28 30 29
246099.25451660 3357622.57196045 14.31465054 176 177 179
246099.40002441 3357621.37750244 14.14001369 204 203 201
246099.74206543 3357621.12573242 13.56275749 105 105 107
246099.35827637 3357622.07067871 14.46378994 76 84 87
246100.68408203 3357621.26678467 14.11994171 166 166 164
246099.58801270 3357619.71661377 14.79653168 184 193 198
246100.50622559 3357619.13409424 14.76407909 63 67 68
246100.46044922 3357621.55242920 14.66247654 155 153 154
246100.37744141 3357619.58422852 14.62611675 103 112 111
246099.23950195 3357621.65203857 14.31936741 80 78 79
246100.51623535 3357620.18298340 14.56143475 84 90 90
246099.60095215 3357618.77026367 13.74102592 128 129 131
246099.79602051 3357623.05804443 14.83759403 68 69 63
246099.79626465 3357621.74682617 14.74977016 23 24 26
246099.77819824 3357621.11029053 13.47848415 94 93 98
246099.76623535 3357621.46362305 14.41033268 35 37 36
246100.59277344 3357620.04254150 14.73099422 136 145 142
246099.68029785 3357618.80615234 13.99393559 110 116 114
246099.82275391 3357621.67456055 14.68835735 108 109 111
246099.59375000 3357622.54077148 14.55024147 57 61 64
246099.71276855 3357620.94677734 13.14894199 155 147 128
246100.81237793 3357621.23266602 13.98381233 135 131 120
246101.34204102 3357620.57647705 14.17096519 66 68 67
246099.49951172 3357619.67425537 14.42604351 16 24 26
246099.81359863 3357621.52008057 14.46871853 14 18 17
246100.62219238 3357619.60052490 14.72427368 49 59 60
246099.75842285 3357622.99926758 14.75560474 19 24 18
246100.22680664 3357621.53472900 14.60093021 153 155 152
246099.64416504 3357620.23089600 14.26821709 154 158 159
246099.91088867 3357620.91589355 13.28094482 104 105 97
246099.62854004 3357622.21478271 14.68176079 43 47 48
246100.06774902 3357620.14001465 14.59189796 124 125 127
246101.08569336 3357621.35852051 13.99990845 126 126 118
246101.20104980 3357620.35626221 14.38172054 13 15 14
246099.59338379 3357620.17810059 14.38018608 102 107 110
246100.26818848 3357620.77343750 14.09360313 47 47 47
246099.35681152 3357619.40161133 13.90671062 212 216 227
246099.66809082 3357619.51391602 14.83499527 231 235 238
246098.99719238 3357622.99047852 13.47757244 47 49 48
246100.62524414 3357619.68365479 14.75149632 41 51 50
246101.04772949 3357621.38970947 14.10585880 200 202 191
246100.34985352 3357620.95214844 14.17333221 134 139 135
246100.16809082 3357620.24505615 14.42181683 31 31 31
246098.92651367 3357622.33514404 13.61504078 202 204 203
246099.46020508 3357623.08551025 14.11608028 190 190 188
246099.49780273 3357618.94628906 13.97941685 62 50 52
246100.19140625 3357621.37176514 14.35853577 230 228 231
246099.60107422 3357619.75891113 14.80815411 202 212 214
246099.76599121 3357622.96856689 14.78188896 78 79 73
246099.98425293 3357623.23675537 14.13641357 179 183 168
246099.13232422 3357621.48809814 13.91076088 215 205 204
246099.47424316 3357619.70880127 14.26010609 18 22 25
246098.98034668 3357622.35693359 14.08174133 137 143 159
246099.40698242 3357621.26080322 13.70917892 189 190 192
246099.49462891 3357619.72680664 14.38483047 14 18 21
246099.12951660 3357621.43957520 13.46374416 81 87 85
246099.60449219 3357619.19366455 14.74498463 216 220 231
246100.40795898 3357619.90222168 14.74452305 103 112 107
246099.01965332 3357622.60052490 14.17221546 231 231 229
246099.45739746 3357621.63214111 14.43394661 46 47 49
246101.43005371 3357620.72009277 14.13536549 46 46 44
246100.13476563 3357619.44769287 14.67320347 136 142 142
246099.36425781 3357619.40405273 13.93032265 200 204 215
246099.39538574 3357621.56011963 14.35903740 39 43 44
246099.07800293 3357622.96978760 13.94819450 169 155 152
246101.21765137 3357620.37005615 14.32421303 15 15 15
246099.94616699 3357620.72491455 13.60484791 31 32 34
246099.62976074 3357622.77947998 14.61511612 78 78 78
246101.12670898 3357620.95288086 13.85812855 28 30 29
246100.06042480 3357620.61523438 13.94606495 40 41 43
246099.33215332 3357619.84033203 13.58123875 222 227 230
246099.46276855 3357618.82098389 13.57662678 157 157 157
246100.39953613 3357619.40002441 14.61989880 105 116 112
246100.02319336 3357620.52276611 14.00974274 58 58 58
246099.28540039 3357622.19525146 14.38028336 117 121 124
246099.66064453 3357618.75866699 13.70252323 126 127 129
246099.55004883 3357620.24865723 13.95268345 114 88 91
246099.11450195 3357621.50842285 13.92922401 198 184 184
246099.65515137 3357618.75152588 13.65214825 116 118 117
246099.42016602 3357619.85150146 14.05730152 114 121 127
246099.73474121 3357622.46038818 14.78298950 41 43 40
246099.54016113 3357620.34002686 13.49658298 68 70 69
246099.55090332 3357618.97613525 14.08430672 148 142 146
246099.52490234 3357622.23864746 14.55748272 39 49 48
246099.84167480 3357621.04260254 13.80738354 73 77 78
246099.70739746 3357622.09741211 14.77293491 40 44 45
246100.09387207 3357620.66723633 14.00720787 43 45 42
246100.87243652 3357620.28826904 14.38435650 21 20 18
246099.53796387 3357619.20184326 14.58788681 14 27 35
246100.75512695 3357620.50213623 14.11971092 52 52 50
246099.57861328 3357619.04968262 14.25983429 121 120 128
246099.99426270 3357620.53710938 13.93196201 58 58 58
246098.98059082 3357622.37084961 14.10123730 114 121 129
246098.98034668 3357622.99261475 13.43361187 73 74 69
246099.94702148 3357620.24493408 14.46564579 27 27 29
246098.93005371 3357622.48358154 13.60373402 185 187 184
246099.63183594 3357622.52252197 14.62320232 44 48 51
246099.59069824 3357620.35559082 13.59075165 74 74 76
246099.36657715 3357621.66021729 14.39516544 98 98 100
246099.00146484 3357621.80670166 13.91490269 238 240 239
246099.37438965 3357621.31713867 13.92122841 224 228 227
246099.80456543 3357619.57983398 14.81203747 165 170 173
246100.33898926 3357620.81280518 14.10357285 33 37 38
246100.34533691 3357619.86346436 14.72396374 102 111 108
246099.37963867 3357619.78259277 13.95063782 167 171 180
246101.28430176 3357620.42724609 14.28728294 29 28 26
246099.53320313 3357620.18035889 14.11725807 161 160 158
246099.59667969 3357618.70495605 13.35893440 94 92 93
246099.63549805 3357621.06542969 13.19181824 75 71 60
246099.38549805 3357620.03973389 13.83116722 175 175 177
246099.07006836 3357621.57421875 13.90628433 229 220 221
246099.99353027 3357619.27349854 14.78271675 148 156 158
246099.39526367 3357619.78796387 14.00285530 125 134 141
246099.54980469 3357619.28076172 14.68295860 14 24 33
246099.43847656 3357619.98767090 14.06029606 129 134 137
246099.43457031 3357621.21618652 13.20075321 93 92 90
246099.01123047 3357621.63989258 13.57935905 222 222 222
246099.69140625 3357621.35095215 14.28941441 229 231 230
246099.68579102 3357618.72485352 13.51289749 58 60 59
246098.99707031 3357622.02886963 14.00627995 190 193 202
246101.03088379 3357620.43884277 14.18157291 93 93 91
246099.71801758 3357618.87353516 14.36447906 61 57 56
246098.92468262 3357622.41625977 13.59833622 214 216 213
246098.93774414 3357622.52093506 13.62645531 229 231 230
246099.83288574 3357621.01336670 13.63775635 77 78 80
246099.92712402 3357620.78027344 13.67573547 54 57 50
246099.91455078 3357618.71044922 13.49432373 114 114 114
246099.91540527 3357622.15441895 14.98344612 76 81 74
246100.35021973 3357620.95068359 14.17248917 134 139 135
246099.95507813 3357620.76348877 13.32184792 34 40 38
246101.16979980 3357620.33740234 14.40278053 16 20 19
246099.38159180 3357619.31896973 13.95109844 134 137 144
246099.67248535 3357620.27185059 16.00671959 90 100 75
246099.12487793 3357623.10742188 13.52727985 35 33 34
246099.51525879 3357619.87042236 14.59564686 25 34 39
246099.41455078 3357623.03387451 14.20625114 211 211 209
246099.89501953 3357620.37915039 14.18079567 109 109 107
246098.94006348 3357622.76556396 13.57486057 59 61 58
246099.23950195 3357621.41705322 13.98974037 155 126 130
246099.56909180 3357623.01739502 14.35970688 26 32 32
246099.61779785 3357621.18835449 13.95244503 174 179 182
246100.54760742 3357621.52832031 14.61658192 139 137 140
246099.02380371 3357622.11676025 14.19529819 247 243 244
246099.34875488 3357623.01177979 14.24657822 227 227 225
246099.51586914 3357619.93426514 14.60948849 26 33 39
246100.03417969 3357620.14410400 14.60504723 126 127 129
246099.34228516 3357620.00457764 13.49158001 223 225 224
246099.57348633 3357619.39544678 14.74740601 83 91 102
246100.35998535 3357620.61486816 14.07660294 58 63 59
246099.60839844 3357619.39398193 14.79028606 220 227 233
246100.06640625 3357620.61920166 13.96754551 45 47 46
246099.41772461 3357621.28820801 13.91197109 225 229 230
246100.50854492 3357619.88098145 14.77769852 81 87 83
246100.62341309 3357621.52185059 14.61794567 36 37 41
246099.38342285 3357621.29058838 13.82123947 224 226 225
246101.46630859 3357620.81964111 14.05491924 34 34 32
246099.73156738 3357620.74981689 13.15977859 49 54 50
246099.90270996 3357619.22772217 14.84099770 161 166 172
246100.02844238 3357620.75439453 13.88217735 36 38 35
246099.41979980 3357621.31396484 14.04149818 236 238 235
246099.61035156 3357620.35815430 13.67878437 87 81 83
246099.06506348 3357621.54632568 13.82859516 246 245 243
246100.36047363 3357621.56787109 14.69830322 92 92 92
246099.93090820 3357621.38018799 14.35938263 238 240 239
246099.69628906 3357622.53149414 14.73462963 43 47 46
246099.47912598 3357622.78765869 14.44067860 8 9 11
246099.32299805 3357621.32940674 13.33308601 72 74 71
246099.56958008 3357619.90716553 14.72802067 53 63 65
246099.71655273 3357620.05468750 14.74188519 219 227 229
246100.00976563 3357621.00000000 14.16300964 24 29 25
246099.02172852 3357622.98443604 13.67897892 222 222 222
246101.22387695 3357621.04046631 13.78382301 73 74 68
246099.78308105 3357620.79876709 13.17814350 35 38 29
246099.41467285 3357620.22106934 13.59323883 142 141 137
246100.13061523 3357621.68994141 14.81704330 43 48 42
246099.36633301 3357619.12042236 13.82138157 194 198 199
246099.29772949 3357619.61712646 13.58189487 237 241 242
246100.22753906 3357620.11047363 14.63647938 116 122 122
246099.41174316 3357620.18768311 13.70462513 214 214 214
246099.12463379 3357621.87982178 14.31915379 118 113 117
246098.93164063 3357622.68231201 13.56029415 55 56 58
246099.92321777 3357621.16406250 14.23939514 246 247 242
246100.77172852 3357620.95056152 14.02821732 34 34 36
246099.66186523 3357618.95245361 14.61446095 114 109 113
246099.54663086 3357621.36688232 14.24762344 243 245 244
246099.86877441 3357620.59521484 13.67275047 35 36 40
246099.61169434 3357621.10327148 13.20588779 66 67 61
246099.99328613 3357621.95953369 14.98939705 39 40 42
246099.77392578 3357622.75012207 14.83671665 93 93 85
246099.83288574 3357623.25048828 14.74182320 102 99 68
246100.16992188 3357619.77117920 14.70633793 128 136 138
246098.92346191 3357622.27392578 13.59277344 165 165 165
246099.06311035 3357621.77868652 14.23547173 255 254 252
246099.78479004 3357620.85986328 13.16163349 98 99 85
246099.97497559 3357620.69641113 13.49454975 26 30 31
246099.61474609 3357618.77667236 13.79181290 121 122 124
246100.31884766 3357620.11596680 14.63687134 121 126 129
246098.94885254 3357622.55346680 13.66509342 188 188 188
246099.50598145 3357623.17327881 13.90879917 172 173 167
246099.87683105 3357619.17852783 14.84829998 176 179 188
246099.16931152 3357623.02087402 14.08840561 58 31 36
246098.92749023 3357622.17810059 13.59236240 206 206 206
246099.05078125 3357621.66296387 13.96313286 234 233 231
246099.87072754 3357621.05780029 13.49857044 56 57 62
246099.32043457 3357619.72570801 13.61942577 169 173 174
246099.34399414 3357619.98156738 13.51188755 223 225 224
246099.12634277 3357622.30310059 14.28928471 95 93 94
246099.81726074 3357620.03222656 14.73689365 174 180 180
246099.27563477 3357622.46881104 14.32870960 141 144 149
246099.33081055 3357619.86224365 13.54089737 244 248 251
246099.52380371 3357619.19714355 14.46612835 19 23 34
246099.93090820 3357619.03942871 14.83790588 181 188 196
246099.79382324 3357622.98468018 14.83983994 86 88 83
246099.20935059 3357621.87329102 14.37649345 80 80 80
246099.71691895 3357621.29992676 14.23298550 235 237 234
246098.99609375 3357622.52819824 13.96093082 233 235 234
246099.60046387 3357622.50537109 14.56941223 45 50 53
246098.96691895 3357622.89135742 13.63466263 121 121 121
246099.23986816 3357621.33270264 13.52107906 46 52 50
246101.08020020 3357621.41729736 14.16178131 188 190 179
246099.09472656 3357621.58227539 14.07359886 174 165 166
246098.97839355 3357622.30560303 14.10156345 123 128 148
246100.92944336 3357620.57965088 14.10621548 48 50 47
246099.75109863 3357621.74011230 14.71334076 118 117 122
246101.30078125 3357621.22113037 13.80414009 67 63 52
246099.80590820 3357620.48010254 13.47698402 26 28 27
246099.96838379 3357623.22039795 14.17362309 176 180 165
246099.65734863 3357620.72583008 13.13107586 73 78 72
246099.51281738 3357620.24279785 13.86616230 201 179 182
246100.08459473 3357620.28973389 14.34655857 27 27 29
246099.84533691 3357619.63293457 14.80188370 162 168 168
246099.46728516 3357619.96612549 14.16235924 201 206 209
246100.06030273 3357619.48992920 14.70986366 145 153 155
246100.67724609 3357621.49407959 14.55303764 39 40 42
246099.44372559 3357622.02087402 14.53471947 38 41 46
246099.38781738 3357623.06958008 14.15024185 110 112 109
246099.21276855 3357623.02557373 14.17724609 143 124 128
246100.01098633 3357620.33502197 14.27674675 17 17 19
246099.00134277 3357621.90753174 13.97727299 238 242 245
246099.51696777 3357623.12481689 13.98570824 181 182 177
246101.25720215 3357620.71044922 14.05392170 33 35 34
246099.91906738 3357621.69555664 14.76532650 48 52 53
246099.89440918 3357622.29406738 14.99285221 87 86 81
246099.58837891 3357621.18566895 13.83833313 109 115 115
246100.46899414 3357621.08966064 14.16162109 140 145 123
246099.52929688 3357618.74694824 13.42527771 79 79 79
246100.52612305 3357620.03454590 14.71692753 140 149 144
246099.36071777 3357619.95928955 13.69870949 156 156 158
246100.78063965 3357620.64221191 14.08161354 62 64 59
246098.98498535 3357622.58331299 13.83136082 239 241 240
246099.53833008 3357621.95330811 14.61876392 41 45 46
246099.80322266 3357621.09710693 13.48037910 77 76 81
246100.25585938 3357619.99645996 14.71769047 140 145 148
246099.27832031 3357623.07965088 14.09246254 124 115 116
246099.56054688 3357621.14337158 13.22202587 73 73 71
246099.62939453 3357621.24438477 14.10574150 237 241 240
246099.50781250 3357622.08789063 14.58556080 38 47 46
246100.82910156 3357621.29840088 14.07429504 146 146 138
246100.01635742 3357620.92510986 14.09105968 58 60 57
246099.96875000 3357620.70190430 13.53163147 26 27 29
246099.33911133 3357619.62963867 13.88137913 204 211 221
246099.63012695 3357621.15423584 13.66882896 29 35 35
246099.41760254 3357618.90307617 13.69173050 203 204 206
246099.62805176 3357620.21124268 14.32867432 162 166 167
246100.99707031 3357620.27282715 14.44388866 24 23 21
246099.76623535 3357621.01727295 13.22399044 93 89 78
246099.35791016 3357619.05444336 13.72165394 153 153 155
246099.89782715 3357620.60095215 13.73524380 41 42 46
246099.77478027 3357620.45001221 13.80582523 71 71 71
246100.75793457 3357621.06726074 13.99721146 43 43 43
246099.73095703 3357618.86022949 14.43066502 58 54 53
246099.07995605 3357621.52862549 13.88819313 245 241 240
246101.16528320 3357620.84246826 13.93617916 24 26 25
246099.37255859 3357621.30377197 13.37018490 64 68 67
246099.94445801 3357620.75689697 13.69143391 39 41 38
246099.60693359 3357622.84930420 14.59535885 24 26 25
246099.54296875 3357620.09490967 14.46953964 26 34 37
246099.23095703 3357621.42944336 14.01558590 155 126 130
246101.02185059 3357621.39465332 14.13409138 199 200 192
246099.98950195 3357619.57250977 14.74035835 148 157 156
246099.45446777 3357621.24273682 13.47751236 40 39 44
246099.60400391 3357620.28692627 14.00111294 60 40 42
246099.93225098 3357620.89990234 13.29171848 108 111 102
246099.90209961 3357620.02801514 14.72616673 155 159 160
246099.49353027 3357619.79748535 14.38288593 16 20 23
246101.00549316 3357620.29101563 14.40935040 26 25 23
246099.00207520 3357622.05957031 14.12292194 158 159 164
246099.94030762 3357621.95001221 14.92364120 23 27 28
246099.16772461 3357622.57202148 14.27838707 169 170 172
246099.83557129 3357622.28027344 14.92522240 75 77 76
246100.93200684 3357620.55535889 14.12434387 47 47 45
246099.89514160 3357620.86968994 13.67094040 80 83 72
246099.55407715 3357619.80725098 14.71346378 41 52 54
246099.93249512 3357620.93237305 13.79878139 102 104 93
246099.51818848 3357619.59851074 14.58865738 23 30 38
246100.27990723 3357620.18981934 14.53158188 60 61 65
246099.37561035 3357619.75518799 13.94993210 171 175 184
246099.60705566 3357623.06060791 14.31241512 174 176 173
246099.91174316 3357621.04016113 14.09737778 48 50 47
246099.71374512 3357621.36212158 14.30454350 220 222 221
246099.56066895 3357621.73468018 14.57329559 30 35 39
246099.88525391 3357620.56469727 13.46745682 22 28 26
246099.53466797 3357622.47174072 14.47715855 29 34 38
246099.53662109 3357621.20758057 13.49052048 38 39 41
246101.17358398 3357620.53643799 14.14165306 50 50 48
246099.35876465 3357622.69476318 14.35273075 159 159 159
246100.75451660 3357621.33624268 14.20008469 223 225 214
246099.55993652 3357621.99871826 14.63563156 49 53 52
246099.03454590 3357621.78900146 14.16297722 240 242 241
246100.76123047 3357620.34588623 14.29324722 52 50 51
246100.73352051 3357620.97058105 14.03692627 42 40 41
246099.41540527 3357622.96551514 14.29382515 22 22 22
246099.29602051 3357621.35614014 13.87376881 228 228 226
246099.56958008 3357621.18060303 13.72396183 49 55 55
246099.93530273 3357622.17034912 15.00975323 76 81 74
246099.50610352 3357620.25152588 13.84503174 130 111 113
246099.27368164 3357622.80755615 14.29887199 114 114 114
246099.00292969 3357622.82934570 13.91886616 228 231 224
246101.03979492 3357620.57147217 14.12506580 45 47 44
246099.57617188 3357619.05651855 14.52606297 122 131 140
246099.06188965 3357623.03430176 13.69345093 198 196 197
246101.06848145 3357621.11718750 13.76245880 92 93 79
246099.69152832 3357622.78533936 14.68753719 240 239 237
246098.97167969 3357622.63958740 13.73906708 193 193 193
246099.81359863 3357620.97039795 13.22519970 123 121 108
246099.52673340 3357621.69018555 14.52633286 28 32 35
246100.96020508 3357620.30737305 14.37125492 20 20 20
246099.59179688 3357619.44958496 14.76123810 156 163 171
246099.82507324 3357620.23931885 14.52163982 77 79 78
246099.10449219 3357621.61932373 14.13133526 237 237 235
246100.26696777 3357620.79138184 14.09761715 18 19 21
246099.63659668 3357618.73895264 13.55794239 74 76 75
246099.54333496 3357620.04846191 14.60247326 19 28 35
246099.75415039 3357619.76330566 14.82562637 169 177 179
246100.19201660 3357620.82385254 14.10511589 37 39 38
246100.83422852 3357620.82128906 14.05412960 35 35 35
246100.73474121 3357620.62426758 14.08673763 60 62 59
246100.75195313 3357621.16265869 13.96330643 102 100 87
246100.08886719 3357619.95794678 14.70706272 139 144 147
246100.31445313 3357621.18072510 14.25329113 230 226 225
246099.04846191 3357622.78533936 14.13058186 229 230 225
246099.60961914 3357620.18621826 14.41977787 148 153 156
246099.53613281 3357620.32031250 13.69493484 124 118 120
246099.31848145 3357619.50787354 13.81428814 175 179 191
246098.98010254 3357622.38110352 13.85185909 231 240 239
246099.52734375 3357622.42120361 14.47761154 42 47 51
246099.88122559 3357623.20361328 13.93208122 110 116 104
246099.00646973 3357622.97027588 13.62932396 92 92 92
246100.63671875 3357619.91601563 14.87291813 140 146 142
246099.84533691 3357621.68896484 14.72399998 87 89 88
246099.58581543 3357619.92596436 14.73404598 80 89 94
246100.74682617 3357621.49072266 14.55665302 59 60 62
246099.53259277 3357623.15612793 13.97960854 180 183 176
246099.72460938 3357621.19720459 14.09884071 224 226 225
246099.09838867 3357621.92614746 14.30373001 124 119 123
246099.50671387 3357619.54351807 14.47749138 23 28 34
246099.54138184 3357619.13391113 14.46693993 15 24 31
246099.00573730 3357621.87292480 14.00278187 241 245 244
246100.77221680 3357620.63433838 14.08356953 59 61 58
246099.25170898 3357621.39855957 13.94425201 210 196 196
246099.60339355 3357621.89636230 14.66591263 32 36 37
246099.71325684 3357620.08941650 14.71830654 227 232 235
246099.80627441 3357620.45104980 13.84496975 61 61 61
246099.25512695 3357621.34655762 13.70579338 215 224 221
246099.69140625 3357620.27203369 14.21001434 122 124 123
246099.42211914 3357622.17645264 14.47820091 55 60 64
246099.92687988 3357621.38732910 14.36319065 218 220 219
246100.04614258 3357619.33044434 14.74175072 144 149 152
246099.76452637 3357619.03234863 14.79417515 198 195 202
246099.82873535 3357620.23547363 14.53028202 53 53 55
246099.57177734 3357622.17065430 14.63743877 46 52 52
246101.18103027 3357620.93450928 13.85891247 28 32 31
246099.01379395 3357622.64715576 14.09737587 204 205 200
246099.44128418 3357623.12170410 14.01751614 186 186 184
246100.11169434 3357621.64056396 14.74425411 76 81 75
246100.58947754 3357619.34655762 14.68888855 81 85 84
246099.37121582 3357621.96740723 14.47875690 62 67 71
246100.21130371 3357621.23535156 14.29078960 225 221 222
246100.49389648 3357621.47686768 14.49911118 168 162 164
246099.98901367 3357620.86968994 13.50000668 67 72 65
246100.25952148 3357620.37988281 14.20806408 94 94 94
246099.64672852 3357621.15985107 13.55645561 16 20 19
246100.03662109 3357619.95147705 14.71748352 146 151 154
246099.04895020 3357621.76226807 14.19288349 250 250 248
246099.47802734 3357622.12316895 14.56249714 39 47 49
246100.88696289 3357620.13323975 14.62819195 94 96 95
246101.02014160 3357620.28137207 14.43478680 19 18 16
246099.38635254 3357621.96270752 14.48930264 49 54 58
246099.88793945 3357621.15637207 14.19292736 247 249 244
246099.61999512 3357621.29364014 14.18075466 240 242 241
246099.68103027 3357620.69964600 13.14942074 69 74 70
246099.45910645 3357619.76623535 14.19812012 148 153 157
246099.66906738 3357621.10803223 13.24657536 63 63 63
246099.84020996 3357621.14044189 14.12452412 125 127 124
246101.36279297 3357620.51440430 14.29100227 49 51 50
246099.54272461 3357619.23388672 14.64734745 9 19 29
246100.21093750 3357619.99493408 14.71352863 142 147 150
