246122.11401367 3357583.77679443 13.80220795 171 166 163
246119.44567871 3357584.76202393 14.10546494 113 108 105
246122.80615234 3357582.64837646 13.28109550 102 99 94
246121.27636719 3357582.73248291 14.45948219 78 78 78
246120.68017578 3357583.54425049 15.02511501 253 253 255
246122.41003418 3357583.59521484 14.05733776 126 125 123
246122.37695313 3357582.68676758 13.64036274 137 147 157
246121.82568359 3357582.42675781 14.01959705 216 219 224
246121.39013672 3357583.57977295 15.09379959 213 217 226
246122.47351074 3357583.41827393 14.43304825 115 116 118
246120.01818848 3357585.42163086 15.13698483 208 220 236
246122.47570801 3357583.52374268 14.06841469 140 140 140
246121.35839844 3357584.53442383 13.54087353 158 153 149
246119.66406250 3357585.16894531 15.11320972 51 60 91
246122.04846191 3357581.89770508 13.26017475 206 203 194
246121.83081055 3357584.23309326 13.58913136 123 119 116
246120.86120605 3357584.80212402 15.01950455 203 202 207
246120.77954102 3357584.97595215 14.96870518 150 139 145
246119.77514648 3357584.77551270 14.00130749 171 168 161
246120.57226563 3357583.32946777 14.17427063 213 215 214
246121.77185059 3357583.40521240 14.89401531 72 75 82
246121.31872559 3357583.33380127 15.01709557 202 209 217
246121.90466309 3357583.66870117 13.89056683 172 170 158
246121.63391113 3357583.61621094 13.69913864 178 175 166
246122.35021973 3357583.24755859 14.44356728 100 105 108
246120.67956543 3357583.24829102 13.38163948 163 163 155
246121.23095703 3357584.36755371 14.10998344 203 198 195
246119.39233398 3357584.80694580 14.40743256 48 43 50
246120.72961426 3357583.20007324 14.33384895 227 231 234
246119.43347168 3357584.77148438 14.25840950 69 60 63
246121.57727051 3357583.66418457 13.77747345 182 180 168
246119.98486328 3357583.96258545 14.90616035 171 175 176
246121.14831543 3357584.56994629 15.02257061 202 200 205
246119.67614746 3357584.82702637 13.92373085 56 55 53
246121.81079102 3357583.32647705 14.76382732 52 55 60
246120.92248535 3357584.89135742 14.92182636 162 158 159
246122.15771484 3357583.91778564 13.49246788 117 109 106
246122.37182617 3357582.68109131 13.83895397 172 181 188
246120.84899902 3357583.25274658 14.86887932 220 224 227
246119.84753418 3357585.22589111 14.50397491 208 207 203
246120.58435059 3357583.35467529 13.58926582 172 171 166
246120.49121094 3357583.43298340 14.60386086 59 61 60
246121.21850586 3357582.77770996 13.83182526 204 206 205
246121.37231445 3357582.46716309 13.28484440 168 164 161
246119.40258789 3357584.74383545 14.10805035 106 96 95
246119.63330078 3357584.12359619 13.90954494 121 125 126
246121.29895020 3357582.37487793 13.26729488 173 172 167
246122.45202637 3357583.14318848 14.31172848 180 190 199
246120.66882324 3357584.51000977 13.78106594 183 178 174
246119.58837891 3357585.36468506 13.48975372 118 127 132
246120.25317383 3357583.86059570 15.00760174 255 255 255
246120.82141113 3357585.12030029 13.56522942 36 34 35
246120.34130859 3357584.49426270 15.16906834 226 231 235
246120.80908203 3357583.20623779 13.42549133 152 151 146
246119.64819336 3357585.27661133 15.00982189 88 101 118
246119.40576172 3357584.71301270 13.74825573 227 226 222
246121.90600586 3357584.15606689 14.52662849 108 104 105
246120.34411621 3357585.28839111 13.93805313 123 119 118
246119.29223633 3357584.82678223 14.52393150 48 47 53
246120.54711914 3357584.77996826 15.12218761 205 209 218
246122.46899414 3357583.47845459 13.81186771 146 138 136
246120.32861328 3357583.52722168 14.42882729 236 240 241
246119.57434082 3357585.21557617 13.72375965 167 175 178
246119.69592285 3357583.81274414 13.27879715 178 175 170
246121.76293945 3357583.96319580 14.10976601 182 178 167
246120.72155762 3357584.92822266 14.44736576 204 200 191
246120.75134277 3357583.21124268 13.84023285 196 193 188
246119.75500488 3357584.05670166 14.66992283 56 57 59
246120.34375000 3357583.50091553 13.39940739 157 150 144
246121.34289551 3357582.57885742 13.33326626 164 163 159
246120.40014648 3357584.74530029 14.07659912 205 200 197
246119.66003418 3357585.27307129 15.02416992 88 101 118
246119.66271973 3357584.09527588 13.65113449 192 194 193
246119.91662598 3357585.39715576 14.66787434 209 208 203
246122.27258301 3357582.58563232 13.57246494 141 151 161
246120.12646484 3357585.13214111 14.47765350 204 203 199
246120.95629883 3357583.06536865 14.54986763 58 59 61
246122.30139160 3357583.65478516 14.00313663 162 159 152
246121.51159668 3357582.55474854 14.47855568 221 225 228
246119.29638672 3357584.89892578 14.54398727 47 50 57
246120.82226563 3357584.27758789 15.16306019 228 228 236
246120.15771484 3357583.69793701 14.27123928 217 221 224
246119.97436523 3357584.91308594 14.22357178 204 201 196
246121.88464355 3357584.06842041 14.24554062 174 170 161
246121.90270996 3357583.70880127 13.94058609 172 170 158
246119.92126465 3357585.18103027 15.17547798 174 186 198
246121.14709473 3357583.81829834 13.61946678 177 176 172
246122.74572754 3357582.63409424 13.27358913 101 98 93
246122.21276855 3357583.60894775 14.63032341 61 64 69
246121.94824219 3357583.72998047 13.98228931 171 169 156
246119.62500000 3357584.12847900 13.60531616 227 229 228
246121.22448730 3357583.89166260 13.76338768 180 171 164
246120.12756348 3357583.95141602 15.00618935 255 255 255
246121.70593262 3357583.60595703 14.99523258 185 188 193
246121.54528809 3357583.00201416 14.70380688 38 37 42
246120.13952637 3357584.75646973 14.00769997 194 190 187
246122.57238770 3357583.13244629 13.82632923 160 165 169
246120.44274902 3357583.44903564 13.91276741 220 222 221
246121.57568359 3357582.40179443 13.72836304 254 255 255
246120.50366211 3357584.90570068 15.10717392 224 227 234
246122.33154297 3357583.66400146 13.79841518 138 133 129
246120.50769043 3357584.73852539 13.90679932 153 144 139
246122.19604492 3357582.45349121 13.45195389 99 100 104
246122.37695313 3357583.77093506 14.26178741 108 104 103
246120.64489746 3357583.31127930 13.43926811 160 160 150
246120.06030273 3357585.13616943 14.10711956 202 212 222
246119.55712891 3357585.11437988 13.82200718 160 159 164
246120.25476074 3357585.16247559 14.08542633 135 136 140
246122.72277832 3357583.18634033 13.49608421 93 95 90
246119.91308594 3357585.08636475 15.17866135 213 222 231
246119.49450684 3357584.76782227 13.82114410 123 122 120
246122.38793945 3357583.13763428 14.37862682 48 55 61
246120.96484375 3357583.98443604 13.64513683 164 155 150
246122.04455566 3357582.16613770 13.29904175 200 194 182
246120.90405273 3357583.02349854 14.21866894 205 206 208
246120.26684570 3357585.25555420 14.03513527 167 168 172
246119.77172852 3357584.04498291 14.67259026 54 56 55
246120.69433594 3357584.66442871 15.11899948 200 203 210
246120.19519043 3357583.72357178 14.72952843 64 65 67
246120.84252930 3357584.89013672 14.49604893 211 206 200
246119.53662109 3357584.24853516 14.74206543 59 60 62
246121.41870117 3357582.46783447 13.31112480 160 156 153
246120.43188477 3357584.98168945 14.03752041 119 115 116
246120.43664551 3357583.46398926 13.67149162 209 210 205
246121.10607910 3357584.22521973 13.57682419 173 172 167
246120.39160156 3357585.15863037 14.01060581 147 143 140
246120.18176270 3357583.66265869 13.47638512 163 159 150
246120.85668945 3357583.13922119 13.39420128 164 163 158
246121.80358887 3357584.21392822 14.66530037 118 114 113
246121.66992188 3357583.03637695 14.59835339 34 34 36
246122.08947754 3357582.46661377 13.78464031 182 187 191
246120.92614746 3357584.46069336 15.11420822 182 182 190
246121.76721191 3357584.29528809 14.48095036 136 131 128
246119.46411133 3357584.74627686 13.78808403 134 134 132
246122.28674316 3357582.73645020 14.04651928 172 185 193
246121.87670898 3357583.77569580 13.77168465 190 187 178
246121.30505371 3357582.67382813 13.81834602 202 206 209
246122.73596191 3357582.97393799 13.41809368 49 49 51
246120.48449707 3357583.41302490 13.95622730 228 230 229
246119.64172363 3357583.56231689 13.28656292 125 122 117
246120.91809082 3357584.71783447 13.61979198 113 112 110
246120.34997559 3357585.37677002 14.75078964 180 179 177
246120.81750488 3357582.67596436 13.27414703 202 197 191
246122.12695313 3357583.80920410 14.88537884 24 20 21
246119.80029297 3357583.63989258 13.27431679 162 157 151
246121.63256836 3357583.17333984 14.76792145 38 43 49
246119.62548828 3357584.13922119 14.08669567 217 221 220
246121.36999512 3357582.59246826 13.53512764 127 126 122
246121.97863770 3357583.57458496 13.78567600 182 182 172
246120.62963867 3357584.70458984 14.12701225 204 199 193
246121.31677246 3357582.40246582 13.26349449 168 167 162
246121.27502441 3357582.70208740 14.37472439 206 207 209
246120.91027832 3357584.05303955 13.59428310 168 163 159
246121.34191895 3357583.92138672 13.85576153 188 179 170
246120.08337402 3357584.78247070 14.03723240 191 188 183
246122.48437500 3357582.65002441 13.35957146 66 70 73
246121.17333984 3357584.23046875 13.57388783 179 176 169
246119.24047852 3357584.55273438 14.59323692 218 219 224
246121.03869629 3357582.92724609 13.42788792 153 152 147
246122.15405273 3357583.94744873 14.46403217 86 82 83
246120.57946777 3357583.44171143 14.80656624 57 61 62
246119.75476074 3357584.96582031 15.19661140 204 210 222
246119.84033203 3357585.39221191 14.63979244 211 210 205
246121.23632813 3357584.39764404 15.05316734 196 197 202
246119.67004395 3357584.11724854 14.28334236 220 224 223
246121.01269531 3357582.88055420 13.32929134 172 169 164
246121.18652344 3357583.94049072 13.77005959 175 168 160
246120.54089355 3357583.19323730 13.29029083 182 179 172
246120.82995605 3357584.96966553 14.63387108 188 185 178
246120.94677734 3357583.02960205 13.68213844 196 193 188
246120.45654297 3357583.06549072 13.26117134 199 192 186
246120.15185547 3357584.71740723 13.94135571 202 198 195
246120.57934570 3357584.52581787 15.16085339 217 222 228
246121.67504883 3357583.64392090 13.71378517 208 205 196
246119.43493652 3357584.31488037 14.44001675 241 241 241
246120.90844727 3357584.91363525 13.57058620 59 59 59
246121.40454102 3357582.60333252 14.47616482 70 70 72
246120.74499512 3357584.95373535 15.00322437 205 199 203
246120.96423340 3357582.73120117 13.28903008 185 182 175
246122.64404297 3357583.32775879 13.58605385 156 155 150
246122.53295898 3357582.89654541 13.52968311 133 141 143
246119.99011230 3357584.96472168 15.16484547 215 218 227
246121.57446289 3357583.59112549 13.68865871 182 179 170
246121.32507324 3357584.38464355 14.19825172 209 204 200
246122.15197754 3357583.53430176 13.86526871 162 164 153
246122.16516113 3357583.81915283 14.14186382 160 156 147
246121.87585449 3357583.25842285 14.62482071 37 37 39
246120.91296387 3357583.53558350 13.58646584 196 195 191
246120.22326660 3357583.61193848 13.43543053 158 151 143
246120.66699219 3357583.28735352 14.46222687 64 65 67
246120.11633301 3357584.90795898 14.09937191 99 100 102
246119.66809082 3357585.01153564 14.32950687 201 198 191
246121.69604492 3357583.55761719 14.99092007 186 191 197
246121.42456055 3357582.35601807 13.28514671 174 174 166
246122.27014160 3357583.40509033 13.80018520 139 139 137
246121.05981445 3357583.53277588 13.61211109 193 190 185
246122.16564941 3357583.34002686 14.50647163 116 120 121
246120.17663574 3357583.50622559 13.30000687 176 167 158
246121.24426270 3357583.95709229 13.81664658 176 169 161
246122.68444824 3357583.00207520 13.47137833 68 70 69
246122.16821289 3357582.76257324 14.29153156 188 198 208
246120.95312500 3357583.40179443 13.61280537 172 173 167
246120.34899902 3357584.15966797 15.16123581 232 235 240
246121.24682617 3357582.42187500 13.26199627 175 172 167
246121.04736328 3357582.92871094 14.08174038 203 204 206
246121.54516602 3357582.43121338 13.65927219 255 255 255
246121.06762695 3357584.38891602 13.56257153 167 164 159
246120.94653320 3357584.86236572 14.62072086 136 133 128
246121.30371094 3357584.66973877 13.49234104 72 71 67
246121.69226074 3357582.15008545 13.35624123 165 161 152
246121.65173340 3357583.62579346 13.76687336 179 177 165
246120.95397949 3357583.99029541 13.62784576 164 155 150
246119.47778320 3357584.26153564 14.07686424 218 222 225
246119.64379883 3357585.21844482 15.05681515 81 93 115
246120.22753906 3357585.47271729 13.88899612 168 163 167
246120.21923828 3357585.49822998 14.84073639 208 207 202
246121.48046875 3357584.28106689 14.18486214 200 195 191
246119.47497559 3357584.26647949 13.84901428 79 81 80
246121.81884766 3357584.01715088 13.70560646 180 173 167
246122.21911621 3357583.92468262 14.40853500 110 106 105
246120.27355957 3357583.67523193 14.76726151 68 72 75
246121.41662598 3357583.94531250 13.67262268 184 181 176
246121.34252930 3357583.26104736 14.97199345 196 203 213
246121.83605957 3357583.84362793 14.03648472 177 173 162
246120.42468262 3357584.62768555 15.16436768 232 235 240
246120.59741211 3357583.24621582 13.35845280 179 176 167
246120.99584961 3357583.37457275 15.10256004 228 232 235
246120.89538574 3357584.78552246 14.40351009 206 201 195
246121.72412109 3357582.52154541 14.39694977 73 76 81
246120.87841797 3357583.27246094 13.51012135 185 186 180
246120.73132324 3357585.24572754 13.58635521 59 59 59
246122.24035645 3357583.75079346 14.10442543 157 153 144
246120.80712891 3357584.05718994 15.15334702 220 223 230
246120.21801758 3357583.64300537 13.67487431 204 203 199
246120.46643066 3357583.42828369 13.94449520 232 234 233
246120.46057129 3357583.44726563 13.60055351 190 189 184
246120.86267090 3357584.32617188 13.80903721 183 178 174
246119.73754883 3357584.76214600 15.16545677 232 232 240
246122.43835449 3357583.77203369 13.39510727 81 77 74
246121.15710449 3357582.70550537 13.34351826 169 166 159
246119.43627930 3357585.01940918 14.45073223 93 98 101
246122.65368652 3357583.06988525 13.51739025 130 135 129
246122.53735352 3357583.60003662 13.54641342 61 53 50
246119.60815430 3357584.44842529 15.03746319 248 249 253
246122.35192871 3357582.45404053 13.30092335 127 124 117
246119.85791016 3357583.95532227 13.69993687 170 171 166
246119.92883301 3357583.91448975 14.22345352 220 224 225
246119.67248535 3357585.20227051 13.92899990 139 154 175
246120.28344727 3357583.57794189 14.27915955 213 217 218
246120.51599121 3357583.39294434 13.81700802 199 199 197
246120.10986328 3357583.17968750 13.27524471 199 192 186
246121.88378906 3357583.44268799 14.82043457 62 67 70
246120.91979980 3357584.07299805 15.14917278 212 215 222
246121.98950195 3357583.63641357 13.80142403 186 186 176
246122.54760742 3357583.29650879 14.04876900 159 164 168
246119.76782227 3357584.79388428 14.02747059 177 174 167
246119.94860840 3357585.47491455 15.08836842 47 64 84
246119.38195801 3357585.25958252 14.68461037 139 152 171
246121.64660645 3357582.44409180 14.27135658 233 241 243
246120.86755371 3357583.90661621 15.13881683 224 231 239
246122.49792480 3357582.86181641 13.85880756 131 138 146
246121.66210938 3357584.22314453 13.64786339 182 177 173
246120.18420410 3357583.42993164 13.29144669 183 176 166
246121.15747070 3357582.70007324 13.33910751 169 166 159
246121.71923828 3357583.99536133 13.72379112 187 180 172
246119.76000977 3357584.91406250 14.01701355 65 71 69
246120.65307617 3357584.68756104 14.11689186 203 198 192
246120.19665527 3357585.46398926 13.94578838 154 155 160
246121.07958984 3357584.28509521 13.92270470 197 194 189
246120.65600586 3357582.96496582 13.26972294 200 197 190
246120.26293945 3357584.38293457 15.17294884 224 227 232
246120.99438477 3357582.97985840 13.54871273 153 149 146
246120.21704102 3357583.25012207 13.27283001 207 200 192
246122.16723633 3357583.60321045 14.67938328 65 70 76
246119.70495605 3357584.99261475 14.30570507 216 212 203
246120.99877930 3357584.81811523 14.60579300 161 156 153
246119.88122559 3357583.98724365 14.78495979 58 62 61
246121.87207031 3357583.76489258 13.98357010 174 172 159
246122.33813477 3357583.69824219 14.08052731 159 154 150
246120.42907715 3357585.36859131 13.72583389 100 89 85
246122.48022461 3357583.35205078 13.77635956 152 152 150
246120.38195801 3357583.70050049 14.95124912 255 255 253
246120.57641602 3357585.35028076 13.62705517 66 65 61
246120.90856934 3357584.34161377 15.13718128 224 224 232
246122.05578613 3357583.56384277 13.81058788 178 178 170
246121.16101074 3357584.35882568 13.55860519 172 169 164
246121.31091309 3357583.95959473 13.86011028 180 173 165
246121.42980957 3357583.36608887 14.99614620 193 200 208
246121.52246094 3357582.85943604 14.62585545 48 47 52
246120.86840820 3357582.90820313 13.29568672 194 191 184
246121.73852539 3357582.43481445 14.09147835 223 226 233
246119.39660645 3357584.72283936 13.74572563 152 151 147
246121.69030762 3357584.10467529 15.00564480 185 184 190
246120.92956543 3357583.56701660 13.58526516 192 188 185
246122.54956055 3357582.41284180 13.23824120 167 161 147
246122.20727539 3357583.78784180 14.71073532 120 116 117
246119.91809082 3357583.89801025 13.52038956 161 155 143
246120.21154785 3357584.62371826 15.16347980 231 234 241
246119.72363281 3357584.85961914 14.12931633 199 196 187
246121.02685547 3357584.08300781 13.75982285 169 164 160
246120.76037598 3357583.45819092 15.01509190 251 252 254
246121.86877441 3357584.15631104 14.61802101 114 112 115
246120.38623047 3357584.71337891 14.01683140 210 205 201
246119.69750977 3357584.10473633 14.69930840 59 61 60
246121.22619629 3357582.79437256 14.45251942 66 68 67
246120.01904297 3357583.67846680 13.30282593 188 181 171
246121.39221191 3357583.31591797 14.98349953 197 204 212
246119.61462402 3357585.12548828 13.90887928 127 135 138
246119.77722168 3357585.13189697 15.17716503 223 232 247
246120.14062500 3357585.04766846 15.14456844 222 225 230
246121.11791992 3357584.75213623 13.53354073 70 68 69
246119.90454102 3357585.44287109 14.70203018 213 210 205
246120.41210938 3357585.05596924 14.03946400 155 151 150
246119.81835938 3357583.69946289 13.26789474 166 161 155
246121.41699219 3357584.19628906 13.62258816 179 174 168
246121.28564453 3357582.87963867 14.86645222 234 238 241
246121.70788574 3357583.09722900 14.62282658 37 38 42
246121.81005859 3357584.28442383 13.57083607 107 103 100
246122.68811035 3357583.11621094 13.50020695 103 108 102
246120.09167480 3357585.31744385 14.64925385 209 205 202
246122.18896484 3357582.69763184 14.11891842 181 189 200
246121.61389160 3357582.36450195 13.83674145 137 138 142
246119.94079590 3357583.93194580 14.72636604 101 107 107
246120.50866699 3357584.31164551 15.17399025 221 224 231
246119.36962891 3357584.77984619 14.41532898 45 40 47
246122.54382324 3357583.36767578 14.08817673 161 164 169
246120.71252441 3357582.97918701 13.27521229 197 194 187
246120.09631348 3357583.79559326 14.72457314 147 153 153
246120.27893066 3357583.62213135 14.63465595 61 62 64
246121.69531250 3357582.88330078 14.49927139 85 86 90
246122.43713379 3357583.08801270 13.67853928 161 175 175
246120.60144043 3357583.33398438 14.45833969 86 88 87
246122.22106934 3357582.79858398 14.25304222 187 195 206
246122.24353027 3357583.88287354 14.31437302 75 71 70
246122.16931152 3357583.47576904 14.57148838 30 32 31
246121.77294922 3357583.83135986 13.75475025 209 202 194
246122.29541016 3357584.06835938 13.33517361 116 115 110
246120.05114746 3357583.91113281 14.90844822 216 221 224
246122.38891602 3357583.63031006 14.07258224 128 124 121
246121.62890625 3357582.36022949 13.48563004 245 245 245
246120.91442871 3357583.31549072 14.99835968 247 248 250
246122.41540527 3357582.40734863 13.25480556 150 146 134
246122.53552246 3357583.13977051 13.71075535 174 176 173
246120.71606445 3357584.91589355 13.81998920 141 133 130
246120.10278320 3357583.80944824 14.77742290 213 221 223
246121.59411621 3357584.13256836 14.14615536 172 167 163
246119.84643555 3357584.77935791 14.00496006 171 168 163
246122.37890625 3357583.72772217 14.45211601 55 49 49
246122.33911133 3357583.54913330 13.87948036 143 139 136
246122.38952637 3357583.54956055 13.96138668 135 134 132
246120.36120605 3357585.36956787 14.74658394 180 179 177
246119.26257324 3357584.51940918 14.56639194 218 219 224
246119.85998535 3357584.75128174 15.17569160 232 233 238
246120.79443359 3357584.37847900 13.68802261 169 164 158
246121.48608398 3357584.22167969 14.13388729 192 189 184
246120.04235840 3357583.80566406 14.29712963 222 226 227
246121.06445313 3357582.54040527 13.26731586 191 187 178
246122.12487793 3357583.29901123 14.51163864 109 113 116
246122.01599121 3357582.10302734 13.27120972 199 195 183
246121.77026367 3357583.95074463 15.00289726 168 167 172
246119.75378418 3357585.19183350 13.98977280 189 202 219
246120.18542480 3357585.08972168 14.11104870 111 110 116
246120.89648438 3357584.89031982 14.58078480 205 201 192
246120.61682129 3357584.52203369 13.81068325 197 194 189
246122.42614746 3357582.74279785 13.66543579 145 155 167
246121.69836426 3357583.45196533 14.94432449 147 152 158
246121.89062500 3357584.18688965 14.46111870 126 122 121
246119.46997070 3357584.29113770 13.49952507 156 156 154
246122.31079102 3357583.67846680 13.79897594 138 133 129
246120.86206055 3357583.17565918 14.73398590 227 230 235
246120.30883789 3357583.57135010 13.98978424 214 218 219
246121.81616211 3357584.14483643 14.28399754 178 171 161
246120.36584473 3357583.52563477 13.58168697 155 156 151
246121.59533691 3357584.30181885 14.29043388 204 199 195
246119.54833984 3357585.16656494 13.73706150 188 193 196
246120.89135742 3357584.12384033 13.58139896 197 194 189
246121.08972168 3357584.77026367 14.68943596 185 177 175
246120.47790527 3357584.20544434 15.16664886 232 236 239
246122.38830566 3357583.91577148 13.33900261 98 99 94
246119.87500000 3357583.93072510 13.49069691 154 148 136
246120.89221191 3357584.64025879 13.62979603 145 141 140
246120.46020508 3357585.07202148 15.06203747 200 200 208
246120.16882324 3357584.74847412 14.00241184 197 193 190
246121.35278320 3357584.50744629 14.95623970 111 105 105
246122.45092773 3357582.86743164 13.93754768 155 166 172
246121.75097656 3357584.06030273 14.18743324 187 180 170
246122.50964355 3357583.14172363 14.09830856 179 192 201
246120.92443848 3357583.39556885 15.07324219 204 208 211
246119.76745605 3357583.95751953 13.38951969 157 152 146
246120.81433105 3357583.14447021 13.36804962 175 174 169
246119.42626953 3357584.81469727 14.37050724 37 32 39
246121.85778809 3357582.76202393 14.45693493 71 72 77
246120.14831543 3357583.70178223 13.63325500 179 180 175
246122.55554199 3357583.24676514 14.10984039 165 174 181
246121.57592773 3357582.94110107 14.60517216 38 36 41
246119.55969238 3357584.23425293 14.79715157 57 61 64
246122.15563965 3357582.52484131 13.84925079 148 155 161
246121.33203125 3357582.42578125 13.26410389 168 167 162
246121.01989746 3357582.57836914 13.27847672 195 191 182
246120.21606445 3357585.05621338 15.12761497 219 223 226
246120.41040039 3357585.13824463 14.53302765 196 192 189
246120.93603516 3357584.37005615 15.12758541 224 225 230
246119.63305664 3357584.12237549 13.58945274 227 229 228
246122.62646484 3357583.62286377 13.35148144 64 63 59
246121.88732910 3357584.00451660 13.70036507 167 162 156
246122.52807617 3357583.36090088 13.72624588 161 160 156
246121.64794922 3357583.82263184 13.94663715 182 178 167
246121.43237305 3357583.84967041 15.10158062 195 200 206
246121.75512695 3357581.99603271 13.28265858 81 74 68
246122.27465820 3357582.79174805 14.13760376 184 197 205
246121.54785156 3357583.43029785 14.98593998 189 196 204
246120.50268555 3357583.50744629 14.81996822 61 67 65
246122.44799805 3357583.53771973 13.86469555 140 132 129
246122.01135254 3357584.03454590 13.57236862 126 118 115
246122.02343750 3357582.46649170 13.91577721 167 170 175
246121.16967773 3357582.83764648 13.84073067 205 205 207
246122.30175781 3357583.66772461 14.01960659 162 159 152
246122.33703613 3357583.88677979 13.36865234 101 100 95
246119.59863281 3357585.35296631 14.89586449 101 111 123
246121.49060059 3357583.30371094 14.93550491 185 194 203
246121.94897461 3357584.25317383 13.46764278 90 82 79
246120.37060547 3357585.34930420 13.82626247 105 91 90
246119.85058594 3357583.63330078 13.27868462 168 163 157
246121.39941406 3357582.56604004 13.69510460 94 96 95
246120.95483398 3357583.87860107 13.56491470 186 182 179
246121.85998535 3357583.86865234 14.98421669 166 169 174
246121.28698730 3357582.66864014 13.42950249 161 160 156
246120.71313477 3357582.74114990 13.26713276 200 199 194
246121.65087891 3357584.33477783 14.38316059 218 213 209
246121.01977539 3357584.86926270 13.52876568 53 51 52
246120.76684570 3357584.71264648 15.09932804 228 228 236
246119.41467285 3357584.83001709 13.80208111 155 154 152
246120.33728027 3357583.53845215 14.53931618 68 68 68
246120.35705566 3357583.10119629 13.26500511 219 210 203
246119.40014648 3357584.46844482 14.88978577 55 64 63
246120.29760742 3357585.45050049 14.99613380 137 126 132
246121.55346680 3357582.43322754 13.96662807 229 233 236
246121.91088867 3357582.52648926 14.27767277 186 196 206
246121.28405762 3357584.58166504 14.46859646 209 201 198
246120.05944824 3357584.27154541 15.16047382 230 233 238
246122.54064941 3357582.62390137 13.28851032 118 117 113
246120.35839844 3357584.64489746 15.16338539 227 230 235
246121.40393066 3357584.26666260 14.11891937 195 192 187
246119.92138672 3357583.91253662 13.84145355 203 207 206
246121.17004395 3357582.78747559 13.55044746 144 140 137
246121.54309082 3357582.49652100 14.27871513 229 237 239
246120.19335938 3357584.68756104 13.89832783 173 169 168
246121.73754883 3357582.78662109 14.46947765 53 54 58
246119.67565918 3357583.54791260 13.28894520 134 131 126
246120.95007324 3357583.23223877 14.95467567 250 254 255
246122.36364746 3357583.20739746 13.72545719 166 168 167
246120.39880371 3357583.60809326 14.85885906 76 85 84
246119.91845703 3357583.88391113 13.41178799 164 158 146
246121.94494629 3357583.46270752 13.72714520 166 166 154
246121.13208008 3357584.23352051 13.57426929 176 173 168
246120.40039063 3357584.22259521 15.16627884 220 223 228
246121.47888184 3357583.83758545 13.88948822 183 176 166
246120.19897461 3357583.89349365 15.00088024 254 255 255
246119.42932129 3357584.65356445 15.07734585 233 234 236
246120.79748535 3357583.52001953 15.07720661 216 216 218
246120.42773438 3357585.15026855 14.55215263 193 188 185
246119.56018066 3357584.18572998 13.70145798 254 255 255
246120.12573242 3357583.71728516 13.48881245 164 160 151
246121.82165527 3357583.51824951 14.92259598 142 145 152
246120.94445801 3357583.80310059 13.60673046 168 154 151
246121.43493652 3357582.54400635 14.21437550 222 225 230
246120.13391113 3357583.77130127 14.73517799 80 86 86
246121.95190430 3357583.39801025 14.70029831 29 31 30
246120.65649414 3357583.32788086 13.70170403 196 193 188
246119.64611816 3357585.42993164 14.79819679 163 172 189
246119.58959961 3357583.91259766 13.28190613 194 193 188
246121.57543945 3357584.02777100 14.06898308 193 186 176
246121.28356934 3357584.43658447 14.24159718 214 209 205
246121.72644043 3357584.05200195 13.70562649 189 182 174
246119.62023926 3357584.13031006 13.66224766 241 242 244
246120.33435059 3357585.25476074 15.04281330 207 204 211
246120.03991699 3357584.50689697 15.16711330 223 227 230
246122.53527832 3357583.42749023 13.71455097 154 151 146
246120.99060059 3357582.97485352 13.35749722 173 172 168
246122.44384766 3357582.70721436 13.44937038 96 106 118
246121.64501953 3357583.67346191 13.81144142 180 178 166
246122.56115723 3357583.90643311 13.27138805 95 97 92
246122.14135742 3357583.89331055 14.19558907 163 159 148
246120.10534668 3357585.02331543 14.37054157 212 209 204
246120.72985840 3357583.31860352 13.56387520 208 205 196
246121.07104492 3357584.00128174 15.13638115 209 213 222
246119.94982910 3357584.78442383 13.95793724 129 133 132
246120.95788574 3357583.78015137 13.57108593 185 181 178
246120.95935059 3357583.74407959 13.57343864 187 183 180
246122.44165039 3357583.04119873 14.11408997 179 196 206
246121.02685547 3357583.47723389 13.64154816 190 187 182
246120.37365723 3357584.89471436 14.24199486 203 198 195
246120.45886230 3357583.43103027 14.08764362 200 201 203
246120.80859375 3357583.13171387 14.01776695 201 202 204
246122.05041504 3357583.61511230 14.85035610 31 35 36
246120.03881836 3357583.80444336 13.62057781 161 161 153
246122.33044434 3357583.84136963 14.37698746 61 57 56
246120.09753418 3357583.73699951 14.36490440 230 234 237
246119.82885742 3357584.85290527 14.03092957 72 76 77
246121.70019531 3357582.43115234 14.20824814 214 219 225
246121.90869141 3357583.73791504 13.97479343 172 170 158
246122.36352539 3357583.59985352 13.83561230 138 130 127
246119.68103027 3357584.13592529 14.79538441 57 61 62
246121.15466309 3357582.99035645 14.87297058 233 237 238
246120.52148438 3357585.18695068 13.84000301 132 127 121
246120.66088867 3357585.34930420 13.56139469 94 94 92
246121.52380371 3357582.20300293 13.30901337 113 110 105
246119.63220215 3357584.76293945 13.95342827 173 173 165
246121.03442383 3357583.71166992 15.13784599 226 230 233
246121.95751953 3357583.94390869 14.16797924 173 169 160
246122.19604492 3357582.73767090 14.18675613 182 192 204
246120.81811523 3357584.06384277 15.15333748 227 230 237
246122.31567383 3357583.63836670 13.82267952 151 146 142
246122.53369141 3357583.90771484 13.27239990 95 96 91
246120.62512207 3357584.99774170 14.48360825 190 185 182
246120.30639648 3357583.55792236 13.50225735 153 148 142
246121.13085938 3357584.09295654 15.13953114 191 198 206
246120.61486816 3357583.41326904 14.80375862 52 56 57
246121.04541016 3357583.92327881 15.13181973 221 226 232
246121.01184082 3357584.61749268 14.28056908 206 201 195
246122.08984375 3357583.73498535 13.82836056 167 164 159
246120.71166992 3357584.46417236 13.77001572 172 167 163
246121.00573730 3357583.09069824 14.80483913 52 62 61
246119.35864258 3357584.38085938 14.27442169 212 222 223
246119.41674805 3357584.33599854 13.69556618 85 87 84
246122.07580566 3357584.01599121 13.50161743 104 94 93
246119.70007324 3357584.08477783 14.50346756 163 167 166
246122.04980469 3357584.01989746 14.26769543 171 164 158
246121.47570801 3357584.47650146 14.45620728 186 181 177
246119.86584473 3357584.99145508 15.18374157 220 227 235
246120.74023438 3357584.93865967 14.47590637 206 202 193
246121.95776367 3357583.86566162 14.94520855 144 145 150
246121.05908203 3357583.12487793 14.93828106 248 252 253
246121.65820313 3357584.33905029 14.39652157 220 215 211
246120.37707520 3357583.51928711 14.57811451 58 60 59
246122.59497070 3357583.72399902 13.29832554 86 87 82
246121.59252930 3357582.65942383 14.54437351 87 91 94
246121.39599609 3357583.83190918 13.67899513 185 182 177
246120.95263672 3357583.02966309 13.90585136 213 213 211
246120.28027344 3357585.35900879 13.93962669 102 96 96
246120.17675781 3357584.91619873 14.24673748 204 201 196
246120.19848633 3357583.73345947 14.76450348 61 65 68
246121.18737793 3357583.80999756 15.13166237 213 217 220
246119.54431152 3357585.27288818 13.54323006 164 169 173
246121.19970703 3357584.09082031 15.12775803 214 219 225
246120.25976563 3357585.48150635 13.83649540 186 177 180
246122.10107422 3357583.02551270 14.47044373 116 119 124
246120.92272949 3357584.78259277 15.00442505 204 199 203
246122.53161621 3357583.95391846 13.27858067 94 95 90
246120.18981934 3357585.14508057 15.13039970 206 213 219
246119.69909668 3357583.54461670 13.28852844 134 131 126
246121.09899902 3357582.90832520 13.86906528 214 216 215
246119.59545898 3357585.01031494 15.14255142 158 173 192
246119.42639160 3357584.75946045 13.77590656 145 145 145
246122.77380371 3357583.25671387 13.44067955 47 47 45
246121.97290039 3357584.11230469 14.44032669 104 103 101
246119.87866211 3357583.95837402 14.20951462 215 219 220
246119.64404297 3357585.27728271 15.00537968 88 101 118
246122.24536133 3357583.54193115 14.56713867 39 40 42
246120.43884277 3357585.24230957 14.64522266 188 182 182
246121.56567383 3357584.44134521 13.55421162 114 110 107
246120.32470703 3357585.29211426 13.95006275 125 123 124
246121.11486816 3357584.01513672 13.59708786 179 178 173
246119.27026367 3357584.49810791 14.47569180 236 240 243
246121.77502441 3357583.01678467 14.52531242 54 55 59
246119.50708008 3357584.72717285 13.86227036 157 156 152
246122.16613770 3357582.62133789 14.03605366 174 184 193
246119.68981934 3357583.87756348 13.31041431 180 175 169
246122.12670898 3357582.46490479 13.57218742 148 152 153
246120.78002930 3357584.28863525 15.16864872 227 230 237
246120.86840820 3357584.94543457 14.64124203 193 189 180
246119.80114746 3357583.56903076 13.28351402 159 155 146
246120.60266113 3357583.68554688 15.07367992 220 221 223
246119.77526855 3357584.62860107 15.15578556 238 239 244
246121.06860352 3357584.79522705 14.72813606 169 164 161
246120.44787598 3357583.57458496 14.86530685 89 98 95
246119.32458496 3357584.53222656 14.85047436 212 216 219
246119.84460449 3357585.37774658 13.92496777 93 116 148
246121.73510742 3357582.16925049 13.38006115 171 166 160
246120.40551758 3357585.29193115 14.68125248 206 202 199
246122.36206055 3357583.72583008 13.63141346 67 56 54
246122.21203613 3357583.45861816 14.52761078 54 54 54
246121.37243652 3357583.98669434 13.91572666 184 177 167
246121.38635254 3357583.80322266 13.67494678 179 175 172
246121.58862305 3357584.15008545 13.66825104 180 175 171
246120.97265625 3357584.65899658 15.05421638 200 199 205
246121.15637207 3357584.55279541 13.55289745 138 135 130
246120.72204590 3357584.98895264 14.99748611 198 192 196
246119.86303711 3357583.94757080 14.51412201 183 187 188
246120.03662109 3357583.80859375 13.64028072 187 188 182
246120.62707520 3357585.35382080 13.58420372 79 80 75
246120.67675781 3357583.26544189 13.94569016 210 209 207
246120.92846680 3357584.42962646 13.97422504 192 187 183
246119.28454590 3357585.04650879 14.89120770 50 54 63
246120.09802246 3357583.56317139 13.30438328 180 173 163
246120.23229980 3357583.66009521 14.10840607 212 216 217
246120.15417480 3357583.69549561 13.68602943 209 211 208
246121.73864746 3357584.15228271 14.24932289 172 167 161
246122.57104492 3357583.08941650 13.84317589 165 170 174
246120.58666992 3357585.00469971 14.47318172 190 185 182
246121.00915527 3357582.99334717 14.42647743 55 57 56
246119.96264648 3357584.39404297 15.16474438 214 215 220
246121.10058594 3357583.07830811 14.92753792 252 254 253
246119.43212891 3357585.19140625 14.88075352 81 94 111
246120.34094238 3357583.30566406 13.30712795 194 190 181
246121.26550293 3357583.85900879 13.64985085 181 177 174
246120.38916016 3357583.46734619 13.41363716 157 152 146
246121.90295410 3357582.48980713 14.20693874 184 193 202
246119.98266602 3357584.79272461 13.96804905 129 133 132
246120.87695313 3357583.21154785 14.83567142 226 232 232
246122.51696777 3357583.03540039 13.72016525 159 169 171
246121.21057129 3357584.20819092 15.10266495 192 197 203
246120.09545898 3357585.29132080 14.62492371 205 206 201
246122.38098145 3357582.92211914 14.07564163 174 191 198
246121.02478027 3357583.40454102 15.11647892 215 218 223
246121.32568359 3357584.12701416 13.97399616 168 163 159
246119.30322266 3357584.79040527 14.49046421 40 37 44
246120.67077637 3357584.99554443 13.84355640 138 133 127
246120.30676270 3357584.72290039 13.88794804 146 145 141
246119.61340332 3357585.33306885 13.61467075 108 119 125
246120.43994141 3357584.94348145 14.32817936 200 195 192
246121.14111328 3357583.78515625 13.66611004 180 171 164
246122.24145508 3357582.51928711 13.48930550 126 135 144
246121.59436035 3357583.85174561 13.95074940 186 182 170
246120.25988770 3357583.60168457 13.50726032 151 146 140
246121.01684570 3357584.82458496 14.68962574 149 144 141
246121.66882324 3357584.03826904 14.13425255 191 187 176
246122.27770996 3357582.67224121 13.96529102 151 160 169
246121.85119629 3357582.77691650 14.45885754 71 72 77
246121.14221191 3357584.56658936 13.55617523 141 137 134
246119.65698242 3357584.10241699 13.58829689 212 214 213
246120.34118652 3357585.48626709 13.72362041 125 111 110
246120.11877441 3357585.22064209 14.07059479 194 206 218
246120.28784180 3357585.14984131 14.07588482 143 144 148
246122.20727539 3357582.64746094 14.02065372 173 183 192
246121.21337891 3357584.87408447 13.44321060 74 73 69
246121.62304688 3357582.11633301 13.31955051 135 128 118
246121.43078613 3357583.74548340 15.09664059 211 216 220
246120.83190918 3357584.91271973 14.52238083 215 211 202
246120.12915039 3357584.75604248 15.15801048 234 237 244
246120.88061523 3357583.42492676 15.06582832 209 210 212
246122.42419434 3357583.68707275 14.39726925 64 59 56
246120.38598633 3357584.88092041 15.13008213 227 230 237
246120.23547363 3357584.94653320 15.14238358 212 215 220
246120.55639648 3357584.67059326 15.13955784 228 233 239
246122.36926270 3357583.74682617 14.19752312 119 113 113
246120.56042480 3357584.69256592 15.13513947 224 228 237
246121.28649902 3357584.68969727 13.49128819 57 56 54
246120.09570313 3357585.41125488 15.12708473 171 174 183
246121.63830566 3357584.23535156 14.94186687 105 100 104
246119.38891602 3357584.41644287 14.73062038 59 60 62
246121.22155762 3357584.26196289 13.99277020 194 191 186
246122.08105469 3357583.84722900 13.73266029 142 137 134
246120.83239746 3357584.97222900 14.64142990 188 185 178
246120.20446777 3357585.08563232 14.10550690 123 122 127
246120.58679199 3357585.05517578 13.93406296 140 135 131
246121.32678223 3357582.87078857 14.87945271 151 154 159
246121.00720215 3357582.96612549 14.04268932 201 201 201
246120.72570801 3357583.21154785 14.37206364 234 238 241
246121.95556641 3357582.14111328 13.32755947 197 193 182
246120.49218750 3357583.13964844 13.26124287 183 180 173
246121.65185547 3357584.30444336 14.86022186 63 61 62
246121.06604004 3357583.47558594 13.63791561 188 187 182
246120.83764648 3357583.12402344 14.45444107 215 219 222
246120.03332520 3357584.62072754 15.16272354 233 234 239
246120.04479980 3357583.74859619 13.39788628 167 160 152
246120.76135254 3357583.40222168 14.97072601 250 254 255
246119.45373535 3357584.28631592 14.21356964 218 220 219
246119.78112793 3357584.39978027 15.09715080 232 236 239
246120.15344238 3357583.72698975 13.98945999 209 215 215
246121.12304688 3357584.03936768 13.79180336 174 167 161
246121.96752930 3357581.84179688 13.25773335 203 203 193
246122.36743164 3357583.69128418 14.12007713 121 117 114
246122.63415527 3357582.70062256 13.33138847 85 86 80
246121.66088867 3357584.08709717 13.69323826 185 180 174
246121.28503418 3357584.24011230 13.58863926 181 176 172
246120.41320801 3357585.07019043 15.08134365 204 204 212
246122.38854980 3357584.01135254 13.32545853 106 109 102
246121.70166016 3357583.53338623 13.71647072 174 174 162
246120.81152344 3357583.25561523 13.47362709 179 180 175
246121.94873047 3357582.61395264 14.36525822 108 115 123
246120.31750488 3357584.36016846 15.17326927 231 234 241
246122.13903809 3357581.98168945 13.26365089 208 201 191
246122.35534668 3357583.16680908 14.41054440 32 35 40
246119.92932129 3357584.97021484 14.28891373 211 208 201
246120.96313477 3357583.38586426 15.09020996 235 239 242
246119.91186523 3357585.37152100 14.64514923 208 207 202
246121.38281250 3357584.42382813 13.56987000 168 163 159
246119.59460449 3357585.12487793 14.42292595 210 210 200
246122.34497070 3357583.71533203 14.11419964 123 118 114
246120.59204102 3357583.88049316 15.14785576 223 228 231
246120.05529785 3357584.45941162 15.16900826 217 220 225
246122.48986816 3357583.51898193 14.36202717 91 90 86
246122.51538086 3357582.96130371 13.91871548 158 167 174
246120.23217773 3357584.58044434 15.16523647 220 225 231
246122.10400391 3357583.51971436 14.66322136 0 4 5
246121.01867676 3357582.77441406 13.30093098 192 189 182
246119.99035645 3357585.03405762 14.36383629 214 211 204
246120.63635254 3357584.96258545 13.92126274 147 139 136
246120.16931152 3357583.71588135 14.03614140 205 210 213
246121.73828125 3357582.39416504 13.98497105 221 225 228
246121.95898438 3357583.77832031 14.02827740 171 169 157
246121.69885254 3357584.30035400 14.37017155 219 214 210
246121.34179688 3357584.46667480 14.33153057 213 208 204
246122.30419922 3357582.96575928 14.33540249 116 125 134
246121.71850586 3357584.21466064 14.27567196 183 178 175
246121.64831543 3357582.28942871 13.38473320 144 140 137
246122.39196777 3357583.55285645 13.96783733 135 134 132
246120.09265137 3357585.04296875 14.38758373 211 208 203
246120.23779297 3357584.94171143 14.28372860 201 198 193
246120.58666992 3357584.86651611 15.10092640 225 226 231
246119.20947266 3357584.94848633 14.87750053 57 64 72
246119.41540527 3357584.75891113 14.24505615 68 57 61
246120.73291016 3357583.37951660 14.91880798 251 252 254
246122.70068359 3357582.60723877 13.25844193 108 105 98
246119.31042480 3357584.81689453 15.05703259 38 44 66
246120.20031738 3357585.07141113 14.10764217 117 116 122
246122.25244141 3357582.53552246 13.49012756 126 135 144
246119.56848145 3357585.10223389 15.09230423 76 91 112
246119.89440918 3357584.89288330 14.17778969 200 197 190
246120.70141602 3357585.22711182 13.63134956 55 55 55
246120.03869629 3357583.81713867 13.76496506 202 207 201
246120.48681641 3357583.40240479 14.20832729 212 213 215
246122.26562500 3357582.35394287 13.29815960 195 188 178
246121.00988770 3357583.82067871 13.64880085 173 160 154
246122.11364746 3357583.56848145 14.70958996 88 93 99
246121.70495605 3357582.18347168 13.37042236 158 154 145
246121.22668457 3357582.62756348 13.31370926 169 168 163
246121.40197754 3357584.31121826 13.59642982 174 167 161
246121.50585938 3357584.27612305 13.62552643 172 167 163
246121.97851563 3357582.25720215 13.40567112 148 145 138
246121.22485352 3357582.75335693 13.74021149 197 198 200
246121.81945801 3357582.52441406 14.38349724 77 81 90
246121.83178711 3357583.27172852 14.67905903 60 61 65
246119.93273926 3357583.88690186 14.39102554 238 242 243
246120.52453613 3357584.67834473 14.05071926 208 203 199
246120.30041504 3357584.67864990 13.91919041 200 196 193
246120.38659668 3357585.10272217 14.04514790 154 153 151
246119.98168945 3357584.23168945 15.10636139 221 222 224
246122.04992676 3357583.01367188 14.47731400 123 124 129
246122.33471680 3357582.91680908 14.20542622 178 191 200
246119.96228027 3357583.38641357 13.29334164 188 181 175
246119.68029785 3357585.43835449 14.89797115 82 90 103
246120.84716797 3357582.64880371 13.27584934 196 193 186
246120.04663086 3357584.45098877 15.16928768 223 226 231
246119.72253418 3357584.32830811 15.02587318 254 255 255
246122.34631348 3357583.61370850 13.98874187 127 124 119
246120.88879395 3357583.30187988 13.58124924 182 185 174
246121.30529785 3357582.67633057 14.40963936 151 150 155
246121.96459961 3357582.41064453 13.84977436 178 181 186
246121.84680176 3357583.74249268 13.77204704 220 216 207
246122.11315918 3357582.48095703 13.78584385 167 172 176
246120.85473633 3357583.45959473 13.55032635 202 203 198
246121.73962402 3357584.24102783 14.76941586 101 101 99
246120.49291992 3357583.62939453 14.97146320 252 253 255
246120.92382813 3357584.90563965 13.56054306 71 71 73
246120.99340820 3357583.62451172 15.14116192 206 210 213
246119.91528320 3357584.88568115 14.17128372 198 195 188
246121.23937988 3357582.47137451 13.26333809 177 174 169
246120.59802246 3357584.79125977 15.11227226 200 205 211
246120.15637207 3357583.73431396 14.09033012 212 216 219
246121.10241699 3357584.74206543 14.61026478 194 186 183
246121.08361816 3357583.71789551 13.64622593 180 171 164
246121.13354492 3357584.20928955 13.90452766 170 167 162
246121.96948242 3357582.46588135 14.02274895 179 182 191
246122.19970703 3357582.12402344 13.27087307 205 199 187
246121.14733887 3357584.59674072 14.36348820 217 212 208
246122.60656738 3357582.84771729 13.44516087 38 44 44
246120.49377441 3357583.40802002 13.89226818 215 217 216
246119.73461914 3357585.04473877 15.18140984 217 223 237
246120.59252930 3357584.79534912 13.95563221 162 155 149
246121.39746094 3357583.68530273 15.09806061 195 200 206
246122.01049805 3357582.36450195 13.56446934 173 175 174
246121.01342773 3357584.49084473 14.10760117 195 190 186
246120.71838379 3357583.30261230 13.75968456 189 188 183
246120.81054688 3357583.11779785 14.32715988 226 230 233
246119.34240723 3357584.39654541 14.19558334 209 214 217
246121.10729980 3357583.52832031 13.64956474 189 184 180
246121.60034180 3357582.46136475 14.24294949 230 238 241
246120.41650391 3357583.86749268 15.09442425 223 226 231
246121.52380371 3357582.57122803 14.54147911 182 187 190
246121.56750488 3357582.12219238 13.29817867 145 138 130
246119.24279785 3357584.71429443 15.00727749 195 193 194
246122.23559570 3357583.52001953 13.85754681 170 167 160
246121.03771973 3357584.23626709 15.13201237 216 219 228
246119.95483398 3357585.07690430 14.39941311 213 212 207
246120.56213379 3357583.49725342 14.88164520 204 208 209
246120.14147949 3357585.29998779 15.13586807 211 215 224
246121.72485352 3357583.34771729 14.87497711 85 88 97
246121.21911621 3357583.34545898 15.05134392 199 203 212
246122.03723145 3357582.33068848 13.45969963 105 102 97
246119.72131348 3357584.74731445 13.90145397 154 151 144
246121.60266113 3357583.10601807 14.72959328 39 42 49
246122.19433594 3357583.87786865 13.48365211 97 87 85
246120.85827637 3357583.22174072 14.82350063 221 225 226
