245677.40582275 3357371.81549072 19.39739990 55 59 62
245678.61285400 3357372.68078613 20.24926567 11 33 57
245678.99353027 3357372.20916748 19.10252953 45 50 53
245679.43426514 3357372.30792236 19.66028595 6 27 44
245677.80847168 3357372.64782715 20.67631912 17 25 28
245678.19274902 3357372.41571045 19.97320557 8 13 17
245679.51849365 3357372.13665771 18.92898178 59 60 64
245679.55780029 3357373.74636841 20.17630386 27 30 35
245678.78338623 3357372.64645386 20.17571259 22 43 70
245678.27929688 3357372.12203979 19.40055084 34 43 52
245680.12335205 3357373.42874146 19.64763069 30 44 57
245678.14062500 3357372.53469849 20.15318871 9 19 31
245679.36804199 3357373.59963989 20.36395645 31 34 39
245680.13964844 3357373.34686279 19.60615921 13 32 46
245678.83062744 3357373.34317017 20.69329834 18 27 34
245679.16174316 3357372.13787842 18.92951393 55 60 64
245678.72448730 3357373.15219116 20.56316376 17 35 49
245679.26324463 3357373.55239868 20.43353844 24 29 33
245678.35516357 3357372.31192017 19.83547211 69 83 94
245677.70245361 3357372.56118774 20.18801689 110 119 136
245678.08941650 3357372.63055420 20.25874901 20 36 51
245678.03454590 3357372.41439819 19.94405937 9 14 17
245678.35565186 3357372.30328369 19.82178879 53 69 82
245678.54553223 3357373.04528809 20.55972672 12 28 41
245678.13037109 3357372.29986572 19.77795982 45 61 77
245679.53497314 3357372.96157837 20.07355309 21 24 31
245679.91046143 3357372.37576294 19.27145958 13 19 31
245677.56555176 3357372.03720093 19.53441429 30 34 43
245680.25433350 3357373.39822388 19.40435982 12 21 26
245680.03485107 3357373.81457520 19.67893028 38 38 46
245679.60589600 3357372.18481445 18.95665932 58 59 61
245677.84918213 3357371.87179565 19.23365402 54 61 67
245678.08532715 3357372.21444702 19.56988144 13 26 42
245680.21710205 3357373.31381226 19.44634438 8 21 27
245679.66314697 3357373.09478760 19.99404716 38 48 57
245678.63916016 3357372.00012207 19.14434242 60 63 68
245678.26000977 3357372.13821411 19.42276001 21 30 39
245677.80743408 3357372.64450073 20.35722733 1 11 23
245678.84844971 3357372.66329956 20.19237328 12 33 62
245678.97387695 3357373.04550171 20.36388779 19 38 55
245678.86749268 3357372.25726318 19.31615829 8 17 26
245678.43548584 3357373.02404785 20.63711929 16 30 41
245679.35986328 3357372.52828979 20.06966019 4 18 45
245677.88018799 3357372.69604492 20.66815567 23 30 38
245680.11114502 3357372.71115112 19.48587799 44 55 73
245677.89050293 3357372.65219116 20.35531425 2 12 22
245677.55676270 3357372.29855347 19.92337418 54 63 72
245680.08270264 3357373.85620117 19.54922104 34 37 42
245680.07269287 3357372.52670288 19.40524483 43 50 68
245678.67163086 3357372.22610474 19.50040245 19 28 43
245679.62554932 3357373.64373779 20.04737854 20 24 33
245678.91430664 3357372.95834351 20.33661842 17 35 55
245680.15191650 3357373.28512573 19.57476807 3 24 43
245680.05828857 3357372.67456055 19.67100525 11 18 36
245678.33715820 3357372.74291992 20.36254883 16 33 51
245680.26147461 3357373.87890625 19.24183464 33 38 42
245680.00762939 3357372.38574219 19.04087639 42 45 50
245678.08599854 3357372.22317505 19.60020828 7 20 36
245680.35711670 3357373.29360962 19.27414894 23 32 37
245677.67022705 3357372.62341309 20.33433723 5 17 29
245679.99114990 3357372.86737061 19.75830078 36 62 89
245679.58801270 3357373.49847412 20.05536079 23 25 37
245680.08337402 3357373.79208374 19.58415604 29 32 37
245678.19110107 3357372.20358276 19.59004974 8 24 37
245679.71990967 3357373.31149292 19.93681526 27 39 55
245677.68927002 3357372.58749390 20.24864197 28 37 52
245679.28320313 3357373.49838257 20.37903404 22 25 32
245677.70220947 3357372.56488037 20.19593811 110 119 136
245678.76831055 3357372.23696899 19.33382416 8 17 26
245680.20513916 3357373.18615723 19.43782616 8 22 33
245680.20983887 3357373.68759155 19.35023689 28 35 41
245678.00305176 3357372.54974365 20.15433693 44 56 68
245679.18853760 3357372.25686646 19.10988235 79 88 93
245677.65936279 3357371.93975830 19.30647278 48 53 57
245677.92791748 3357372.21691895 19.56168747 6 16 26
245677.48077393 3357371.97323608 19.57235527 42 47 53
245678.21502686 3357372.04367065 19.29365158 43 47 56
245680.26385498 3357373.24502563 19.34686089 15 24 29
245679.66271973 3357373.59283447 19.99470329 25 32 42
245678.42687988 3357372.74411011 20.34935379 12 30 50
245680.11694336 3357373.19396973 19.63307571 41 67 94
245677.52984619 3357372.39099121 20.02806664 2 7 11
245680.08966064 3357372.81561279 19.63547707 16 38 62
245678.90045166 3357372.28723145 19.54228592 14 33 47
245679.62200928 3357373.57708740 20.03366470 17 21 32
245679.05944824 3357373.46646118 20.54503441 21 28 36
245679.97833252 3357372.46984863 19.64399719 29 16 36
245680.00573730 3357372.48135376 19.61723709 23 14 31
245678.36444092 3357372.90063477 20.55026245 23 35 47
245678.79229736 3357372.83084106 20.26482201 20 40 65
245679.43157959 3357372.69772339 20.11655617 29 29 39
245679.26312256 3357373.52905273 20.41756248 26 29 36
245678.59484863 3357372.57064819 20.16859818 80 97 117
245678.85095215 3357372.61270142 20.17164421 70 93 124
245678.29418945 3357372.41937256 19.99639893 6 9 14
245680.20416260 3357373.18960571 19.44030952 8 22 33
245679.60131836 3357372.31109619 19.15779305 26 31 37
245678.95019531 3357373.45468140 20.66256142 21 28 34
245678.45166016 3357372.16458130 19.53597450 14 27 36
245679.40588379 3357373.35031128 20.17090797 14 13 19
245679.63311768 3357372.31729126 19.49386215 17 23 37
245677.84552002 3357372.67541504 20.55989838 12 21 28
245679.39251709 3357372.35198975 19.80434418 40 70 96
245678.73980713 3357372.30233765 19.71513939 18 37 52
245678.42822266 3357372.15701294 19.53226852 14 27 36
245678.57177734 3357372.68563843 20.27128792 18 38 63
245678.44091797 3357372.43780518 20.05087662 9 14 20
245679.51715088 3357373.68719482 20.21197510 25 30 36
245680.00555420 3357373.14633179 19.75092506 70 92 116
245678.05041504 3357372.27502441 19.72466087 21 38 56
245678.78009033 3357373.23117065 20.61302948 18 32 43
245679.11975098 3357373.57839966 20.61549759 24 32 34
245678.21685791 3357372.05496216 19.30907440 43 47 56
245679.42260742 3357372.32373047 19.71655846 8 33 53
245679.51477051 3357373.07516479 20.07859612 22 23 28
245678.30609131 3357372.64889526 20.28429413 8 24 49
245678.27972412 3357372.67575073 20.31196785 20 37 57
245679.51458740 3357372.53414917 19.97834396 5 17 39
245679.99804688 3357372.96069336 19.75589943 33 57 81
245678.01959229 3357372.73062134 20.54718781 2 9 17
245679.84899902 3357373.64285278 19.83213234 37 49 61
245679.29425049 3357372.49826050 20.07846642 96 115 145
245680.04364014 3357372.92248535 19.71734810 15 41 68
245678.01800537 3357372.12689209 19.36043930 36 46 55
245680.12896729 3357372.68103027 19.26510048 13 25 39
245679.71960449 3357373.70001221 19.95433807 20 27 37
245678.52655029 3357372.98403931 20.50618362 16 32 47
245678.28558350 3357371.93572998 19.22643280 59 64 68
245678.04162598 3357372.59567261 20.21676636 71 84 100
245679.39758301 3357372.38562012 19.86670113 77 106 138
245679.93963623 3357373.73184204 19.76698303 13 22 29
245678.32495117 3357372.13900757 19.45868111 20 30 39
245677.45397949 3357372.45629883 20.12281036 44 51 61
245678.62182617 3357372.38259888 19.93319702 4 9 13
245677.79364014 3357372.23873901 19.67899895 28 42 51
245677.51348877 3357371.92068481 19.40209961 44 49 52
245677.43927002 3357372.46908569 20.14860344 60 66 78
245677.82690430 3357372.24182129 19.67247200 28 42 51
245679.43023682 3357372.30603027 19.63658333 4 26 40
245678.95831299 3357372.35043335 19.84978104 59 76 92
245678.23962402 3357372.10940552 19.38345528 36 45 54
245678.12786865 3357372.14608765 19.42861748 23 32 41
245680.06274414 3357373.34963989 19.70988464 5 22 40
245679.99548340 3357372.42709351 19.14136505 30 35 41
245679.77618408 3357373.55642700 19.87302780 20 36 51
245679.82244873 3357372.34020996 19.29030037 19 23 34
245679.58856201 3357372.31793213 19.62351608 8 25 41
245679.75866699 3357373.11712646 19.92554665 20 38 52
245680.03741455 3357373.09823608 19.72896194 27 52 82
245678.74176025 3357372.35385132 19.84899902 51 60 67
245679.19610596 3357373.51461792 20.46644974 24 29 35
245679.11706543 3357372.38504028 19.92038918 4 19 40
245678.72363281 3357372.51815796 20.10223579 11 24 41
245679.36968994 3357372.29849243 19.57108307 13 30 40
245680.10919189 3357373.53463745 19.65908623 11 19 30
245679.46337891 3357372.29263306 19.10191345 8 15 23
245678.72949219 3357372.31527710 19.74959946 39 58 72
245679.77215576 3357372.33148193 19.12893295 33 38 44
245679.14007568 3357372.35211182 19.84733772 55 81 104
245678.40679932 3357372.02896118 19.29302979 49 52 61
245680.27160645 3357372.98709106 19.23053169 19 28 35
245679.50976563 3357372.30715942 19.56012154 11 27 42
245680.21197510 3357373.81417847 19.30847740 25 33 35
245677.51422119 3357372.02124023 19.61745071 25 32 38
245680.18237305 3357373.84713745 19.32661438 26 34 36
245677.77319336 3357372.52676392 20.10284996 2 9 19
245679.66918945 3357373.73196411 20.01999855 29 34 40
245679.77740479 3357373.59869385 19.87875175 17 31 44
245678.73321533 3357373.14205933 20.54701233 17 35 49
245680.04528809 3357373.20434570 19.72288704 12 36 62
245678.43621826 3357372.34896851 19.90840149 18 28 37
245678.37542725 3357372.18310547 19.61980247 11 25 36
245677.49188232 3357372.10357666 19.86334991 12 22 32
245678.53765869 3357372.05667114 19.28712463 48 52 61
245679.94049072 3357372.47598267 19.71064186 54 42 66
245677.98223877 3357372.73559570 20.62026787 0 6 16
245679.20727539 3357372.79409790 20.20300293 14 18 27
245679.24914551 3357373.31530762 20.28461456 18 17 23
245680.10614014 3357372.82669067 19.61025810 16 38 62
245677.95458984 3357372.71215820 20.59476089 4 11 21
245677.83258057 3357372.63058472 20.30619621 1 13 27
245678.42572021 3357372.04931641 19.31096840 49 52 61
245680.07855225 3357372.53338623 19.48466682 59 64 83
245677.95660400 3357372.25485229 19.65937042 5 21 36
245679.57861328 3357372.31536865 19.58892059 9 27 41
245679.72778320 3357373.08963013 19.94718742 19 33 46
245680.19995117 3357373.96591187 19.28915596 25 35 37
245678.78906250 3357372.28076172 19.59852409 21 38 54
245679.46020508 3357373.56106567 20.23203659 22 25 30
245679.69708252 3357372.38018799 19.75457573 67 89 126
245680.00921631 3357372.43704224 19.20164490 22 26 35
245680.22613525 3357373.89700317 19.26882744 25 33 36
245678.20324707 3357372.44708252 20.02501678 6 11 17
245680.06549072 3357372.69610596 19.66167450 11 18 36
245679.63000488 3357373.64535522 20.04227066 20 24 33
245680.19189453 3357373.10369873 19.47274971 8 24 40
245680.28741455 3357373.12634277 19.29112434 19 28 33
245677.47558594 3357372.13986206 19.95953560 33 42 49
245677.74987793 3357371.90036011 19.24503899 49 56 62
245678.94165039 3357372.24755859 19.21337128 98 102 111
245677.83673096 3357372.26062012 19.72853088 17 34 44
245679.57055664 3357372.94427490 20.05114365 29 32 41
245677.64483643 3357372.57449341 20.23900223 33 41 54
245679.29272461 3357372.43869019 19.99433327 66 93 122
245678.79913330 3357372.97470093 20.37531090 19 37 59
245680.05242920 3357372.62765503 19.67557144 17 14 31
245679.93853760 3357372.94995117 19.79755974 26 46 71
245679.85650635 3357373.43984985 19.82306480 40 57 73
245677.62280273 3357372.51867676 20.13116264 25 31 43
245678.98345947 3357372.43319702 20.01415825 1 9 22
245680.24670410 3357372.94326782 19.22747612 9 18 27
245677.46551514 3357372.27795410 19.98351860 20 25 31
245678.97766113 3357373.40237427 20.57475662 18 27 34
245679.13439941 3357373.58700562 20.61640930 24 32 34
245677.59387207 3357372.32098389 19.91299629 36 40 49
245678.65649414 3357372.33255005 19.80566025 61 78 88
245679.02215576 3357372.29321289 19.68859100 4 26 40
245680.03588867 3357372.22915649 18.93245506 66 67 72
245679.63720703 3357372.73632813 19.97743797 18 27 42
245680.04504395 3357372.49423218 19.21570015 11 19 30
245679.15374756 3357372.37094116 19.88821793 46 72 95
245679.83673096 3357372.70578003 19.85736656 16 43 73
245679.80749512 3357373.11041260 19.89030075 26 47 64
245680.12603760 3357373.78866577 19.48728943 31 36 40
245677.75097656 3357372.34240723 19.85152054 34 41 49
245679.27343750 3357372.18817139 18.94579506 53 56 61
245678.32379150 3357372.79266357 20.41847992 12 26 39
245678.83386230 3357372.14218140 19.12732697 42 45 52
245680.09594727 3357372.57873535 19.34555626 14 23 38
245677.96813965 3357372.19363403 19.48610115 10 23 32
245679.90948486 3357373.86181641 19.78975677 36 39 46
245678.69512939 3357372.32623291 19.78081322 59 77 89
245678.83538818 3357372.29391479 19.70126534 16 37 54
245679.71862793 3357373.51104736 19.92422867 28 40 54
245679.29846191 3357372.29953003 19.63168716 13 32 46
245678.34307861 3357372.05020142 19.31133842 41 48 54
245679.19665527 3357373.35464478 20.35734367 10 13 18
245679.12335205 3357372.75228882 20.21597672 1 8 18
245678.86645508 3357372.23367310 19.24637222 22 29 37
245679.61810303 3357373.56008911 20.03482246 17 21 32
245678.64776611 3357373.18026733 20.64044380 16 32 45
245679.07440186 3357372.21264648 19.05066299 64 69 73
245679.12573242 3357372.26095581 19.14836121 71 78 84
245678.85327148 3357372.62643433 20.17731094 19 40 69
245679.76861572 3357372.51818848 19.85183144 14 47 82
245679.81665039 3357372.64859009 19.85991859 19 48 78
245678.01086426 3357372.36010742 19.85349655 41 50 59
245678.53942871 3357372.31347656 19.83737183 64 81 91
245679.56298828 3357373.56716919 20.10233307 13 16 23
245679.81030273 3357372.33761597 19.37154770 17 23 37
245679.16497803 3357373.33587646 20.37236214 9 14 18
245679.56640625 3357373.26910400 20.07261467 18 17 25
245680.17633057 3357372.81909180 19.27937317 14 24 36
