245694.33892822 3357652.51092529 17.57248497 52 59 51
245693.51354980 3357652.29302979 17.45037270 78 87 84
245693.04534912 3357650.72094727 17.67589378 144 154 155
245693.33258057 3357651.25140381 18.73056984 109 122 112
245694.40814209 3357653.03845215 18.14403343 23 29 17
245693.19763184 3357652.59246826 17.48738098 17 31 32
245693.23956299 3357651.15924072 18.84327888 134 149 130
245693.59387207 3357651.45068359 18.55073166 79 88 83
245692.95208740 3357652.29663086 17.61910629 15 21 21
245693.25152588 3357651.00762939 18.29314041 76 89 79
245694.21954346 3357652.11773682 17.73513794 10 18 20
245694.05004883 3357652.17919922 17.44822121 47 51 50
245693.59442139 3357652.18524170 17.56651878 34 40 36
245692.86682129 3357650.91778564 19.04986191 121 126 122
245693.40594482 3357653.78753662 17.22403717 147 162 167
245693.08282471 3357650.68127441 18.12895775 37 40 33
245692.91241455 3357650.93603516 19.50933647 234 235 230
245693.11883545 3357650.89422607 18.33995628 106 114 101
245694.35205078 3357652.90325928 17.70125008 1 3 0
245693.50231934 3357652.95501709 17.49637222 93 94 98
245692.76654053 3357653.70892334 17.04643059 143 148 152
245693.20672607 3357650.95019531 18.04451752 154 169 162
245692.94458008 3357652.30987549 17.61918259 15 21 21
245692.81671143 3357653.32269287 17.34423637 192 203 207
245692.83093262 3357652.71917725 17.49741554 182 196 199
245693.38562012 3357653.95532227 16.85039520 23 33 34
245694.25848389 3357652.23541260 17.61485672 22 31 28
245693.11364746 3357651.03948975 17.76376534 11 22 16
245693.40435791 3357652.15527344 17.75221252 29 40 42
245693.00958252 3357651.50805664 17.57176208 23 33 22
245693.10437012 3357653.05755615 17.47146034 165 184 188
245693.11322021 3357651.74499512 17.99999809 140 149 144
245693.39788818 3357653.82910156 17.16986275 66 81 84
245692.62109375 3357652.81152344 17.35473824 199 205 205
245693.25604248 3357651.75451660 17.99758720 186 198 196
245694.21118164 3357653.55670166 17.40993690 42 49 42
245693.24395752 3357651.19635010 18.72174072 128 140 126
245692.83020020 3357652.23248291 17.59057236 65 64 69
245694.31427002 3357652.35931396 18.49348259 27 39 25
245692.69598389 3357653.59039307 17.16427994 70 78 81
245693.06433105 3357652.15069580 17.80673790 54 64 73
245693.08923340 3357650.93682861 18.41911888 105 115 106
245693.91717529 3357653.68579102 17.26897049 179 190 192
245693.85058594 3357653.24584961 17.42204094 140 152 152
245694.24310303 3357652.83721924 17.55568314 157 163 159
245693.08044434 3357650.97479248 19.10795021 151 157 155
245694.12591553 3357652.07696533 17.51175690 13 17 16
245692.66131592 3357653.63458252 16.94501686 109 113 116
245693.06652832 3357651.22528076 17.77030945 43 51 38
245693.69580078 3357652.44213867 17.38934708 15 20 23
245692.69567871 3357652.26013184 17.34575844 138 139 141
245692.91552734 3357652.56524658 17.54035378 27 34 40
245693.39581299 3357651.27960205 18.55488205 113 126 119
245693.71612549 3357651.56378174 18.27678871 73 83 74
245693.74938965 3357653.91436768 16.95359993 110 120 121
245693.02337646 3357651.64080811 17.94956017 47 54 47
245693.47192383 3357653.90429688 16.98604393 114 122 124
245693.11859131 3357651.66113281 18.02505684 196 203 196
245694.36761475 3357652.83111572 17.70031738 15 17 12
245693.06756592 3357651.01837158 19.25689125 149 155 153
245693.67987061 3357652.88537598 17.43075752 13 19 19
245693.38476563 3357651.75836182 17.97639465 140 152 148
245692.94329834 3357651.81176758 17.79620743 35 40 33
245694.21704102 3357653.08905029 17.51931763 151 158 168
245694.26776123 3357653.48883057 17.45999908 31 36 29
245693.08056641 3357652.41998291 17.49285126 23 34 38
245693.43286133 3357651.31219482 18.79832458 45 54 49
245693.78869629 3357652.03656006 17.68106270 13 17 18
245693.52313232 3357651.65222168 17.97146034 104 113 110
245693.29864502 3357651.07550049 18.13538933 112 123 117
245693.08190918 3357650.99218750 19.15815163 144 153 148
245692.82159424 3357653.54199219 17.26416206 189 203 206
245694.39202881 3357652.93695068 18.35308266 12 15 8
245693.18249512 3357653.68945313 17.28784180 168 183 186
245692.92279053 3357650.91009521 19.42741394 206 207 202
245693.51281738 3357653.22558594 17.45443153 180 194 195
245693.55151367 3357651.63751221 17.97367477 103 109 109
245692.73193359 3357652.90924072 17.44224548 189 202 210
245692.95373535 3357653.66601563 17.26460457 166 180 183
245693.09686279 3357652.07189941 17.87955666 38 48 57
245693.05657959 3357650.61505127 17.78450966 103 112 107
245694.15502930 3357653.92370605 17.24924660 13 20 13
245693.99865723 3357651.90960693 18.32353020 118 135 117
245694.48602295 3357652.37762451 17.84066010 23 25 12
245693.82061768 3357652.81799316 17.42323875 18 23 19
245692.81170654 3357652.30389404 17.55775070 129 130 134
245692.87634277 3357650.85290527 19.21803284 158 160 155
245692.62957764 3357652.99072266 17.33536530 203 213 212
245692.99890137 3357653.66601563 17.30457687 203 214 218
245694.42675781 3357652.80987549 18.16524124 52 66 41
245693.94494629 3357651.85864258 17.89986801 143 160 142
245694.12536621 3357651.97882080 17.76814651 136 153 143
245693.28924561 3357653.75164795 17.26124573 151 170 176
245693.28173828 3357653.92138672 16.90330696 28 38 40
245693.75695801 3357651.67327881 18.08020973 46 59 41
245692.73498535 3357652.50665283 17.44264030 197 198 202
245694.25280762 3357652.26525879 18.51184654 48 60 48
245692.61077881 3357652.71777344 17.32456779 223 227 230
245694.40881348 3357652.82342529 17.80891037 20 26 16
245694.40240479 3357652.85095215 17.81414604 18 26 15
245693.50701904 3357651.76348877 17.93865013 123 138 131
245693.58569336 3357653.70727539 17.26985741 140 158 160
245693.85925293 3357651.80279541 18.12154961 97 110 100
245693.94165039 3357652.20080566 17.44591522 111 120 119
245693.04888916 3357651.06134033 18.84182549 146 156 155
245694.37622070 3357652.85491943 17.72933388 22 24 19
245693.18243408 3357651.31781006 18.05285263 142 154 144
245694.38507080 3357652.97991943 17.97577667 13 19 7
245693.88055420 3357653.24371338 17.42010880 135 145 146
245693.10540771 3357650.74627686 17.94405556 26 31 25
245693.16528320 3357653.31414795 17.41982079 164 188 190
245692.99719238 3357652.20214844 17.73276901 37 44 50
245692.97448730 3357653.80133057 17.12104607 142 150 153
245692.73413086 3357652.04498291 17.47694016 193 199 197
245694.10278320 3357651.96997070 18.01883507 103 117 91
245693.79888916 3357652.49810791 17.38011932 20 23 28
245694.04705811 3357653.73785400 17.16452026 69 79 78
245692.96038818 3357652.33483887 17.59323502 13 19 19
245692.75146484 3357653.73229980 16.64737129 20 22 21
245693.09881592 3357650.77020264 18.26010323 0 4 0
245692.84301758 3357650.93078613 18.74272156 174 178 177
245692.89202881 3357652.76318359 17.50054359 147 158 162
245693.21734619 3357651.12152100 18.00209618 155 167 157
245693.87060547 3357652.19256592 17.48539162 86 95 94
245694.33502197 3357653.31677246 17.64189339 28 34 24
245693.41076660 3357653.74407959 17.26200294 143 161 165
245694.33990479 3357652.98028564 17.71853447 9 11 8
245693.13317871 3357651.05065918 19.16662407 148 157 152
245693.43328857 3357652.14147949 17.77219963 36 48 48
245692.97088623 3357651.64385986 17.61867714 19 27 16
245693.04925537 3357650.82501221 18.37005424 98 103 96
245693.05718994 3357653.84777832 17.02835083 106 111 114
245694.24786377 3357652.35314941 18.63094902 52 70 44
245693.74517822 3357653.67846680 17.27856827 178 194 194
245692.89935303 3357653.80755615 16.97809410 108 114 114
245692.89697266 3357653.51159668 17.30320930 173 188 193
245694.34112549 3357653.20526123 17.66618156 24 29 22
245693.17987061 3357653.04687500 17.48298073 169 189 190
245693.61749268 3357653.60888672 17.33535576 143 161 163
245692.97589111 3357651.40979004 17.55240440 20 30 21
245693.30102539 3357651.53216553 18.04303741 157 168 162
245694.03643799 3357651.93402100 18.31843567 107 120 94
245693.45104980 3357651.33581543 18.70103073 46 52 50
245693.62396240 3357653.21044922 17.45639801 184 198 199
245694.03076172 3357652.39294434 17.41105652 22 23 25
245694.12329102 3357652.58831787 17.45797539 44 54 46
245693.75762939 3357652.34606934 17.41844940 8 10 7
245692.84887695 3357651.62274170 17.42831802 132 142 134
245693.23419189 3357652.86578369 17.53112030 17 22 25
245693.80761719 3357652.38079834 17.39606667 7 13 11
245693.13067627 3357650.80438232 17.93362808 2 4 0
245692.93804932 3357651.74285889 17.63654900 21 23 18
245693.08483887 3357650.84948730 18.34577751 95 103 92
245694.21984863 3357652.51727295 17.50374031 64 68 67
245693.93768311 3357651.86682129 17.79579544 129 145 132
245694.16375732 3357653.81384277 17.26390648 22 27 21
245693.84442139 3357651.79431152 18.03791237 121 134 125
245693.28344727 3357652.39050293 17.44595146 27 38 40
245694.50250244 3357652.51391602 18.05175209 31 40 23
245692.85388184 3357652.38916016 17.59417343 183 184 188
245693.19256592 3357651.20129395 17.99189949 170 182 170
245693.04663086 3357652.54968262 17.51309013 32 42 44
245693.13537598 3357651.26928711 17.98326111 152 164 154
245694.33215332 3357652.68621826 17.60110283 60 65 59
245693.32122803 3357652.24072266 17.59295845 35 48 54
245693.21124268 3357651.11358643 18.92868805 122 134 120
245693.28247070 3357652.41217041 17.43320656 27 38 40
245694.44763184 3357652.57098389 17.74633598 232 245 227
245692.99700928 3357652.21795654 17.70688820 35 42 48
245692.90423584 3357650.72644043 18.48930931 140 142 137
245692.76635742 3357653.71954346 16.97550583 113 117 120
245692.87182617 3357653.79553223 16.93661308 93 98 101
245693.84844971 3357652.27105713 17.45183945 59 63 62
245693.96307373 3357654.16143799 16.91873741 32 36 35
245693.82647705 3357652.50885010 17.37973595 19 22 27
245693.90667725 3357652.84893799 17.44747734 73 81 66
245693.23425293 3357651.57513428 18.04214096 161 172 164
245693.22192383 3357652.61688232 17.49193954 16 28 28
245694.10430908 3357652.34075928 17.43283272 16 18 15
245693.85375977 3357651.82232666 17.82990456 143 158 151
245693.33892822 3357651.17797852 18.38177872 116 135 129
245693.11566162 3357650.97906494 17.77128220 11 20 17
245693.64971924 3357653.00488281 17.46214294 121 129 131
245692.60528564 3357653.27825928 17.21900558 153 159 159
245694.27221680 3357652.87731934 17.59521294 147 151 152
245693.57342529 3357652.52740479 17.39352417 24 32 34
245693.84356689 3357652.45953369 17.38050842 16 21 24
245693.81402588 3357651.96099854 17.73320007 35 47 43
245694.05676270 3357653.55310059 17.34254265 167 181 182
245694.23559570 3357652.09655762 17.97110939 59 70 62
245694.22668457 3357653.68725586 17.49324226 40 48 35
245693.79089355 3357651.75842285 17.98751450 67 78 70
245692.94720459 3357653.36859131 17.36810112 169 186 194
245692.93499756 3357652.55603027 17.54380989 27 34 40
245693.35681152 3357651.22113037 18.21251869 129 146 136
245693.79290771 3357651.71716309 18.50661659 79 90 82
245693.23950195 3357651.41210938 18.08637238 172 183 175
245694.35583496 3357652.68621826 18.43425369 91 107 68
245693.51525879 3357652.17352295 17.70532036 16 27 21
245693.84082031 3357652.67651367 17.40151405 26 32 32
245692.60839844 3357653.27825928 17.22541046 153 159 159
245692.67065430 3357653.62719727 17.00138092 136 137 141
245694.11779785 3357651.97308350 17.75261688 107 124 118
245694.08764648 3357653.02233887 17.47477913 113 116 123
245692.94366455 3357650.62280273 18.34985161 151 152 146
245693.34576416 3357651.24145508 18.54720306 105 122 116
245693.87854004 3357653.13317871 17.43449974 179 184 187
245692.81262207 3357652.35144043 17.56045532 215 216 220
245693.03045654 3357653.86425781 16.81933403 24 30 30
245694.38476563 3357652.79669189 18.27631950 63 80 46
245692.80102539 3357652.84893799 17.47000694 189 204 211
245692.71899414 3357652.54980469 17.43467903 207 208 212
245693.94213867 3357651.85559082 17.96846771 149 166 147
245692.67700195 3357652.11157227 17.30558014 167 173 173
245694.12835693 3357654.00878906 17.13809586 16 20 19
245694.18212891 3357653.74938965 17.35440254 52 58 48
245692.73150635 3357653.71533203 16.70213318 13 17 16
245692.61706543 3357652.80133057 17.34770012 214 218 219
245694.09375000 3357654.03851318 17.06407928 24 28 27
245693.72808838 3357654.06951904 16.84559631 32 36 37
245694.10003662 3357651.97540283 18.28283119 101 112 80
245693.33624268 3357651.23767090 18.57075310 105 122 116
245692.97436523 3357652.57202148 17.54047966 31 36 40
245694.21185303 3357652.10894775 17.64450264 14 19 22
245692.85266113 3357653.22546387 17.38888550 177 194 202
245693.56396484 3357653.88397217 17.01628494 123 131 134
245693.03692627 3357650.75183105 17.63748360 146 154 156
245692.61877441 3357652.62426758 17.30685806 216 217 221
245692.67517090 3357652.75799561 17.43958664 190 200 202
245693.95782471 3357651.86834717 18.03199196 145 160 139
245694.15710449 3357653.86260986 17.32753563 10 18 7
245693.05731201 3357653.26086426 17.41908836 163 184 187
245693.10162354 3357652.60266113 17.50117683 23 35 35
245693.06805420 3357650.63452148 18.03232956 71 77 67
245693.64068604 3357651.60540771 17.99004173 84 91 84
245692.73980713 3357650.83056641 18.86411476 88 93 87
245693.24420166 3357653.90106201 16.97149467 46 56 58
245693.26684570 3357652.75738525 17.52618599 8 14 12
245692.67541504 3357652.46691895 17.32723236 209 210 212
245692.82574463 3357653.77520752 16.66287422 12 14 11
245693.56085205 3357652.10595703 17.79454613 21 34 25
245693.52886963 3357653.09613037 17.48347855 162 172 174
245694.38464355 3357652.61224365 17.65335655 118 126 115
245694.03393555 3357651.92034912 17.97610664 97 117 82
245692.64385986 3357652.49273682 17.25427246 212 213 215
245693.03631592 3357651.90283203 17.93273926 139 148 145
245692.98620605 3357651.12384033 17.49587250 120 131 125
245693.69604492 3357652.14544678 17.55147171 27 33 31
245693.94696045 3357651.86224365 18.08535576 137 151 136
245694.09136963 3357653.19598389 17.42991257 157 167 176
245693.82031250 3357654.07348633 16.88705444 27 32 35
245693.03033447 3357650.80731201 17.60308838 143 148 151
245693.11968994 3357650.91125488 17.82553673 11 15 14
245693.01995850 3357653.09997559 17.45158386 160 181 186
245694.34552002 3357652.62304688 18.46607780 74 92 50
245693.15435791 3357651.13079834 18.64426804 113 126 119
245694.05444336 3357653.66308594 17.25889778 166 176 177
245693.19360352 3357651.43988037 18.07092094 153 163 152
245694.06146240 3357651.95513916 18.37991142 137 147 120
245693.52380371 3357651.37945557 18.18844223 135 142 135
245692.62945557 3357653.54388428 17.01227188 131 132 136
245693.08178711 3357651.30944824 17.89311600 44 51 33
245694.34063721 3357652.74035645 18.63339615 13 26 6
245693.18804932 3357652.94311523 17.50779915 167 181 182
245694.29144287 3357652.87481689 17.61655045 122 127 123
245694.40551758 3357652.86553955 17.88710594 19 27 16
245693.90795898 3357652.67950439 17.41415024 29 33 32
245693.23907471 3357653.46447754 17.38586617 165 186 191
245693.46063232 3357653.65081787 17.31459808 150 169 173
245692.75115967 3357653.53631592 17.23057747 196 205 210
245694.15856934 3357653.86492920 17.28586197 9 16 8
245693.77789307 3357653.30401611 17.42250252 159 173 173
245692.70190430 3357652.06597900 17.40593147 187 193 193
245693.29077148 3357653.80426025 17.20390320 128 146 150
245693.97839355 3357651.88677979 18.17263794 120 134 111
245692.77697754 3357653.21899414 17.36299706 177 190 196
245693.63500977 3357651.92376709 17.85888863 86 98 94
245693.28820801 3357653.91320801 16.96248055 36 45 50
245694.22351074 3357652.12823486 17.73566437 16 25 24
245693.01452637 3357650.84844971 17.53532600 136 144 146
245692.93090820 3357652.12091064 17.77243996 165 169 170
245693.53961182 3357652.29632568 17.44859505 51 60 57
245692.88623047 3357651.93475342 17.69253731 8 9 3
245694.02099609 3357652.19403076 17.44143677 63 67 66
245693.66436768 3357651.49743652 18.22805786 102 109 102
245692.76574707 3357652.48846436 17.48108101 194 193 198
245693.17529297 3357651.37475586 18.05743217 153 165 155
245693.30480957 3357651.16510010 18.12999535 143 156 146
245693.63720703 3357652.41900635 17.39439392 14 19 22
245692.73657227 3357652.35668945 17.42684364 183 184 186
245693.87145996 3357653.30377197 17.41303825 133 145 145
245693.99273682 3357651.89556885 18.12826920 121 135 112
245693.39349365 3357653.90588379 16.99439240 84 95 97
245693.67474365 3357652.15325928 17.60470200 24 33 30
245693.51397705 3357653.79150391 17.21730042 139 154 159
245692.89672852 3357651.49707031 17.44769859 113 124 118
245694.35772705 3357653.20477295 17.85662651 17 20 13
245693.60766602 3357651.60388184 17.97955704 94 100 96
245692.91778564 3357650.91973877 19.45764160 224 225 220
245694.27343750 3357652.37670898 18.58853531 56 71 48
245692.71826172 3357653.00976563 17.40282631 191 204 210
245693.33728027 3357653.93060303 16.92924690 28 39 41
245694.44812012 3357652.65350342 18.19978142 75 90 61
245694.30969238 3357653.02899170 17.67068100 29 31 28
245692.99420166 3357653.84844971 16.76644325 23 27 26
245693.31372070 3357653.10693359 17.47826767 172 190 192
245692.99554443 3357651.35803223 17.56891823 4 14 5
245693.37597656 3357653.92523193 16.95239258 47 58 60
245694.33270264 3357653.34460449 17.67482948 28 36 25
245693.60626221 3357651.74914551 17.92008972 81 92 88
245692.91876221 3357652.17303467 17.71236038 179 180 182
245694.38586426 3357652.92492676 17.83660889 13 19 9
245692.99237061 3357653.61712646 17.32117271 198 209 215
245692.98693848 3357651.40289307 17.56487274 5 15 6
245693.01812744 3357650.77697754 18.36960220 93 95 90
245692.79473877 3357650.77410889 19.32822227 191 192 187
245693.04785156 3357651.49456787 17.94979286 23 34 20
245693.14239502 3357650.99432373 18.44502068 106 118 108
245694.33593750 3357652.26025391 17.74461746 46 53 46
245692.86718750 3357652.74908447 17.50105095 169 182 188
245694.03375244 3357652.38311768 17.41468620 22 23 25
245692.60083008 3357652.96112061 17.28230286 194 203 202
245694.16864014 3357652.06109619 18.43791962 63 72 51
245693.30517578 3357653.06005859 17.48982048 179 195 195
245693.26452637 3357653.93493652 16.79542351 22 32 34
245694.19036865 3357652.16986084 18.55187225 37 48 32
245694.38092041 3357652.81903076 18.33559418 8 20 0
245693.49377441 3357651.36859131 18.66959953 40 49 46
245693.07525635 3357653.51165771 17.35752678 115 130 135
245693.62152100 3357652.32379150 17.43146133 42 48 44
245694.24908447 3357652.21392822 17.58841324 22 31 28
245694.27203369 3357652.29382324 18.50492668 52 65 55
245693.48034668 3357652.19622803 17.61850166 29 40 36
245693.58197021 3357651.87567139 17.88742447 60 72 68
245694.30578613 3357652.18597412 18.08204079 41 54 37
