245641.36267090 3357462.78723145 18.77777863 13 15 10
245641.95050049 3357460.80450439 18.94182587 186 189 182
245638.76489258 3357461.46771240 19.16507721 162 173 169
245641.65936279 3357461.39749146 19.79009819 29 35 35
245643.05371094 3357461.30645752 19.21338272 171 181 172
245639.45745850 3357461.87533569 19.68391037 11 12 14
245641.97485352 3357461.34246826 19.60553932 69 83 86
245641.83453369 3357461.96566772 19.63726234 20 33 41
245639.33856201 3357461.01617432 19.45102119 225 226 228
245641.41278076 3357461.56198120 19.89721870 171 184 190
245642.11187744 3357460.79843140 19.08037949 200 206 194
245639.76354980 3357461.75936890 19.82237053 15 14 19
245639.97186279 3357460.91281128 19.15106583 200 196 185
245640.02728271 3357460.89929199 19.00592041 204 201 192
245642.04608154 3357460.80902100 18.83836937 77 80 61
245642.21820068 3357461.86416626 19.46486282 13 21 24
245642.59765625 3357461.11056519 19.38559532 233 238 231
245641.87219238 3357460.79052734 19.36454010 205 204 199
245639.18334961 3357461.06970215 19.48858452 184 195 199
245641.79504395 3357461.26736450 19.71113396 79 92 98
245639.19244385 3357462.59051514 19.15884399 255 255 253
245639.65563965 3357462.94229126 18.70706940 101 99 84
245641.60437012 3357461.01574707 19.69479370 81 63 59
245639.36328125 3357462.54278564 19.27067375 255 255 255
245640.37390137 3357462.23901367 19.89220428 196 204 207
245640.80438232 3357462.11010742 19.90460205 160 175 178
245639.23345947 3357462.54751587 19.21617126 255 255 255
245638.46435547 3357461.14172363 18.55120468 149 146 105
245638.75653076 3357462.65771484 18.83953285 184 166 144
245640.36737061 3357460.84255981 19.09338570 229 226 217
245640.74865723 3357461.67773438 19.98926544 180 197 205
245639.84973145 3357462.07681274 19.78862572 27 26 32
245638.81823730 3357461.83822632 19.52862167 207 216 221
245639.68994141 3357462.54714966 19.51235390 61 61 61
245638.75122070 3357461.96371460 19.34673119 194 195 190
245641.27258301 3357460.82135010 19.19503784 245 247 236
245638.84625244 3357461.80691528 19.58063698 186 195 200
245640.78216553 3357461.29510498 19.93347931 136 153 161
245642.85382080 3357461.87130737 19.34670830 224 225 219
245640.24255371 3357461.25985718 19.84515953 171 188 198
245640.73376465 3357460.85171509 19.07452583 223 221 208
245640.44213867 3357461.89581299 19.97239685 219 229 230
245641.05718994 3357462.05206299 19.87533951 7 11 23
245641.66925049 3357460.79632568 18.97521591 199 196 187
245641.33148193 3357460.81372070 19.24521637 235 238 227
245641.42523193 3357461.47390747 19.89132881 142 151 156
245642.47326660 3357460.74188232 18.89241409 66 68 63
245640.21807861 3357460.88989258 19.15866661 207 202 196
245641.21606445 3357460.75265503 19.01501656 238 234 225
245643.04827881 3357462.07608032 19.15552330 85 87 82
245641.25286865 3357460.87390137 19.42353439 254 237 227
245639.19110107 3357461.11141968 19.55340004 187 197 198
245640.08343506 3357460.94973755 19.38441086 184 184 172
245638.77160645 3357462.57998657 18.88261414 187 171 146
245642.30914307 3357461.19195557 19.49439812 242 247 240
245640.88690186 3357460.80123901 18.99188805 224 228 213
245638.68554688 3357462.54174805 18.71884346 193 177 154
245641.69561768 3357461.72671509 19.76619911 11 16 22
245642.44885254 3357462.04370117 19.44191742 186 195 202
245639.42852783 3357462.12017822 19.60971832 14 19 22
245642.72930908 3357460.96710205 19.25999069 211 214 207
245641.43029785 3357460.89730835 19.54261398 46 16 14
245639.62268066 3357460.90963745 19.14218903 203 203 203
245640.03643799 3357462.85876465 18.89034462 18 16 19
245642.82440186 3357460.88400269 19.16121483 117 123 113
245641.64916992 3357460.82672119 19.51378822 180 175 169
245642.89221191 3357461.92657471 19.31316376 218 221 214
245639.70385742 3357462.39151001 19.64359856 123 126 131
245639.79180908 3357462.20764160 19.77499580 31 32 36
245639.78845215 3357461.00939941 19.50239944 107 104 99
245643.06768799 3357461.19696045 19.13160133 35 44 39
245641.92846680 3357460.78396606 19.30916595 247 246 241
245639.96411133 3357461.02365112 19.57306290 14 13 9
245641.91247559 3357460.80474854 18.88537598 167 168 160
245639.08654785 3357461.01773071 19.39189148 203 213 215
245642.25408936 3357460.99917603 19.45846748 246 247 241
245638.59527588 3357461.50671387 18.62837982 75 70 41
245639.26074219 3357461.41717529 19.62401009 6 12 12
245640.59942627 3357460.83197021 18.99321175 235 231 222
245639.35137939 3357460.99008179 19.37362480 219 220 222
245642.43780518 3357461.39654541 19.49082947 242 243 237
245640.29864502 3357461.06182861 19.69241333 1 4 9
245641.68505859 3357461.89443970 19.72846413 19 30 34
245638.95764160 3357461.25390625 19.51643753 171 184 190
245641.79602051 3357460.79449463 19.06370354 178 180 167
245640.37866211 3357461.15371704 19.83685303 165 188 196
245639.34051514 3357462.71322632 19.03662682 186 165 146
245638.77288818 3357461.62979126 19.30565453 164 178 179
245639.05297852 3357461.42758179 19.57047462 170 183 189
245638.50360107 3357461.40985107 18.57405853 167 160 105
245641.73394775 3357461.80773926 19.73461533 15 23 26
245638.73529053 3357461.62521362 19.11844826 210 216 212
245640.44055176 3357461.81924438 19.98413277 242 252 254
245638.61834717 3357462.30511475 18.59478951 195 174 131
245641.78973389 3357460.77999878 19.19734573 250 247 238
245641.34191895 3357461.37185669 19.90451431 178 183 187
245639.84832764 3357462.14843750 19.80070114 46 47 52
245642.69464111 3357460.86923218 19.21418953 171 174 167
245642.46655273 3357460.97201538 19.37564850 239 240 235
245641.06054688 3357461.35125732 19.93296051 17 18 20
245639.25848389 3357461.15075684 19.58984375 181 183 182
245638.83178711 3357461.58541870 19.43481255 157 171 174
245642.05786133 3357461.34408569 19.55623627 87 98 100
245639.67950439 3357461.03479004 19.52653503 192 192 190
245638.76403809 3357461.60949707 19.24954605 186 198 198
245638.95996094 3357461.01858521 19.07487488 163 173 172
245639.95489502 3357461.26232910 19.88453674 180 191 195
245638.83502197 3357461.20016479 19.32983780 90 95 98
245642.25079346 3357460.78845215 19.05405045 157 162 156
245642.51354980 3357460.89529419 19.29400444 228 233 226
245640.08209229 3357459.42471313 24.47139168 96 107 90
245642.64160156 3357461.99685669 19.43291664 206 206 206
245639.47888184 3357462.83129883 18.90842628 159 151 132
245641.66711426 3357460.79104614 18.92603874 199 195 184
245643.05749512 3357461.62521362 19.23950768 182 185 176
245641.74542236 3357462.14074707 19.62002563 38 47 54
245643.38812256 3357461.34777832 18.84985161 29 33 32
245641.57122803 3357461.67831421 19.84354591 14 22 24
245640.40075684 3357460.94015503 19.54297066 60 40 33
245640.21276855 3357460.89230347 19.16761780 207 202 196
245639.53765869 3357462.00552368 19.66114044 18 19 21
245640.55438232 3357461.39187622 19.92422676 174 189 196
245639.54577637 3357462.80587769 18.94347191 159 152 136
245639.76287842 3357460.96997070 19.40312767 235 228 222
245639.83563232 3357461.10626221 19.69950485 182 197 204
245642.46777344 3357461.55697632 19.48059464 242 245 238
245641.30920410 3357461.01589966 19.80640411 234 235 239
245639.44732666 3357461.01193237 19.45276260 232 232 232
245642.25201416 3357462.07601929 19.46086693 201 209 212
245641.86517334 3357461.54254150 19.67155647 23 32 31
245641.42541504 3357461.16741943 19.86269188 38 38 36
245641.16479492 3357460.78985596 19.11001968 227 229 218
245640.41223145 3357461.14273071 19.84799194 166 189 195
245642.69378662 3357460.75067139 19.02924156 180 181 165
245641.06732178 3357462.07034302 19.86746979 45 51 63
245639.91381836 3357462.06817627 19.80128288 141 144 153
245639.02581787 3357461.75347900 19.61772346 168 175 181
245641.60241699 3357461.17132568 19.78799248 26 35 34
245639.82611084 3357461.99575806 19.78833961 55 54 60
245641.37097168 3357460.75601196 18.98933601 227 225 213
245638.86865234 3357461.06271362 19.05965424 183 193 194
245638.79058838 3357462.09277344 19.40534973 216 211 205
245638.77789307 3357461.45901489 19.22331238 162 172 171
245643.03411865 3357461.44628906 19.25619698 215 220 213
245640.25848389 3357461.15963745 19.78316879 163 183 194
245642.15716553 3357461.24853516 19.49197388 60 60 58
245639.82617188 3357461.30673218 19.86842918 127 130 135
245641.92687988 3357460.91070557 19.50204468 194 183 177
245639.32098389 3357462.06576538 19.63344765 11 16 19
245639.95568848 3357461.54400635 19.89653397 242 242 242
245641.68646240 3357460.77593994 19.26242447 219 216 207
245641.70275879 3357462.24093628 19.63079643 55 60 64
245642.10504150 3357461.65591431 19.50918770 20 28 30
245643.00799561 3357462.05801392 19.19639587 126 127 122
245642.71405029 3357462.30487061 19.29754639 46 50 36
245639.10272217 3357460.96887207 19.00484276 145 154 151
245640.45220947 3357461.04122925 19.73559952 5 6 11
245639.02410889 3357462.80407715 18.90860558 124 106 86
245639.58148193 3357462.84036255 18.86865425 154 147 131
245642.44061279 3357462.27316284 19.45179939 170 181 139
245638.77557373 3357462.56091309 18.89384079 185 169 146
245638.87286377 3357462.49652100 19.07340622 187 164 148
245642.42291260 3357461.27688599 19.49821854 239 242 235
245642.98547363 3357461.49301147 19.29028893 225 231 221
245643.19494629 3357461.62969971 19.11830711 44 49 43
245641.93469238 3357460.77297974 19.24447823 251 252 246
245639.41656494 3357461.03329468 19.49354553 225 227 226
245639.88433838 3357460.89126587 18.98210335 69 70 65
245638.74725342 3357462.14230347 18.96747589 228 220 197
245643.01818848 3357461.75878906 19.25094604 196 199 192
245639.30120850 3357462.97610474 18.76844597 61 40 13
245642.02917480 3357462.09811401 19.50409889 42 55 61
245643.28930664 3357461.13232422 18.65427399 61 69 46
245641.02398682 3357461.02758789 19.85456848 121 126 132
245640.56427002 3357461.63482666 19.96425438 195 209 212
245639.29559326 3357460.94790649 19.07447433 234 238 237
245641.67480469 3357461.48068237 19.78331947 17 21 22
245642.12823486 3357462.01934814 19.47286034 14 25 31
245643.36804199 3357461.40048218 18.90101242 29 33 32
245640.34930420 3357461.10412598 19.76560020 5 12 22
245640.79248047 3357461.70834351 19.98819351 147 165 177
245640.58685303 3357461.84887695 19.96995163 178 192 193
245639.02532959 3357462.85742188 18.85511398 136 120 97
245642.31878662 3357461.08935547 19.46708107 240 247 240
245642.65411377 3357461.29943848 19.44523048 237 238 232
245641.39996338 3357461.02221680 19.80421066 195 179 179
245641.72979736 3357460.79290771 19.08882713 174 171 162
245639.80535889 3357462.79550171 18.93771744 83 84 68
245640.99206543 3357460.97387695 19.54167747 26 12 11
245639.75756836 3357460.89318848 19.02037239 106 105 101
245642.40002441 3357462.25723267 19.45481110 186 197 157
245642.50030518 3357461.94158936 19.44308853 200 205 209
245639.02221680 3357462.26885986 19.46522331 248 242 244
245641.04650879 3357462.12222290 19.84774780 173 184 190
245642.89416504 3357461.39080811 19.32961845 232 233 227
245639.81060791 3357460.97689819 19.43346214 231 227 218
245639.66729736 3357461.77981567 19.77165794 19 19 21
245638.76934814 3357461.92593384 19.42113876 216 220 221
245640.92285156 3357460.80059814 19.01066780 226 230 215
245640.14672852 3357460.91961670 19.25290871 176 172 163
245639.98553467 3357461.04196167 19.61423683 6 11 14
245638.81781006 3357461.66442871 19.43985939 151 168 176
245639.32025146 3357461.84707642 19.66977692 14 19 23
245642.40295410 3357462.27203369 19.45513916 171 183 143
245638.77465820 3357461.37661743 19.15587044 151 160 159
245639.19958496 3357462.79412842 18.94643211 137 109 88
245642.98309326 3357460.93676758 18.92919350 101 104 93
245639.50756836 3357462.79098511 18.96411705 154 145 128
245641.68652344 3357461.02395630 19.67436790 48 37 33
245641.61706543 3357461.24819946 19.81045532 11 19 21
245639.26812744 3357461.48693848 19.62706375 4 10 10
245641.40045166 3357462.07247925 19.83816338 91 104 110
245638.81860352 3357461.88916016 19.49404526 249 254 255
245639.19989014 3357462.67788696 19.06093979 203 182 165
245639.04034424 3357462.30880737 19.43120575 252 243 248
245641.49407959 3357460.90341187 19.57840538 33 23 21
245639.96411133 3357461.37347412 19.90387154 188 198 200
245638.81469727 3357461.40341187 19.36903572 164 178 178
245639.24328613 3357462.22601318 19.54589272 242 242 242
245639.15887451 3357462.32241821 19.42527962 246 241 245
245642.55017090 3357460.98773193 19.35082626 231 232 226
245640.38842773 3357462.22372437 19.89817429 192 199 205
245639.69213867 3357460.89398193 18.94791603 175 180 176
245640.86822510 3357461.81869507 19.96694756 43 56 73
245640.08380127 3357461.08319092 19.68163681 0 8 13
245642.92456055 3357461.49047852 19.32453537 231 234 227
245642.02575684 3357461.02252197 19.53180122 31 19 19
245639.50482178 3357460.91061401 18.87036514 114 114 112
245638.96252441 3357462.64398193 19.07212830 121 100 79
245638.91113281 3357461.01205444 18.94210052 125 133 120
245639.19964600 3357461.00122070 19.34539413 175 180 183
245640.50488281 3357461.40661621 19.92289543 177 190 198
245642.74932861 3357462.03256226 19.37530708 211 213 210
245642.69818115 3357460.95425415 19.26820946 219 220 212
245641.50360107 3357460.79074097 19.30898666 230 232 219
245643.23437500 3357461.78500366 19.05455971 29 34 28
245641.59246826 3357462.74169922 18.90342903 61 63 52
245638.96893311 3357461.57281494 19.55788612 169 179 188
245639.24926758 3357461.07601929 19.52102089 199 207 209
245639.56622314 3357461.60253906 19.71192169 8 10 9
245640.51568604 3357461.86581421 19.97208595 213 227 228
245640.34222412 3357461.08795166 19.73929024 0 3 12
245642.85034180 3357460.81509399 18.99317551 122 125 118
245643.17492676 3357461.13232422 18.76377296 69 76 58
245643.12683105 3357461.82781982 19.14866638 65 70 64
245639.89666748 3357460.91543579 19.22173691 172 172 162
245641.97467041 3357461.01712036 19.54987144 36 26 25
245638.71234131 3357461.79315186 19.02685356 255 255 245
245642.81195068 3357461.16665649 19.31426620 205 212 205
245638.76422119 3357461.55310059 19.21528053 165 175 174
245641.53717041 3357462.84466553 18.74308205 39 42 35
245642.78466797 3357461.75674438 19.40401077 231 232 227
245639.07507324 3357461.86041260 19.63861275 189 198 197
245642.14501953 3357460.80160522 18.90130615 109 117 96
245639.77343750 3357460.99566650 19.46599197 185 180 174
245639.36431885 3357461.06814575 19.52485847 227 228 230
245639.76074219 3357461.08398438 19.63371277 177 190 196
245639.32769775 3357461.66088867 19.64412498 6 14 16
245640.71411133 3357461.15222168 19.89634132 202 219 226
245638.45117188 3357461.12661743 18.54901123 149 146 105
245640.06518555 3357461.62506104 19.88151741 254 255 255
245640.97949219 3357462.01675415 19.89357567 1 9 22
245639.07824707 3357461.00619507 19.28676987 147 153 153
245641.48309326 3357460.79296875 19.07381630 218 220 207
245641.73675537 3357461.43997192 19.74739456 45 50 53
245642.13916016 3357461.33273315 19.50678253 36 41 44
245641.25128174 3357460.94897461 19.55361748 29 11 11
245641.49768066 3357460.78848267 19.24669456 216 214 201
245643.09039307 3357461.72341919 19.20282173 140 145 138
245639.50451660 3357461.39797974 19.68576622 17 17 19
245638.68798828 3357461.87081909 18.83372116 151 142 125
245643.04364014 3357461.08587646 19.01992798 111 118 111
245641.57098389 3357461.91876221 19.78225708 27 40 48
245639.70898438 3357461.78799438 19.79148293 14 14 16
245639.17651367 3357462.18310547 19.56690979 236 237 239
245640.98986816 3357461.32266235 19.92895317 54 55 57
245642.83020020 3357461.31533813 19.35491753 231 234 227
245639.09356689 3357461.06765747 19.47832489 179 192 198
245641.91522217 3357461.97622681 19.59827423 28 41 49
245641.31481934 3357462.19277954 19.80113602 174 184 183
245640.16595459 3357461.37655640 19.88930702 179 192 198
245638.82000732 3357461.11404419 18.99512863 182 193 189
245639.86975098 3357462.32614136 19.79303551 145 145 147
245638.76770020 3357462.02249146 19.40812111 209 206 199
245638.90399170 3357461.41235352 19.45735931 178 192 193
245641.52264404 3357462.76641846 18.76385689 23 24 18
245639.80645752 3357460.89105225 19.03185272 112 112 110
245638.73114014 3357461.41595459 18.96720505 141 148 141
245638.85058594 3357461.05380249 19.02252388 163 173 172
245639.57427979 3357462.47039795 19.48511696 144 146 141
245641.40527344 3357461.01715088 19.79471588 195 179 179
245643.24487305 3357461.33117676 18.95022202 25 30 26
245640.96813965 3357461.21432495 19.91860962 181 182 184
245641.62408447 3357461.36312866 19.80910301 15 19 20
245639.83264160 3357461.59487915 19.87756348 211 211 211
245642.62084961 3357460.76690674 19.09332275 192 195 186
245638.89398193 3357462.19116211 19.44200325 252 247 243
245643.19122314 3357461.50952148 19.12856102 52 57 53
245638.83361816 3357461.92156982 19.51029968 247 250 255
245642.38604736 3357461.95388794 19.44718170 196 205 210
245640.35961914 3357461.76480103 19.96724892 245 255 255
245642.49914551 3357460.74594116 18.93290710 22 23 15
245640.21716309 3357461.12356567 19.74227905 25 38 47
245642.52819824 3357462.18411255 19.42217255 158 166 145
245641.58233643 3357462.74044800 18.85920715 58 60 49
245639.13623047 3357461.15463257 19.56789589 173 187 190
245640.23718262 3357461.91992188 19.88552475 218 221 226
245642.89550781 3357462.48013306 19.11399078 35 37 32
245640.10675049 3357460.93130493 19.25667953 168 164 153
245641.18609619 3357461.00186157 19.69811440 9 13 24
245642.01983643 3357461.78295898 19.55302811 26 33 39
245639.00732422 3357461.90441895 19.63516045 219 223 222
245641.77349854 3357460.90625000 19.56674004 179 174 168
245641.10711670 3357460.78836060 19.08307076 210 210 200
245642.95452881 3357460.99456787 19.10199165 110 117 110
245641.45123291 3357461.51904297 19.88296700 33 43 45
245640.25445557 3357461.32485962 19.87943459 172 187 194
245642.23345947 3357462.04101563 19.46202660 152 159 165
245642.04675293 3357460.80194092 18.81635284 77 80 61
245639.57702637 3357462.59231567 19.39277077 93 92 71
245641.09466553 3357460.78341675 19.06276321 218 216 204
245639.95031738 3357460.92492676 19.26549911 174 174 162
245638.83856201 3357463.09252930 18.73300552 63 64 30
245639.06036377 3357462.78192139 18.93746185 120 99 82
245642.46423340 3357461.79040527 19.45518494 227 232 228
245639.29449463 3357462.90240479 18.83615685 92 62 34
245642.50872803 3357462.30563354 19.42947197 59 68 37
245642.05017090 3357460.80236816 18.96000862 215 218 211
245642.57946777 3357461.29479980 19.47793388 237 238 232
245640.81719971 3357461.34729004 19.94643021 87 105 115
245642.80700684 3357460.88803101 19.18247986 141 147 135
245642.85418701 3357462.11422729 19.27471161 180 182 177
245639.87945557 3357461.23251343 19.87843895 177 185 188
245639.54547119 3357462.51254272 19.44242859 146 149 140
245642.02362061 3357461.17337036 19.56938553 15 16 18
245639.85186768 3357461.14920044 19.76019669 175 184 191
245640.85882568 3357460.84359741 19.10373306 237 237 229
245641.58312988 3357460.82049561 19.42994308 235 232 225
245638.86364746 3357461.09655762 19.16216850 181 186 189
245638.75921631 3357462.77548218 18.83839798 159 143 118
245639.97723389 3357460.91070557 19.13003159 211 207 198
245641.54541016 3357462.04446411 19.75720024 38 56 60
245639.81579590 3357462.96597290 18.74331093 101 99 87
245642.49407959 3357461.46011353 19.49136353 240 243 234
245642.45037842 3357461.93460083 19.44079208 199 207 210
245640.02227783 3357462.87716675 18.84152603 24 19 23
245639.99652100 3357459.51892090 24.39299583 96 109 89
245641.15924072 3357460.96032715 19.53401375 31 12 6
245638.76928711 3357461.68875122 19.32501221 194 209 216
245638.88482666 3357461.04415894 19.01696396 159 170 166
245642.51043701 3357460.75000000 18.96018791 51 52 46
245641.96362305 3357461.91461182 19.57788277 22 33 39
245639.15399170 3357460.95581055 18.96969032 172 178 178
245638.74725342 3357461.78985596 19.28022194 203 214 216
245642.09814453 3357460.80764771 18.93822670 154 161 143
245639.54064941 3357462.62249756 19.31884384 117 116 96
245638.76318359 3357461.58819580 19.23192596 177 187 186
245640.06488037 3357460.98840332 19.52487755 26 19 13
245640.73834229 3357460.99038696 19.65435791 13 11 12
245642.20068359 3357462.38275146 19.45776749 84 95 81
245638.71166992 3357461.68521118 19.03348923 253 255 247
245642.80346680 3357462.00265503 19.35262299 217 219 214
245640.09350586 3357461.75875854 19.84209442 255 255 255
245642.93206787 3357461.96505737 19.28103256 210 213 204
245638.73443604 3357462.47204590 18.81676102 185 173 149
245639.45208740 3357460.91766357 18.87495613 117 119 116
245642.00671387 3357460.87097168 19.39990997 243 243 235
245639.55975342 3357461.13299561 19.61723518 247 241 241
245639.00140381 3357461.71472168 19.59980011 173 182 187
245641.04974365 3357461.54913330 19.95728302 13 22 29
245643.07891846 3357461.34594727 19.20444298 131 141 132
245642.88281250 3357462.53533936 19.11504555 22 27 21
245640.67779541 3357462.12472534 19.91742134 167 180 186
245639.82220459 3357462.02362061 19.78191185 20 19 24
245638.74578857 3357461.54428101 19.11938858 170 179 174
245641.90325928 3357462.08163452 19.56493568 50 63 72
245640.02722168 3357461.46966553 19.90785027 202 211 210
245641.56085205 3357461.68411255 19.84729385 14 22 24
245639.61737061 3357460.90710449 19.07136917 145 143 144
245641.61767578 3357460.78912354 19.14262390 196 196 188
245641.30541992 3357461.16317749 19.88946533 229 229 227
245642.78448486 3357462.39572144 19.18856239 43 49 39
245640.91583252 3357460.92303467 19.46022987 169 146 132
245639.03967285 3357462.40118408 19.34426308 255 248 253
245641.65374756 3357461.47482300 19.79497528 17 21 20
245642.94573975 3357461.47949219 19.31227303 231 234 227
245640.14807129 3357460.92535400 19.31356621 182 182 170
245638.89862061 3357461.13717651 19.39103699 62 65 70
245640.01800537 3357460.91744995 19.15936852 206 202 190
245641.05145264 3357460.86901855 19.31153870 251 251 243
245640.27557373 3357460.89974976 19.37942696 245 238 230
245640.37298584 3357461.03872681 19.70076370 4 7 12
245640.16790771 3357461.03948975 19.62550926 8 11 16
245638.76800537 3357461.34909058 19.10622025 166 175 172
245641.49230957 3357461.20825195 19.85206604 23 27 28
245642.03173828 3357462.03961182 19.52341652 44 58 69
245642.61810303 3357461.77890015 19.49609947 230 232 229
245640.92474365 3357460.95217896 19.50927162 47 22 15
245641.28057861 3357462.77145386 18.92940140 69 71 60
245638.98425293 3357460.97021484 18.86946869 126 131 108
245640.68298340 3357461.63296509 19.97470284 184 199 204
245641.94348145 3357461.34991455 19.62420273 78 93 98
245639.84527588 3357462.79193115 18.89178467 73 74 66
245642.49798584 3357462.13555908 19.43358231 157 166 147
245642.39715576 3357462.33816528 19.45829582 141 152 112
245642.12060547 3357461.34045410 19.51840019 43 51 53
245643.04156494 3357461.00469971 18.82122421 82 85 76
245640.44989014 3357460.90036011 19.40591431 230 213 203
245639.21203613 3357462.13494873 19.59501076 234 238 241
245643.34509277 3357461.36325073 18.89547920 29 33 32
245642.98651123 3357461.63833618 19.28957939 208 209 201
245639.33990479 3357460.92794800 18.81683540 69 76 69
245640.46813965 3357461.02334595 19.68537903 6 5 10
245640.41491699 3357461.17111206 19.85740662 167 190 196
245639.06823730 3357461.73980713 19.62065887 167 177 179
245640.97485352 3357460.95437622 19.51432037 53 30 24
245639.57897949 3357461.21057129 19.67361450 50 38 40
245643.12945557 3357461.37872314 19.16260529 38 45 38
245639.30700684 3357460.97714233 19.29627800 205 207 206
245639.65777588 3357460.89587402 18.95098686 201 205 204
245638.70587158 3357461.47009277 18.87733650 81 85 71
245640.34240723 3357461.13012695 19.79329681 70 84 93
245643.18896484 3357461.42614746 19.07314110 41 48 41
245643.16101074 3357461.36746216 19.08917618 39 45 41
245638.95092773 3357462.38220215 19.31151581 235 217 213
245639.58374023 3357462.44134521 19.50881767 133 135 132
245638.75219727 3357461.37127686 19.04265976 163 172 167
245640.30206299 3357460.99975586 19.61100578 10 10 12
245642.85223389 3357461.17623901 19.30041504 210 217 210
245641.65893555 3357462.75985718 18.79251671 10 13 4
245640.48876953 3357462.22937012 19.90372658 171 176 180
245638.65222168 3357461.83602905 18.65386009 89 86 53
245638.72503662 3357462.00918579 18.92000961 217 207 182
245638.80541992 3357462.13262939 19.38228416 217 210 202
245640.76831055 3357461.85757446 19.94917870 175 191 204
245641.94055176 3357460.77148438 19.27147865 250 251 245
245639.24566650 3357461.77401733 19.64940643 8 15 21
245643.03961182 3357462.41598511 19.00712967 72 73 68
245639.32525635 3357460.93344116 18.93677902 226 235 232
245639.36138916 3357461.04299927 19.49753952 223 224 226
245638.66168213 3357462.30566406 18.64957047 180 162 124
245639.89086914 3357461.16921997 19.79410934 181 194 200
245638.67498779 3357461.43606567 18.73460770 56 54 39
245638.83471680 3357462.67193604 18.95339775 146 128 106
245639.01287842 3357461.15228271 19.56273651 172 187 192
245641.99090576 3357461.45831299 19.59649658 21 29 32
245638.79156494 3357461.77874756 19.43634033 178 191 197
245641.90783691 3357461.00222778 19.56876755 34 30 27
245640.53729248 3357461.96350098 19.95581245 186 200 203
245642.10626221 3357460.79830933 19.07609367 193 199 187
245642.60687256 3357461.27499390 19.45650673 239 240 234
245641.22930908 3357462.78634644 18.86254501 42 43 35
245641.07287598 3357460.80786133 19.11581230 219 221 210
245640.68170166 3357460.84603882 19.03156853 229 227 212
245641.20989990 3357461.45288086 19.92804909 154 158 161
245639.70898438 3357461.66134644 19.80736923 14 16 15
245638.69451904 3357463.01446533 18.71778488 83 76 47
245638.87841797 3357463.07473755 18.73647499 52 53 19
245639.06732178 3357460.99517822 19.18482399 130 135 138
245642.22979736 3357461.85028076 19.46378708 13 21 24
245640.01873779 3357461.51879883 19.90774918 219 223 224
245639.97283936 3357462.92395020 18.76374626 29 25 22
245641.46948242 3357461.36215210 19.87384796 9 15 15
245638.73980713 3357461.72711182 19.20440102 204 213 208
245640.35937500 3357461.03186035 19.67662430 5 6 11
245642.80780029 3357460.94534302 19.21432495 182 187 180
245638.72729492 3357461.35839844 18.89843750 113 115 112
245639.81573486 3357460.91284180 19.25278854 220 220 218
245640.92596436 3357461.09228516 19.89315796 206 219 227
245641.95831299 3357461.22955322 19.61157990 27 41 42
245639.30212402 3357462.78906250 18.94748116 160 133 106
245638.70446777 3357461.39767456 18.81050682 80 80 72
245638.65295410 3357461.77435303 18.68543434 71 71 37
245641.26611328 3357462.17013550 19.81369972 170 180 179
245640.28302002 3357461.18289185 19.80511665 177 196 210
245639.60198975 3357462.07656860 19.68532944 18 19 23
245639.14709473 3357461.55899048 19.59852600 181 192 198
245638.85351563 3357461.59069824 19.47297096 173 186 192
