245650.67510986 3357461.42684937 19.32404518 239 242 231
245652.42633057 3357460.37121582 18.78971863 106 111 71
245653.08868408 3357460.49609375 19.45852661 229 228 223
245652.13269043 3357461.84368896 19.63551140 27 33 29
245656.92138672 3357460.64642334 18.61289215 56 56 48
245653.25396729 3357461.03417969 20.11840820 33 38 34
245651.30133057 3357461.56576538 19.47004128 239 242 233
245653.54980469 3357460.57769775 19.37437820 253 254 248
245654.11956787 3357460.40957642 19.35888290 223 223 221
245650.97265625 3357460.57458496 18.78722191 33 34 29
245651.20117188 3357460.15176392 18.61806488 74 79 57
245654.49157715 3357460.06530762 18.57191086 55 60 56
245654.28076172 3357460.42932129 19.35459137 217 217 209
245652.52124023 3357461.80126953 19.90369225 31 20 18
245650.27099609 3357460.86044312 18.52248764 56 57 52
245655.10662842 3357460.43508911 18.47729301 225 209 176
245652.93768311 3357460.84902954 20.14716911 240 240 242
245654.92333984 3357460.11590576 18.41752625 69 71 66
245652.35699463 3357461.07812500 19.76618385 12 10 15
245651.69720459 3357461.71517944 19.54543304 236 240 239
245656.16577148 3357460.73965454 19.28762817 118 112 88
245654.67016602 3357461.31793213 19.98391533 133 142 141
245655.01458740 3357460.32186890 18.47551155 84 76 63
245652.44097900 3357461.11581421 19.84614182 11 9 12
245651.57879639 3357460.48483276 18.88050079 24 24 24
245651.37835693 3357460.40615845 18.75686264 103 105 84
245653.98358154 3357460.99923706 20.06804085 0 1 0
245651.26635742 3357461.23574829 19.46395111 238 240 235
245652.92724609 3357460.51647949 18.90662766 187 189 165
245656.00256348 3357460.75210571 18.61155510 54 56 43
245651.74963379 3357461.06616211 19.56796265 136 142 138
245650.25402832 3357460.97335815 18.49784279 84 81 76
245655.43084717 3357460.06832886 18.38922882 85 87 82
245651.22271729 3357460.09768677 18.59742355 68 73 50
245651.71038818 3357460.57333374 19.46059608 215 222 215
245652.44616699 3357461.77947998 19.85344887 29 28 24
245653.45458984 3357460.42230225 18.63509560 143 141 102
245653.67297363 3357460.52416992 19.08067513 181 183 169
245654.51171875 3357460.04501343 18.56823349 42 44 41
245652.17254639 3357461.77069092 19.66805458 29 35 33
245652.59155273 3357461.28591919 20.00571823 231 237 237
245654.09356689 3357460.79251099 20.06895638 152 154 153
245653.42626953 3357460.60327148 19.65581131 10 12 7
245651.74005127 3357461.14703369 19.54820633 158 167 162
245654.97613525 3357460.54528809 19.19746971 111 109 86
245655.37805176 3357460.68786621 19.86603546 132 139 71
245656.71905518 3357460.71841431 18.84598732 63 54 45
245650.79138184 3357462.30789185 19.29334450 189 178 148
245651.43151855 3357461.91296387 19.51384544 242 241 236
245650.91497803 3357461.72790527 19.28924561 240 241 233
245651.97259521 3357460.24227905 18.63003159 79 75 63
245652.30926514 3357461.32006836 19.75848389 13 13 11
245654.92315674 3357461.02990723 19.99430084 19 24 20
245654.68743896 3357460.57067871 19.57892609 151 157 119
245654.49694824 3357460.45251465 19.33625603 211 211 201
245651.13610840 3357461.96926880 19.42281914 242 240 228
245653.51153564 3357460.32379150 18.58910561 66 57 28
245654.51129150 3357461.24386597 20.01880264 132 138 138
245653.36621094 3357460.68441772 20.13933945 101 103 102
245652.72515869 3357460.66555786 19.81022072 14 18 17
245656.40679932 3357460.77752686 18.62587166 107 107 97
245653.28173828 3357460.48800659 19.07400322 185 186 170
245653.14642334 3357460.48629761 19.08611298 205 204 184
245652.85467529 3357460.52450562 18.93688202 173 178 148
245650.83203125 3357461.33059692 19.37781143 247 250 239
245655.23559570 3357460.60134888 19.09243011 147 149 110
245652.36285400 3357461.25274658 19.79063225 29 31 28
245650.49255371 3357461.13244629 18.92619133 181 173 162
245652.07934570 3357461.97189331 19.58470345 15 25 24
245651.10784912 3357462.44982910 19.47331429 100 99 51
245653.05529785 3357461.22683716 20.06369209 13 17 18
245654.79113770 3357461.40133667 19.97939682 114 124 125
245654.20782471 3357460.41360474 19.09692955 129 133 134
245653.69329834 3357460.82812500 20.12215805 133 137 138
245650.49560547 3357461.93136597 18.79797745 198 180 132
245651.29351807 3357461.10513306 19.47207069 189 195 191
245652.16613770 3357460.61730957 19.59409714 175 178 171
245656.84155273 3357460.73345947 18.74401474 59 58 56
245653.99407959 3357461.62014771 20.07625008 2 2 2
245652.32989502 3357462.27938843 19.67852211 236 236 236
245652.73114014 3357460.54357910 19.54496765 213 212 184
245650.36450195 3357460.98245239 18.59219360 116 111 92
245654.44769287 3357460.10791016 18.57018471 72 77 73
245654.09637451 3357461.70172119 20.07329559 145 145 143
245651.49237061 3357460.49795532 18.89484024 74 76 75
245652.46600342 3357460.41378784 18.84677505 133 136 107
245656.05950928 3357460.80703735 18.73073196 62 60 47
245656.15307617 3357460.76083374 19.17245102 107 101 77
245654.91931152 3357460.50039673 18.82101631 92 91 71
245652.21374512 3357461.22210693 19.67450905 15 15 15
245652.82116699 3357461.51934814 20.07286263 75 84 83
245652.09326172 3357460.57083130 19.51438713 201 209 198
245653.07617188 3357460.53887939 19.55758095 180 179 174
245653.86950684 3357461.31924438 20.02519989 25 29 32
245654.99169922 3357460.51916504 18.66766548 59 57 36
245651.53088379 3357461.82879639 19.51157188 239 238 234
245656.44134521 3357460.38778687 18.38054848 63 65 62
245656.56365967 3357460.73007202 18.47144127 75 76 70
245653.15136719 3357461.50762939 20.00898361 13 15 14
245654.93176270 3357461.63137817 20.00229454 4 10 10
245653.38623047 3357460.50399780 18.91271210 175 174 144
245656.24121094 3357460.28051758 18.37494278 74 77 70
245656.83270264 3357460.54281616 18.51268959 135 130 124
245652.80700684 3357461.86419678 20.09482765 244 246 243
245655.21044922 3357460.75033569 19.58891487 137 149 75
245652.97863770 3357459.92108154 18.53870964 60 62 61
245653.54608154 3357460.01626587 18.54429436 168 158 146
245656.08703613 3357460.80978394 18.72192192 59 59 47
245653.72442627 3357460.47024536 18.62597847 213 206 162
245650.34265137 3357462.10479736 18.89879036 209 190 157
245653.75817871 3357461.57882690 20.11363220 4 6 3
245654.04644775 3357460.73736572 19.99171448 54 54 44
245650.56774902 3357462.22219849 19.11956596 186 172 143
245652.86505127 3357461.41500854 20.07561493 13 17 20
245652.86859131 3357460.64816284 19.80663681 11 13 8
245653.49182129 3357460.83468628 20.15665245 213 214 218
245655.09655762 3357460.92153931 19.65117836 57 62 42
245653.58312988 3357460.51330566 18.92984962 167 161 135
245655.07751465 3357460.82321167 19.55734444 98 104 66
245653.03118896 3357460.89392090 20.15208817 239 239 239
245654.20697021 3357460.37725830 18.70876694 32 30 31
245651.29888916 3357461.68832397 19.46440125 240 241 233
245652.74914551 3357461.07092285 20.04568291 173 174 176
245650.34167480 3357460.55892944 18.56690598 135 140 100
245651.63848877 3357460.57019043 19.46824265 198 207 202
245655.08245850 3357460.98065186 19.91244507 35 37 23
245655.39520264 3357460.26278687 18.34724236 73 73 61
245652.34271240 3357461.12548828 19.75547409 8 8 8
245652.97760010 3357460.46633911 18.71437454 122 124 100
245652.66552734 3357460.47302246 19.28288841 213 214 196
245654.89782715 3357460.49517822 18.88579369 148 145 126
245652.02398682 3357461.87530518 19.58795929 22 35 28
245651.38531494 3357460.11325073 18.57822227 104 110 96
245655.11682129 3357460.30560303 18.42616844 85 79 67
245654.62512207 3357460.03875732 18.54676437 48 50 47
245652.96166992 3357460.83642578 20.14687157 214 212 217
245653.41662598 3357459.94747925 18.53157425 145 140 134
245654.95281982 3357460.76797485 19.53398514 155 163 122
245655.51068115 3357460.13519287 18.38436699 57 58 53
245652.16827393 3357460.96945190 19.63837242 36 42 40
245653.38916016 3357461.67602539 20.15441704 47 49 46
245652.72784424 3357460.05944824 18.56361389 57 59 58
245650.44812012 3357461.61032104 18.59413910 224 213 159
245652.67346191 3357460.78253174 19.93312645 198 200 199
245655.80834961 3357460.70394897 19.14556885 64 64 56
245651.79284668 3357460.53247070 19.33394051 162 166 165
245655.08953857 3357460.54211426 18.77963257 59 58 38
245650.63452148 3357460.98410034 19.25946999 189 190 192
245652.18841553 3357462.28558350 19.57628059 102 102 76
245651.85198975 3357462.44079590 19.52286148 108 109 52
245655.02862549 3357460.52761841 18.72386360 59 57 36
245651.10894775 3357460.22409058 18.63319397 78 84 50
245654.26916504 3357460.61941528 19.82886696 81 90 37
245656.70343018 3357460.71621704 18.62291908 43 42 40
245654.56689453 3357460.20639038 18.58172607 50 52 51
245651.56072998 3357461.07287598 19.52900314 176 185 180
245653.57531738 3357460.90377808 20.13123703 195 196 198
245652.43652344 3357460.85806274 19.82680130 131 125 125
245651.03161621 3357460.89114380 19.43689728 173 183 184
245655.96093750 3357460.37774658 18.38469887 58 57 52
245651.84637451 3357461.80804443 19.56627464 97 103 103
245656.01190186 3357460.70709229 19.25537872 65 58 39
245653.31213379 3357459.96548462 18.54024696 123 120 113
245651.35656738 3357462.39410400 19.54739189 110 104 56
245653.32464600 3357461.49835205 20.04663467 8 10 9
245650.32641602 3357461.30413818 18.58250618 132 129 94
245655.63958740 3357460.46279907 18.42140961 158 147 115
245653.81341553 3357460.04443359 18.53922081 155 146 129
245652.82507324 3357460.14025879 18.55028343 49 50 42
245652.15289307 3357460.66558838 19.62900352 234 237 230
245656.57086182 3357460.24877930 18.40365028 73 75 70
245653.71771240 3357460.63128662 19.68986320 39 47 8
245654.29461670 3357461.28152466 20.05620575 155 161 161
245653.03491211 3357460.54937744 19.58050346 201 202 196
245655.16937256 3357460.65100098 19.33688354 123 128 72
245651.87634277 3357461.89938354 19.55884361 135 145 144
245650.72888184 3357461.99349976 19.21414757 245 246 241
245653.23016357 3357459.89627075 18.52309799 68 70 65
245654.91888428 3357460.85202026 19.70206833 73 82 51
245653.69451904 3357461.61157227 20.12591362 4 6 3
245652.96343994 3357461.76284790 20.10439301 4 8 11
245650.54565430 3357461.67407227 19.19248009 185 177 174
245653.91607666 3357460.52911377 19.55768394 188 191 174
245650.72314453 3357461.71939087 19.26671028 239 241 236
245650.73760986 3357461.82174683 19.24554443 241 246 240
245653.34790039 3357461.68237305 20.15322685 36 38 35
245652.85449219 3357460.52908325 18.97664642 167 172 140
245650.18267822 3357461.28598022 18.46953964 66 67 51
245651.81683350 3357460.19827271 18.58059311 146 139 123
245651.14630127 3357460.91812134 19.44822502 156 168 166
245653.17144775 3357461.67306519 20.04054832 6 6 6
245653.54547119 3357460.51028442 18.90012360 153 148 118
245653.52239990 3357460.73535156 20.14479637 206 207 211
245655.72161865 3357460.71966553 18.99157143 54 52 39
245654.61889648 3357460.96423340 19.98572159 154 159 153
245652.13684082 3357461.00808716 19.62352371 34 38 37
245656.48492432 3357460.66754150 18.41179466 95 96 88
245655.84655762 3357460.76446533 18.73819923 96 95 64
245650.36022949 3357461.87536621 18.53114319 186 163 129
245655.72625732 3357460.11337280 18.41423798 75 76 70
245652.16577148 3357461.94223022 19.62228394 21 30 27
245652.55822754 3357460.48641968 19.06549644 207 205 190
245654.39544678 3357461.05981445 20.04418373 121 125 124
245654.21240234 3357460.48049927 19.49948883 213 215 204
245652.12023926 3357461.24420166 19.62209129 50 52 49
245651.14318848 3357462.14089966 19.44087601 242 239 224
245654.47888184 3357460.52099609 19.53998375 205 207 186
245654.30316162 3357459.97476196 18.53120422 55 57 54
245656.43615723 3357460.35113525 18.38052750 67 68 63
245651.15869141 3357460.62374878 19.38645935 172 186 186
245653.26501465 3357460.44152832 19.24286842 206 206 194
245652.09106445 3357461.16717529 19.59356880 26 30 29
245653.38928223 3357459.90032959 18.51893425 74 75 70
245651.35260010 3357460.58987427 19.45663643 199 209 208
245653.85681152 3357460.48336792 18.77623177 87 85 64
245654.75653076 3357460.59133911 19.51611328 161 168 127
245653.20196533 3357460.62130737 19.89937019 8 9 13
245652.67016602 3357460.64508057 19.73640251 16 16 14
245654.17358398 3357459.89486694 18.50601959 52 54 51
245654.82733154 3357461.50909424 19.94641113 110 119 124
245651.98510742 3357462.29049683 19.53731537 113 111 86
245652.66113281 3357460.61721802 19.68350792 29 27 15
245655.48815918 3357460.65560913 19.40490150 156 163 112
245655.05645752 3357460.96481323 20.09516144 57 54 45
245650.54553223 3357460.91882324 19.07328415 191 190 185
245653.54626465 3357460.47100830 18.69647980 195 193 142
245656.75750732 3357460.70379639 18.55209732 47 46 41
245653.55834961 3357461.29675293 20.05668449 9 11 10
245655.04699707 3357460.36541748 18.48545074 139 127 103
245652.59185791 3357461.71994019 19.97194481 255 252 253
245654.34375000 3357460.84762573 20.01276588 169 172 163
245651.44232178 3357461.06652832 19.50691605 183 189 185
245652.98242188 3357460.26556396 18.52109909 94 100 52
245654.59564209 3357460.04162598 18.55430031 46 48 45
245656.47998047 3357460.76596069 18.69364548 119 116 111
245650.73370361 3357460.70828247 19.21389961 188 194 194
245650.62292480 3357462.40048218 19.25543976 139 131 94
245655.77868652 3357460.64321899 18.54552650 68 66 45
245655.59149170 3357460.14004517 18.39180946 68 70 67
245650.59075928 3357461.31552124 19.28611755 207 208 200
245650.26202393 3357461.93035889 18.59634209 169 156 124
245652.96820068 3357461.10302734 20.09549904 13 17 20
245655.00762939 3357461.10382080 20.11258888 30 35 31
245655.43194580 3357460.66494751 18.90439224 138 141 98
245652.74267578 3357460.36190796 18.66496086 97 103 65
245655.82507324 3357460.73913574 18.66830063 66 64 41
245652.69146729 3357460.82623291 19.99391937 221 221 223
245653.66448975 3357460.07290649 18.54585457 162 149 132
245651.26629639 3357460.49865723 19.25860023 45 49 50
245656.38867188 3357460.26538086 18.38189316 68 70 65
245651.00860596 3357460.10910034 18.56028175 136 147 79
245652.83160400 3357460.48550415 19.26026154 216 218 197
245656.53021240 3357460.75781250 18.71476936 104 101 96
245651.72747803 3357461.37603760 19.54518127 198 203 199
245652.98168945 3357461.72241211 20.05785751 7 12 15
245653.72839355 3357460.86022949 20.11179543 126 130 131
245652.40460205 3357459.84576416 18.51656914 121 119 124
245655.84814453 3357460.74221802 19.01793671 65 60 41
245654.65917969 3357460.61141968 19.72054291 133 141 92
245651.09521484 3357460.42807007 18.69100571 170 162 116
245652.20538330 3357460.10299683 18.56014633 65 64 72
245652.40106201 3357460.53317261 19.53511810 96 99 92
245656.49835205 3357460.75796509 18.48589134 63 63 55
245652.61322021 3357461.93231201 20.00355530 234 229 225
245651.50427246 3357461.00207520 19.53344917 181 188 181
245652.26428223 3357461.64190674 19.74136734 18 24 22
245653.84509277 3357460.45385742 18.67924690 209 203 177
245651.23419189 3357462.24365234 19.47825241 236 221 202
245656.05004883 3357460.52606201 18.38615417 68 68 60
245653.08251953 3357460.47937012 19.15886688 210 209 191
245650.91491699 3357461.36590576 19.38042831 244 249 242
245654.74426270 3357460.46780396 18.90976334 166 159 141
245650.78912354 3357462.04574585 19.23854256 244 246 241
245652.16088867 3357460.56805420 19.55369949 215 221 211
245652.77020264 3357460.43548584 18.74435616 118 122 95
245654.46166992 3357460.54006958 19.61111069 200 204 179
245654.14056396 3357460.52252197 19.60181618 220 219 214
245651.44061279 3357461.07025146 19.50575829 183 189 185
245653.43951416 3357460.50878906 18.96667099 173 171 146
245654.14367676 3357460.41452026 19.14301300 151 153 152
245655.81536865 3357460.60391235 18.48326683 70 70 58
245655.85046387 3357460.60238647 18.46540451 69 69 59
245653.79656982 3357460.72702026 19.93401527 73 81 68
245650.65466309 3357460.76455688 19.11938095 228 230 225
245651.78442383 3357460.85391235 19.61791420 164 169 165
245654.82574463 3357460.57791138 19.35237694 154 160 124
245650.57702637 3357461.55517578 19.25411606 246 247 242
245650.77551270 3357461.06396484 19.42679024 230 235 231
245653.04522705 3357460.63922119 19.84115410 16 17 19
245655.69628906 3357460.41024780 18.40435028 115 110 88
245650.80773926 3357461.28457642 19.38751411 250 253 246
245651.26635742 3357460.36996460 18.71824265 129 128 98
245652.43890381 3357460.56195068 19.58155060 81 83 78
245652.15222168 3357460.50628662 19.27927780 168 172 157
245652.20935059 3357462.32891846 19.58444405 89 86 53
245653.55664063 3357460.35659790 18.59119606 65 56 15
245653.09674072 3357460.81808472 20.15473175 203 203 205
245652.18029785 3357460.43438721 18.86330414 59 59 33
245651.59368896 3357461.65533447 19.52986908 239 240 235
245652.23510742 3357460.48934937 19.29851532 192 195 184
245650.39801025 3357461.45492554 18.58296967 161 153 106
245651.80395508 3357460.49475098 19.17838860 42 48 48
245653.92059326 3357461.48092651 20.05223274 9 11 10
245651.80944824 3357462.05407715 19.52913857 234 240 240
245650.51641846 3357461.56979370 19.03268623 237 237 213
245655.68811035 3357460.19415283 18.40260124 51 52 46
245651.76428223 3357460.94772339 19.59703445 153 160 153
245652.53436279 3357459.82962036 18.53597069 138 133 137
245651.33886719 3357460.85525513 19.45777321 184 194 186
245656.46917725 3357460.77136230 18.64077568 92 93 85
245656.50708008 3357460.53143311 18.39712143 57 58 53
245654.10034180 3357460.83316040 20.10704231 179 181 180
245655.25634766 3357460.52499390 18.47500038 176 163 128
245654.01531982 3357460.99542236 20.07102203 0 1 0
245650.64593506 3357460.74459839 18.85140228 199 204 198
245652.45178223 3357459.88729858 18.54229927 126 124 129
245653.00543213 3357460.02792358 18.53989410 66 69 62
245653.74963379 3357459.88793945 18.54955482 68 64 52
245651.17285156 3357460.18835449 18.62868500 76 82 54
245652.46948242 3357460.32012939 18.70652580 105 112 61
245655.85675049 3357460.55725098 18.43104553 84 86 75
245652.88574219 3357460.52963257 19.00238037 158 158 132
245652.37585449 3357461.95083618 19.74287224 4 5 7
245652.69067383 3357459.90466309 18.54290390 54 52 57
245653.19665527 3357460.58401489 19.67605591 4 5 0
245651.96343994 3357460.74484253 19.62726021 47 46 41
245650.73236084 3357460.91000366 19.34648895 195 203 205
245655.08673096 3357460.96105957 20.02679443 53 51 39
245650.69122314 3357460.70043945 18.81792068 172 177 171
245656.46429443 3357460.54135132 18.39407921 56 58 53
245652.99456787 3357460.61703491 19.74625206 12 13 8
245651.92254639 3357462.05667114 19.54551697 147 161 161
245653.38305664 3357460.69851685 20.14473724 97 97 95
245651.42596436 3357461.01055908 19.50142860 188 194 190
245654.66900635 3357461.26910400 19.98693466 130 139 138
245654.87133789 3357460.51846313 19.22707176 207 203 191
245650.33251953 3357461.62695313 18.50378418 149 136 101
245650.77398682 3357460.62725830 18.79864883 120 122 119
245653.44073486 3357461.68383789 20.17081261 13 14 16
245653.55804443 3357460.53356934 19.27283478 193 193 185
245652.79125977 3357460.07156372 18.55928993 53 53 53
245652.28790283 3357461.07638550 19.70687675 23 24 28
245654.82879639 3357460.08877563 18.48988724 61 64 57
245654.64086914 3357460.45898438 19.11022377 194 190 179
245650.80798340 3357462.44689941 19.40771484 57 62 21
245653.33233643 3357460.59347534 19.85798264 6 8 5
245650.85046387 3357460.69610596 19.32361221 169 179 181
245653.44104004 3357460.47045898 18.72343254 200 199 155
245652.77624512 3357461.40921021 20.09273338 92 100 103
245655.25799561 3357460.59719849 18.65547180 56 55 35
245652.83917236 3357460.51351929 19.12554741 151 155 120
245653.49615479 3357461.10748291 20.07462120 10 12 11
245650.89776611 3357460.97744751 19.43322754 195 204 201
245652.83380127 3357460.45611572 18.76182938 118 122 95
245654.34521484 3357460.09576416 18.54772377 45 49 48
245651.83654785 3357460.26388550 18.63303947 130 123 104
245653.94995117 3357460.89108276 20.10436440 129 131 130
245653.41204834 3357460.59985352 19.66205788 10 12 7
245655.83001709 3357460.19973755 18.40089417 131 132 126
245655.20989990 3357460.81689453 19.67746544 86 96 46
245652.88903809 3357460.07180786 18.54947662 76 78 73
245651.96038818 3357460.30944824 18.68592644 72 74 37
245650.90222168 3357460.61154175 19.20647812 149 157 159
245654.72930908 3357461.19757080 19.97891045 154 160 160
245654.14013672 3357460.52734375 19.61060524 220 219 214
245650.96875000 3357460.48043823 18.67898369 134 127 85
245651.36865234 3357461.83447266 19.50081253 244 243 239
245653.99829102 3357461.41751099 20.04183578 8 6 7
245650.74249268 3357462.45230103 19.38293266 95 98 53
245654.01080322 3357461.34262085 20.04420853 4 3 1
245652.30322266 3357461.44729614 19.78567314 49 53 52
245656.20959473 3357460.16091919 18.38086510 66 67 62
245652.77355957 3357461.50503540 20.07341766 196 202 202
245654.77600098 3357460.74658203 19.77331924 134 143 112
245651.28472900 3357461.94515991 19.48244286 239 238 233
245651.17785645 3357460.31976318 18.68412399 115 115 81
245650.93945313 3357461.73425293 19.29815292 241 241 233
245651.92669678 3357461.89746094 19.56781960 22 33 27
245654.72656250 3357460.86184692 19.89352989 231 236 213
245652.01672363 3357461.27822876 19.60727501 47 49 46
245653.75738525 3357460.61828613 19.67668533 77 86 41
245656.66174316 3357460.30154419 18.41851616 58 60 55
245652.08697510 3357460.50808716 19.09556198 145 150 143
245654.44586182 3357460.37826538 18.76865959 85 84 80
245655.32971191 3357460.21975708 18.35761833 64 64 54
245652.98223877 3357460.50817871 19.07836723 148 145 128
245655.30767822 3357460.68685913 19.52642441 152 163 94
245654.82867432 3357461.67874146 19.92579842 110 118 120
245652.52380371 3357461.54846191 19.95643425 76 70 70
245650.34411621 3357461.03363037 18.57408714 118 113 94
245652.74157715 3357460.51904297 19.49841309 201 198 179
245650.58990479 3357461.90774536 19.14738274 214 211 202
245651.81854248 3357460.74984741 19.60591888 203 206 197
245653.44378662 3357460.49020386 19.16194534 172 170 158
245651.23370361 3357461.60751343 19.43575859 240 243 234
245652.06323242 3357462.21664429 19.55722427 190 194 180
245650.94415283 3357460.53720093 18.73339844 62 60 47
245652.70501709 3357461.55792236 20.02859497 244 248 247
245655.53082275 3357460.68371582 18.68474579 79 80 49
245654.05041504 3357460.65567017 19.76105118 40 42 31
245654.53802490 3357461.49926758 19.99315453 127 128 132
245653.99255371 3357460.18890381 18.54347992 151 145 131
245651.68371582 3357460.44253540 18.82743073 25 26 18
245656.41381836 3357460.67135620 18.40517426 100 101 95
245656.66668701 3357460.70816040 18.90629768 66 56 46
245650.34765625 3357460.91662598 18.56440544 94 92 80
245651.25122070 3357460.54071045 19.00998688 24 29 25
245655.29144287 3357460.81063843 19.99318314 121 119 78
245650.32812500 3357461.72177124 18.48029327 181 168 136
245653.46008301 3357460.00195313 18.54293251 161 154 144
245653.16082764 3357461.43408203 20.01899147 17 17 19
245653.62408447 3357460.72204590 20.11551094 150 151 153
245650.61596680 3357461.48980713 19.30107117 220 225 218
245650.35430908 3357461.21408081 18.64489365 95 91 56
245653.47357178 3357460.65527344 20.10216331 57 57 57
245654.44573975 3357460.31454468 18.65162849 41 41 39
245650.21319580 3357461.59222412 18.46425056 143 138 109
245652.00451660 3357460.81420898 19.64221382 46 48 43
245656.51983643 3357460.70324707 18.99920464 228 222 224
245655.01043701 3357460.52398682 18.65897179 59 57 36
245652.32739258 3357460.18994141 18.62269974 78 83 60
245652.73425293 3357460.30419922 18.62014961 108 115 71
245656.15936279 3357460.81295776 18.79136276 56 52 43
245651.12750244 3357460.53918457 19.19806290 103 111 113
245652.01013184 3357460.49566650 19.02895546 126 131 125
245652.21624756 3357461.56756592 19.72968292 26 28 27
245654.58587646 3357461.32473755 20.00041962 163 169 169
245653.83251953 3357460.00405884 18.53223038 161 154 138
245651.85266113 3357460.59527588 19.46484566 225 230 224
245652.72613525 3357460.14593506 18.57263565 47 49 46
245655.20031738 3357460.38656616 18.40542030 166 153 121
245653.17712402 3357460.10458374 18.53521347 118 112 96
245654.06860352 3357460.48245239 19.52626991 228 227 223
245651.44537354 3357460.49948120 19.24149513 54 59 65
245651.38537598 3357460.69070435 19.47215843 233 242 237
245654.49493408 3357460.47732544 19.38831139 210 210 200
245653.61413574 3357460.66781616 19.99388123 3 3 1
245654.87939453 3357460.85708618 19.79599190 99 108 81
245652.64337158 3357461.69247437 19.99069405 250 246 245
245654.64965820 3357461.09240723 19.99827385 107 113 111
245654.21697998 3357460.40402222 18.81902695 39 40 35
245650.86145020 3357460.45816040 18.67237854 127 125 87
245655.99066162 3357460.77310181 18.96969032 114 111 78
245652.93518066 3357460.42144775 18.62835121 122 123 91
245653.62213135 3357460.03906250 18.54565239 171 159 143
245654.75756836 3357460.15170288 18.50417900 76 82 82
245654.05694580 3357461.16387939 20.06047821 98 98 100
245651.20086670 3357460.91204834 19.45058632 159 170 166
245655.35168457 3357460.40417480 18.36199760 110 101 70
245655.64001465 3357460.64437866 19.44006348 168 172 121
245652.67108154 3357460.52169800 19.50235558 254 253 233
245650.37622070 3357461.97341919 18.63120461 200 174 139
245653.10064697 3357459.92367554 18.53636169 69 71 66
245652.67956543 3357460.47543335 18.89055634 202 206 179
245652.90728760 3357460.48751831 19.24474907 236 234 221
245651.44995117 3357462.15911865 19.51971626 248 246 231
245654.50347900 3357460.42346191 18.92796898 142 138 126
245654.17803955 3357460.77459717 20.00579643 221 225 210
245650.32916260 3357460.97787476 18.56123352 104 102 87
245653.88531494 3357460.65209961 19.71296883 87 95 58
245650.71301270 3357462.28204346 19.23288727 175 163 139
245651.24493408 3357460.75830078 19.43179512 201 211 210
245652.24438477 3357460.49108887 19.01618004 163 166 159
245652.53662109 3357459.96984863 18.55544090 69 69 71
245655.48419189 3357460.44436646 18.39502335 209 195 158
245650.45397949 3357461.07812500 18.81251335 204 190 153
245651.07666016 3357461.71627808 19.36160660 242 242 234
245654.45617676 3357460.55102539 19.65150642 198 201 174
245655.89660645 3357460.61721802 18.46145630 59 59 49
245652.25207520 3357460.47808838 18.97099876 179 182 173
245651.01416016 3357461.79046631 19.33645248 244 244 234
245652.53820801 3357461.90573120 19.93567467 36 30 30
245654.81146240 3357460.35693359 18.56400871 44 42 21
245651.77380371 3357461.81219482 19.55314445 237 242 246
245656.18560791 3357460.41058350 18.37280273 83 84 79
245655.50158691 3357460.62197876 19.54706383 165 171 111
245654.35595703 3357461.34603882 20.04363823 176 180 181
245654.60949707 3357460.44924927 19.01719666 182 177 158
245653.38952637 3357460.21932983 18.54186821 162 148 137
245654.23547363 3357460.75543213 19.95271873 173 179 153
245652.06433105 3357460.39761353 18.78307343 139 141 94
245656.44311523 3357460.70693970 19.09417915 112 100 100
245654.36376953 3357460.94247437 20.03919983 158 158 156
245652.68920898 3357460.48547363 18.91278458 196 199 172
245652.19897461 3357460.47964478 18.96138954 170 173 164
245652.45080566 3357461.47937012 19.91773987 27 27 25
245650.85601807 3357460.61831665 18.92463303 115 119 118
245652.05651855 3357460.81008911 19.64803886 48 50 47
245650.26336670 3357461.08163452 18.52520370 74 72 60
245654.07403564 3357461.59539795 20.05054283 42 42 40
245653.53692627 3357460.49755859 18.75846481 191 189 141
245653.38690186 3357460.63644409 20.12018204 7 9 4
245656.12042236 3357460.78189087 19.03371048 67 62 42
245651.92687988 3357462.07684326 19.54472733 147 161 161
245650.95159912 3357460.84039307 19.42640877 184 196 196
245653.15087891 3357460.90386963 20.16012001 186 188 187
245651.68627930 3357460.43212891 18.81471443 63 63 53
245650.66845703 3357461.09698486 19.34537888 244 245 247
245654.81506348 3357461.56515503 19.92771149 112 122 124
245652.61212158 3357460.53576660 19.52825356 241 237 228
245654.58233643 3357461.56118774 19.97525597 118 124 124
245652.57873535 3357460.56823730 19.58964539 177 174 169
245651.41009521 3357461.11181641 19.49896431 195 200 196
245654.83746338 3357461.62536621 19.92131233 109 117 120
245650.53002930 3357462.34017944 19.17738724 180 167 135
245654.43988037 3357460.56228638 19.69398308 201 204 177
245651.37658691 3357460.77993774 19.47092247 217 227 219
245650.61883545 3357462.35903931 19.22406769 191 176 143
245651.97076416 3357460.63421631 19.53728294 235 238 231
245650.48980713 3357461.87628174 18.60140800 255 236 179
245650.64752197 3357461.79421997 19.22939110 239 239 237
245654.20623779 3357460.40911865 18.83642769 39 40 34
245656.52966309 3357460.74655151 18.80462265 126 123 116
245653.24438477 3357461.25927734 20.05214691 21 22 26
245652.43261719 3357460.57360840 19.60283279 27 29 24
245650.51574707 3357461.47277832 19.00556374 232 233 228
245653.60723877 3357460.56176758 19.39082146 226 225 220
245654.40368652 3357460.22860718 18.59415245 36 38 37
245651.56365967 3357461.12991333 19.52043343 172 183 177
245650.73791504 3357461.03787231 19.38960266 220 226 224
245653.80541992 3357460.49621582 18.90997314 141 140 122
245655.75720215 3357460.63864136 19.45543671 154 155 111
245654.08422852 3357460.41552734 18.82676697 115 116 118
245652.97509766 3357460.40374756 18.58907318 135 136 104
245653.69696045 3357460.71752930 20.08431625 148 153 149
245654.21527100 3357460.82052612 20.04758072 164 164 162
245655.98291016 3357460.45809937 18.38537598 78 79 71
245653.52264404 3357460.82171631 20.15877914 233 234 238
245651.53479004 3357461.93789673 19.51851082 238 235 230
245655.83929443 3357460.08749390 18.40405273 88 87 83
245650.85064697 3357461.13464355 19.42900276 241 243 238
245651.49737549 3357461.29888916 19.51351738 224 229 222
245652.11407471 3357460.50939941 19.17423630 158 161 152
245654.55151367 3357460.43438721 18.92605972 167 164 149
245650.64978027 3357460.79833984 19.16565704 238 240 235
245655.32141113 3357460.31951904 18.35514069 82 79 60
245651.15356445 3357461.72518921 19.39824867 241 241 233
245652.47979736 3357461.72686768 19.88907623 27 17 16
245652.16308594 3357460.80938721 19.67441559 54 54 52
245653.16790771 3357460.48483276 18.77271843 208 206 185
245651.74987793 3357461.89007568 19.53823280 235 239 238
245653.76605225 3357461.69052124 20.15123940 2 2 2
245652.72222900 3357460.76477051 19.95915794 93 97 96
245650.89093018 3357460.61349487 18.83378410 88 92 93
245650.91406250 3357462.28305054 19.37002563 234 223 191
245653.34942627 3357460.59234619 19.69141388 5 7 4
245654.89660645 3357460.64175415 19.40175629 131 137 93
245654.00390625 3357460.73590088 19.96767998 49 48 43
245654.79370117 3357460.59426880 19.45223808 165 173 132
245650.50555420 3357462.34552002 19.17212486 180 167 135
245656.80963135 3357460.73391724 18.70703506 48 47 45
245652.80670166 3357460.46572876 18.79833794 143 147 120
245654.62677002 3357460.17562866 18.55070686 45 49 48
245652.76892090 3357460.47283936 19.33981514 194 198 183
245652.31243896 3357461.63980103 19.77432060 13 17 16
245651.58123779 3357460.49792480 19.24745941 86 94 97
245650.52624512 3357461.84335327 18.82449341 173 162 106
245655.07342529 3357460.08224487 18.37272072 85 86 81
245650.27593994 3357461.54541016 18.49312973 137 132 100
245652.16638184 3357460.13516235 18.57803917 56 55 63
245654.02160645 3357460.43637085 19.04800415 123 124 119
245653.68237305 3357461.03170776 20.08664131 7 9 8
245655.90960693 3357460.65826416 19.37175941 76 73 58
245651.32427979 3357460.80734253 19.44867134 199 208 203
245653.67291260 3357460.52130127 19.01906967 152 149 132
245656.09906006 3357460.76452637 19.08978653 97 91 69
245655.19879150 3357460.90234375 19.86747742 32 33 17
245656.82757568 3357460.62402344 18.54139709 73 70 63
245655.70050049 3357460.59179688 18.52080536 98 93 64
245656.14587402 3357460.74887085 18.54629326 65 62 55
245655.77185059 3357460.69900513 19.14648247 68 69 61
245650.51464844 3357460.57211304 18.60363579 98 98 62
245653.61572266 3357460.54495239 19.32429504 221 222 216
245652.34332275 3357460.47650146 19.40862083 223 222 217
245653.26635742 3357461.54904175 20.03521729 10 10 8
245653.41772461 3357460.35626221 18.58905792 73 67 35
245655.24847412 3357460.73391724 19.62325096 142 156 77
245653.93072510 3357460.45736694 18.92019844 102 103 97
245651.98797607 3357460.50506592 19.14895630 136 141 137
245654.76214600 3357461.53295898 19.94318771 106 114 116
245651.12762451 3357460.37594604 18.68640900 159 154 114
245651.66339111 3357462.02047729 19.52530289 239 238 234
245652.57781982 3357460.46450806 18.95085335 217 220 201
245650.58764648 3357462.30996704 19.17713547 183 165 141
245653.12353516 3357460.49359131 19.07553291 205 204 184
245656.28228760 3357460.79989624 18.59120178 105 101 92
245650.40057373 3357461.96508789 18.62024498 215 187 148
245651.21649170 3357462.49362183 19.54137611 97 92 50
245654.13525391 3357460.48757935 19.54099274 220 220 212
245652.27081299 3357460.13973999 18.58572006 65 68 61
245653.02209473 3357460.71429443 20.07149887 37 41 40
245650.45220947 3357461.48788452 18.63426208 206 194 142
245654.30493164 3357461.38125610 20.05027962 171 175 176
245654.95825195 3357461.48880005 20.05430794 25 34 33
245652.14111328 3357460.50695801 19.01888275 140 143 134
245651.05120850 3357461.91247559 19.36718941 242 242 232
245652.25677490 3357460.65557861 19.67103195 161 163 160
245653.41613770 3357460.40301514 18.62433624 114 111 80
245655.87506104 3357460.34942627 18.39290428 52 51 47
245650.57415771 3357461.42004395 19.26716995 158 162 147
245651.06762695 3357460.58612061 19.28636551 159 171 169
245653.08496094 3357460.51852417 19.51055527 235 232 227
245653.00427246 3357461.74114990 20.05991936 5 11 11
245652.10992432 3357460.46389771 18.91218758 77 80 59
245650.59936523 3357461.18652344 19.28328705 151 156 152
245652.62396240 3357460.47930908 19.18298149 217 214 197
245651.10644531 3357462.35519409 19.44163132 109 102 48
245653.24353027 3357460.02291870 18.54037094 102 94 83
245655.87280273 3357460.48303223 18.41337967 120 121 115
245650.87414551 3357460.89901733 19.42193222 185 197 195
245654.45538330 3357460.58721924 19.76236153 230 227 208
245650.92840576 3357461.87786865 19.30114174 244 245 237
245653.24548340 3357461.72872925 20.13581085 47 47 45
245654.81933594 3357460.48226929 19.04328156 162 155 136
245651.18212891 3357460.07528687 18.58318520 77 84 42
245654.38824463 3357459.94458008 18.53719902 53 55 52
245653.91973877 3357460.25250244 18.57567978 130 123 107
245650.53277588 3357461.17709351 19.15427017 158 156 157
245654.60339355 3357460.72546387 19.84053612 233 237 212
245652.32952881 3357460.18826294 18.62121964 78 83 60
245652.00225830 3357460.57089233 19.46421814 217 224 216
245650.59802246 3357460.38034058 18.60122871 110 116 72
245653.29901123 3357460.03305054 18.54126167 139 130 121
245653.96746826 3357460.32196045 18.61706161 52 48 36
245652.67919922 3357461.45532227 20.04070282 245 250 253
245655.90191650 3357460.77120972 18.80354309 73 72 41
245651.60992432 3357460.56417847 19.46265030 197 203 199
245652.49639893 3357459.76623535 18.52799988 125 119 121
245655.94470215 3357460.36581421 18.38612175 58 57 52
245650.92010498 3357461.95230103 19.30435753 245 243 231
245650.79571533 3357462.02221680 19.24303436 243 246 239
245652.44152832 3357460.70687866 19.76059341 181 182 184
245650.51281738 3357461.91525269 18.89395905 159 144 103
245655.91009521 3357460.63262939 18.47482300 59 59 49
245650.50207520 3357461.39456177 18.90411568 215 208 200
245652.88299561 3357461.60842896 20.04360580 18 27 26
245654.99371338 3357460.94241333 19.73322868 46 50 27
245655.20977783 3357460.89102173 19.85644531 32 33 17
245652.11358643 3357460.02301025 18.50377846 58 58 58
245651.08447266 3357460.55053711 19.20837784 133 143 142
245654.99914551 3357461.45413208 20.20088577 18 22 21
245654.45819092 3357460.11798096 18.57597733 72 77 73
245651.05194092 3357462.01229858 19.38561821 244 242 229
245651.24578857 3357461.18783569 19.46009827 226 231 227
245651.05895996 3357461.14907837 19.44851303 226 233 226
245656.44042969 3357460.77340698 18.67473984 122 122 114
245653.53564453 3357460.64227295 20.07989883 8 10 7
245651.78442383 3357460.33596802 18.70471001 119 120 89
245653.52685547 3357460.53787231 19.29287529 157 157 147
245653.64117432 3357460.75515747 20.13423347 150 151 153
245650.51171875 3357462.00994873 18.91443634 142 128 93
245653.72418213 3357460.50302124 19.13780212 208 209 201
245655.81060791 3357460.63806152 19.45434380 152 150 109
