245624.35919189 3357448.17535400 20.16752052 75 97 120
245628.01007080 3357448.76394653 19.45692635 97 100 107
245623.82647705 3357447.35644531 19.72389030 113 111 112
245627.65643311 3357448.91635132 19.24748421 15 16 21
245628.98516846 3357449.05816650 18.92493248 87 86 84
245625.23675537 3357448.86096191 19.99582291 50 55 59
245627.74969482 3357447.62759399 19.44137001 152 158 174
245624.84014893 3357448.99713135 19.78859329 133 138 141
245627.78308105 3357447.58248901 19.46052361 166 166 178
245627.33764648 3357448.42056274 19.88370514 151 178 199
245625.29388428 3357447.40832520 20.26364136 3 8 11
245625.19158936 3357447.32827759 20.08256721 19 19 19
245623.80255127 3357447.35412598 19.51787186 88 83 79
245629.15429688 3357448.45349121 18.94436073 63 65 64
245625.76147461 3357448.38769531 20.42063713 18 30 44
245627.44781494 3357449.10528564 18.91899109 82 85 90
245627.16748047 3357448.28707886 19.93224335 113 127 140
245627.23907471 3357447.69033813 19.92481613 153 168 189
245627.27728271 3357449.07543945 18.93571091 49 52 59
245623.55963135 3357448.02670288 19.92378426 156 165 174
245628.99798584 3357448.17767334 18.97767448 50 50 52
245629.23638916 3357449.26165771 18.90978813 180 167 151
245625.98535156 3357447.19613647 19.35185623 63 60 51
245626.76666260 3357448.26065063 19.92388153 69 78 75
245628.43682861 3357449.25979614 18.90762138 99 99 101
245628.46154785 3357448.21310425 19.05896950 40 38 39
245628.92187500 3357448.17422485 18.98832512 60 60 60
245623.73864746 3357447.74618530 20.04102325 198 205 213
245625.02459717 3357447.33810425 20.11487961 16 18 17
245623.61077881 3357447.44216919 19.64973259 203 202 200
245626.42736816 3357447.91067505 20.27286339 27 34 42
245625.59619141 3357448.74835205 20.21506119 114 121 127
245623.87518311 3357448.99398804 19.34541702 158 158 148
245623.83868408 3357447.40643311 19.93311501 198 203 209
245625.62341309 3357447.32528687 20.11128616 17 18 20
245625.63275146 3357447.01522827 19.07724762 140 130 118
245627.67681885 3357448.07073975 19.58187103 141 158 184
245626.74987793 3357447.68692017 19.96232796 74 85 91
245628.11065674 3357448.88412476 18.99433136 28 30 29
245626.26110840 3357447.16290283 19.32595253 65 57 54
245625.63000488 3357448.56622314 20.33934593 184 205 224
245625.50354004 3357448.32226563 20.37845993 168 189 210
245629.00170898 3357448.13943481 18.98273277 49 49 51
245625.13781738 3357447.48803711 20.31479073 70 81 85
245627.61016846 3357448.11196899 19.63817596 139 159 184
245625.46911621 3357447.18887329 19.35651588 67 60 54
245625.61315918 3357447.18191528 19.24324417 94 85 76
245623.71307373 3357448.79339600 19.86940193 180 181 186
245627.22613525 3357447.05728149 19.52638435 99 98 94
245624.84088135 3357447.20773315 19.89232826 53 53 53
245623.65710449 3357447.67300415 19.95815468 255 252 255
245625.54724121 3357448.85708618 19.99554253 24 25 29
245629.16375732 3357448.75555420 18.93796539 74 70 67
245625.70025635 3357448.66479492 20.30315018 148 171 189
245626.90118408 3357447.12103271 19.60434914 58 53 50
245628.00677490 3357448.91680908 19.04696274 30 31 33
245625.38098145 3357448.74542236 20.21328163 3 12 19
245623.54968262 3357447.94982910 19.86715508 160 163 170
245625.94732666 3357448.43109131 20.37088394 60 67 75
245625.88586426 3357449.13549805 19.42914772 18 23 27
245623.49761963 3357447.55093384 19.45196724 146 141 135
245627.75250244 3357446.92053223 19.08061028 143 131 119
245625.08782959 3357447.19183350 19.29417801 81 74 66
245628.34710693 3357448.54327393 19.24978638 49 53 52
245628.46697998 3357447.84729004 19.15346527 27 25 28
245628.46447754 3357447.89239502 19.37421799 67 68 72
245623.85009766 3357447.47055054 19.98156738 222 230 233
245626.83325195 3357448.24667358 19.91845894 67 79 77
245625.32196045 3357447.27426147 19.99531746 143 143 141
245623.48175049 3357447.95553589 19.61033821 175 173 176
245625.29217529 3357448.96734619 19.78392792 51 55 56
245628.41113281 3357448.29440308 19.32353020 135 136 140
245628.47552490 3357447.73501587 19.35259438 51 52 54
245626.22875977 3357448.78170776 20.08666611 25 27 26
245623.84191895 3357448.84405518 19.92260361 204 218 231
245627.41912842 3357447.29867554 19.68331718 178 176 179
245627.61523438 3357448.63964844 19.82040215 141 158 176
245627.67352295 3357448.38665771 19.75103569 148 166 188
245625.12518311 3357448.62734985 20.22994232 180 206 223
245627.30584717 3357448.25955200 19.89363480 154 175 196
245623.63690186 3357447.36480713 19.42498398 129 121 119
245628.46228027 3357447.64245605 19.32559395 52 53 55
245624.41882324 3357448.23797607 20.19221687 70 97 116
245626.26989746 3357448.80822754 20.02709007 18 18 16
245627.61871338 3357448.71844482 19.79429054 170 184 197
245625.37390137 3357448.53060913 20.30566978 180 202 223
245626.81072998 3357447.74697876 19.94378281 84 102 106
245626.86743164 3357447.57666016 19.94401169 92 102 111
245625.17071533 3357449.19808960 19.19371033 28 33 39
245627.93847656 3357449.00769043 19.01461792 32 36 39
245623.86169434 3357448.22216797 20.07324028 220 234 245
245628.37066650 3357448.30123901 19.43864441 101 101 103
245627.66326904 3357447.90908813 19.49861145 139 154 175
245625.69244385 3357447.20797729 19.86703300 104 100 99
245625.86499023 3357447.75152588 20.41331291 17 25 36
245624.74511719 3357448.51437378 20.31290817 194 201 211
245624.91705322 3357447.88290405 20.34675026 200 213 219
245629.14056396 3357448.97900391 18.92197037 118 109 102
245623.58044434 3357447.79348755 19.95091438 199 198 203
245627.71911621 3357449.08999634 18.96896362 27 35 38
245624.78991699 3357448.66833496 20.26142883 205 218 227
245625.40423584 3357447.82446289 20.36780548 157 181 205
245623.98437500 3357447.28305054 19.34911156 79 75 64
245624.61657715 3357447.43127441 20.16818619 144 144 146
245624.39947510 3357447.19525146 19.31797409 150 149 147
245623.51507568 3357448.39166260 19.72312546 188 191 196
245627.07165527 3357448.98367310 19.01010323 23 28 31
245628.50195313 3357447.06878662 18.97005844 136 126 116
245626.84887695 3357448.69024658 19.93025208 56 65 62
245623.91296387 3357448.99911499 19.38754654 145 147 136
245626.37536621 3357448.61264038 20.20953560 61 69 72
245624.29193115 3357447.82711792 20.15677834 81 97 112
245628.44268799 3357448.16033936 19.21149254 72 73 75
245627.13311768 3357447.31732178 19.88732529 188 183 190
245625.47088623 3357447.33706665 20.12359619 4 6 5
245627.24041748 3357448.81823730 19.68284798 65 76 78
245628.71380615 3357448.60852051 18.96256447 46 46 46
245628.01623535 3357448.86007690 19.14389992 24 23 28
245624.14984131 3357448.45742798 20.10284615 90 118 140
245625.07495117 3357447.20541382 19.62896729 52 53 48
245626.81500244 3357447.13809204 19.66789246 52 48 45
245625.07598877 3357448.92791748 19.88504791 81 86 90
245627.35241699 3357447.66821289 19.71005630 143 158 181
245624.50183105 3357448.01226807 20.24363899 64 76 92
245623.56091309 3357448.38064575 19.84429741 147 153 165
245626.98254395 3357448.43273926 19.92457008 44 54 55
245629.01586914 3357448.59442139 18.95854378 68 68 68
245623.73712158 3357449.00674438 19.67007256 82 78 75
245627.91906738 3357447.29177856 19.60090446 192 187 184
245628.05108643 3357448.76843262 19.36964607 64 67 72
245623.79895020 3357449.00228882 19.38860512 166 167 161
245625.49194336 3357448.94577026 19.80927086 59 63 64
245624.17913818 3357447.15444946 19.22187042 117 108 99
245627.35565186 3357447.64736938 19.70333290 143 158 181
245624.51202393 3357447.83352661 20.25213051 57 66 81
245628.15649414 3357447.15219116 19.14608192 115 104 98
245623.96179199 3357449.00479126 19.43990898 115 115 105
245628.60021973 3357449.07183838 18.90927696 52 56 57
245628.34906006 3357448.95092773 18.91486931 103 104 108
245626.68438721 3357448.62432861 19.98404694 113 117 118
245625.97833252 3357447.81286621 20.39752388 18 32 43
245626.65307617 3357449.13745117 19.19953918 18 23 27
245623.59356689 3357447.25723267 19.18039322 137 128 119
245626.10876465 3357447.18716431 19.76706696 62 62 60
245624.20904541 3357447.25646973 19.65205574 78 77 72
245626.25659180 3357448.59490967 20.26708221 185 192 198
245625.82586670 3357448.67562866 20.29819870 153 175 189
245626.87982178 3357448.18618774 19.91410255 54 66 66
245627.86590576 3357447.80828857 19.39261818 139 156 176
245624.42816162 3357447.22387695 19.64741898 64 63 59
245627.03173828 3357448.83685303 19.80204773 75 84 83
245624.69445801 3357447.22085571 19.45378304 122 121 119
245626.80981445 3357448.97036743 19.42699432 21 24 29
245627.62640381 3357448.29699707 19.73591042 150 168 192
245628.61932373 3357448.83160400 18.91441154 53 57 56
245628.64727783 3357448.82049561 18.91511154 49 53 52
245623.94775391 3357449.00924683 19.73079109 81 80 76
245628.11578369 3357446.90771484 18.97747040 185 176 167
245629.28814697 3357448.94393921 18.91665077 171 155 140
245625.94207764 3357448.41690063 20.37569618 62 71 80
245628.87634277 3357448.21243286 18.98885536 62 62 62
245627.61541748 3357447.11898804 19.69296837 59 54 58
245625.39373779 3357448.86636353 19.98552895 54 57 62
245623.90551758 3357449.00573730 19.43190384 139 141 130
245624.24542236 3357447.27273560 19.85445023 97 99 98
245628.47412109 3357447.65789795 19.17338562 33 33 35
245628.31848145 3357447.85284424 19.41899300 135 132 139
245623.74536133 3357447.28668213 19.31762695 117 108 101
245628.73645020 3357447.59988403 18.97090721 51 51 49
245628.79315186 3357447.85891724 18.96061134 50 51 53
245628.46362305 3357447.94689941 19.11647606 27 27 27
245624.67187500 3357448.91836548 19.96653938 106 112 112
245627.40582275 3357448.80099487 19.73717690 89 103 112
245627.20928955 3357447.41882324 19.87611961 155 167 183
245626.70672607 3357448.39974976 19.97465324 59 64 67
245628.29278564 3357448.65161133 19.24512100 56 60 63
245625.77868652 3357448.86721802 19.95564270 51 55 58
245623.65423584 3357447.85577393 20.02453423 198 203 207
245627.19989014 3357449.04531860 18.95025635 25 28 33
245625.57922363 3357447.23062134 19.91931534 124 122 123
245628.02386475 3357447.92651367 19.36945915 138 153 176
245626.41986084 3357448.94812012 19.74137688 51 52 54
245627.07141113 3357448.91619873 19.12385559 15 20 23
245625.59582520 3357447.81430054 20.40898132 160 175 194
245626.14849854 3357447.24026489 19.86696434 116 116 116
245627.28216553 3357447.23477173 19.80147934 158 154 155
245625.28631592 3357447.48724365 20.34798241 140 154 157
245626.68096924 3357448.30941772 19.98020744 51 55 56
245627.52819824 3357448.97628784 18.94126129 50 55 58
245627.36840820 3357447.58129883 19.67683411 150 165 184
245626.61700439 3357448.93576050 19.73005676 55 54 59
245626.61676025 3357448.48486328 20.04926872 122 130 132
245623.95086670 3357448.92996216 19.85837173 70 77 85
245625.51690674 3357447.85693359 20.39428139 150 171 192
245628.83471680 3357447.15173340 18.96289253 149 136 119
245624.87139893 3357447.36602783 20.11489487 20 20 22
245628.09777832 3357447.16467285 19.47469521 109 103 103
245628.46466064 3357448.14913940 19.02409363 45 43 44
245627.83123779 3357447.10260010 19.52287102 63 58 55
245623.68298340 3357447.37777710 19.63959503 131 127 124
245624.91131592 3357449.09942627 19.51869583 1 9 12
245627.16461182 3357448.24914551 19.93257332 120 136 151
245626.57055664 3357447.43807983 20.01612091 74 75 70
245628.59564209 3357447.36843872 18.97608948 123 118 114
245628.47656250 3357446.99740601 18.97263908 154 146 135
245625.11407471 3357447.28298950 19.97345734 153 153 153
245629.03125000 3357448.04742432 18.97137451 56 56 56
245623.61987305 3357447.77282715 19.97348022 247 245 248
245627.44030762 3357448.61074829 19.86306000 161 178 196
245626.56182861 3357448.95312500 19.70361900 45 46 50
245624.11993408 3357448.97875977 19.78986740 74 76 75
245627.02709961 3357448.86471558 19.68963051 74 80 78
245627.35498047 3357447.10415649 19.62785530 72 71 67
245625.13134766 3357448.57562256 20.24194717 177 203 220
245627.38702393 3357448.48629761 19.86902428 147 173 196
245627.80865479 3357448.22167969 19.61461449 145 163 187
245627.86871338 3357448.71502686 19.70148277 151 158 168
245625.53204346 3357448.84286499 20.02731514 13 12 17
245623.57366943 3357447.35073853 19.27396774 125 116 109
245625.61791992 3357447.39743042 20.27402687 17 20 25
245626.56561279 3357447.17578125 19.96012878 41 40 38
245623.81634521 3357449.02044678 19.72021103 83 82 78
245623.89025879 3357448.83682251 19.94512558 201 217 232
245628.51318359 3357447.72235107 19.00483322 37 37 39
245625.21533203 3357447.33599854 20.10317802 4 6 5
245628.17254639 3357448.83035278 19.01252365 50 51 53
245626.02758789 3357447.78024292 20.37903595 13 22 37
245625.91540527 3357447.17053223 19.51617241 56 53 46
245624.66186523 3357447.20718384 19.82396317 45 44 42
245623.51989746 3357448.60824585 19.56522560 178 178 176
245628.41210938 3357447.59237671 19.37968254 52 50 51
245628.03417969 3357447.13903809 19.43632507 85 77 74
245624.98370361 3357447.20968628 19.77995872 44 43 39
245624.30487061 3357449.04183960 19.56125450 60 64 63
245628.32293701 3357448.51455688 19.40400505 66 70 73
245627.09899902 3357448.88662720 19.18239784 11 14 19
245623.59619141 3357447.35662842 19.30906487 153 144 139
245627.47906494 3357447.89645386 19.63300323 144 160 183
245626.97161865 3357448.79354858 19.87252998 128 136 138
245623.55078125 3357448.23498535 19.91971588 151 161 170
245623.45520020 3357447.84115601 19.46995735 110 109 107
245624.96203613 3357447.20828247 19.78997040 45 44 40
245626.37017822 3357448.60446167 20.22089767 47 54 60
245624.56726074 3357449.16308594 19.27280807 26 31 35
245624.57879639 3357447.21371460 19.73359299 64 63 59
245627.99578857 3357447.13073730 19.50459099 81 73 70
245625.04504395 3357447.20812988 19.66825485 51 52 47
245625.69750977 3357447.61245728 20.38283157 164 174 184
245626.27801514 3357447.17874146 19.44350815 63 58 55
245624.53369141 3357447.28195190 19.93956184 129 131 130
245628.06475830 3357449.10824585 18.93598938 46 47 49
245627.58148193 3357448.84985352 19.53534698 66 70 73
245625.10925293 3357447.18856812 19.27629852 82 75 67
245626.40014648 3357447.62713623 20.24226570 31 38 46
245625.62792969 3357448.98443604 19.74471092 35 39 40
245624.59472656 3357448.93814087 19.92835045 90 96 96
245629.02386475 3357448.18218994 18.97356224 55 55 55
245623.90496826 3357449.01174927 19.47314453 131 131 123
245626.92620850 3357448.56488037 19.93881416 64 76 76
245626.61712646 3357447.14596558 19.52490997 61 58 53
245624.39929199 3357447.10202026 19.20140266 85 78 72
245624.13745117 3357447.32067871 19.94377708 109 115 115
245626.11810303 3357447.16436768 19.30204582 65 58 50
245624.09393311 3357447.29589844 19.76402092 95 94 92
245627.35498047 3357447.18270874 19.76757813 111 109 110
245623.70916748 3357447.52999878 19.92253876 251 251 251
245625.00042725 3357448.72052002 20.21913147 84 106 119
245623.65673828 3357447.94027710 20.04416084 195 205 217
245626.33660889 3357447.31243896 20.05461121 2 2 2
245623.70416260 3357447.08596802 19.16278267 146 136 126
245625.04821777 3357448.32000732 20.30491257 189 206 224
245624.51550293 3357447.43157959 20.15424919 71 77 75
245624.19207764 3357449.02008057 19.60243225 75 80 76
245627.68267822 3357448.23208618 19.67117500 150 168 190
245627.44152832 3357447.46801758 19.61295700 169 169 181
245624.07452393 3357448.18008423 20.09349823 84 101 117
245626.49316406 3357447.05416870 19.15709305 128 116 104
245624.12701416 3357448.31817627 20.09814835 86 110 134
245628.41412354 3357447.62265015 19.41463852 37 37 37
245625.89843750 3357448.01272583 20.41134453 22 37 44
245623.86157227 3357448.23522949 20.07196999 217 231 242
245623.82135010 3357449.02627563 19.70709801 83 82 78
245624.41479492 3357448.45611572 20.18046951 78 109 130
245627.07330322 3357448.54888916 19.92886925 93 100 106
245628.13049316 3357447.51370239 19.53757477 158 150 147
245623.72064209 3357448.89678955 19.78292274 139 138 143
245623.59155273 3357448.20864868 20.00075912 176 190 203
245626.03344727 3357447.14620972 19.20159531 106 98 87
245623.64337158 3357447.45611572 19.78722000 248 247 245
245626.61956787 3357447.47094727 19.99545288 99 101 98
245628.46197510 3357448.52453613 19.01755524 39 40 42
245624.23571777 3357449.04791260 19.19257736 32 33 37
245628.05609131 3357448.29803467 19.56387329 149 158 175
245628.60144043 3357447.59509277 18.99143791 31 32 34
245627.35546875 3357448.83050537 19.18412781 35 34 39
245626.11810303 3357447.84677124 20.36600304 94 103 118
245626.82000732 3357447.17141724 19.82293320 99 94 91
245626.60168457 3357448.11849976 20.06869698 27 37 38
245626.06750488 3357449.12365723 19.47858047 13 18 22
245623.97332764 3357447.66467285 20.08029556 210 213 218
245626.00292969 3357448.00372314 20.38617706 25 37 51
245625.06243896 3357447.20501709 19.48287010 59 56 51
245628.33947754 3357448.43865967 19.41822243 80 84 85
245627.52703857 3357447.09640503 19.32325554 127 124 119
245626.30029297 3357448.33081055 20.34347725 202 209 215
245628.37097168 3357448.35421753 19.37051582 107 108 110
245626.30560303 3357449.11325073 19.45138359 15 18 23
245623.46905518 3357447.93624878 19.56270599 139 134 138
245626.78302002 3357448.89843750 19.74801636 73 77 78
245626.50665283 3357448.73831177 20.00668144 27 31 32
245624.45709229 3357447.09738159 19.21618652 92 87 81
245625.19317627 3357447.21002197 19.83696747 64 65 60
245626.79553223 3357448.88409424 19.79760551 90 94 95
245626.84112549 3357447.13500977 19.45291138 67 59 56
245628.45568848 3357447.99905396 19.39322853 66 67 69
245625.07659912 3357447.37097168 20.17182159 5 5 7
245626.27716064 3357447.90286255 20.33390236 181 193 207
245627.80895996 3357448.71337891 19.72131729 150 158 169
245625.44506836 3357448.75469971 20.19962692 5 13 16
245625.75982666 3357447.15115356 19.63639259 53 52 48
245624.70812988 3357448.89312744 20.00696373 80 86 86
245629.05505371 3357448.67581177 18.94985962 75 77 76
245626.29901123 3357448.03100586 20.33645821 196 204 215
245626.87579346 3357449.18634033 19.00494194 31 35 38
245629.04376221 3357448.59643555 18.95703506 73 75 74
245626.87506104 3357448.76431274 19.91072273 76 82 80
245628.50054932 3357448.66372681 18.92828369 46 47 49
245626.01397705 3357449.08840942 19.54914093 22 27 31
245624.13659668 3357448.99801636 19.73619843 79 81 80
245626.39129639 3357448.67077637 20.15532494 94 102 104
245628.13702393 3357447.19793701 19.37502670 101 97 94
245627.31817627 3357447.64074707 19.78009987 144 160 183
245628.50274658 3357448.20504761 19.02614975 44 44 42
245628.46173096 3357447.92160034 19.38237190 69 70 72
245624.29034424 3357449.07086182 19.19928932 28 29 33
245623.54858398 3357447.98101807 19.87001419 160 165 171
245624.32238770 3357448.85501099 20.03503990 69 74 77
245624.54394531 3357449.15988159 19.26512527 26 31 35
245628.36499023 3357447.98657227 19.43956375 87 86 91
245627.97521973 3357447.12219238 19.40212440 86 78 75
245624.54638672 3357447.30593872 19.97726822 156 158 157
245626.78753662 3357448.54870605 19.96863556 90 99 98
245625.44445801 3357448.09143066 20.40316010 156 176 200
245627.38964844 3357447.69070435 19.63390732 141 156 175
245625.76391602 3357447.58892822 20.37489319 178 185 193
245625.44384766 3357447.23446655 19.92696762 126 125 123
245623.89752197 3357447.60775757 20.05499649 217 221 222
245625.75964355 3357448.87707520 19.93592644 83 87 90
245626.19384766 3357447.20645142 19.66492081 38 37 35
245627.84985352 3357446.95907593 19.08132172 147 137 127
245623.79132080 3357447.27554321 19.30761909 125 116 107
245625.76116943 3357448.35763550 20.42251778 26 39 55
245628.58203125 3357447.17736816 18.96788406 157 143 134
245628.19293213 3357448.39932251 19.58951950 101 104 111
245623.80194092 3357448.99835205 19.36209106 166 167 161
245627.54168701 3357449.10684204 18.92340088 62 67 71
245625.43267822 3357448.67019653 20.27852821 110 137 156
245628.59680176 3357447.36132813 18.97377396 123 118 114
245627.10815430 3357447.81375122 19.94540215 46 53 61
245628.73321533 3357449.01318359 18.91271591 50 52 51
245627.95495605 3357447.09414673 19.26496315 85 76 71
245623.73840332 3357448.82977295 19.86250877 173 176 183
245626.58599854 3357447.54666138 20.02118683 105 109 110
245627.96203613 3357448.84695435 19.21760368 21 22 26
245623.59692383 3357447.43273926 19.51795006 124 119 116
245626.28125000 3357448.93804932 19.78576851 65 69 70
245625.90533447 3357447.40213013 20.26166344 4 7 12
245624.59143066 3357449.11529541 19.39947128 23 28 32
245623.77923584 3357449.01577759 19.69334412 80 79 75
245626.82824707 3357447.94396973 19.94084167 57 75 77
245623.86999512 3357447.47711182 19.98881912 222 230 233
245625.72662354 3357447.72338867 20.41765976 8 20 34
245623.85845947 3357447.11657715 19.20605087 144 132 118
245623.45050049 3357447.77340698 19.42353058 119 114 110
245626.58697510 3357447.30258179 19.99913788 0 1 0
245625.31927490 3357447.24310303 19.93000412 141 141 139
245626.45581055 3357448.17581177 20.23188782 33 39 39
245626.61242676 3357449.07644653 19.35195923 17 20 25
245627.53161621 3357448.82785034 19.62483215 67 75 78
245627.58709717 3357447.41967773 19.53025246 169 167 172
245624.10839844 3357449.09967041 19.00148010 50 49 44
245623.47393799 3357448.34741211 19.53936005 120 119 124
245626.39251709 3357447.90682983 20.30049324 45 54 63
245624.43200684 3357447.68603516 20.22304535 64 77 85
245623.72534180 3357447.10644531 19.17961693 146 136 124
245626.07019043 3357447.04394531 19.12384796 139 127 115
245628.33441162 3357447.35250854 19.07884789 102 98 97
245628.14422607 3357448.11209106 19.41176796 144 151 169
245625.10980225 3357448.93743896 19.86312675 69 74 78
245625.27947998 3357448.99710083 19.70585823 26 29 34
245625.84918213 3357447.22225952 19.93674088 122 121 119
245626.06561279 3357448.22735596 20.39261436 8 18 30
245625.33569336 3357448.99645996 19.68119049 29 32 37
245628.35119629 3357447.36361694 19.06730461 102 98 97
245624.83917236 3357448.30996704 20.34606552 196 209 215
245627.84649658 3357448.23007202 19.60378075 143 163 187
245624.06579590 3357447.31411743 19.89348984 86 90 89
245627.20574951 3357448.82913208 19.66023636 64 76 76
245626.17022705 3357447.35000610 20.15136337 13 15 14
245625.39782715 3357447.13940430 19.16078377 130 117 108
245626.97552490 3357447.75491333 19.94419098 51 64 70
245628.51745605 3357448.26074219 19.04521561 45 45 43
245626.96746826 3357448.46102905 19.92779732 56 68 68
245628.59729004 3357448.45550537 18.99643135 40 42 41
245624.91259766 3357447.54711914 20.32097626 212 222 223
245623.98620605 3357448.17691040 20.08708382 77 88 106
245623.86926270 3357447.48489380 19.99229431 222 230 233
245624.95727539 3357447.94964600 20.34878922 193 207 216
245625.19506836 3357447.19342041 19.49638557 61 58 51
245625.51416016 3357447.41064453 20.30023384 3 6 11
245627.05859375 3357447.16308594 19.77880859 74 70 67
245628.47918701 3357447.77505493 19.30721092 70 71 73
245624.71899414 3357448.89019775 20.01038742 80 86 86
245626.70507813 3357447.85345459 19.99529266 29 43 46
245628.86016846 3357447.09158325 18.96448135 155 142 126
245627.40686035 3357448.79925537 19.74780273 120 134 145
245626.91583252 3357448.66195679 19.93018913 71 81 82
245624.63470459 3357447.73950195 20.29434967 163 162 170
245629.15875244 3357448.52154541 18.94502258 71 73 70
245627.84533691 3357447.32284546 19.56539917 180 175 172
245625.71923828 3357447.16720581 19.53268623 61 57 54
245627.24755859 3357448.85037231 19.49853325 66 72 72
245626.93341064 3357449.17056274 18.99368095 30 34 37
245628.45739746 3357448.28393555 19.13723946 42 42 42
245627.93017578 3357448.62768555 19.72660446 172 180 193
245624.21020508 3357447.98144531 20.12360382 98 115 133
245624.86981201 3357447.21051025 19.67646217 54 53 51
245626.99243164 3357447.08740234 19.39208794 56 49 41
245627.30157471 3357447.53869629 19.81355476 148 166 190
245627.53515625 3357448.31011963 19.77501106 146 168 192
245625.65405273 3357447.81091309 20.42303085 41 57 72
245626.96002197 3357448.17199707 19.91062927 45 55 54
245623.78375244 3357448.99996948 19.31926918 164 165 157
245624.34002686 3357447.08251953 19.18132210 122 113 106
245624.36407471 3357448.85830688 20.04526138 64 69 73
245624.21234131 3357448.09683228 20.12303925 89 105 128
245627.34362793 3357448.86050415 19.06207848 25 29 32
245624.13806152 3357448.65194702 20.09778595 88 101 117
245627.73944092 3357448.00640869 19.51951408 140 156 179
245624.88970947 3357448.81756592 20.11278152 9 12 17
245626.41522217 3357448.41079712 20.27571678 60 61 65
245625.00311279 3357449.13586426 19.34033203 23 28 31
245625.82617188 3357447.16888428 19.52578163 58 55 50
245626.49353027 3357447.03265381 19.14168930 136 122 109
245628.67700195 3357448.19848633 18.98250008 34 35 37
245623.94085693 3357448.13259888 20.08792686 199 211 223
245625.47601318 3357448.43063354 20.34112930 176 194 214
245626.18151855 3357448.54797363 20.30508614 198 205 211
245629.22167969 3357448.25167847 18.93886375 62 63 58
245625.78320313 3357448.82907104 20.04492188 7 7 9
245627.25872803 3357447.69671631 19.90211868 152 167 190
245627.65667725 3357447.08599854 19.24260139 62 57 51
245626.84582520 3357447.33401489 19.93737221 64 64 64
245624.58508301 3357448.88113403 20.04969406 65 70 74
245624.19519043 3357447.45352173 20.07629776 155 155 155
245626.49304199 3357447.51989746 20.09188271 98 100 97
245628.64660645 3357448.47372437 18.98805809 36 37 39
245623.98944092 3357448.86642456 19.93264008 167 181 194
245625.53552246 3357447.78332520 20.39048195 155 176 197
245627.05212402 3357448.50411987 19.92640495 58 65 71
245625.42712402 3357449.07360840 19.49915886 28 31 36
245625.84234619 3357448.32531738 20.41221428 23 36 53
245624.73223877 3357447.45404053 20.22125244 90 91 93
245627.85394287 3357448.32415771 19.65321541 150 166 189
245627.00726318 3357448.97906494 19.07654762 24 27 32
245624.03521729 3357449.01306152 19.60123253 82 84 81
245625.10803223 3357447.19500732 19.38191414 59 54 48
245628.45379639 3357448.06695557 19.35602188 66 70 73
245624.62426758 3357448.29830933 20.28831482 157 164 174
245627.86474609 3357448.20614624 19.58342171 144 162 186
245624.12207031 3357447.84243774 20.11834526 83 96 112
245623.46191406 3357447.77337646 19.46710396 113 110 105
245623.82220459 3357447.50051880 19.98968697 241 246 249
245626.37261963 3357447.46200562 20.19111633 33 33 31
245627.32672119 3357447.46292114 19.76161575 156 163 181
245623.57287598 3357448.12155151 19.97471237 172 186 197
245626.83154297 3357447.47250366 19.93936157 65 69 70
245627.60095215 3357448.36114502 19.76846886 155 173 197
245624.70416260 3357448.94863892 19.89990997 85 91 89
245628.62280273 3357447.16601563 18.96917915 161 147 138
245623.86791992 3357447.16845703 19.23029709 143 134 119
245627.80999756 3357448.04629517 19.51525116 144 161 181
245623.78344727 3357448.86001587 19.88159943 178 182 191
245624.72399902 3357449.05609131 19.66577148 22 26 25
245624.23400879 3357449.12158203 19.03365517 40 40 42
245624.11273193 3357447.22628784 19.29589653 91 87 76
245623.54119873 3357447.89157104 19.82046890 160 159 164
245627.31103516 3357447.57897949 19.79438782 147 163 186
245628.54644775 3357449.18823242 18.90616226 54 55 57
245624.77545166 3357447.67572021 20.32535172 227 233 231
245624.45892334 3357449.06280518 19.57924843 21 25 26
245629.16571045 3357449.00332642 18.91917038 148 139 130
245627.14715576 3357448.01449585 19.93918037 66 75 90
245624.79742432 3357447.21606445 19.89864540 53 55 54
245627.35852051 3357447.12115479 19.69215775 74 73 69
245627.59521484 3357447.25396729 19.62143135 145 143 146
245627.25335693 3357447.96075439 19.91722298 154 172 196
245624.80804443 3357448.99609375 19.79253197 124 129 132
245627.32727051 3357448.82052612 19.18020248 35 34 39
245625.72174072 3357449.10040283 19.48586845 17 22 26
245624.33087158 3357447.45639038 20.12746429 151 153 152
245628.07971191 3357446.92333984 18.98577118 150 137 129
245626.51202393 3357449.19952393 19.22057533 31 36 40
245624.56207275 3357447.46942139 20.21663094 133 135 132
245626.14373779 3357447.25604248 19.94272423 82 80 81
245625.63531494 3357448.72549438 20.23853493 30 39 46
245625.86480713 3357448.95983887 19.79434776 95 99 102
245626.58514404 3357449.20312500 19.18861580 31 36 42
245626.64483643 3357447.80856323 20.03473473 47 58 64
245624.72509766 3357447.21432495 19.88106918 96 98 97
245627.33624268 3357448.44372559 19.88542557 150 178 199
245626.07183838 3357448.15383911 20.38217926 20 30 42
245627.54113770 3357448.89889526 19.17110443 47 50 57
245626.43853760 3357447.25723267 20.01454163 43 41 44
245628.46496582 3357448.04187012 19.23711777 61 65 66
245627.46685791 3357448.48260498 19.83884048 152 174 197
245626.44049072 3357448.91290283 19.79574203 81 82 84
245625.08428955 3357449.10140991 19.35169220 12 20 23
245626.51080322 3357447.36169434 20.04566193 53 53 51
245627.75714111 3357448.46441650 19.74651909 156 171 192
245623.65527344 3357448.93630981 19.56467056 118 114 111
245626.09436035 3357447.45947266 20.28734398 163 162 167
245625.21820068 3357447.33557129 20.10282326 4 6 5
245626.79931641 3357448.71984863 19.93442154 73 79 79
245624.99975586 3357447.07601929 19.11188698 126 116 106
245626.59527588 3357447.13998413 19.79393196 43 44 39
245623.91845703 3357448.52938843 20.04798889 196 203 213
245623.47308350 3357448.00851440 19.58234787 152 150 153
245628.34814453 3357448.48361206 19.31958199 94 98 97
245625.30847168 3357447.17401123 19.34008408 80 73 63
245624.54119873 3357448.15869141 20.25765228 61 77 90
245628.31097412 3357448.09271240 19.35311317 122 125 132
245624.23950195 3357447.29907227 19.93144608 93 99 97
245624.18225098 3357448.95898438 19.83971024 68 72 73
245626.07031250 3357448.91235352 19.85433006 67 71 74
245627.95257568 3357448.11572266 19.49806213 142 158 181
245624.27349854 3357447.68054199 20.16892815 90 93 102
245623.53662109 3357447.73165894 19.75353622 199 197 200
245627.96075439 3357448.86468506 19.17353249 19 20 22
245624.20245361 3357448.88812256 19.94611931 121 125 128
245628.18823242 3357449.15243530 18.90899849 117 116 121
245626.17578125 3357449.17483521 19.36866188 17 25 28
245626.11547852 3357447.32345581 20.10153008 7 7 7
245625.16998291 3357448.75912476 20.20451736 15 25 34
245625.83123779 3357447.14071655 19.16092300 121 109 97
245624.98321533 3357447.35116577 20.11827087 3 3 3
245625.91510010 3357448.91567993 19.87061501 73 74 76
245625.96325684 3357447.19726563 19.34437943 60 58 46
245624.64941406 3357447.49096680 20.26117706 223 224 218
245624.66217041 3357449.12252808 19.42854309 24 32 34
245623.50152588 3357447.89016724 19.66735458 174 172 177
245627.19445801 3357447.51409912 19.91602707 154 167 186
245626.02282715 3357447.29409790 20.04747200 4 2 5
245623.99053955 3357448.37747192 20.06811333 128 144 159
245624.91613770 3357447.57022095 20.33135605 228 240 240
245628.65704346 3357448.81634521 18.91535950 49 53 52
245625.95764160 3357447.62057495 20.35845757 100 104 113
245627.45513916 3357448.52044678 19.84744072 154 176 199
245625.76116943 3357447.13638306 19.73027420 54 53 49
245627.88427734 3357448.70523071 19.70495987 157 165 176
245625.29071045 3357448.62060547 20.26428413 174 202 224
245628.47735596 3357447.77957153 19.22550392 57 56 61
245624.28076172 3357449.04504395 19.49282646 45 49 48
245624.84558105 3357447.21392822 19.62074089 46 45 43
245625.84356689 3357447.19702148 19.27722931 64 60 51
245624.44042969 3357449.07135010 19.47148705 39 43 46
245627.40319824 3357446.97549438 19.05339622 191 173 163
245626.01129150 3357449.10549927 19.51121521 14 19 23
245627.24011230 3357448.43960571 19.91473770 171 192 211
245627.64727783 3357447.27832031 19.57890511 151 149 152
245624.31085205 3357449.01342773 19.75795746 71 72 74
245624.97723389 3357449.09896851 19.48861313 5 13 15
245628.44763184 3357448.10885620 19.37436485 65 69 72
245628.01794434 3357447.00024414 19.06492615 148 138 128
245624.31591797 3357447.87817383 20.16423416 85 101 116
245627.10589600 3357447.06546021 19.49945068 96 91 87
245623.66864014 3357448.87994385 19.70031548 194 192 195
245626.12786865 3357447.96331787 20.36499405 159 166 184
245625.03625488 3357449.04544067 19.59030342 11 15 18
245627.39276123 3357448.09658813 19.80668068 139 160 187
245624.76501465 3357447.82839966 20.33127785 212 219 225
245626.23870850 3357447.52902222 20.27801514 167 168 172
245627.28314209 3357447.06692505 19.57688904 85 84 80
245625.82012939 3357448.98229980 19.75489044 20 24 27
245624.03320313 3357448.19641113 20.08876610 77 90 107
245624.59124756 3357447.46920776 20.22111893 163 163 161
245624.28778076 3357449.04675293 19.48665047 33 37 38
245625.46118164 3357447.33291626 20.11555290 5 5 5
245624.43096924 3357447.82220459 20.21648598 72 84 96
245627.76965332 3357448.86929321 19.43670273 15 19 22
245628.53808594 3357448.48626709 18.99972343 39 41 38
245625.84088135 3357447.12686157 19.15238762 121 109 97
245626.33428955 3357447.29498291 20.02177811 4 4 4
245628.39721680 3357448.43167114 19.14509964 79 83 82
245625.70831299 3357448.89361572 19.90440559 92 93 95
245625.79229736 3357448.19573975 20.42525482 34 42 55
245623.62896729 3357448.84957886 19.60976410 130 129 125
245623.48168945 3357447.96359253 19.61009216 170 168 171
245627.42724609 3357447.08157349 19.31506920 71 67 64
245627.09625244 3357448.06134033 19.93120384 44 49 55
245625.08941650 3357447.68731689 20.34641075 191 209 221
245625.80920410 3357447.39700317 20.26463509 3 6 13
245626.27062988 3357447.26513672 19.97430801 21 21 21
245623.73645020 3357447.67776489 20.01583672 220 219 225
245624.35620117 3357448.42745972 20.16245842 85 111 134
245627.60052490 3357447.52050781 19.49268913 172 170 181
245627.14685059 3357447.51629639 19.93670273 168 175 193
245625.13671875 3357447.31835938 20.05132675 33 33 33
245627.16021729 3357448.83523560 19.69083786 65 77 75
245624.33929443 3357447.16412354 19.24828911 134 129 123
245628.90063477 3357448.04074097 19.01055908 45 45 45
245624.74670410 3357448.90286255 19.98273849 96 102 102
245628.45196533 3357448.80694580 18.91477394 66 67 69
245623.47241211 3357448.30990601 19.54389572 120 119 124
245626.06805420 3357447.18823242 19.53187943 51 47 44
245624.87011719 3357447.33840942 20.07680321 57 57 57
245625.29895020 3357447.26116943 19.96367073 147 147 145
245628.92486572 3357447.38836670 18.95622063 138 131 115
245628.38116455 3357448.82202148 18.92658806 100 99 104
245628.94165039 3357447.14242554 18.96301651 163 147 131
245625.72583008 3357447.19604492 19.84039879 93 89 88
245623.69964600 3357448.40216064 20.02828789 187 205 219
245626.86065674 3357448.97970581 19.34620857 26 29 34
245625.97729492 3357448.80310059 20.10432434 29 26 21
245624.54583740 3357447.99285889 20.26357841 52 61 76
245624.53900146 3357447.95117188 20.26147842 54 63 78
245629.18572998 3357448.83752441 18.93005753 77 68 61
245626.18969727 3357447.77709961 20.33978653 162 171 186
245628.61322021 3357448.37591553 19.02734756 38 40 39
245625.59863281 3357448.99160767 19.72869301 34 38 39
245625.86425781 3357448.37350464 20.40354538 33 45 57
245625.54980469 3357448.91116333 19.87914467 75 79 80
245625.56585693 3357447.16134644 19.60353661 58 59 54
245624.10284424 3357448.47494507 20.09017944 97 122 142
245624.50555420 3357449.02890015 19.73886299 61 66 62
245623.62518311 3357447.72509766 19.95859337 244 239 243
245626.03765869 3357447.42147827 20.27021217 25 26 30
245627.43005371 3357447.15835571 19.75972939 84 82 85
245624.26721191 3357448.54901123 20.13331604 81 103 124
245624.03039551 3357448.41464233 20.07148933 114 133 150
245623.55218506 3357447.98782349 19.88564110 160 165 171
245629.38787842 3357449.24169922 18.90792084 159 145 132
245627.88958740 3357448.60552979 19.75060463 145 158 175
245628.32208252 3357448.53207397 19.38609695 55 59 62
245628.42761230 3357447.56497192 19.13446426 47 49 48
245627.43237305 3357448.25531006 19.80272675 140 162 186
245626.61645508 3357447.55020142 20.00104141 95 99 100
245623.87042236 3357448.23001099 20.07314682 217 231 242
245623.94812012 3357449.00576782 19.44030762 115 115 105
245626.52893066 3357449.23583984 19.17065430 30 35 41
245625.20220947 3357448.81774902 20.08837700 11 15 16
245627.38909912 3357447.07733154 19.40629005 39 38 34
245628.05828857 3357447.47769165 19.54660988 173 168 165
245623.98547363 3357447.31863403 19.83508873 95 97 96
245628.37103271 3357448.29650879 19.44260025 85 86 88
245623.86566162 3357447.95370483 20.08493042 220 230 239
245623.63653564 3357448.49520874 19.94195747 190 197 207
245626.18695068 3357448.95474243 19.76869011 58 62 65
245625.57360840 3357448.98367310 19.74414444 33 37 40
245627.33721924 3357447.60552979 19.74089241 148 163 186
245628.44659424 3357447.54660034 19.10023880 41 41 41
245626.35742188 3357448.97412109 19.71177864 29 33 36
245628.62097168 3357448.20965576 18.99272537 25 27 26
245624.20910645 3357448.78735352 20.09594345 173 180 188
245625.46258545 3357447.88635254 20.38450623 157 177 201
245628.06616211 3357448.71127319 19.55205536 78 82 91
245624.49786377 3357447.21536255 19.77836227 81 80 78
245627.05676270 3357448.29730225 19.91920662 49 58 63
245623.51635742 3357448.14578247 19.72593307 214 219 225
245626.41772461 3357447.89910889 20.28485870 27 34 42
245623.46008301 3357447.90847778 19.51698494 122 118 119
245624.80743408 3357448.85751343 20.05446625 37 41 44
245625.86340332 3357447.53503418 20.34369087 188 193 199
245627.23846436 3357447.14041138 19.74981117 70 69 67
245628.13452148 3357447.28021240 19.53839302 127 125 126
245624.01696777 3357448.65521240 20.06386375 198 205 215
245628.09826660 3357447.48300171 19.55158043 173 165 162
245625.56646729 3357447.40356445 20.28612137 14 15 19
245626.90515137 3357448.32946777 19.92065239 75 89 89
245623.43395996 3357447.91134644 19.41853523 121 118 113
245623.54077148 3357447.58294678 19.63201904 243 239 238
245625.06005859 3357448.83160400 20.06235504 10 14 17
245628.19580078 3357449.03390503 18.92797852 100 99 104
245626.46868896 3357448.10873413 20.21782303 30 35 38
245624.10424805 3357447.38085938 19.99710655 195 204 201
245629.04473877 3357447.78649902 18.95147133 60 60 50
245629.02539063 3357448.89590454 18.93301392 75 77 76
245623.66296387 3357447.15179443 19.16841125 143 133 121
245624.23571777 3357449.19866943 18.96812820 110 107 98
245626.03576660 3357448.72689819 20.22605515 42 50 53
245625.22760010 3357449.00750732 19.68067741 26 29 34
245625.01068115 3357447.18450928 19.21359253 85 76 69
245625.67950439 3357448.82583618 20.05235672 9 13 16
245625.54321289 3357448.97116089 19.76423836 46 50 53
245625.31829834 3357447.19982910 19.73978996 45 47 42
245625.77404785 3357448.73666382 20.23980713 15 19 28
245624.80523682 3357447.20971680 19.35325813 22 18 15
245625.81268311 3357448.62918091 20.32670593 192 209 225
245628.39453125 3357447.34106445 19.03896332 112 108 107
245623.75842285 3357447.32821655 19.38372421 89 82 74
245626.84844971 3357447.29699707 19.93675613 82 80 81
245625.78649902 3357447.86209106 20.44655228 19 28 43
245626.68994141 3357448.79479980 19.92459106 33 37 40
245626.98937988 3357448.95504761 19.29631996 15 18 23
245626.36437988 3357447.62081909 20.27118301 25 32 40
245626.91076660 3357448.20547485 19.91010094 54 68 68
