245956.92016602 3357471.11856079 16.54578590 61 62 66
245956.20227051 3357471.54635620 16.23225021 64 83 100
245955.95989990 3357471.52917480 16.57473183 11 16 20
245956.16900635 3357472.58657837 16.86540413 31 36 39
245956.44573975 3357472.79827881 16.33756065 22 27 30
245959.87005615 3357468.65515137 15.41938496 85 93 96
245956.33990479 3357470.58004761 15.91303635 55 57 56
245958.25445557 3357467.09213257 16.17139053 80 89 88
245959.03491211 3357469.86697388 16.46239090 35 54 68
245957.56207275 3357471.03237915 16.34042549 24 25 30
245956.17541504 3357470.73724365 16.25639725 35 39 42
245958.29364014 3357470.26950073 16.59118652 4 26 40
245957.16381836 3357472.03265381 16.72017860 55 72 90
245957.14093018 3357466.63314819 15.63197994 60 70 72
245957.87304688 3357467.08679199 15.96719933 72 82 83
245959.49908447 3357470.44534302 15.61335468 71 79 90
245956.84411621 3357471.53958130 16.66985893 57 76 91
245959.49182129 3357471.57171631 16.33605003 56 73 93
245958.91174316 3357470.79205322 15.63030624 135 130 108
245958.56768799 3357470.03057861 16.73185158 54 84 118
245957.86907959 3357470.33648682 16.27095032 151 160 175
245956.98291016 3357471.04766846 16.39596939 6 9 14
245958.52172852 3357470.94439697 15.91934013 48 52 55
245958.74890137 3357472.68902588 16.52201843 82 147 187
245957.05157471 3357472.72415161 16.69613266 21 24 29
245960.44287109 3357471.42282104 15.57600117 41 42 36
245957.33709717 3357469.36398315 16.91732025 140 168 192
245959.58630371 3357469.99346924 15.96647930 141 178 184
245959.27716064 3357472.13314819 16.57329750 19 48 82
245957.66137695 3357471.60363770 16.83482742 35 53 73
245955.84387207 3357471.69866943 16.85249329 8 11 16
245957.18286133 3357471.41674805 16.79011345 24 37 45
245956.61047363 3357466.93966675 15.83996964 51 56 59
245959.65673828 3357467.49075317 15.83822918 109 113 122
245956.30523682 3357470.91491699 16.18927193 27 32 35
245959.57189941 3357470.68133545 15.43018246 87 89 86
245956.19952393 3357472.76522827 16.28882980 27 31 34
245958.24664307 3357467.95028687 15.53090858 61 70 77
245958.01513672 3357473.02282715 16.18052101 17 22 25
245956.29132080 3357470.54968262 16.01150131 38 42 41
245957.84539795 3357468.84130859 16.49592209 69 74 77
245959.74389648 3357470.66003418 15.39806747 96 97 99
245960.49511719 3357472.52832031 15.83997822 72 79 85
245959.55828857 3357470.24481201 15.88383102 46 74 85
245958.52130127 3357472.88397217 16.50671387 189 189 197
245957.17535400 3357471.21405029 16.65315247 4 9 15
245959.75543213 3357472.11120605 16.26881599 48 63 86
245959.23114014 3357467.34793091 15.65523338 118 125 135
245957.38061523 3357467.11816406 16.32225037 57 62 65
245959.23114014 3357468.82073975 15.99651909 72 76 77
245957.80633545 3357470.79696655 15.80501270 56 61 57
245959.46752930 3357471.73556519 16.38869286 52 69 95
245960.28692627 3357472.69393921 16.24744415 35 44 59
245958.33489990 3357469.53442383 16.85854149 182 217 237
245957.71118164 3357467.65127563 16.29204941 116 128 140
245959.76409912 3357468.41577148 15.42375374 153 154 140
245956.95599365 3357468.20510864 16.44668388 29 39 40
245958.43914795 3357469.75283813 16.87426567 193 226 231
245958.14007568 3357468.19168091 15.42938328 113 111 99
245956.51660156 3357470.28616333 16.01642799 17 21 24
245958.82019043 3357470.92175293 15.69478798 66 68 65
245960.38824463 3357471.30480957 15.79824352 37 39 38
245956.92321777 3357468.22616577 16.69211960 29 40 36
245959.75207520 3357468.83377075 15.44612122 114 121 127
245958.34918213 3357469.61071777 16.85897064 183 219 235
245958.11450195 3357470.07608032 16.77899742 135 158 174
245959.32806396 3357467.59213257 16.14166069 121 130 137
245957.23748779 3357466.77301025 15.63536930 64 75 77
245958.15795898 3357468.93890381 16.64179039 61 66 69
245959.78424072 3357471.11059570 15.78054905 35 39 42
245959.43280029 3357471.65151978 16.39836311 55 70 93
245957.43017578 3357467.60769653 16.39454651 129 139 149
245957.86962891 3357470.24813843 16.50532341 37 68 89
245957.49182129 3357472.65487671 16.80544281 26 29 36
245958.02911377 3357467.08889771 16.30999374 64 72 75
245957.22308350 3357470.38076782 15.82083416 43 47 48
245959.14416504 3357473.04370117 16.32503510 66 75 80
245957.15673828 3357467.04122925 16.02079010 58 63 66
245957.82775879 3357470.22140503 16.55978966 1 28 47
245959.60052490 3357470.30105591 15.71403122 41 55 64
245956.91674805 3357472.84744263 16.44091606 22 23 27
245960.12829590 3357470.54287720 15.48187160 92 99 105
245958.02783203 3357467.09219360 16.06803131 73 83 84
245957.83972168 3357467.44018555 16.62160683 1 1 0
245958.60705566 3357469.92022705 16.67202187 57 92 130
245957.00518799 3357471.51431274 16.69711685 36 50 63
245957.40063477 3357468.82519531 16.62833786 55 64 63
245958.32788086 3357468.50076294 15.70004654 61 66 70
245958.07623291 3357471.71633911 16.87117386 39 57 79
245959.96215820 3357471.14352417 15.77251911 40 41 45
245958.17663574 3357470.21386719 16.66522598 36 56 67
245960.20477295 3357469.32269287 15.48698425 109 118 123
245959.30999756 3357466.85598755 15.45411491 109 116 122
245957.81579590 3357470.11007690 16.78502655 127 130 137
245957.35772705 3357466.93524170 15.64714909 67 77 79
245958.70892334 3357470.75262451 15.62218571 110 112 98
245957.80847168 3357470.02853394 16.81319809 205 222 238
245957.02734375 3357467.48968506 16.58199883 8 17 24
245960.16662598 3357472.61407471 16.24356842 37 50 69
245959.59533691 3357468.98654175 15.61943913 71 80 87
245956.96264648 3357470.31234741 15.94000244 18 19 23
245956.47436523 3357471.37683105 16.59442711 14 19 22
245959.05786133 3357468.64712524 15.81495476 80 79 85
245958.13818359 3357469.99545288 16.82309532 180 208 220
245959.79382324 3357470.91854858 15.47211742 94 93 73
245960.43579102 3357471.39218140 15.86771011 36 37 39
245958.77874756 3357473.06927490 16.29634476 40 43 50
245957.54315186 3357469.37994385 16.86852074 166 193 220
245960.21661377 3357469.62747192 15.54088116 104 114 123
245956.06103516 3357470.66955566 16.74018860 16 25 24
245957.18341064 3357471.86062622 16.67642784 49 66 84
245956.84613037 3357467.93225098 16.62592316 33 44 40
245960.40594482 3357472.68554688 15.63995075 103 108 112
245956.62304688 3357472.61907959 16.75602722 22 23 25
245959.72698975 3357467.80218506 15.76823997 71 76 80
245956.44177246 3357470.73135376 15.73358822 57 59 58
245958.87829590 3357469.30862427 16.48931503 104 121 139
245958.45361328 3357469.89520264 16.87788010 188 217 225
245958.50299072 3357473.09906006 16.12141037 28 31 36
245957.04980469 3357469.05441284 16.95391846 37 51 60
245958.04376221 3357467.62207031 16.34096527 169 181 195
245958.33203125 3357470.87359619 15.94986343 56 58 57
245958.62609863 3357467.11331177 15.67998791 88 100 100
245957.14550781 3357472.06347656 16.73174286 56 73 91
245957.12750244 3357470.11798096 16.60842514 16 39 55
245957.61871338 3357469.95581055 16.83880234 160 186 203
245956.97174072 3357471.60833740 16.62363625 45 66 83
245957.25585938 3357472.90890503 16.17195320 31 35 36
245960.15264893 3357471.91247559 16.16873741 30 51 72
245957.98828125 3357467.09054565 16.17248344 70 80 81
245959.61535645 3357469.08175659 15.67846680 66 76 85
245957.17242432 3357471.81240845 16.66214561 44 59 78
245957.58172607 3357471.69821167 16.80504417 39 57 79
245957.99603271 3357471.79748535 16.89137268 42 60 80
245959.00659180 3357467.41192627 16.41499710 92 100 103
245958.27740479 3357468.80200195 16.40489197 47 53 53
245959.15423584 3357469.88580322 16.43353653 42 66 70
245960.22747803 3357471.22598267 16.11285973 19 23 24
245956.81072998 3357467.63687134 16.58511353 27 37 38
245958.92907715 3357470.85668945 15.64797497 107 102 83
245958.51361084 3357471.63775635 16.82450104 43 72 102
245955.85156250 3357471.59588623 16.95829964 5 10 13
245956.89068604 3357472.58624268 16.78540230 11 16 20
245956.60870361 3357472.79943848 16.48738480 40 41 45
245956.42437744 3357470.15594482 16.37207603 165 171 183
245956.84826660 3357467.47109985 16.58525848 45 57 57
245957.88903809 3357471.71835327 16.86541176 40 58 78
245958.08508301 3357473.01098633 16.34274101 31 36 39
245957.55706787 3357471.04647827 16.42761421 18 17 25
245958.52984619 3357470.95605469 16.23192406 48 52 55
245959.68957520 3357472.68444824 16.28827667 47 63 86
245957.69635010 3357469.64898682 16.82798767 162 191 209
245956.48913574 3357469.90161133 16.92806625 6 18 30
245957.40722656 3357472.84854126 16.51240730 88 93 97
245956.58343506 3357469.91030884 16.94845963 8 24 37
245958.89282227 3357467.29974365 16.49797821 63 72 77
245959.72375488 3357469.68142700 15.63014889 59 72 80
245957.42004395 3357468.10562134 15.46001720 42 47 41
245960.57708740 3357472.02139282 15.75181293 88 98 100
245958.75970459 3357471.00515747 15.94653893 43 49 49
245957.34802246 3357468.76077271 16.62020683 41 50 49
245958.54309082 3357468.73550415 16.20849037 53 61 64
245957.72845459 3357472.61218262 16.85490036 148 161 178
245958.34625244 3357472.58920288 16.71739006 60 78 102
245957.86102295 3357467.64151001 16.30711937 138 150 164
245957.65277100 3357468.44650269 15.66189098 59 65 65
245959.40393066 3357470.42321777 16.01671028 128 160 171
245956.55468750 3357470.96145630 16.13200378 19 24 27
245959.52117920 3357473.19528198 15.93222618 85 83 88
245958.92425537 3357466.89065552 15.48167515 95 104 109
245959.52850342 3357471.60116577 16.31362724 52 67 90
245956.87347412 3357467.03637695 15.99652863 53 59 59
245957.29077148 3357472.15570068 16.78347015 60 76 91
245957.85687256 3357467.07574463 15.79014778 72 82 83
245958.93603516 3357467.76364136 16.15615273 110 127 137
245957.26715088 3357470.27969360 16.13946915 144 148 159
245959.20062256 3357467.00555420 15.46854019 100 109 116
245959.39477539 3357471.35150146 16.38182259 55 71 87
245956.41528320 3357470.07357788 16.52198982 198 210 224
245959.48388672 3357471.59100342 16.34618378 56 72 95
245960.41094971 3357471.33935547 16.07785988 27 31 34
245955.99188232 3357472.10070801 16.35234261 8 21 30
245959.16461182 3357472.16229248 16.55962944 74 141 186
245960.22009277 3357470.21719360 15.54154873 98 105 113
245958.37670898 3357472.98870850 16.46290779 15 19 22
245958.45745850 3357472.91598511 16.50396729 112 117 121
245960.40100098 3357471.32266235 15.89987659 45 47 46
245956.30664063 3357472.41162109 16.70996857 32 41 48
245955.90234375 3357471.89425659 16.48746300 10 17 23
245958.18957520 3357473.04608154 16.10695267 19 23 26
245958.91949463 3357468.55355835 15.66212273 77 83 83
245957.83441162 3357468.93304443 16.74137306 27 35 38
245959.41967773 3357472.32150269 16.44662476 59 77 99
245957.14013672 3357467.05249023 16.05194092 57 62 65
245959.74267578 3357473.08731079 15.52844048 66 70 69
245956.92352295 3357467.83569336 16.00573349 33 38 41
245959.60131836 3357469.21118164 15.89314270 86 123 131
245959.83856201 3357471.80627441 16.18702888 37 55 77
245958.93273926 3357469.61526489 16.44518089 77 99 120
245957.99365234 3357473.01831055 16.14310074 19 23 26
245958.23504639 3357468.68713379 16.18266678 57 62 65
245956.48516846 3357470.18353271 16.28502274 165 167 180
245957.83996582 3357466.55197144 15.50244141 75 85 87
245957.42248535 3357471.03884888 16.34805107 15 18 23
245957.87255859 3357472.99578857 16.25539589 26 27 31
245958.92187500 3357469.21820068 16.49475670 59 77 89
245960.45520020 3357471.46801758 16.13606453 11 19 22
245959.15551758 3357471.06558228 16.28580475 53 57 60
245957.79492188 3357467.69564819 15.78420639 67 74 80
245957.01458740 3357472.70437622 16.71895027 22 23 28
245956.35522461 3357470.52615356 15.91196060 44 45 47
245958.19537354 3357469.51437378 16.84395599 181 214 231
245957.67437744 3357468.48306274 15.87589455 50 56 56
245958.21276855 3357470.29223633 16.47450829 4 22 42
245959.37432861 3357467.22741699 15.58420372 125 134 143
245958.87445068 3357471.09762573 16.52257538 37 40 45
245957.24633789 3357467.13336182 16.31499100 56 64 66
245959.23455811 3357466.89498901 15.45193005 96 103 109
245958.08197021 3357470.03213501 16.80349541 188 207 222
245956.31573486 3357472.77075195 16.50302124 18 19 21
245958.19055176 3357473.03817749 15.99359226 27 31 32
245960.31671143 3357470.40405273 15.46791458 114 122 124
245955.99707031 3357471.02911377 16.80549622 25 29 30
245959.06201172 3357467.65325928 16.37119865 176 190 190
245957.35833740 3357470.75219727 15.78850269 65 70 64
245958.17626953 3357470.26608276 16.54905510 1 23 44
245959.11834717 3357468.98089600 16.31070900 59 68 73
245955.90344238 3357471.40048218 17.01573944 13 19 19
245956.29278564 3357472.76568604 16.52542877 18 19 21
245956.90747070 3357470.77554321 15.79151440 68 70 67
245958.78857422 3357471.39916992 16.60728645 32 58 73
245959.80627441 3357469.41772461 15.57106495 66 75 82
245956.24060059 3357471.53073120 16.28476524 64 83 98
245959.92883301 3357469.49801636 15.54459095 84 93 100
245960.05944824 3357472.46524048 16.22051811 46 65 82
245956.38323975 3357469.92175293 16.76544571 111 130 145
245960.25646973 3357470.72753906 15.40442371 110 111 106
245959.45239258 3357470.51495361 15.57374477 71 78 88
245960.24627686 3357472.32629395 16.22834969 36 51 70
245957.81701660 3357468.86758423 16.54339981 87 92 96
245958.93682861 3357472.49487305 16.51165199 63 139 175
245960.27667236 3357471.04644775 15.39815903 100 100 102
245956.48925781 3357469.90060425 16.95435524 6 18 30
245955.90039063 3357472.43951416 16.58496475 9 14 17
245958.31909180 3357466.80514526 15.54664230 88 98 100
245957.11480713 3357468.84344482 16.83328056 29 39 40
245956.50830078 3357467.18563843 16.23844337 40 51 47
245959.08508301 3357471.83889771 16.55791092 127 185 225
245959.90972900 3357471.53793335 16.18173218 41 57 82
245959.36627197 3357468.71820068 15.66610146 92 96 99
245958.59106445 3357469.01187134 16.71709251 36 38 35
245957.28656006 3357472.76037598 16.64867973 14 17 22
245958.45971680 3357473.07876587 16.27887917 23 27 30
245959.02838135 3357471.60671997 16.55442429 75 139 185
245959.52648926 3357470.05319214 16.22863770 59 103 116
245958.37225342 3357470.77026367 15.84445286 81 83 80
245960.12030029 3357472.77050781 16.23998833 32 48 64
245957.58325195 3357471.53750610 16.81257248 38 54 70
245959.48181152 3357470.37365723 15.88175106 48 81 88
245959.53912354 3357473.18713379 15.89931965 45 44 49
245956.85937500 3357470.10614014 16.53499222 149 180 201
245956.84143066 3357472.47399902 16.80838585 44 47 54
245959.09771729 3357471.70962524 16.55070686 47 115 162
245958.20922852 3357470.19836426 16.72401619 54 70 85
245956.40509033 3357467.11062622 16.02408409 41 50 47
245958.16577148 3357467.09201050 16.14234734 76 85 84
245956.92510986 3357469.78326416 16.92633820 58 76 88
245958.69134521 3357470.45861816 16.20985031 55 82 91
245958.54840088 3357472.65414429 16.64110374 89 159 185
245960.32720947 3357472.81472778 15.95256138 77 82 88
245958.42034912 3357466.74691772 15.53135967 92 102 104
245957.19982910 3357470.43551636 15.79818726 53 58 61
245959.55981445 3357469.21234131 16.13658714 89 123 132
245957.01153564 3357471.65026855 16.61568832 47 65 85
245956.17364502 3357470.81231689 16.31213760 35 39 42
245955.97698975 3357471.35916138 16.70622253 12 16 19
245957.15612793 3357472.16162109 16.77424431 58 73 92
245958.37158203 3357471.08804321 16.41666794 10 14 17
245958.84185791 3357472.94064331 16.49509430 254 255 255
245957.27777100 3357472.51174927 16.87552643 68 75 85
245959.49035645 3357471.27984619 16.29724693 34 46 58
245956.56463623 3357472.54046631 16.81425667 39 47 50
245959.23754883 3357468.38601685 15.49883747 140 137 120
245958.49462891 3357467.53414917 16.59370995 17 27 28
245957.54516602 3357472.91979980 16.41674232 20 21 23
245959.71887207 3357472.58584595 16.27762222 43 60 80
245959.70440674 3357468.09176636 15.51178360 108 115 125
245960.45922852 3357471.48577881 16.14483833 20 29 34
245957.70037842 3357471.00909424 16.12536812 31 32 34
245959.51086426 3357470.09033203 16.24835014 82 126 139
245958.36462402 3357467.09085083 16.31321716 86 92 88
245956.39483643 3357470.86569214 15.92550755 39 43 44
245959.18218994 3357470.72955322 15.70516872 97 94 85
245957.09625244 3357469.32305908 16.97785187 106 132 155
245959.59106445 3357468.77883911 15.51541042 107 112 118
245958.25854492 3357472.36581421 16.83417320 40 58 80
245956.91577148 3357467.95697021 16.00126457 33 41 43
245958.10229492 3357471.96838379 16.93551826 46 62 85
245956.35736084 3357472.55514526 16.89829826 10 14 17
245959.41821289 3357472.88626099 16.43941116 93 106 123
245956.18273926 3357470.51232910 16.26761818 32 37 40
245958.45928955 3357466.77944946 15.54201889 91 101 103
245958.20172119 3357468.00900269 15.50290298 60 67 75
245957.97985840 3357468.14379883 15.44041824 69 70 62
245957.64068604 3357468.13568115 15.44652557 48 51 44
245956.87457275 3357469.68957520 16.98447037 15 24 33
245958.91137695 3357467.27175903 16.31170464 65 75 76
245958.23657227 3357473.05044556 16.02478027 28 32 33
245957.10211182 3357468.51754761 16.66572380 26 36 37
245958.80993652 3357467.23159790 16.16232109 71 82 76
245959.66369629 3357472.03900146 16.29204369 45 61 86
245955.83868408 3357471.65252686 16.93046570 11 14 19
245958.65124512 3357466.58895874 15.49586010 96 101 105
245956.28021240 3357472.25231934 16.51760674 49 65 80
245959.13177490 3357471.98471069 16.56054688 73 135 172
245956.24353027 3357467.05221558 15.93442726 37 46 41
245957.33380127 3357471.63351440 16.71471214 38 57 74
245956.55480957 3357472.26766968 16.69595337 47 64 80
245959.29199219 3357468.06066895 15.54705429 107 112 118
245957.10632324 3357470.05972290 16.80985260 194 201 211
245956.04168701 3357471.00796509 16.73479080 24 29 32
245957.70678711 3357470.15216064 16.68748093 19 29 31
245958.18371582 3357466.24978638 15.46269703 78 83 87
245957.50939941 3357472.83251953 16.55227661 14 15 19
245956.28479004 3357471.23541260 16.58898163 10 14 17
245958.21295166 3357470.71676636 15.76870346 90 91 86
245958.52423096 3357469.76473999 16.82581711 63 84 105
245958.57238770 3357468.23458862 15.43353653 127 127 115
245957.45739746 3357468.44723511 15.71516991 50 56 56
245958.29443359 3357467.98541260 15.51383495 55 62 72
245958.88867188 3357473.09265137 15.84807110 33 37 40
245957.23596191 3357470.29953003 15.94062424 121 124 133
245957.85247803 3357470.85110474 15.82835388 56 60 59
245958.55023193 3357467.14105225 16.13796425 86 92 88
245959.33422852 3357473.11074829 16.22074318 58 65 71
245957.71240234 3357469.55630493 16.82721138 167 195 217
245955.76806641 3357472.00335693 16.96056366 8 12 15
245958.82067871 3357467.69793701 16.26276398 152 162 171
245957.01049805 3357472.69348145 16.72522926 26 29 34
245959.75061035 3357469.13604736 15.52161503 76 85 92
245959.55462646 3357467.26007080 15.60273743 152 159 167
245956.98614502 3357472.01272583 16.69528389 52 69 87
245956.57568359 3357470.19409180 16.23125458 176 178 190
245957.16723633 3357471.51077271 16.72096252 34 50 65
245959.35504150 3357468.09271240 15.53159523 106 109 114
245959.86224365 3357468.04348755 15.47675705 108 115 125
245958.30151367 3357468.01733398 15.50218487 61 65 74
245957.06079102 3357472.88385010 16.04567909 22 26 29
245959.61779785 3357467.49099731 15.83755779 108 112 121
245955.73986816 3357472.25051880 16.81376266 12 17 20
245957.80718994 3357472.98025513 15.95378399 38 39 41
245956.49090576 3357470.78808594 15.79167843 45 47 46
245960.24456787 3357471.54739380 16.19963264 29 42 58
245958.46429443 3357470.85720825 15.89052105 70 73 66
245959.66589355 3357471.75228882 16.25125313 50 66 89
245956.46112061 3357471.20999146 16.58248711 21 25 26
245959.42913818 3357470.37820435 16.06391525 112 152 162
245957.37402344 3357470.19720459 16.50972748 106 135 153
245956.84143066 3357467.93658447 16.64990425 31 43 39
245956.78546143 3357472.63513184 16.74576378 15 19 22
245957.01940918 3357472.18319702 16.77136993 54 71 89
245957.25482178 3357467.63769531 16.22247696 126 146 147
245958.82360840 3357472.90457153 16.52550316 227 231 240
245958.26019287 3357466.86642456 15.58389473 85 95 97
245960.49420166 3357472.53524780 15.67569160 79 86 94
245959.05578613 3357468.22644043 15.43313503 91 92 84
245959.35461426 3357468.81790161 15.79425526 94 98 101
245958.66210938 3357470.97079468 15.81285286 53 58 61
245957.31591797 3357470.28445435 15.94136524 121 125 136
245960.18231201 3357471.88229370 16.17422104 25 43 63
245957.45501709 3357470.61578369 15.75048351 88 93 87
245957.24896240 3357468.67858887 16.65360260 37 45 47
245959.29821777 3357472.10876465 16.56268311 15 36 65
245956.83563232 3357471.05798340 16.47203064 11 12 16
245958.83386230 3357470.95501709 15.74285030 64 68 69
245957.74273682 3357468.52777100 16.04549408 52 58 58
245958.32928467 3357470.30368042 16.48464203 13 31 41
245959.13269043 3357470.35128784 16.37819862 147 212 218
245957.24169922 3357471.65820313 16.67871857 35 52 72
245958.13330078 3357466.57824707 15.50646496 84 93 98
245956.50109863 3357470.74588013 15.77042961 51 51 51
245959.71539307 3357467.58255005 15.93690395 121 128 136
245958.92358398 3357472.35830688 16.50930977 54 131 175
245959.83666992 3357467.33883667 15.60871124 105 113 116
245958.67315674 3357469.43945313 16.63438034 23 39 55
245956.90570068 3357467.82958984 16.37134743 51 61 63
245958.73663330 3357471.33248901 16.63964272 16 25 30
245958.12786865 3357467.07815552 15.82353973 74 84 86
245958.84075928 3357468.84774780 16.27037430 47 52 56
245958.61358643 3357470.21688843 16.63963890 52 76 102
245958.41113281 3357470.48416138 16.20120621 59 77 81
245957.63323975 3357469.19711304 16.89836693 161 183 206
245957.18304443 3357467.43157959 16.67983246 58 69 73
245957.99768066 3357466.57864380 15.50960064 85 94 99
245958.89916992 3357467.27398682 15.67131138 100 111 115
245958.32312012 3357470.95999146 16.11273956 50 53 58
245956.54577637 3357472.75091553 16.58550262 16 16 18
245959.11663818 3357472.16589355 16.55035782 64 138 187
245958.04064941 3357467.09255981 16.01114845 74 84 85
245958.26605225 3357473.04046631 15.83623409 35 39 40
245957.98901367 3357472.93670654 16.46640778 67 78 80
245959.61437988 3357467.79437256 15.74793530 90 97 103
245956.29724121 3357470.16467285 16.43364334 124 129 135
245957.95776367 3357471.37551880 16.78239250 37 45 56
245956.23144531 3357472.39706421 16.64921761 26 35 44
245958.39965820 3357468.64862061 16.05105591 52 60 63
245958.88336182 3357467.94149780 15.58434391 80 91 97
245959.08636475 3357470.60678101 15.72638798 67 70 75
245958.74890137 3357470.36584473 16.47550011 168 197 213
245959.76348877 3357470.48745728 15.49410820 101 106 112
245956.59161377 3357471.63146973 16.50511742 56 74 96
245957.85894775 3357469.65310669 16.81308174 171 202 222
245955.95574951 3357471.26678467 16.77692032 15 23 25
245960.14843750 3357470.99014282 15.41886234 107 104 95
245959.47119141 3357467.11706543 15.52694511 121 128 136
245959.27752686 3357471.37823486 16.46291733 50 62 78
245958.90661621 3357469.00424194 16.44852448 65 69 78
245957.33782959 3357468.15802002 15.46192360 74 77 66
245959.17504883 3357470.26016235 16.39690590 149 212 219
245957.07995605 3357468.32214355 16.22679710 46 55 54
245956.92437744 3357468.14865112 16.47741890 31 41 40
245958.20983887 3357470.89459229 15.88937187 52 55 62
245957.88220215 3357466.42462158 15.48368359 72 81 86
245958.96258545 3357468.94186401 16.32491684 36 44 47
245958.29492188 3357467.09274292 16.14493370 83 92 91
245956.40252686 3357472.69042969 16.65917206 72 72 74
245958.60614014 3357470.68591309 15.72252560 84 88 74
245957.02923584 3357466.52975464 15.62999916 57 65 68
245959.14678955 3357469.66973877 16.43419456 7 27 34
245960.17675781 3357472.54519653 16.23887825 36 49 68
245956.66094971 3357470.15780640 16.30772400 182 190 201
245958.39721680 3357469.35354614 16.85439491 185 216 236
245960.51605225 3357472.28463745 16.25301170 52 64 78
245956.96319580 3357467.73092651 16.23836136 65 76 80
245958.81134033 3357470.84130859 15.63361454 100 98 83
245957.23803711 3357469.09545898 16.91325188 132 148 163
245958.12481689 3357468.82739258 16.40332794 51 60 59
245959.90399170 3357472.04501343 16.20116806 39 55 80
245956.95941162 3357472.63333130 16.76192474 21 26 30
245960.02648926 3357472.82418823 16.09583855 39 49 61
245958.62823486 3357470.95462036 15.78124809 57 61 62
245959.60534668 3357467.39352417 15.71407509 106 113 123
245956.63555908 3357470.25015259 16.06089020 46 49 56
245957.64086914 3357467.54113770 16.47273827 44 51 59
245958.16540527 3357468.50427246 15.69986343 59 68 67
245956.89440918 3357467.93823242 16.46379662 38 46 48
245956.65521240 3357470.04391479 16.56719017 179 194 213
245959.05493164 3357472.67709351 16.52811813 89 143 179
245958.83520508 3357473.09368896 15.97738361 26 29 34
245958.12023926 3357467.78491211 15.66102600 53 60 66
245957.30041504 3357472.37045288 16.87230301 78 91 107
245959.50250244 3357467.74066162 15.83515739 8 13 16
245960.33148193 3357472.05322266 16.26850128 0 14 34
245959.00225830 3357470.61517334 15.67396545 69 73 76
245960.10595703 3357468.58218384 15.41305256 98 107 112
245957.99188232 3357472.64852905 16.70131111 56 70 83
245956.81109619 3357467.41979980 16.56706047 40 52 50
245959.22918701 3357467.88458252 15.64300728 77 80 85
245958.32751465 3357467.65954590 16.25259590 156 174 186
245958.19189453 3357473.05505371 16.22534752 16 20 23
245958.44982910 3357470.61666870 16.09329414 54 64 66
245957.30224609 3357471.19558716 16.63981628 3 6 11
245957.76794434 3357471.04226685 16.42589951 16 20 23
245956.31451416 3357471.06121826 16.50872421 8 9 11
245957.81842041 3357472.98291016 16.00144577 36 37 39
245956.40246582 3357472.02609253 16.49620056 55 72 92
245958.38330078 3357469.96539307 16.85868835 193 229 243
245956.99731445 3357469.30380249 16.99144173 89 107 121
245958.15850830 3357472.80316162 16.58868599 32 42 51
245959.46411133 3357468.66268921 15.53132629 96 99 104
245959.00286865 3357466.48944092 15.48095512 96 103 111
245957.27044678 3357469.53369141 16.91358757 128 153 175
245957.43090820 3357471.90441895 16.78079987 50 67 85
245957.07336426 3357469.00485229 16.93255806 28 41 47
245957.86035156 3357472.98983765 15.87343025 30 31 33
245956.86584473 3357471.65359497 16.60657501 45 68 86
245957.12603760 3357467.66369629 15.71457767 50 58 60
245959.54870605 3357467.56121826 15.98840809 129 138 147
245959.29821777 3357470.19262695 16.35732651 139 201 214
245957.41436768 3357469.55978394 16.86766243 151 177 200
245956.57586670 3357470.03866577 16.55369759 181 199 213
245959.69818115 3357470.79513550 15.42256737 146 142 115
245959.35668945 3357466.97195435 15.47561646 109 116 124
245956.72485352 3357470.31115723 15.92899990 21 31 33
245957.76879883 3357468.45938110 15.71015453 58 64 64
245959.51275635 3357469.85974121 16.28317070 144 200 213
245959.05523682 3357466.47329712 15.47896481 94 101 109
245956.78082275 3357470.97302246 16.14286232 18 23 27
245959.03112793 3357468.96142578 16.32270050 46 54 57
245957.00280762 3357470.54367065 15.78019619 62 68 68
245958.25988770 3357470.48999023 15.88939762 60 71 77
245958.24792480 3357468.40567017 15.50245667 74 76 73
245959.40991211 3357468.98129272 16.11316299 60 61 63
245957.38177490 3357472.31582642 16.86258125 71 87 103
245959.51745605 3357468.95532227 15.67612362 67 76 81
245958.22406006 3357470.37756348 16.28951454 125 141 156
245957.07104492 3357466.51510620 15.62476826 62 70 73
245959.65222168 3357467.59713745 15.98280811 132 139 149
245957.88293457 3357468.49209595 15.83728504 56 61 64
245957.82415771 3357469.13476563 16.90118980 175 192 212
245958.03723145 3357472.45654297 16.77640915 57 74 94
245959.38397217 3357467.81262207 15.69186401 12 20 23
245958.14038086 3357472.37759399 16.82066917 49 66 86
245957.57324219 3357471.73565674 16.80442047 39 55 78
245959.67687988 3357473.11300659 15.88617516 22 30 33
245957.38555908 3357468.44146729 15.77465057 51 55 56
245960.56292725 3357472.30340576 15.81531334 72 81 90
245959.09942627 3357470.38214111 16.35305023 139 202 207
245958.26647949 3357471.02578735 16.23748207 34 35 39
245958.35968018 3357467.62759399 16.33635139 184 198 209
245958.75268555 3357473.08850098 16.13084221 9 17 20
245959.37329102 3357471.01370239 15.80167389 62 68 66
245957.66107178 3357470.04882813 16.82665443 233 241 252
245959.30578613 3357468.89199829 16.07867050 69 69 69
245958.87200928 3357470.46646118 15.89353180 15 43 46
245957.07128906 3357466.95718384 15.86767387 57 62 65
245957.07226563 3357466.53643799 15.62872887 60 68 71
245957.57543945 3357468.93432617 16.79189682 23 28 31
245958.00250244 3357470.67312622 15.74585629 100 103 94
245959.54199219 3357472.01351929 16.35930061 52 68 93
245957.28625488 3357468.39160156 15.75847912 50 54 55
245956.89697266 3357470.34738159 15.89954948 21 29 32
245959.28204346 3357472.65225220 16.52813148 70 86 102
245958.45520020 3357467.78176880 15.72888088 32 41 46
245959.98931885 3357472.85552979 15.80506325 44 49 53
245960.02221680 3357471.17956543 16.05260658 24 25 27
245958.01794434 3357470.29858398 16.41732025 145 176 194
245959.33526611 3357472.21319580 16.54671669 35 53 75
245956.61334229 3357466.67465210 15.69369507 48 56 59
245959.62988281 3357467.54693604 15.97865200 123 130 140
245958.93670654 3357473.07095337 16.24901390 43 51 54
245956.73809814 3357467.18566895 16.26924515 41 50 49
245959.11218262 3357470.19714355 16.43576431 159 200 206
245956.63684082 3357469.99871826 16.62447739 160 173 189
245959.11608887 3357467.58233643 16.06890106 101 118 125
245960.36743164 3357472.91250610 15.32974625 135 136 122
245957.20202637 3357470.75155640 15.80526733 53 56 49
245957.28942871 3357470.75796509 15.79399109 40 45 39
245957.68920898 3357467.08416748 16.14533997 65 69 72
245959.19610596 3357469.95541382 16.42119217 176 213 219
245958.95764160 3357471.08016968 16.41184235 15 23 26
245956.67718506 3357471.28573608 16.64625168 9 12 17
245957.41210938 3357467.61071777 16.36983871 120 133 142
245956.67492676 3357472.76431274 16.57633591 22 21 26
245956.46368408 3357467.10986328 16.03991890 44 53 52
245958.03247070 3357468.85003662 16.44771385 63 71 73
245956.90960693 3357470.06762695 16.66623497 36 53 69
245958.86096191 3357469.78082275 16.48560905 106 142 174
245958.64843750 3357470.98406982 16.03897095 41 47 47
245959.60351563 3357467.91726685 15.59130859 112 119 127
245958.48632813 3357470.74414063 15.81581593 117 119 105
245958.66766357 3357471.53231812 16.71500397 56 106 143
245958.86016846 3357471.23193359 16.54998589 91 94 99
245958.83856201 3357471.01754761 15.90938759 45 50 53
245958.47613525 3357468.73275757 16.21953011 53 61 64
245958.44152832 3357473.08096313 16.03969765 19 23 26
245957.15246582 3357466.96499634 15.86107254 56 64 66
245959.35668945 3357471.75186157 16.47819901 56 67 87
245958.19714355 3357470.99853516 16.02503395 47 48 53
245960.16467285 3357472.89672852 15.70856571 84 88 91
245957.51422119 3357468.87585449 16.65894508 69 77 79
245956.69934082 3357467.18920898 16.27390671 41 51 50
245956.34124756 3357472.70303345 16.64741898 17 17 19
245960.21972656 3357468.50445557 15.41485786 98 102 103
245957.99578857 3357467.08752441 16.39886665 67 75 78
245958.74536133 3357466.79034424 15.50656796 94 104 106
245958.38275146 3357467.08612061 16.40430260 91 100 95
245959.32592773 3357467.12286377 15.52443695 116 125 134
245956.79760742 3357467.12255859 16.15500069 63 69 67
245959.71112061 3357473.09191895 15.93896008 49 56 62
245957.39001465 3357467.70529175 15.61565685 48 58 60
245960.46380615 3357471.56655884 16.23173332 55 67 79
245959.24145508 3357470.47192383 15.88007832 57 84 95
245958.43377686 3357467.48623657 16.73831749 11 16 19
245959.25695801 3357472.98104858 16.37560844 58 71 79
245956.47583008 3357471.47586060 16.52645493 48 61 69
245960.22180176 3357471.20458984 15.91597080 30 34 37
245957.80322266 3357472.98141479 16.15811539 22 26 27
245957.71722412 3357467.08468628 16.12453079 64 69 72
245957.77551270 3357469.53005981 16.82162857 169 200 220
245960.20672607 3357470.87829590 15.38210964 176 169 140
245958.17144775 3357470.77517700 15.77878666 73 74 68
245958.06201172 3357469.14746094 16.89127541 179 195 211
245955.65203857 3357472.68472290 16.04868126 45 49 48
245959.29986572 3357470.17416382 16.35950661 140 202 215
245958.44793701 3357467.00991821 15.64929390 84 94 96
245957.73358154 3357470.49960327 15.79691696 81 86 89
245959.13641357 3357468.56021118 15.66433907 76 79 84
245957.31976318 3357466.96380615 15.70194530 65 76 78
245959.66149902 3357471.19271851 16.18374062 20 25 31
245957.47271729 3357469.13235474 16.90009689 146 168 192
245956.76171875 3357471.88906860 16.59910011 52 69 89
245957.64392090 3357469.96148682 16.83594894 179 200 217
245956.19732666 3357470.34152222 16.33301544 29 34 37
245956.64147949 3357466.72784424 15.71502590 48 56 59
245956.69763184 3357472.83175659 16.14366150 34 35 37
245959.50653076 3357467.67303467 16.01426697 165 173 184
245957.49755859 3357472.97009277 16.00605965 25 26 30
245960.16723633 3357471.20721436 16.04520226 24 25 29
245959.77734375 3357471.94113159 16.23255539 44 62 84
245956.14733887 3357470.39022827 16.43041992 28 36 38
245959.35192871 3357470.48220825 15.82457161 67 87 98
245958.60003662 3357470.98269653 16.31579590 48 51 56
245957.55633545 3357471.12704468 16.58845711 80 80 88
245956.45977783 3357471.87048340 16.46098137 53 71 91
245959.98461914 3357471.58541870 16.17308807 41 58 78
245958.45996094 3357472.06854248 16.89700890 22 41 56
245959.75573730 3357471.94616699 16.24163246 46 62 85
245959.33593750 3357469.60107422 16.36352730 135 202 211
245956.79040527 3357472.42602539 16.79556274 54 63 70
245958.46356201 3357467.09909058 16.28045654 90 96 92
245959.17504883 3357467.51779175 16.27116776 92 102 104
245959.01647949 3357467.11636353 15.53699398 107 114 120
245958.42504883 3357470.50009155 16.16133690 35 46 52
245957.80126953 3357468.71231079 16.35282898 51 59 61
245958.92022705 3357467.27636719 16.38401222 73 83 85
245957.96899414 3357471.93984985 16.91425323 46 64 84
245957.44555664 3357472.54217529 16.88483047 108 117 132
245958.90197754 3357468.99603271 16.44232941 65 69 78
245956.71319580 3357471.94442749 16.60872650 52 68 91
245960.54217529 3357471.83215332 16.13455200 50 63 79
245960.12823486 3357472.44387817 16.22452927 38 55 73
245957.43420410 3357472.52502441 16.88506126 151 163 179
245959.41705322 3357473.18237305 15.99425316 126 122 123
245960.19464111 3357471.27670288 16.26688576 85 84 89
245957.21228027 3357470.26055908 16.26880646 172 177 183
245958.81341553 3357469.93719482 16.49749565 77 118 148
245955.69958496 3357472.66705322 16.21647644 28 32 31
245959.56384277 3357468.94842529 15.61893177 76 83 89
245958.28540039 3357469.05780029 16.89058876 60 63 70
245956.90777588 3357467.93545532 16.05957031 29 37 39
245956.42041016 3357471.41793823 16.54183960 11 20 27
245958.45593262 3357470.61013794 16.16280556 36 49 55
245957.11181641 3357468.33224487 16.03248024 48 54 54
245957.87567139 3357470.39810181 15.98526287 111 124 133
245960.36267090 3357471.28082275 15.48435974 48 50 45
245958.49188232 3357469.00381470 16.75493813 37 37 37
245959.91192627 3357470.08346558 15.59475517 87 96 103
245957.92663574 3357470.37234497 16.10194588 98 111 120
245958.67901611 3357471.96899414 16.70799446 54 109 148
245957.24835205 3357472.90686035 16.17890167 31 35 36
245957.08575439 3357467.04013062 16.01505661 57 62 65
245958.57824707 3357470.48489380 16.20461845 53 70 77
245957.11914063 3357468.94299316 16.88656044 35 46 50
245958.52416992 3357470.45635986 16.27309036 32 45 51
245959.33361816 3357470.59487915 15.66141701 69 78 85
245958.33380127 3357471.95593262 16.94680405 30 48 68
245957.79425049 3357468.55676270 16.12181282 51 56 59
245960.50665283 3357472.07476807 16.30551720 42 52 64
245957.39544678 3357467.64663696 16.18037033 112 129 136
245959.02844238 3357473.09362793 16.21839523 46 56 58
245958.97619629 3357469.29565430 16.47372818 89 108 125
245956.11700439 3357472.51470947 16.75562286 10 18 21
245956.21948242 3357470.28445435 16.35755539 77 81 84
245958.35955811 3357470.96954346 16.21378326 49 50 54
245958.47839355 3357469.46490479 16.85334206 205 233 245
245958.17163086 3357466.72698975 15.52221680 81 90 95
245960.49249268 3357471.99829102 16.27598763 58 70 92
245956.86877441 3357467.23300171 16.44251251 41 50 49
245959.17181396 3357471.05612183 15.96973324 49 53 56
245957.44366455 3357467.94439697 15.52661133 50 60 62
245956.99188232 3357468.25515747 16.23081970 47 56 55
245957.61425781 3357467.65350342 15.87099552 85 94 99
245959.15313721 3357471.71163940 16.54053116 54 121 166
245957.27563477 3357468.40475464 16.02872849 52 58 58
245957.05407715 3357471.04467773 16.32502365 5 8 15
245956.70526123 3357471.02832031 16.41419601 12 13 15
245958.41687012 3357473.09851074 16.14840698 23 27 30
245957.91522217 3357469.26806641 16.86137772 169 201 224
245960.57385254 3357471.97698975 15.80623913 88 98 100
245956.86157227 3357470.72012329 15.76021767 90 91 86
245957.59082031 3357467.07196045 15.90289497 65 75 76
245957.61145020 3357467.65631104 15.93458843 97 108 114
245959.93548584 3357472.87161255 16.10114670 58 66 77
245959.56121826 3357469.08831787 15.87477016 83 106 114
245958.40850830 3357473.02395630 15.78852463 36 42 42
245959.48101807 3357469.66110229 16.32475471 135 189 201
245959.32635498 3357472.39001465 16.52522278 40 56 81
245958.74530029 3357468.92385864 16.44822121 35 34 40
245958.32409668 3357469.52041626 16.85706902 182 217 237
245959.39581299 3357469.18423462 16.31892586 131 181 188
245956.74993896 3357472.31604004 16.77366447 47 60 76
245958.39874268 3357469.61868286 16.86715126 184 221 237
245957.99261475 3357467.82272339 15.62239361 61 68 74
245956.25238037 3357472.36508179 16.60075378 36 46 55
245957.08135986 3357470.16729736 16.48013306 205 228 242
245957.26068115 3357468.30480957 15.51522255 63 66 57
245958.38055420 3357468.49594116 15.68502903 67 68 73
245956.71850586 3357472.20782471 16.72799683 50 68 82
245957.96588135 3357467.68844604 15.88614464 124 134 144
245959.60919189 3357472.67321777 16.33082771 50 68 90
245958.81140137 3357467.16217041 16.29551697 72 84 82
245957.86474609 3357467.08334351 15.91400433 73 83 84
245959.54058838 3357471.10714722 16.01652908 21 26 30
245958.47515869 3357470.60440063 16.09862137 37 48 50
245956.60479736 3357466.91168213 15.81954956 48 57 56
245958.01007080 3357466.33837891 15.47292328 73 80 86
245957.79876709 3357471.31796265 16.75684357 25 32 40
245960.17407227 3357467.89770508 15.47469997 117 124 130
245959.96954346 3357470.76559448 15.38751793 114 112 97
245957.46673584 3357472.02505493 16.81658554 45 62 80
245958.49011230 3357467.55245972 16.54686546 27 36 35
245958.26232910 3357471.96270752 16.94485855 44 60 83
245956.56811523 3357470.74139404 15.79568100 59 59 57
245957.48919678 3357471.75915527 16.77523041 41 58 78
245957.26940918 3357471.58547974 16.69455528 40 57 75
245956.64672852 3357471.68841553 16.52544785 59 75 98
245958.36328125 3357470.14999390 16.81037521 165 181 196
245956.12225342 3357471.46517944 16.34970093 75 88 96
245956.93933105 3357467.10458374 16.18702507 56 62 62
245956.40118408 3357470.84436035 15.84502029 42 43 45
245959.52868652 3357468.17410278 15.49585915 112 118 116
245956.27722168 3357472.07885742 16.43667030 46 67 88
245959.54553223 3357468.97482300 15.65878105 71 80 85
245956.80200195 3357472.84277344 15.98311520 43 42 47
245958.22772217 3357472.41915894 16.80812263 46 67 88
245956.47656250 3357470.74288940 15.75515175 56 58 57
245957.45013428 3357471.88970947 16.78562355 49 66 84
245957.86535645 3357472.07003784 16.91567802 52 67 90
245959.61059570 3357469.12234497 15.71901894 52 72 81
245957.97412109 3357471.43444824 16.81869698 31 43 57
245958.38323975 3357470.46298218 16.17359734 59 77 81
245957.28729248 3357471.06344604 16.43422318 7 11 14
245960.26153564 3357471.59338379 16.18836212 26 39 56
245957.47015381 3357471.82598877 16.78092575 42 59 77
245957.79321289 3357468.50897217 15.94710732 52 58 58
245958.46063232 3357469.43927002 16.85333252 199 228 242
245957.75598145 3357467.07815552 15.89843559 72 82 83
245956.82489014 3357467.09677124 16.11046410 57 66 65
245958.52801514 3357470.35083008 16.49326706 9 25 40
245957.06481934 3357467.48049927 16.59907913 10 19 26
245959.13977051 3357471.83743286 16.54728889 132 191 231
245957.84460449 3357467.08901978 16.17350197 64 69 72
245959.45208740 3357470.57879639 15.54943562 77 81 90
245956.30761719 3357466.89486694 15.73771286 45 54 53
245959.59252930 3357469.46459961 16.15231895 52 95 104
245958.30383301 3357467.70748901 15.95975685 123 140 150
245957.18676758 3357472.83731079 16.50158501 33 37 38
245956.28912354 3357472.64959717 16.77050781 104 108 111
245959.95141602 3357470.98605347 15.48863316 87 87 79
245957.71759033 3357468.93319702 16.79036522 25 30 33
245959.13586426 3357467.67044067 15.71203136 112 119 127
245958.20050049 3357471.34609985 16.70701790 28 37 44
245959.50164795 3357468.38906860 15.45977688 164 163 142
245956.86322021 3357471.48025513 16.71389771 25 38 47
245956.70294189 3357470.29238892 15.94327927 22 30 32
245955.72058105 3357472.33868408 16.73939514 7 12 15
245959.01885986 3357467.41622925 16.22866631 79 88 87
245957.22760010 3357468.97973633 16.88088226 118 128 137
245958.45513916 3357470.92382813 16.22241974 51 55 58
245958.43292236 3357468.44476318 15.53615379 73 78 74
245956.08129883 3357470.49972534 16.66215706 24 35 31
245959.11572266 3357469.89904785 16.44643021 14 33 39
245957.88659668 3357469.59683228 16.81271744 172 200 221
245956.92584229 3357467.80209351 16.00897408 32 38 38
245957.82073975 3357466.35565186 15.47186852 71 78 84
245958.15991211 3357469.32019043 16.85982323 183 211 232
245956.62353516 3357472.48828125 16.80484581 11 18 24
245958.49597168 3357470.10116577 16.78670311 51 78 108
245959.47509766 3357469.27593994 16.30689240 131 186 191
245957.01690674 3357467.03112793 15.98703384 55 60 63
245957.56884766 3357472.96298218 16.22176170 22 23 25
245957.92437744 3357470.43405151 15.86245918 41 49 52
245958.03302002 3357468.86062622 16.45857811 60 69 68
245959.35394287 3357467.60226440 16.11005402 126 136 145
245956.17138672 3357471.47064209 16.33240891 76 90 101
245957.16735840 3357471.03326416 16.25048065 12 15 22
245960.31011963 3357472.03869629 16.25708008 4 21 41
245960.47430420 3357472.40533447 16.23530579 69 77 90
245957.96209717 3357469.59133911 16.81796646 176 207 227
245958.65771484 3357466.73260498 15.52444744 87 95 98
245958.49432373 3357470.80892944 15.79450321 100 104 90
245959.18920898 3357471.66494751 16.52873421 16 70 114
245960.28424072 3357472.19586182 16.24783516 26 41 64
245956.97808838 3357469.87478638 16.87433052 57 82 102
245955.82769775 3357472.33871460 16.55969810 22 28 28
245959.31994629 3357472.50439453 16.51959038 57 72 95
245956.80902100 3357467.22988892 16.40474319 40 51 47
245959.48944092 3357467.29284668 15.62214661 139 146 156
245959.69982910 3357469.85351563 15.62579250 58 72 81
245960.29528809 3357471.17126465 15.48081398 69 73 74
245958.68878174 3357467.57916260 16.51247215 24 34 35
245957.61883545 3357470.33529663 16.01075172 120 127 135
245956.47692871 3357472.70477295 16.63619423 62 63 67
245957.43865967 3357471.01095581 16.13346291 20 25 29
245958.82098389 3357471.37243652 16.58384514 35 51 64
245957.84368896 3357468.50842285 15.92057419 52 57 60
245959.44683838 3357467.68121338 15.90030861 110 120 129
245957.14111328 3357468.69894409 16.77618599 33 45 41
245956.13922119 3357471.68579102 16.14097404 61 83 106
245957.39227295 3357467.54837036 16.49065971 107 114 122
245956.43463135 3357469.92166138 16.74928474 177 199 213
245957.28594971 3357466.84744263 15.64221382 63 75 75
245958.08782959 3357470.77804565 15.78399181 103 105 94
245959.73822021 3357472.34295654 16.27857590 49 67 87
245957.67633057 3357467.48141479 16.56354904 0 0 2
245958.55920410 3357467.72494507 15.94323921 115 131 144
245957.60638428 3357468.38677979 15.51412106 54 59 55
245958.21960449 3357469.98278809 16.82849503 182 216 226
245956.81738281 3357470.66284180 15.76876163 93 94 88
245959.89782715 3357468.10745239 15.45717907 87 94 104
245960.09344482 3357471.52832031 16.17768860 36 49 65
245957.78967285 3357467.66400146 16.22187233 113 127 140
245957.04357910 3357467.67486572 16.07674408 13 21 24
245957.32891846 3357470.91555786 15.93320656 36 46 48
245958.03979492 3357470.74606323 15.76584053 107 107 97
245960.44384766 3357472.67739868 15.71695328 95 103 106
245959.88464355 3357469.53231812 15.55512142 82 91 98
245958.49975586 3357470.57257080 16.12202454 29 44 47
245958.66223145 3357472.83792114 16.50918388 74 88 99
245957.05139160 3357468.33987427 16.39842415 37 47 48
245958.26098633 3357471.14324951 16.52131462 71 70 75
245958.60107422 3357470.97335815 15.94354916 46 52 52
245956.53851318 3357466.64428711 15.67212200 44 52 54
245958.17095947 3357468.95608521 16.72769737 32 40 42
245957.99194336 3357469.63696289 16.81917953 178 209 229
245958.56683350 3357470.95779419 16.14682388 47 50 55
245957.69531250 3357472.94842529 16.35725975 28 29 33
245959.92968750 3357472.72552490 16.24967003 52 67 86
245959.13336182 3357468.37939453 15.47613335 111 109 96
245959.60974121 3357470.01657104 15.83327198 69 103 112
245956.56701660 3357472.79501343 16.18149185 24 25 27
245958.89788818 3357467.87887573 15.62542152 74 81 87
245959.46044922 3357472.90194702 16.42193604 86 99 115
245958.86724854 3357471.79376221 16.58536339 46 124 170
245958.86230469 3357468.77871704 16.12748909 63 71 74
245957.40075684 3357468.39620972 15.51993084 55 58 63
245958.96673584 3357468.01150513 15.54084110 97 104 112
245959.93090820 3357471.88473511 16.17220879 32 50 72
245957.89312744 3357470.53848267 15.76265049 78 82 83
245959.20434570 3357471.06375122 16.16398621 48 52 55
245957.39770508 3357472.27676392 16.85622787 69 85 101
245956.71166992 3357471.87875366 16.57219505 54 71 91
245959.55657959 3357468.26080322 15.46665096 108 109 95
245957.79180908 3357468.50308228 15.92453766 51 57 57
245959.42755127 3357472.75048828 16.45819664 67 83 108
245958.64495850 3357470.35125732 16.47594643 53 72 87
245958.20471191 3357467.04324341 15.71168709 77 88 90
245957.19891357 3357468.60632324 16.63344955 32 42 41
245957.15435791 3357468.34689331 15.83066273 49 53 54
245960.16186523 3357471.32632446 16.25361824 58 58 66
245957.93646240 3357467.08135986 15.83260155 72 82 83
245959.90789795 3357472.87557983 16.15011787 88 98 108
245957.12005615 3357470.22476196 16.32526970 190 198 209
245956.30828857 3357472.02398682 16.43243217 51 72 91
245959.09936523 3357473.13708496 16.07338715 23 26 33
245957.61505127 3357468.58291626 16.25973511 46 51 54
245960.10021973 3357471.65530396 16.16943550 36 49 68
245955.83721924 3357471.86032104 16.73833084 7 12 16
245959.09747314 3357471.05078125 16.01167679 45 51 51
245956.97796631 3357468.41430664 16.74011421 26 38 34
245956.21264648 3357471.74310303 16.21798325 58 77 94
245958.84332275 3357467.21182251 16.25001907 68 80 76
245957.85772705 3357472.80035400 16.63592529 14 19 25
245958.53417969 3357467.13745117 16.13902283 86 92 88
245955.98541260 3357472.49853516 16.66932106 11 19 22
245960.24633789 3357472.84786987 15.91192436 76 81 85
245960.46136475 3357471.49258423 15.56904984 32 34 33
245959.96337891 3357467.62100220 15.73810196 94 101 109
245957.26818848 3357471.84475708 16.70319939 46 61 80
245957.01751709 3357467.41625977 16.61855507 47 56 63
245960.33099365 3357470.38562012 15.46378422 114 122 124
245957.22857666 3357468.37173462 15.65398884 52 56 55
245957.48046875 3357470.46939087 15.77839184 68 74 74
245958.56030273 3357468.97848511 16.67945671 66 70 71
245956.32629395 3357472.61935425 16.87101364 23 27 30
245957.77697754 3357470.33633423 16.21873093 138 144 158
245958.60601807 3357470.97430420 15.96533966 45 49 52
245957.46179199 3357467.07794189 16.17163086 65 71 71
245957.60424805 3357472.01397705 16.86760902 54 71 89
245960.57446289 3357472.02972412 15.96873856 40 51 55
245957.20062256 3357467.64193726 15.64117813 52 57 61
245957.44085693 3357468.54104614 16.29111671 48 54 54
245957.65710449 3357470.22961426 16.51207161 107 135 156
245960.43591309 3357472.32720947 16.25960159 37 48 66
245957.87170410 3357468.13848877 15.43930054 49 51 46
245958.32464600 3357467.52575684 16.59868622 16 21 27
