246118.33654785 3357424.50863647 14.75602722 64 55 56
246123.19079590 3357423.30679321 14.28390694 110 111 97
246103.06884766 3357423.79736328 15.58743286 18 36 56
246113.21337891 3357423.06475830 14.44682884 100 89 93
246130.46948242 3357423.25537109 15.82814217 163 161 166
246115.58300781 3357423.01480103 14.82166100 55 56 60
246125.68725586 3357423.72042847 15.71136284 197 208 214
246113.71862793 3357423.29379272 15.68219280 28 38 40
246126.22973633 3357424.32684326 15.35381222 17 23 21
246105.06213379 3357423.26654053 14.55295753 59 68 77
246106.63745117 3357423.22195435 14.46953869 117 104 87
246118.16918945 3357423.57952881 15.23874760 123 118 114
246119.94921875 3357423.88415527 15.65732956 148 156 167
246129.74377441 3357423.23977661 14.54846382 89 73 73
246105.56848145 3357424.67102051 14.40049648 65 73 76
246131.31726074 3357423.61288452 15.87317848 71 88 104
246113.65478516 3357423.05361938 14.38498688 86 87 92
246114.76794434 3357424.26922607 15.76975155 20 82 129
246107.96838379 3357423.02023315 14.56414127 93 98 101
246106.22290039 3357423.39547729 14.91799355 141 132 133
246106.70019531 3357424.45568848 15.36296654 183 194 200
246113.19140625 3357424.69006348 15.69029713 0 12 21
246101.93090820 3357423.19619751 15.34902573 161 171 183
246129.58666992 3357423.50534058 14.39600277 79 82 87
246126.00378418 3357423.14111328 15.65812016 247 251 254
246128.50207520 3357422.84011841 14.33115959 88 80 77
246106.61462402 3357423.24838257 14.92576027 77 83 83
246120.36010742 3357422.65350342 14.33357334 115 117 116
246119.09680176 3357424.48312378 15.42045498 48 52 51
246103.61413574 3357424.88583374 15.15194798 31 39 41
246114.54516602 3357424.80899048 15.47209740 34 42 45
246100.48120117 3357425.12814331 14.37907410 156 151 148
246120.16186523 3357423.12515259 15.57384872 155 162 172
246107.19970703 3357423.92050171 15.57890987 184 192 195
246126.94665527 3357423.10424805 15.29731560 68 86 108
246125.76611328 3357424.53326416 14.92103958 143 162 166
246120.56921387 3357424.12329102 14.73389053 92 106 89
246105.71508789 3357423.28604126 14.37552643 101 105 106
246107.50073242 3357424.91632080 15.16213608 137 149 145
246101.07519531 3357423.14788818 15.27456093 167 189 210
246127.60131836 3357424.43786621 14.95491028 155 171 171
246120.25744629 3357424.53094482 14.93316555 65 74 69
246132.12292480 3357424.47021484 14.40960026 73 78 72
246132.59777832 3357423.09521484 14.56739902 138 142 128
246105.60449219 3357424.94769287 14.34981441 85 90 93
246114.39770508 3357424.84777832 14.92355061 21 28 34
246112.60974121 3357424.69860840 15.47524548 90 122 135
246132.27722168 3357423.45245361 14.47739887 138 139 123
246133.34069824 3357424.53265381 14.78761864 21 29 31
246118.17358398 3357424.01510620 14.97137070 172 173 191
246115.27319336 3357422.89730835 15.22925949 31 44 61
246128.72167969 3357424.34515381 14.36256504 85 87 86
246132.64965820 3357423.81472778 14.41310978 119 124 117
246113.36083984 3357423.82165527 15.81342602 26 71 112
246102.74877930 3357423.12478638 15.26306915 169 195 208
246128.02490234 3357423.79821777 15.01632500 211 231 238
246130.08178711 3357424.57058716 14.63963127 75 76 71
246115.03112793 3357424.03402710 15.60781860 36 50 59
246100.39953613 3357423.06121826 14.42915154 157 157 155
246124.07128906 3357423.35458374 15.32622910 249 255 253
246130.63647461 3357422.88055420 14.77738190 85 87 84
246133.19250488 3357423.09707642 15.39599895 29 54 76
246114.05004883 3357422.75042725 15.03755569 137 149 161
246112.50781250 3357423.28292847 15.36497974 150 139 169
246133.53845215 3357422.73562622 14.42454815 74 71 66
246119.32922363 3357423.60830688 15.62735558 176 179 186
246130.33422852 3357423.20120239 15.61756611 37 42 46
246105.23144531 3357423.96612549 14.75400829 36 48 62
246113.10583496 3357424.79287720 15.22504711 17 34 44
246104.38366699 3357423.65054321 15.34395504 138 167 199
246118.39013672 3357423.22445679 15.23035049 185 174 180
246131.52319336 3357424.13085938 14.46242714 26 32 32
246119.44812012 3357424.08425903 14.48573112 116 127 110
246121.63977051 3357423.91918945 15.17677021 60 73 82
246115.55737305 3357423.40322876 15.38102722 25 57 96
246126.44055176 3357424.07507324 15.56681633 113 137 149
246120.64782715 3357423.95672607 14.32601929 167 167 165
246105.10400391 3357423.63098145 14.94492531 9 18 35
246115.35742188 3357423.67160034 15.41434479 51 74 92
246119.16931152 3357424.09716797 15.49647713 133 137 146
246115.22143555 3357423.19604492 15.45378971 83 119 145
246104.34582520 3357424.23535156 15.30057716 150 180 208
246120.15393066 3357423.03823853 15.45440769 31 36 42
246120.20935059 3357424.54785156 15.06587887 32 38 38
246133.49060059 3357424.57067871 14.75949574 33 38 42
246127.61181641 3357424.34432983 15.08395767 208 228 229
246108.70446777 3357423.08209229 15.31922436 66 71 75
246118.88525391 3357423.50869751 15.29133511 171 188 196
246134.41796875 3357424.63391113 14.36058140 52 59 65
246114.68908691 3357422.82153320 15.38044834 13 28 35
246110.07019043 3357423.41708374 14.86517429 43 47 48
246105.82958984 3357424.19375610 14.36488914 71 71 73
246124.84887695 3357423.80963135 15.59891605 137 128 131
246113.58349609 3357425.01232910 14.42760277 53 57 58
246133.33996582 3357423.70031738 15.39139652 29 47 69
246130.47619629 3357424.50634766 15.36926746 98 105 89
246132.69921875 3357422.76449585 14.53387070 90 87 80
246118.94238281 3357423.14663696 15.38007641 137 140 149
246131.44482422 3357423.11889648 15.82331657 51 58 66
246113.39489746 3357424.88418579 14.55098534 32 33 37
246125.64660645 3357423.03808594 15.65631771 252 252 250
246124.49072266 3357423.96539307 15.40970135 41 63 86
246128.54406738 3357423.62786865 14.52337742 47 51 54
246112.37536621 3357423.86840820 15.49040413 144 170 185
246116.57482910 3357423.41140747 15.05394173 33 55 79
246113.86755371 3357424.89791870 14.65293026 27 31 32
246122.33801270 3357423.03469849 14.96461487 93 103 115
246116.93371582 3357423.99533081 14.30172253 103 104 96
246109.51953125 3357424.72378540 15.29161072 27 43 58
246118.91674805 3357422.97540283 14.70578480 88 88 88
246107.16406250 3357423.77960205 15.50953770 201 206 209
246126.69604492 3357424.56466675 14.79379463 121 132 128
246127.15319824 3357424.54519653 14.76108170 38 46 48
246126.46716309 3357424.64196777 14.56613445 55 59 60
246104.86401367 3357424.43994141 15.06423759 97 132 170
246124.53588867 3357422.81478882 15.00660133 234 248 249
246126.88159180 3357424.52890015 14.75868225 70 82 78
246119.09057617 3357423.81765747 15.47434521 163 176 184
246106.26159668 3357423.50939941 15.22870731 102 82 84
246112.66699219 3357424.77288818 15.42580414 36 78 102
246120.45434570 3357423.25292969 14.78460789 91 96 90
246105.30786133 3357423.89791870 14.70584679 33 41 52
246132.01074219 3357423.86694336 14.43262100 112 115 96
246106.07995605 3357425.02481079 14.32591343 174 176 162
246118.36169434 3357424.53668213 15.01125813 59 26 33
246132.14978027 3357423.20281982 14.59011364 81 92 76
246125.58544922 3357423.46603394 15.68211555 249 251 250
246114.48193359 3357422.86386108 15.24408817 18 29 33
246132.03466797 3357424.46362305 15.53135681 23 33 34
246106.65454102 3357423.99179077 15.34291840 195 209 220
246106.53466797 3357424.87997437 14.52868843 61 61 61
246120.34826660 3357422.72448730 14.35062313 106 108 107
246111.00048828 3357423.41033936 14.31581593 164 159 137
246125.30639648 3357422.78234863 14.74502945 208 219 223
246132.68566895 3357423.20324707 14.57076931 84 92 81
246130.79089355 3357422.88290405 15.11238861 29 31 30
246134.26464844 3357424.36489868 14.74164009 73 85 97
246128.70092773 3357424.01019287 14.46452713 59 63 64
246126.54455566 3357422.69592285 14.52404976 159 173 174
246104.91320801 3357422.95391846 14.64365864 79 84 90
246132.30908203 3357423.28399658 15.86068153 45 58 74
246105.65673828 3357424.81121826 14.34584332 86 91 94
246109.64367676 3357423.26889038 14.40736580 95 95 95
246120.84960938 3357423.25946045 15.40750027 103 136 153
246123.14978027 3357424.11001587 14.25537586 202 202 168
246128.51440430 3357424.62432861 14.36230278 77 81 80
246124.64489746 3357424.11669922 15.46947670 43 61 75
246116.67187500 3357424.49636841 14.68783092 37 46 55
246106.85937500 3357424.35092163 15.36503220 84 94 95
246106.09997559 3357423.19247437 14.32419968 213 206 177
246104.46228027 3357424.91381836 14.72072029 146 153 159
246132.55334473 3357422.81570435 15.18380356 31 32 34
246103.72106934 3357422.76541138 15.10816860 51 59 62
246129.77893066 3357424.52285767 14.38560963 100 102 97
246105.19604492 3357424.94860840 14.39508915 66 71 74
246103.29223633 3357424.96176147 14.43939304 63 72 71
246109.62316895 3357424.22769165 15.29341412 29 50 67
246133.69030762 3357424.55560303 15.00022984 17 27 28
246110.46606445 3357423.56027222 14.97642803 91 106 111
246120.33459473 3357424.38806152 15.45886040 12 22 23
246113.04797363 3357423.09597778 15.10260963 66 88 102
246106.19750977 3357423.40939331 14.63501549 97 97 89
246123.73645020 3357424.47705078 14.25553608 107 111 110
246108.40673828 3357423.06246948 15.30182076 61 69 72
246120.78186035 3357424.56265259 14.30686760 93 97 100
246106.10729980 3357424.08743286 14.99269867 172 184 200
246131.49975586 3357424.69946289 14.55976868 74 79 75
246106.69921875 3357423.84854126 15.37672329 192 206 219
246130.28234863 3357423.11761475 15.45219135 34 38 41
246113.45886230 3357423.95285034 15.78239536 50 68 92
246115.62756348 3357424.84634399 14.89589787 9 14 18
246131.73645020 3357422.86456299 14.89391994 50 52 49
246118.50573730 3357424.91522217 14.38623714 132 136 139
246108.98925781 3357424.08639526 15.43904018 39 71 94
246125.08581543 3357422.75469971 14.78328133 209 225 225
246110.83715820 3357424.06451416 14.74388599 49 59 68
246124.68212891 3357422.74194336 14.76670456 93 113 112
246126.31701660 3357424.59158325 14.64713573 37 40 45
246114.49145508 3357423.15716553 15.55534363 60 81 100
246122.47863770 3357424.51763916 14.27568340 102 106 107
246129.71557617 3357423.74319458 14.74173260 151 145 147
246122.44287109 3357424.24508667 14.48371887 33 37 40
246129.18957520 3357423.56997681 14.26497555 137 135 114
246100.67517090 3357424.80130005 14.81249714 40 47 53
246100.53051758 3357424.39343262 15.42751694 136 162 187
246132.39770508 3357424.36456299 14.96919632 114 122 101
246126.09375000 3357422.97198486 15.58485031 86 106 105
246104.80493164 3357423.01446533 14.88405800 44 52 63
246112.86083984 3357423.09689331 14.54057121 60 60 60
246107.99731445 3357424.55633545 15.71574020 188 200 212
246132.82238770 3357424.33636475 14.82725239 94 102 81
246102.24230957 3357423.97274780 15.49071980 58 71 87
246118.31164551 3357424.84106445 14.36307335 155 155 157
246133.16296387 3357423.33297729 15.38334942 65 100 138
246110.49975586 3357424.40884399 15.15922737 164 186 207
246126.55786133 3357422.70315552 14.53792763 168 184 184
246128.07434082 3357423.93801880 14.96565628 202 225 233
246128.05590820 3357424.43835449 14.61999989 77 85 87
246108.62536621 3357423.75732422 15.68204784 170 191 210
246107.74938965 3357423.01611328 14.42152309 108 110 105
246110.02722168 3357423.80517578 15.15659618 175 198 212
246112.34216309 3357424.59646606 15.21802711 65 42 71
246131.62377930 3357423.86019897 14.50515747 102 106 91
246133.74255371 3357423.27734375 15.16860294 47 62 81
246114.78955078 3357423.25863647 15.66555500 33 50 60
246132.53247070 3357423.28329468 14.62604809 87 95 82
246131.05529785 3357424.46313477 14.52036953 50 58 60
246123.74121094 3357423.55737305 14.79409409 246 255 254
246113.75646973 3357423.58871460 15.85124397 71 113 151
246120.29858398 3357423.87252808 15.66665173 44 61 79
246109.07958984 3357423.73971558 15.32368755 45 89 118
246133.23730469 3357424.34570313 15.35755634 11 30 45
246126.88732910 3357422.71197510 14.39594460 111 116 119
246118.50793457 3357424.57174683 14.96976662 50 40 39
246122.51965332 3357424.13241577 14.81760502 63 66 73
246128.25134277 3357422.92468262 14.49470997 41 48 58
246116.29956055 3357424.37002563 15.12282562 7 86 145
246108.72058105 3357423.09066772 15.32743740 65 70 73
246119.08630371 3357424.27618408 14.47274113 163 172 155
246126.29516602 3357422.76583862 15.16772556 246 251 254
246119.01123047 3357424.82232666 14.43960094 106 106 106
246103.83410645 3357423.08346558 15.29130840 157 180 198
246100.77856445 3357424.43563843 15.38804150 49 67 91
246118.55358887 3357424.08648682 15.31112385 91 104 112
246134.43933105 3357423.96414185 14.69926453 149 164 171
246109.03979492 3357423.98037720 15.35283089 37 73 99
246112.60668945 3357423.42108154 15.56340694 182 184 181
246116.60144043 3357424.01788330 15.02464390 38 71 102
246119.12377930 3357424.25729370 15.45791245 96 101 104
246116.61364746 3357424.50308228 14.98266029 70 88 108
246120.74743652 3357423.31585693 14.35731030 57 58 60
246110.80346680 3357423.97534180 14.91773224 72 88 101
246134.13684082 3357423.74682617 15.11737537 38 59 80
246130.60961914 3357424.35134888 14.94556236 114 118 101
246108.87707520 3357424.88793945 15.45234680 112 128 141
246127.40148926 3357422.71783447 14.97856712 227 243 243
246118.55224609 3357422.93966675 14.32822132 194 191 160
246130.55065918 3357424.14843750 14.58739471 81 91 83
246102.00488281 3357424.76898193 15.25631618 147 152 155
246129.79699707 3357423.72579956 15.09614754 236 230 240
246119.75695801 3357423.81900024 14.56449604 63 79 52
246112.54858398 3357423.17904663 14.95684052 34 47 64
246116.54699707 3357424.37677002 15.08018494 32 78 114
246132.59240723 3357422.78472900 14.58100605 84 77 71
246132.67419434 3357423.34817505 15.54913998 45 84 117
246129.30566406 3357423.50738525 14.29648495 84 88 87
246115.88879395 3357424.33926392 15.23885822 36 126 176
246131.59216309 3357423.95166016 14.63768387 148 149 131
246105.15466309 3357423.67282104 14.81925392 79 89 101
246119.75219727 3357423.07989502 15.36556625 32 35 40
246113.00268555 3357424.98007202 14.39792061 51 55 58
246106.03369141 3357423.65203857 14.30650902 229 220 187
246123.45031738 3357424.64788818 14.25195980 125 128 133
246127.56030273 3357423.08746338 15.17056274 242 254 254
246129.79748535 3357423.05627441 14.49246120 101 97 98
246106.66076660 3357424.76745605 15.24021435 121 131 130
246125.05310059 3357424.69390869 14.31299400 107 105 106
246112.83850098 3357424.72747803 15.57650757 5 28 44
246110.32019043 3357423.52563477 14.98164463 92 103 105
246113.77563477 3357424.45281982 15.88601780 72 105 136
246127.24987793 3357422.70492554 14.64114952 69 78 77
246120.23632813 3357423.54147339 14.70483589 86 98 84
246106.58654785 3357423.28939819 15.15746880 154 145 148
246103.56665039 3357424.99743652 14.56367111 43 49 49
246119.40966797 3357422.94738770 14.86911011 39 43 42
246106.71459961 3357425.01779175 14.38843060 76 82 80
246125.86352539 3357423.23266602 15.68126583 136 149 157
246115.31091309 3357423.95989990 15.43032646 50 72 93
246116.25280762 3357423.47006226 15.19841766 29 113 173
246132.70397949 3357423.37921143 14.56871319 87 100 83
246124.02294922 3357423.01138306 15.24655533 248 252 253
246118.21313477 3357423.36599731 15.22858906 203 167 169
246100.21594238 3357424.64358521 14.77647114 127 128 123
246119.88879395 3357424.81838989 14.32700157 98 103 99
246120.31274414 3357424.52310181 14.98172283 83 92 87
246109.50000000 3357423.82635498 15.31998730 63 79 94
246122.54711914 3357423.62155151 14.92857933 138 145 155
246100.74304199 3357424.45452881 15.39201355 83 99 122
246118.15930176 3357424.21078491 14.76118851 66 70 73
246112.78137207 3357422.94442749 14.33476830 166 157 140
246132.12365723 3357423.58813477 14.45965576 134 136 115
246124.33068848 3357424.43295288 14.82168102 173 202 206
246116.72595215 3357423.68301392 14.84339619 35 53 77
246110.68139648 3357423.54040527 14.49519920 55 54 59
246118.53710938 3357424.51245117 14.60769939 145 150 143
246104.02587891 3357422.90856934 14.72798157 126 131 135
246123.12219238 3357424.10925293 14.25308514 202 202 168
246113.17663574 3357422.97787476 14.36036587 102 100 103
246114.92553711 3357423.67016602 15.62556076 39 68 84
246104.01245117 3357422.91613770 14.79967690 137 142 146
246105.23803711 3357423.28836060 14.51161575 78 83 87
246118.73168945 3357424.60348511 14.66166878 41 47 43
246132.62841797 3357424.10534668 14.34569645 71 81 72
246118.15551758 3357423.29464722 14.86310196 77 72 68
246112.30664063 3357423.37438965 15.16538334 88 48 74
246106.22021484 3357423.58035278 15.22145462 80 61 65
246108.07031250 3357425.02508545 14.72722626 40 49 46
246119.74194336 3357424.14392090 14.39848614 143 144 139
246119.04956055 3357423.22689819 15.44945335 179 182 191
246112.30078125 3357424.99649048 14.39231396 111 111 109
246100.58837891 3357423.20874023 14.82188416 84 88 100
246127.98327637 3357424.44577026 14.76664734 90 97 103
246110.84729004 3357424.48742676 14.65194607 57 70 79
246120.06823730 3357422.90014648 15.12476730 111 115 116
246107.39099121 3357424.90625000 14.84848118 42 53 47
246113.72509766 3357424.92587280 14.54320526 43 44 46
246119.71325684 3357424.40304565 15.51338959 11 15 16
246131.10217285 3357423.42395020 15.90046120 82 92 102
246129.26110840 3357423.73544312 14.27171040 70 71 65
246121.07446289 3357423.34698486 15.14693737 96 132 148
246121.85070801 3357423.92340088 15.08460331 127 137 146
246133.30395508 3357424.58349609 15.02621174 36 49 39
246114.51000977 3357423.54364014 15.82927895 92 116 154
246115.29626465 3357424.59466553 15.42345715 56 75 79
246116.65454102 3357423.76831055 15.01270771 39 60 87
246126.50622559 3357424.21203613 15.51210785 132 151 158
246114.77307129 3357423.28561401 15.69394016 62 81 96
246126.73864746 3357423.81408691 15.27719975 63 80 90
246133.66503906 3357424.57006836 14.73267651 45 54 53
246121.68554688 3357424.54895020 14.39708042 70 76 74
246131.81054688 3357424.46362305 15.54806423 31 40 39
246126.16381836 3357423.95230103 15.64697647 140 138 141
246118.94409180 3357424.66397095 14.82525539 37 41 42
246131.80395508 3357422.84341431 14.72856617 83 82 80
246118.95214844 3357424.51809692 15.34514523 45 51 51
246133.20312500 3357424.58013916 14.98187160 42 59 41
246113.18920898 3357423.07806396 14.48957729 99 90 93
246103.94262695 3357424.37634277 15.31906891 167 189 210
246120.33581543 3357423.70169067 14.69929028 83 97 80
246103.01538086 3357424.99258423 15.05178070 35 44 43
246119.46716309 3357424.45150757 15.43757343 13 15 14
246112.70434570 3357424.76870728 15.44587612 15 58 77
246113.23327637 3357424.57165527 15.81865788 73 111 156
246125.23876953 3357423.64041138 15.64630032 227 232 235
246131.11694336 3357424.05712891 14.61435032 90 93 86
246112.26098633 3357424.64270020 14.66131783 184 192 194
246121.26867676 3357424.41421509 15.18842220 42 53 49
246101.28173828 3357423.06811523 14.86339569 105 110 116
246100.97851563 3357423.06222534 14.62038994 140 143 150
246121.05688477 3357423.30902100 15.14462757 101 137 151
246107.30554199 3357423.16647339 15.03819656 54 62 65
246101.05847168 3357423.12588501 15.02036476 124 138 151
246101.73144531 3357424.59115601 15.51867771 21 31 40
246101.87756348 3357424.08267212 15.55518055 180 197 213
246100.78515625 3357424.47622681 15.38496208 60 78 100
246107.70605469 3357423.54339600 15.58833218 50 70 79
246120.32287598 3357423.61148071 14.40260792 106 110 111
246128.55773926 3357423.46066284 14.53553486 44 48 51
246128.75866699 3357423.33477783 14.41861916 62 63 65
246109.84936523 3357423.43521118 15.03915596 195 210 213
246125.24389648 3357424.11227417 15.59929085 240 254 255
246119.33679199 3357423.82449341 15.61696720 172 175 184
246132.17065430 3357424.45272827 14.39664936 73 78 72
246130.31750488 3357422.94775391 14.76277256 50 50 50
246132.13696289 3357424.47302246 15.50559902 32 41 40
246100.34765625 3357424.62396240 15.30577660 127 140 149
246132.65698242 3357422.99493408 15.51093388 63 66 73
246131.18701172 3357423.22467041 15.91398335 204 213 220
246132.33288574 3357423.72201538 14.70903111 104 115 98
246120.60766602 3357423.35537720 14.77348900 74 81 74
246105.18896484 3357424.04904175 14.81554699 91 107 123
246106.70874023 3357424.92242432 14.54088688 101 102 97
246131.01940918 3357424.25769043 14.82536411 104 108 94
246100.96545410 3357424.98007202 14.65894222 135 137 132
246131.10156250 3357424.05480957 14.60237503 90 93 86
246118.69921875 3357424.58660889 14.69230175 101 112 82
246113.02246094 3357423.10430908 15.13177013 52 79 100
246122.21166992 3357424.44491577 14.38172245 69 75 75
246131.97802734 3357423.38031006 15.87524509 58 72 85
246132.75952148 3357424.09417725 15.44858932 51 96 127
246132.96606445 3357424.39285278 14.78163147 49 64 45
246125.67810059 3357422.75756836 15.02576923 228 238 240
246116.71386719 3357424.49905396 14.55594540 37 45 48
246116.81933594 3357424.20678711 14.44477749 39 49 50
246119.45690918 3357422.96456909 14.65751457 35 36 38
246131.20336914 3357424.73550415 14.48673058 72 77 71
246129.22436523 3357423.52444458 14.27107811 89 91 78
246108.69604492 3357423.86489868 15.67198086 177 201 225
246131.83959961 3357423.29135132 15.92144680 65 75 84
246107.21582031 3357425.13882446 14.41931629 59 68 63
246132.21984863 3357424.57321167 15.24399090 48 53 47
246108.77392578 3357423.74038696 15.64050102 159 184 204
246121.33227539 3357422.79281616 15.11228943 100 104 105
246120.40673828 3357423.32580566 14.42016411 99 103 104
246116.86865234 3357422.91574097 14.30851269 225 220 182
246111.11474609 3357423.92645264 14.29472351 177 175 154
246100.65234375 3357424.70370483 15.10063171 61 77 90
246107.36340332 3357423.62167358 15.62221909 221 230 237
246118.97094727 3357424.34133911 15.40580368 65 74 73
246134.67187500 3357424.03839111 14.33704853 50 60 70
246120.78820801 3357423.95190430 14.33314133 164 163 161
246130.60668945 3357423.14941406 15.71772957 70 71 75
246101.62744141 3357424.01498413 15.56095600 162 181 198
246114.07910156 3357424.84365845 14.95163727 15 22 30
246101.40856934 3357424.60711670 15.51215935 53 64 70
246109.48132324 3357423.71234131 15.32352257 41 59 71
246115.98999023 3357424.17587280 15.19351482 11 103 154
246134.04211426 3357422.89901733 15.13978100 32 41 50
246104.16381836 3357422.92449951 14.62257957 137 145 147
246126.47900391 3357424.04254150 15.53838253 66 88 99
246126.43530273 3357423.08511353 15.57867527 47 65 79
246128.29235840 3357423.39175415 14.79947567 68 92 120
246106.15527344 3357424.02761841 15.22508907 142 152 177
246126.67211914 3357424.54858398 15.13140678 145 160 157
246119.63732910 3357424.54565430 14.99485779 92 101 96
246102.37475586 3357424.87652588 15.13506889 26 27 32
246126.05932617 3357424.73068237 14.41114521 66 71 75
246107.57373047 3357424.76916504 15.49844074 0 9 10
246129.01062012 3357423.61483765 14.28743362 156 147 116
246122.08276367 3357423.93762207 15.02996922 119 131 143
246119.93566895 3357423.22531128 15.61034775 164 171 179
246124.76843262 3357422.77319336 15.03403473 230 248 250
246124.23535156 3357423.53808594 15.37167358 111 142 162
246130.37182617 3357424.71981812 14.52401257 88 91 82
246100.33984375 3357424.70889282 14.87439728 172 172 172
246110.50305176 3357423.91192627 15.10608482 162 184 205
246130.15539551 3357424.43109131 15.06641388 128 133 110
246115.36511230 3357424.83242798 15.15755177 3 14 20
246123.76293945 3357423.69567871 15.10183430 232 241 240
246127.72021484 3357422.72424316 14.89339924 206 224 228
246119.65075684 3357424.72354126 14.37201309 94 100 98
246102.92968750 3357423.03729248 15.29643059 133 161 173
246132.02172852 3357422.90979004 14.54775143 93 92 88
246120.13195801 3357424.55676270 14.71776867 103 105 104
246128.02954102 3357423.51831055 15.05710983 209 231 244
246121.60156250 3357422.67779541 14.36826706 129 134 128
246133.95898438 3357424.53363037 14.84791660 19 25 25
246102.38964844 3357425.03384399 14.41544342 95 96 98
246104.80383301 3357424.92553711 14.54944420 38 43 47
246130.07226563 3357423.01727295 14.78594494 55 56 51
246131.30969238 3357422.82006836 14.42492485 78 75 70
246100.78649902 3357423.05258179 14.51629639 90 91 95
246125.35961914 3357422.93295288 15.48276615 17 26 31
246112.55566406 3357424.80987549 15.27147198 7 18 36
246113.43249512 3357422.96582031 14.80727959 71 71 81
246119.71984863 3357424.09423828 14.66475773 65 89 57
246102.96374512 3357425.12570190 14.37484360 99 104 100
246134.24035645 3357423.69729614 15.12189579 36 61 81
246118.42785645 3357422.97848511 14.34450912 151 150 119
246120.53955078 3357423.09738159 14.83800507 106 108 105
246131.02246094 3357423.46868896 15.91208458 92 102 112
246125.24218750 3357424.48471069 15.04592323 171 188 195
246104.25415039 3357424.59487915 15.22139359 165 189 217
246129.57873535 3357423.63018799 14.36080742 79 85 85
246119.45043945 3357424.57723999 15.17636776 44 48 47
246122.23718262 3357423.28414917 14.92238712 108 120 134
246112.26757813 3357423.80899048 15.23873329 65 107 149
246132.35241699 3357423.23800659 14.64027023 84 92 79
246130.75048828 3357423.18399048 15.83819580 55 60 66
246131.86254883 3357424.35028076 14.51178360 90 95 88
246120.50195313 3357423.85632324 15.64932060 104 117 133
246123.57763672 3357422.84368896 14.27838707 187 171 155
246124.84130859 3357424.57281494 14.53807545 55 56 58
246131.01025391 3357422.88912964 15.31754398 114 115 117
246113.85437012 3357423.40057373 15.84932137 176 205 221
246110.11059570 3357424.12332153 15.21551037 173 199 212
246107.70971680 3357424.10708618 15.60831928 203 217 228
246108.22924805 3357424.26077271 15.71571732 42 59 77
246113.60156250 3357422.90811157 14.69584942 108 112 121
246131.66992188 3357424.01351929 14.68768215 148 149 131
246122.11315918 3357422.87536621 15.02907658 105 118 127
246102.56066895 3357424.54864502 15.42592239 52 63 67
246104.27331543 3357423.80395508 15.36882114 142 169 198
246103.05102539 3357424.58969116 15.35441589 61 74 83
246121.41223145 3357422.75097656 14.84281540 42 43 45
246125.93884277 3357423.40518188 15.68811703 43 61 75
246130.15075684 3357422.77166748 14.32977962 139 129 102
246131.68591309 3357424.37243652 15.82887840 43 55 69
246120.22961426 3357423.44674683 14.43406200 111 112 114
246103.04760742 3357424.68847656 15.32574272 1 6 9
246119.36804199 3357424.58560181 15.01790142 31 40 39
246109.28686523 3357423.45382690 15.35290718 85 93 96
246131.06311035 3357424.53186035 15.13520813 113 116 99
246120.69384766 3357423.80789185 15.61810875 125 143 163
246124.17749023 3357424.34463501 15.18418598 206 219 227
246134.56860352 3357423.88330078 14.49036980 35 48 54
246123.76330566 3357423.51885986 14.82176971 245 255 255
246132.26281738 3357424.17849731 14.90687752 122 131 112
246108.94726563 3357423.97805786 15.46874619 37 65 87
246120.42175293 3357424.32870483 15.56049538 87 98 104
246115.21496582 3357423.44842529 15.45425415 144 182 191
246110.52355957 3357423.58694458 14.98447037 131 151 160
246131.38122559 3357422.83804321 14.68493176 118 117 115
246109.78662109 3357423.37277222 14.73522091 166 175 174
246107.85900879 3357424.84429932 14.62260914 39 48 45
246125.86352539 3357424.71298218 14.46004200 67 68 73
246131.32604980 3357422.82772827 14.50631046 48 47 45
246128.62670898 3357422.82028198 14.31226254 105 95 85
246132.50537109 3357423.42544556 14.49196434 136 138 125
246115.67492676 3357423.96719360 15.36575127 19 52 83
246112.93701172 3357423.51757813 15.77964973 107 190 244
246105.91833496 3357423.35870361 14.32355022 122 123 107
246103.50854492 3357424.86007690 15.19732475 83 88 94
246103.01306152 3357424.42883301 15.48090553 57 76 91
246118.24841309 3357423.96386719 15.26325417 124 136 148
246118.29919434 3357422.73608398 14.29389858 116 115 110
246106.10278320 3357423.25787354 14.31785011 219 206 174
246133.21472168 3357423.65103149 15.38625622 48 79 108
246104.88037109 3357423.84390259 15.11600399 106 140 178
246128.31445313 3357424.53277588 14.47527885 82 83 85
246105.48193359 3357424.15896606 14.58929634 54 63 68
246127.23437500 3357422.78781128 15.05126572 241 251 252
246102.54467773 3357424.56274414 15.43061161 13 24 26
246102.98095703 3357423.24230957 15.41520405 26 39 56
246128.41650391 3357423.73654175 14.53752804 27 32 38
246118.92187500 3357423.12124634 15.34928322 135 135 143
246118.20935059 3357424.28536987 14.96318054 75 74 72
246107.18920898 3357424.91806030 14.84895706 46 52 50
246124.71118164 3357422.88415527 15.36393452 66 87 90
246111.45190430 3357425.00732422 14.31161880 98 100 97
246107.83459473 3357424.50817871 15.62671280 204 222 232
246121.44104004 3357422.72097778 14.40290451 66 66 58
246104.43933105 3357424.87063599 14.85269070 15 25 34
246129.88684082 3357423.35168457 15.46647644 157 166 163
246114.83203125 3357422.93472290 14.43418503 51 56 60
246121.65612793 3357424.41772461 14.88852882 23 29 27
246120.71997070 3357422.83489990 15.13422585 111 113 112
246120.45959473 3357423.80017090 15.65503025 38 52 65
246121.14746094 3357424.14620972 14.58321476 116 130 105
246100.22827148 3357424.88775635 14.48454475 153 150 145
246132.34497070 3357422.82180786 14.99786949 50 50 50
246119.34472656 3357423.64923096 15.63022995 175 179 188
246124.11877441 3357424.50827026 14.60402393 47 59 59
246121.10363770 3357424.17660522 14.33187485 140 140 130
246131.36071777 3357424.11730957 14.44871616 36 42 40
246103.59130859 3357424.76657104 15.24730396 117 126 135
246101.24731445 3357423.58413696 15.54927254 82 98 114
246122.83251953 3357424.42572021 14.26177788 108 112 113
246127.98046875 3357423.68753052 15.05865192 221 239 251
246129.70288086 3357423.86132813 14.57980919 77 76 74
246122.76550293 3357424.65844727 14.25449657 115 117 116
246120.23217773 3357424.53927612 14.97199726 52 58 56
246108.19824219 3357423.19705200 15.31865311 91 101 103
246122.69543457 3357423.21423340 14.51054573 45 49 50
246101.18408203 3357422.99679565 14.49635220 160 165 171
246121.08923340 3357423.07940674 14.50577641 46 50 49
246103.55407715 3357424.05920410 15.40875340 79 117 140
246118.98327637 3357424.40615845 14.51903534 142 144 133
246120.23889160 3357423.38995361 14.72142887 89 99 90
246127.75927734 3357423.57717896 15.14961720 238 249 255
246133.71423340 3357423.62203979 15.19616318 49 64 87
246122.32824707 3357424.19375610 14.96215916 109 122 139
246131.57116699 3357424.13992310 14.47645378 26 30 31
246118.14099121 3357423.24838257 14.60100269 81 80 78
246100.53906250 3357423.29833984 15.34432793 188 203 224
246100.19165039 3357423.78027344 15.21839619 177 177 179
246131.57031250 3357422.97659302 15.43988800 88 89 93
246125.50915527 3357424.20355225 15.58194542 98 132 142
246113.51525879 3357425.02551270 14.39878273 56 62 62
246113.40319824 3357424.85409546 15.13752937 19 28 35
246107.82519531 3357424.82144165 15.42880440 12 23 19
246114.25317383 3357424.21728516 15.79602623 13 17 26
246133.25085449 3357424.50457764 14.62182808 22 31 28
246130.41052246 3357422.95373535 15.09100723 24 28 27
246104.85668945 3357423.40686035 15.11900330 125 153 190
246105.15869141 3357424.29608154 14.68354893 61 71 80
246110.38806152 3357423.76635742 15.12075043 163 184 205
246128.12048340 3357424.16284180 14.74246979 99 112 128
246114.74047852 3357422.80209351 14.59208107 59 64 68
246102.53234863 3357424.38363647 15.45824146 43 55 67
246112.85314941 3357423.33767700 15.61768532 47 72 92
246110.96228027 3357424.80346680 14.34806156 60 65 61
246109.63977051 3357423.44448853 15.14188480 186 202 202
246116.66784668 3357423.48547363 14.87670898 40 57 77
246116.86499023 3357424.19293213 14.39130592 52 56 59
246119.06848145 3357423.02291870 15.20664692 144 147 154
246112.22412109 3357423.58929443 14.86266422 142 157 176
246112.77551270 3357424.75683594 15.47446251 11 46 66
246107.86779785 3357423.79803467 15.67908478 198 211 227
246107.67150879 3357422.96444702 14.36140251 109 114 110
246125.56286621 3357424.72094727 14.37968063 69 73 74
246119.23596191 3357424.16955566 15.56907558 84 89 93
246134.49218750 3357423.68499756 14.67787170 34 49 70
246120.37451172 3357424.09576416 14.69524002 95 109 92
246113.18164063 3357424.73684692 15.53098011 10 13 22
246122.29907227 3357424.31353760 14.48358250 34 35 37
246115.06726074 3357424.90490723 14.62167358 36 41 45
246110.87780762 3357423.68630981 14.38882923 77 79 76
246109.31250000 3357423.05136108 14.46437454 105 107 106
246107.97241211 3357423.20532227 15.32233715 98 116 118
246132.47619629 3357422.83203125 14.86511898 64 64 62
246109.07604980 3357423.05554199 14.77689075 79 80 82
246131.29870605 3357422.82662964 14.44215202 53 52 48
246120.13061523 3357423.46923828 14.70875454 86 98 84
246119.00915527 3357422.93682861 14.48395920 167 167 169
246101.17565918 3357424.70654297 15.12236595 100 114 123
246130.59765625 3357423.94042969 15.85385036 93 103 113
246120.69299316 3357423.08840942 15.54059410 40 53 70
246126.08776855 3357422.94308472 15.51814461 29 49 48
246128.08081055 3357422.82711792 14.59826756 136 159 173
246125.18176270 3357422.98159790 15.55923557 138 146 148
246120.15979004 3357423.09252930 14.84161282 104 106 103
246128.34985352 3357424.74502563 14.36960125 78 78 76
246118.35681152 3357424.51791382 14.69976330 51 47 46
246121.23706055 3357424.13299561 15.20632267 107 148 170
246112.92919922 3357424.40396118 15.79063892 21 164 224
246126.46496582 3357424.59042358 14.95590210 121 137 136
246128.97460938 3357423.68304443 14.30185413 93 89 77
246116.94714355 3357424.26434326 14.31760597 108 108 96
246123.29150391 3357424.35861206 14.27501106 106 107 102
246109.61853027 3357424.72463989 15.28971195 37 47 56
246105.08117676 3357423.79180908 14.98962116 16 32 55
246133.34704590 3357422.78390503 15.02905369 43 47 48
246107.48144531 3357424.46130371 15.55628300 214 225 231
246109.49670410 3357424.47210693 15.29479885 74 110 134
246105.38317871 3357424.32641602 14.56627560 45 52 62
246108.00891113 3357423.57217407 15.66041279 106 134 148
246105.60742188 3357424.58676147 14.41234875 73 78 82
246132.22521973 3357424.27191162 14.36878204 33 42 39
246106.88439941 3357423.55493164 15.43048477 183 178 182
246125.41223145 3357424.47131348 15.08381462 179 198 204
246104.58813477 3357424.15139771 15.28780460 128 159 190
246120.01770020 3357423.64984131 15.69861889 153 162 179
246102.78979492 3357425.02713013 14.89318466 49 55 55
246134.41174316 3357423.32415771 15.10637951 110 121 139
246106.12951660 3357424.16650391 15.12469387 240 247 255
246127.94641113 3357422.79888916 14.88849831 148 169 188
246119.33837891 3357424.55526733 15.23730373 129 135 135
246121.79785156 3357424.67025757 14.33576870 90 96 96
246118.13732910 3357423.52078247 15.05111504 86 56 58
246120.12304688 3357422.91726685 14.97856522 84 85 87
246100.15600586 3357424.09066772 14.90818405 142 150 163
246131.38183594 3357424.29925537 14.54925919 37 41 42
246126.10815430 3357423.36950684 15.66626740 67 75 88
246104.52636719 3357422.92361450 14.74188328 48 51 56
246122.72680664 3357423.59219360 14.53816128 32 38 38
246118.50659180 3357424.39880371 15.29407597 143 152 159
246121.91528320 3357424.38876343 14.83961678 23 31 34
246113.05078125 3357423.08349609 14.69480991 106 102 103
246116.51147461 3357424.68457031 14.55457878 30 35 41
246131.99621582 3357424.03857422 14.77356243 146 149 132
246132.26110840 3357424.46212769 14.38396072 74 78 77
246131.51086426 3357424.54107666 15.32381344 126 130 116
246119.10314941 3357424.51553345 15.35171700 31 35 34
246104.90173340 3357424.39096069 15.05668640 97 133 167
246107.16015625 3357423.12759399 14.42895412 116 117 112
246118.87048340 3357424.68276978 14.69846249 21 27 27
246118.57458496 3357424.53256226 15.14073277 77 78 82
246113.06445313 3357423.07089233 14.95737934 125 125 137
246108.17114258 3357425.06832886 14.90449715 36 45 40
246118.29272461 3357424.47885132 14.70974636 62 60 61
246119.94970703 3357424.32641602 14.70395660 112 125 107
246104.92822266 3357425.17373657 14.40562630 62 71 68
246131.38696289 3357422.87985229 14.95427132 43 43 43
246128.53491211 3357423.46942139 14.53865147 38 42 45
246120.62414551 3357423.14553833 15.58721638 114 129 148
246120.45532227 3357424.38922119 15.42707825 13 22 21
246127.97583008 3357424.68630981 14.56820011 54 59 55
246123.87194824 3357423.96463013 15.21700859 243 255 255
246119.61791992 3357423.94644165 14.49843693 84 100 74
246101.38940430 3357422.90344238 14.58270359 81 85 86
246120.82348633 3357423.35919189 15.44495678 93 121 143
246113.52600098 3357424.88442993 15.08449554 24 28 37
246101.08520508 3357424.29995728 15.45294952 59 75 88
246109.04504395 3357424.21359253 15.41946030 14 48 73
246131.95581055 3357423.66299438 15.77659798 48 65 83
246113.18688965 3357424.70315552 15.65366936 5 10 16
246102.33361816 3357425.02267456 14.40525150 93 93 93
246119.98864746 3357424.56604004 15.12368011 60 65 61
246110.31079102 3357424.26632690 15.19851494 170 193 211
246115.23144531 3357424.71789551 15.42747974 49 67 69
246123.60681152 3357423.82363892 14.63069344 74 70 67
246124.13293457 3357424.10583496 15.34550381 233 246 254
246133.34277344 3357422.78515625 15.03583336 43 47 48
246125.80798340 3357422.71612549 14.59606266 209 220 222
246114.31335449 3357424.27301025 15.81652355 2 2 10
246104.58972168 3357423.35159302 15.22466278 127 153 188
246128.72583008 3357423.46109009 14.46969223 56 57 59
246101.19006348 3357423.44094849 15.50495052 142 155 171
246120.00048828 3357423.96942139 15.66150284 156 162 174
246124.99682617 3357424.13653564 15.57455921 247 252 255
246119.01977539 3357424.51419067 15.35442162 52 56 57
246116.05224609 3357422.99011230 14.74975300 54 56 53
246112.72131348 3357423.79650879 15.73614979 17 143 217
246130.39892578 3357423.25039673 15.78384590 28 35 41
246115.22143555 3357423.29943848 15.47263718 49 88 103
246112.86376953 3357424.90148926 14.40207577 37 42 38
246126.74792480 3357423.78347778 15.27310085 60 77 87
246106.78076172 3357424.87127686 14.68956470 76 81 77
246122.26098633 3357423.34634399 14.92324829 112 126 139
246119.85559082 3357424.00714111 15.60743523 148 155 161
246134.44250488 3357423.96395874 14.69278240 149 164 171
246109.70593262 3357423.44882202 15.12747955 186 204 204
246128.11779785 3357423.64129639 15.00836277 196 223 234
246132.77233887 3357423.48919678 14.56105804 86 100 83
246124.15808105 3357422.79861450 14.75925064 226 237 241
246121.12451172 3357423.60427856 15.16360855 100 136 152
246110.84057617 3357423.94769287 14.68506527 40 43 48
246120.73596191 3357423.10693359 14.36276436 49 49 51
246123.26123047 3357422.77539063 14.27293491 216 207 174
246104.43395996 3357425.08111572 14.53552341 49 54 57
246122.32531738 3357422.75955200 14.30258179 148 144 119
246126.66687012 3357423.70886230 15.32846642 66 83 101
246120.91906738 3357423.33706665 15.26514816 91 124 141
246115.26550293 3357422.99481201 14.60774994 67 67 65
246120.24792480 3357422.96203613 14.45861626 51 55 56
246102.85864258 3357423.84295654 15.50003529 31 44 63
246127.67993164 3357422.71234131 14.53300381 44 54 55
246127.20178223 3357424.56225586 14.71114254 32 37 40
246106.45959473 3357424.50482178 15.30477047 210 224 235
246113.70886230 3357422.82040405 14.98614979 137 147 157
246110.79125977 3357423.86282349 14.88144875 96 106 115
246128.22375488 3357424.56253052 14.49504566 76 80 79
246106.80847168 3357423.14105225 14.97884560 53 59 59
246105.24475098 3357423.14916992 14.46862316 102 105 112
246132.39990234 3357422.81716919 15.03392029 47 49 46
246130.71667480 3357423.55401611 15.88747978 89 101 113
246109.38696289 3357424.34228516 15.29865646 45 88 120
246110.75048828 3357424.19378662 15.02751827 110 132 153
246118.05822754 3357423.57800293 14.70124626 68 69 71
246104.11279297 3357422.96994019 14.80461788 187 195 197
246120.36645508 3357424.60147095 14.35091877 64 69 72
246126.81665039 3357423.82095337 15.26088905 55 66 72
246112.84680176 3357424.53634644 15.75029087 52 162 221
246113.59240723 3357423.94644165 15.73959923 52 65 84
246116.91760254 3357424.77389526 14.29788017 119 121 120
246105.80798340 3357424.35064697 14.35944462 79 80 84
246108.02465820 3357424.74475098 15.54191113 36 53 60
246120.85192871 3357423.92953491 14.33979893 162 161 159
246106.12866211 3357424.40896606 15.07918358 96 91 97
246122.56835938 3357423.30282593 14.86322784 59 69 79
246130.43591309 3357423.58163452 15.85324287 73 89 104
246102.12304688 3357423.56192017 15.56805420 92 106 117
246130.73974609 3357423.15063477 15.76848412 99 104 108
246121.71691895 3357423.59210205 15.16777706 142 151 160
246113.75476074 3357424.78063965 15.35691452 19 30 36
246132.00390625 3357423.60311890 14.58580399 90 103 83
246112.96520996 3357423.60891724 15.79599476 33 141 203
246113.66723633 3357424.98162842 14.46820068 50 51 53
246128.35241699 3357422.83407593 14.35258961 107 98 89
246127.40844727 3357422.89044189 15.15583324 243 255 255
246103.82263184 3357422.87673950 15.19552326 58 69 75
246116.11218262 3357423.03347778 14.99102020 22 39 47
246128.17431641 3357423.23202515 15.00035381 184 226 240
246127.01977539 3357422.76654053 15.06135654 238 248 249
246121.66760254 3357422.73107910 14.53146839 161 163 162
246114.45825195 3357423.56872559 15.81374073 93 110 136
246107.88830566 3357424.06082153 15.68972683 192 208 221
246104.01879883 3357422.86105347 14.66440201 77 82 86
246132.82397461 3357423.98968506 14.42099667 89 100 92
246131.35400391 3357424.55133057 15.22198582 97 100 89
246108.36193848 3357422.95550537 14.54033947 95 101 101
246105.11975098 3357424.13250732 14.94630337 12 23 43
246119.36828613 3357424.86724854 14.37160873 80 84 85
246116.23413086 3357424.82235718 14.86190414 16 25 24
246130.75000000 3357423.14376831 15.75870705 99 104 108
246114.28320313 3357422.85000610 14.45531750 69 75 75
246112.40710449 3357423.74349976 15.48902225 166 178 190
246128.61486816 3357423.60250854 14.51550674 49 52 57
246107.79467773 3357423.71469116 15.65315723 198 216 226
246108.93847656 3357423.66061401 15.56174946 74 104 128
246115.92810059 3357424.84057617 15.01883125 9 14 20
246126.71105957 3357424.53692627 15.12779045 139 158 154
246119.96557617 3357423.07785034 14.78174400 101 105 106
246128.28100586 3357423.78665161 14.71446514 89 104 125
246102.63574219 3357425.07580566 14.42873192 122 124 123
246108.99804688 3357423.94732666 15.40585518 41 75 102
246122.57592773 3357424.28762817 14.36047459 70 74 75
246121.61621094 3357423.85025024 15.18842220 43 55 67
246130.26599121 3357423.03656006 15.30337048 32 33 35
246112.27233887 3357424.28424072 15.12045479 2 63 107
246118.76330566 3357424.63229370 14.72336864 70 78 63
246102.78527832 3357423.89895630 15.47919941 33 44 62
246120.69152832 3357422.94519043 14.96698093 117 118 113
246109.22448730 3357423.02813721 15.15869141 73 77 80
246124.82482910 3357424.35333252 15.28916264 220 224 236
246103.12976074 3357424.94912720 15.15027046 36 44 46
246108.14843750 3357424.56478882 15.71487713 86 94 105
246113.55041504 3357424.16558838 15.78170395 53 68 89
246132.91320801 3357423.44024658 15.32731438 66 104 140
246100.32019043 3357424.94674683 14.45702648 153 152 148
246108.11242676 3357424.60079956 15.70889378 179 187 198
246115.27099609 3357423.00198364 14.43980980 93 84 69
246119.64990234 3357422.96057129 14.56077957 44 46 45
246103.80773926 3357425.09844971 14.52964878 49 53 52
246130.88342285 3357423.05154419 15.54262829 28 29 31
246131.36645508 3357422.76968384 14.36755943 102 99 92
246113.72167969 3357423.38461304 15.82425404 180 209 223
246119.44335938 3357424.58724976 15.11516953 27 33 31
246106.74182129 3357423.37677002 15.38223267 216 227 229
246108.86755371 3357424.04229736 15.58410072 129 150 171
246130.17285156 3357424.60183716 14.60795784 81 83 78
246132.07958984 3357423.70764160 14.44740009 129 132 111
246124.99316406 3357424.65795898 14.32069683 104 102 103
246120.73156738 3357423.88961792 14.72979546 69 93 67
246113.28686523 3357423.26293945 15.53884506 17 34 54
246132.47912598 3357422.96636963 15.45859432 27 33 31
246118.42907715 3357423.50100708 15.34009647 156 159 174
246131.60070801 3357424.37561035 15.83042145 35 47 61
246105.78247070 3357424.03100586 14.41025162 76 75 81
246128.26342773 3357423.71212769 14.84997749 66 88 111
246134.14196777 3357423.69372559 15.12753201 39 61 82
246127.87316895 3357424.16253662 15.04917145 220 237 245
246123.50097656 3357422.73696899 14.26793671 181 176 154
246113.60144043 3357424.85974121 15.15301323 22 30 41
246134.31323242 3357423.91400146 15.09442616 37 53 76
246108.40759277 3357424.39001465 15.70158768 31 49 63
246100.94311523 3357423.66931152 15.39374638 88 104 119
246101.42724609 3357424.97390747 14.66139412 35 37 34
246124.68554688 3357424.26998901 15.40505886 169 183 192
246130.58911133 3357424.12332153 14.48451328 45 51 49
246126.25585938 3357424.17852783 15.57572651 202 225 233
246130.53234863 3357424.40139771 15.78548622 115 119 118
246103.89782715 3357423.41458130 15.34512043 139 163 191
246116.48498535 3357424.70211792 14.82200336 28 38 47
246131.89868164 3357423.47616577 15.83948612 56 73 91
246131.48437500 3357424.63726807 14.61078453 67 72 68
246126.62341309 3357422.68325806 14.48371029 91 102 104
246108.42297363 3357424.12551880 15.71274376 34 52 66
246119.58020020 3357422.95327759 14.85095119 51 55 56
246113.09985352 3357424.40859985 15.82812023 63 158 206
246104.73718262 3357424.74365234 14.97542953 81 107 140
246103.35229492 3357424.32632446 15.37141609 84 114 140
246116.12841797 3357424.47494507 15.17361736 28 97 154
246121.81762695 3357424.23587036 15.11102009 135 148 157
246134.43750000 3357423.80749512 14.85970592 49 64 87
246105.25744629 3357423.36618042 14.54038811 69 74 80
246105.37890625 3357424.74874878 14.41521072 57 65 68
246127.79895020 3357422.92593384 15.06564236 223 240 247
246124.10314941 3357422.78161621 14.55813789 151 154 147
246125.76379395 3357423.55844116 15.72066402 49 72 88
246128.87866211 3357423.56018066 14.36820126 69 74 70
246132.60583496 3357422.97164917 14.61912251 75 77 72
246102.10534668 3357423.12356567 15.28285885 155 173 187
246114.21618652 3357422.95336914 15.21333408 25 44 51
246107.48071289 3357424.98382568 14.49564457 32 41 40
246129.13500977 3357423.22012329 14.27314091 213 206 164
246118.20190430 3357423.13482666 14.47471237 104 104 104
246129.30615234 3357423.92666626 14.27779579 80 82 81
246118.80346680 3357423.01611328 14.99004936 47 51 54
246130.00183105 3357424.32519531 15.45254517 56 59 48
246107.81042480 3357424.89212036 14.89704418 56 68 66
246131.86022949 3357424.32824707 15.88810349 209 217 228
246124.24121094 3357424.51882935 14.55390835 55 65 66
246106.38110352 3357423.30688477 15.11509228 99 37 48
246125.77160645 3357424.18243408 15.60444546 191 214 222
246119.15820313 3357424.20181274 14.51297855 103 120 86
246108.60717773 3357424.50143433 15.66294098 172 199 216
246121.67919922 3357424.31246948 15.07368088 96 105 110
246133.02111816 3357422.78195190 14.67395306 62 63 57
246127.07153320 3357422.78701782 15.12720203 242 252 253
246128.69738770 3357423.86172485 14.47063446 56 60 63
246107.69921875 3357424.89572144 15.02640247 103 114 108
246125.95288086 3357424.64233398 14.49088001 66 69 76
246121.28906250 3357423.13400269 15.20366573 102 132 143
246126.26794434 3357422.88803101 15.39971542 31 40 39
246100.92407227 3357425.13748169 14.49728203 105 106 101
246106.92053223 3357423.32278442 15.40854168 176 186 188
246122.02783203 3357424.36959839 14.59171009 12 16 19
246120.82788086 3357423.92907715 14.71521759 70 93 65
246129.10620117 3357422.75234985 14.28510380 233 218 163
246109.36389160 3357423.07888794 14.47894573 103 104 106
246104.97265625 3357424.68179321 14.59895039 76 83 89
246134.47192383 3357423.20596313 14.57583427 19 32 41
246126.10241699 3357422.75143433 15.09393024 232 243 245
246106.15429688 3357423.68103027 14.44963360 75 75 67
246129.79760742 3357424.07131958 14.85723591 83 83 83
246132.43554688 3357423.07531738 15.74126339 26 33 41
246126.23693848 3357424.61361694 14.54619598 61 65 68
246130.51464844 3357423.31256104 15.86788273 244 243 248
246116.90625000 3357423.53747559 14.34131145 78 74 65
246116.45080566 3357423.17846680 15.00673962 30 52 76
246127.08825684 3357422.76052856 14.97377682 231 243 243
246106.95556641 3357423.16082764 14.71663857 172 173 175
246115.38696289 3357424.85876465 14.83040142 26 30 31
246119.14514160 3357424.26870728 14.46671486 176 182 172
246127.94360352 3357422.85128784 14.98043156 146 178 191
246121.71728516 3357424.28231812 15.08692360 101 112 118
