245816.73242188 3357506.27328491 19.47894478 243 241 244
245813.17321777 3357507.20541382 18.11156845 45 40 21
245816.96008301 3357506.35601807 18.51760101 143 145 142
245820.77600098 3357508.39672852 18.08995819 190 175 146
245816.97625732 3357501.95379639 18.01879501 221 216 197
245817.43005371 3357505.92514038 18.64727974 59 65 63
245819.31506348 3357501.55590820 17.74966240 63 75 63
245821.01501465 3357508.58618164 18.22416306 213 195 175
245816.60192871 3357505.75015259 18.23562813 231 218 209
245819.11303711 3357501.85455322 17.87887192 184 190 186
245817.14526367 3357506.51367188 18.24737740 193 199 211
245821.13421631 3357508.75885010 18.21762466 206 189 173
245821.34558105 3357509.32922363 17.79933739 25 43 27
245816.71862793 3357506.49609375 19.50500488 217 223 221
245815.01397705 3357503.79385376 17.97568321 99 130 63
245816.45202637 3357502.20950317 17.93651009 217 220 193
245816.83789063 3357506.64337158 19.64424324 150 150 142
245813.94525146 3357504.00494385 18.28349304 225 212 168
245816.90228271 3357505.51956177 18.21092033 233 225 204
245818.89910889 3357502.04196167 17.89299202 217 228 214
245816.89758301 3357501.77105713 17.98761940 226 217 188
245817.03814697 3357505.89337158 19.17873573 195 195 195
245816.66076660 3357502.31115723 18.00430489 167 168 154
245815.02502441 3357502.94601440 17.98223495 240 234 198
245813.49127197 3357505.62438965 18.09643364 138 122 96
245821.12359619 3357508.43045044 17.95709038 43 44 28
245818.85113525 3357510.28686523 17.90568352 69 69 61
245821.22650146 3357508.79925537 18.16665649 83 75 64
245817.01611328 3357505.77990723 19.04245186 224 223 218
245813.02392578 3357507.18582153 18.30697441 142 116 79
245813.92755127 3357504.01303101 18.28139496 219 208 163
245817.45202637 3357506.29003906 18.91463852 87 96 103
245817.05773926 3357506.57238770 19.26165199 103 113 102
245816.78417969 3357506.62329102 19.63608170 158 158 150
245816.92767334 3357510.04534912 18.07302284 115 106 97
245820.62554932 3357509.22140503 18.24029350 235 223 209
245817.04626465 3357505.53579712 18.41187096 213 200 192
245813.72601318 3357504.11404419 18.21922874 216 193 149
245816.93005371 3357506.26040649 19.62099648 235 238 243
245819.06726074 3357510.06973267 17.85136986 32 38 34
245821.22308350 3357508.57223511 18.10657692 50 51 45
245817.39575195 3357505.74575806 18.44266701 82 82 80
245815.31274414 3357503.30249023 18.11046028 223 224 218
245817.06152344 3357506.48666382 18.91867638 113 116 105
245815.30718994 3357503.58377075 18.12592125 223 233 224
245817.49743652 3357505.79238892 18.28564072 57 63 59
245818.94555664 3357509.94326782 18.01954651 46 48 45
245817.28039551 3357505.84826660 18.87009811 100 106 106
245821.04565430 3357508.37783813 18.11105919 133 126 100
245817.61975098 3357505.92172241 18.20562553 52 56 57
245820.66601563 3357503.16824341 17.83317566 255 254 249
245816.97283936 3357505.44750977 17.89229393 139 152 96
245815.31933594 3357503.28500366 18.10578537 227 226 221
245813.71667480 3357503.66213989 18.23185158 251 234 191
245816.74182129 3357506.08135986 18.74201584 228 228 230
245813.56427002 3357503.80294800 18.20849228 234 219 188
245817.34283447 3357506.43118286 18.90653801 88 104 103
245818.90759277 3357501.78805542 17.92425919 199 201 196
245817.14013672 3357506.46286011 18.82505989 115 120 114
245816.63336182 3357505.65408325 18.07374954 232 229 198
245816.72216797 3357506.44247437 17.94826508 161 161 135
245817.43762207 3357505.79678345 18.43163490 65 71 69
245817.32073975 3357506.08248901 19.08315849 54 64 65
245815.00427246 3357503.49603271 18.06809998 245 242 237
245817.50677490 3357506.14065552 18.74933434 56 65 64
245813.93511963 3357503.85168457 18.28548050 242 231 185
245816.68811035 3357506.01370239 19.02199364 230 230 230
245820.52148438 3357508.69921875 18.03808403 205 180 150
245821.31433105 3357509.03717041 18.06349373 28 30 27
245814.87817383 3357503.56445313 18.01111221 113 125 75
245816.58099365 3357505.92309570 18.17581749 232 221 225
245820.46270752 3357509.00918579 18.13758087 222 203 186
245817.32769775 3357506.27011108 19.20662117 104 117 126
245820.73901367 3357508.46530151 18.15163994 202 191 161
245818.90447998 3357501.53350830 17.91298676 248 246 231
245818.99920654 3357502.12387085 17.77572060 7 25 13
245814.53833008 3357509.40618896 18.23395920 176 165 147
245817.45733643 3357505.68939209 18.19867134 62 66 65
245817.16741943 3357506.35800171 19.49204636 134 152 162
245816.96295166 3357502.02468872 18.03472328 229 228 210
245818.58673096 3357510.25173950 17.93569756 164 152 138
245820.97875977 3357509.08334351 18.29568291 255 248 238
245816.72418213 3357501.99450684 18.08371544 235 227 204
245815.48419189 3357503.07461548 18.01284409 235 238 221
245816.85723877 3357506.52285767 19.76214218 221 231 233
245816.99401855 3357506.08227539 19.42598152 209 209 211
245821.23358154 3357508.55133057 17.96288681 35 38 31
245817.04595947 3357506.45397949 18.79910469 116 117 109
245816.93041992 3357506.20327759 19.58185577 233 237 240
245817.14300537 3357506.47903442 18.33393669 217 221 232
245816.86389160 3357506.28552246 18.63148689 229 229 229
245816.67279053 3357502.25973511 18.02893829 209 210 196
245817.01190186 3357505.47735596 18.05273628 242 241 210
245817.05584717 3357505.86727905 19.13939667 201 203 202
245814.77996826 3357503.55130005 17.99808311 115 137 55
245818.71704102 3357501.99630737 17.95221519 197 198 193
245814.80072021 3357503.36706543 18.01472092 216 212 200
245816.80200195 3357505.63223267 18.38830948 251 246 227
245820.66687012 3357509.50613403 18.00301743 173 160 143
245817.39575195 3357506.32055664 19.05598640 87 100 106
245818.87988281 3357510.27401733 17.89300156 48 51 42
245816.95538330 3357506.44906616 18.20549774 232 229 236
245817.29327393 3357506.45086670 18.60029030 104 114 115
245813.79791260 3357503.64178467 18.21273994 126 121 57
245817.04656982 3357506.42309570 18.69017220 126 127 119
245821.25488281 3357508.56176758 17.74385834 23 31 18
245816.75128174 3357510.16278076 18.15115166 235 226 209
245821.70153809 3357505.55511475 17.71014977 236 189 143
245818.95227051 3357509.77313232 17.90288734 45 51 49
245816.86071777 3357505.50344849 18.02876472 227 227 193
245816.65844727 3357506.22793579 18.03754807 197 193 190
245816.77301025 3357510.20880127 18.15690613 209 200 185
245820.96435547 3357509.24319458 18.29010582 250 249 247
245814.75402832 3357503.61648560 17.98328972 121 153 52
245821.01422119 3357508.38409424 17.82058907 103 107 80
245820.62902832 3357509.12612915 18.26101112 231 213 201
245816.71862793 3357506.12472534 18.96007919 205 207 204
245813.81451416 3357504.11297607 18.23723030 240 219 176
245816.73687744 3357506.24798584 19.17770958 212 212 210
245819.08624268 3357501.93539429 17.88175201 138 148 139
245819.24707031 3357501.40930176 17.72316170 47 60 42
245814.06976318 3357504.23953247 18.15081978 23 29 3
245816.86163330 3357505.99688721 19.29749298 250 250 248
245816.73919678 3357506.08230591 18.75428963 228 228 230
245813.51031494 3357503.99951172 18.16287804 161 166 108
245818.96392822 3357510.00582886 17.98494339 48 50 49
245821.43408203 3357508.95101929 17.87408066 42 43 38
245818.84820557 3357510.24200439 17.95415878 95 95 87
245816.48437500 3357505.90505981 17.92758369 143 162 96
245821.14068604 3357508.62988281 18.19263840 146 137 122
245816.80078125 3357506.21929932 18.47119141 237 237 239
245817.27764893 3357505.92785645 18.98566055 72 80 83
245817.10748291 3357505.51113892 18.13820267 235 226 217
245816.67724609 3357505.96084595 18.45507431 209 205 206
245817.03326416 3357505.58670044 18.63982773 216 208 197
245821.04901123 3357508.94796753 18.27783203 204 185 168
245814.80407715 3357509.26855469 18.15535736 118 123 103
245817.15960693 3357506.49017334 19.00251198 102 108 106
245817.06945801 3357505.51312256 18.19385529 225 215 205
245817.48669434 3357505.61828613 18.01379967 57 59 54
245816.89929199 3357506.47738647 19.12207603 196 198 187
245819.31439209 3357501.85122681 17.78269005 56 70 55
245816.61413574 3357502.01074219 18.07798386 245 240 220
245818.57720947 3357510.02380371 18.05153275 212 196 180
245816.37731934 3357502.03826904 17.95006752 224 219 197
245817.40087891 3357506.37863159 18.36608887 134 141 149
245817.32592773 3357506.31579590 19.22781563 95 110 117
245816.73132324 3357505.84310913 18.80798721 246 244 245
245814.48358154 3357509.02838135 18.13796997 242 223 183
245821.44342041 3357508.87887573 17.84254265 28 30 25
245820.96740723 3357508.87075806 18.27528191 206 184 163
245816.53057861 3357505.98678589 17.96638870 211 215 180
245817.59796143 3357506.28811646 18.08020592 39 49 50
245816.94274902 3357506.37554932 18.61420250 170 171 165
245817.37396240 3357505.87844849 18.70001030 71 80 79
245817.59143066 3357506.17822266 18.28962326 56 63 69
245816.75250244 3357506.07009888 18.66136742 219 217 220
245816.78454590 3357505.56182861 18.12641335 248 243 211
245817.48291016 3357506.27368164 18.37858391 95 105 107
245813.08770752 3357507.17462158 18.24479866 75 59 26
245816.97851563 3357506.48257446 19.68706894 191 201 211
245817.44091797 3357506.30999756 18.46544838 113 121 123
245817.04071045 3357506.45111084 18.29647255 216 217 222
245812.90405273 3357507.00906372 18.21260071 224 225 209
245816.76513672 3357506.27731323 19.14454651 217 216 212
245816.81182861 3357505.45547485 17.88871002 172 192 120
245821.91699219 3357505.99911499 17.68132973 230 201 161
245818.69073486 3357510.01617432 18.06670189 221 208 192
245816.62121582 3357510.32293701 18.13771439 221 211 201
245817.60461426 3357505.97674561 18.34774017 57 63 63
245821.68176270 3357505.80517578 17.72420883 249 207 157
245817.27423096 3357506.44979858 18.74947548 126 138 136
245814.67205811 3357509.45513916 18.17770767 82 82 74
245819.34631348 3357501.66912842 17.75384712 112 121 118
245814.10510254 3357503.57714844 18.06495285 78 118 29
245815.30621338 3357503.24298096 18.10066605 226 226 218
245817.49871826 3357506.42715454 18.02740669 26 41 38
245816.92749023 3357510.24224854 18.09892082 148 145 136
245817.06665039 3357505.75030518 18.96924591 215 214 210
245814.54138184 3357509.32275391 18.26138496 241 224 204
245815.42132568 3357503.46441650 18.09829712 215 220 214
245816.60681152 3357505.80114746 18.33982658 243 233 234
245820.74298096 3357509.13787842 18.28381157 246 233 214
245813.63262939 3357504.17422485 18.15762138 247 238 183
245820.98437500 3357509.38024902 18.20478439 20 19 15
245812.91284180 3357507.68896484 18.13755035 51 46 26
245816.96014404 3357506.35885620 18.49781990 151 153 152
245816.77001953 3357505.60723877 18.24839020 243 228 209
245817.26275635 3357505.62771606 18.54707909 164 164 154
245819.02954102 3357501.96362305 17.90411186 227 237 228
245821.32409668 3357508.73294067 18.05630302 41 42 37
245821.15869141 3357508.47476196 17.85660172 50 52 39
245816.86437988 3357505.51867676 18.09321022 238 234 205
245816.74493408 3357501.75680542 17.97876549 230 217 183
245817.10485840 3357506.13381958 19.41577721 139 149 158
245812.88250732 3357507.62161255 18.22105026 88 62 37
245820.93377686 3357508.35131836 17.82104111 177 186 143
245821.89379883 3357505.85186768 17.70148849 239 201 164
245814.80096436 3357509.38732910 18.13697624 55 61 51
245819.03875732 3357501.86813354 17.90073967 223 230 223
245816.68402100 3357506.06219482 19.02293396 214 216 215
245820.69146729 3357503.20050049 17.84261131 255 252 245
245818.94897461 3357509.75479126 17.89232254 38 44 42
245815.09375000 3357503.52197266 18.10080338 232 232 230
245820.67132568 3357508.53585815 18.11085129 190 173 147
245821.52593994 3357505.86007690 17.66216087 252 212 151
245820.73504639 3357509.60467529 17.81315804 143 145 131
245816.62200928 3357505.92434692 18.34650803 197 191 195
245816.74383545 3357506.27694702 19.49818039 250 249 254
245820.78967285 3357509.43908691 18.22567177 247 252 246
245813.86260986 3357503.75256348 18.26435280 239 229 178
245813.55670166 3357504.14724731 18.15291023 229 230 170
245816.78021240 3357506.33694458 18.18655396 217 216 221
245813.10217285 3357507.05480957 18.13876724 117 104 60
245818.70867920 3357501.70867920 17.94180298 217 206 200
245817.63677979 3357506.29479980 17.95107460 2 14 4
245814.34503174 3357504.24090576 18.00806046 16 35 15
245814.44659424 3357509.25833130 18.27717209 233 216 196
245820.84466553 3357508.99319458 18.28590965 231 210 183
245818.78350830 3357509.80157471 18.08099174 237 234 227
245813.10675049 3357507.49298096 18.10193062 55 56 38
245816.76965332 3357506.25323486 19.03509331 237 235 236
245813.62335205 3357503.70965576 18.21878052 236 217 184
245817.56640625 3357505.83843994 18.19183159 56 62 58
245816.47814941 3357502.17184448 17.96686745 225 223 208
245821.25268555 3357508.63131714 18.11428833 52 53 48
245816.71520996 3357506.08691406 18.87340546 205 205 203
245818.93292236 3357501.54003906 17.91218567 243 244 230
245821.06964111 3357509.38369751 18.09009552 30 30 30
245816.66943359 3357506.00518799 18.92548943 225 225 225
245821.08093262 3357508.48394775 18.16817093 205 193 179
245820.70104980 3357509.57342529 17.88644791 147 144 125
245815.39770508 3357503.77777100 17.97127342 36 63 28
245814.99230957 3357502.84851074 17.96389389 126 143 65
245818.51110840 3357501.97930908 17.73074913 145 165 96
245817.19976807 3357505.58758545 18.45692825 216 210 198
245814.44995117 3357509.32495117 18.26316833 195 178 160
245817.35882568 3357505.75994873 18.55223274 83 87 86
245817.21490479 3357505.85552979 19.00342178 116 121 124
245818.89105225 3357501.49935913 17.90037918 252 249 232
245821.39343262 3357509.04467773 17.89149094 21 23 20
245817.17779541 3357506.54547119 19.44600296 90 108 96
245820.68249512 3357509.12774658 18.27807426 235 217 203
245817.35113525 3357506.41723633 18.46429634 114 124 126
245821.10858154 3357508.41668701 18.04052925 43 37 21
245820.50531006 3357509.16632080 18.18688774 217 200 184
245821.72839355 3357506.00308228 17.69759560 253 211 161
245820.96142578 3357508.68038940 18.24683952 202 184 162
245816.90887451 3357506.03488159 19.37820244 239 234 238
245817.46350098 3357506.27282715 18.51335335 88 96 98
245816.77954102 3357506.14309692 18.68066025 219 219 221
245820.89019775 3357508.50912476 18.22155571 208 195 178
245816.73907471 3357506.21670532 19.10481071 204 202 203
245820.55822754 3357509.38531494 17.79200554 246 237 204
245820.69354248 3357508.89129639 18.27114868 232 216 193
245817.33117676 3357506.43621826 18.62608528 96 106 108
245814.77880859 3357503.21456909 18.00321198 220 224 187
245820.96942139 3357503.29727173 17.70610237 28 47 19
245818.63726807 3357501.56887817 17.82774353 229 228 180
245814.85748291 3357509.20971680 18.09201050 21 37 8
245820.98596191 3357509.24862671 18.29086876 250 250 250
245816.73150635 3357502.05490112 18.08767319 235 230 210
245820.56933594 3357509.01907349 18.22884178 229 212 196
245816.78845215 3357506.38922119 19.22417641 210 210 208
245812.77215576 3357507.24539185 18.27077103 242 236 214
245817.20147705 3357506.46365356 19.47228050 124 144 143
245816.77941895 3357505.82479858 18.90309525 248 244 241
245817.27966309 3357505.98846436 19.04611778 114 124 126
245816.98321533 3357510.28890991 18.06310081 110 107 102
245817.59259033 3357506.17565918 18.29145813 56 63 69
245817.32098389 3357506.44619751 18.86281204 103 119 116
245815.59454346 3357503.54019165 18.00340080 14 30 19
245818.61560059 3357501.60195923 17.82878876 225 230 176
245814.78521729 3357503.67044067 17.97529030 119 153 58
245821.97607422 3357505.60864258 17.64070702 70 46 22
245817.25036621 3357505.55813599 18.19530106 244 238 226
245816.85003662 3357506.62768555 17.89350128 109 132 76
245812.93627930 3357507.44540405 18.30573845 109 84 53
245816.87750244 3357505.56024170 18.35640526 245 239 217
245817.30462646 3357506.46386719 18.42803574 83 91 93
245816.91491699 3357506.61657715 19.50850677 112 118 106
245816.76959229 3357505.65603638 18.38267136 250 243 227
245821.71929932 3357505.48733521 17.64793587 229 206 152
245813.87860107 3357503.63143921 18.18080139 176 179 100
245812.82452393 3357507.21722412 18.31626701 242 236 212
245819.21173096 3357501.93386841 17.80653191 32 49 33
245820.79418945 3357508.38037109 17.89547729 178 184 140
245816.97235107 3357506.68499756 17.92833328 109 128 96
245815.45874023 3357503.31918335 18.08282471 205 208 197
245821.24066162 3357508.59558105 18.09857750 45 46 41
245816.40234375 3357502.04043579 17.96586418 226 218 205
245817.60650635 3357505.98294067 18.35268593 56 64 66
245815.09967041 3357503.61724854 18.09276772 218 221 212
245816.78967285 3357506.23913574 18.86190414 233 235 234
245816.89398193 3357502.17227173 18.03304863 158 161 152
245820.35333252 3357503.36737061 17.79917717 255 253 228
245815.32781982 3357503.43652344 18.13243675 215 217 214
245818.72924805 3357509.59197998 17.94078636 220 213 205
245812.83398438 3357507.70321655 18.13653946 108 102 78
245821.53375244 3357505.60076904 17.67914581 240 188 141
245819.01611328 3357502.12515259 17.77241516 7 25 13
245814.02050781 3357503.77215576 18.26308632 168 153 112
245816.97448730 3357506.37222290 18.55698776 137 142 138
245817.10467529 3357505.69201660 18.84162331 234 234 224
245820.99566650 3357509.01208496 18.29624748 247 232 213
245819.03204346 3357501.91513062 17.90437698 222 229 222
245820.71166992 3357503.14086914 17.81748199 255 250 244
245820.80548096 3357509.07281494 18.28720093 244 229 206
245813.62823486 3357503.95703125 18.21953583 250 241 202
245820.60198975 3357508.64285278 18.16418076 212 192 168
245816.74792480 3357506.48516846 19.42213440 212 218 218
245817.32104492 3357506.46295166 18.27012444 112 119 127
245816.93591309 3357506.34942627 18.42032814 149 153 152
245816.97308350 3357510.14843750 18.08831596 161 158 151
245820.66473389 3357503.26208496 17.86922455 255 253 246
245816.97363281 3357506.59899902 18.05737495 219 217 222
245817.39880371 3357506.21127319 19.06128120 58 68 70
245816.71704102 3357506.03961182 18.49863625 226 222 223
245818.65875244 3357510.01290894 18.06571960 224 211 195
245817.31402588 3357506.09744263 19.10891151 51 63 63
245816.50006104 3357505.85766602 17.94021034 176 188 138
245818.65246582 3357509.56674194 17.93318558 224 219 199
245813.82849121 3357503.56857300 18.14146042 134 149 58
245820.99407959 3357508.75399780 18.25548172 227 206 185
245815.27038574 3357503.08081055 18.07529831 219 215 206
245816.72729492 3357506.15280151 19.23381615 237 240 233
245816.56152344 3357506.11160278 17.97098351 201 204 177
245817.10272217 3357505.58694458 18.59184265 244 241 232
245821.51782227 3357505.51751709 17.65280914 167 134 80
245820.64703369 3357503.20083618 17.84782791 251 252 246
245816.68145752 3357502.11026001 18.07651901 250 244 228
245817.68389893 3357506.15823364 18.13792419 68 78 77
245821.19250488 3357509.12927246 18.18272972 36 35 31
245816.99218750 3357501.83010864 17.97053909 214 208 184
245817.50659180 3357506.16665649 18.73141098 84 92 94
245814.75964355 3357509.29101563 18.18743324 123 124 108
245821.34973145 3357509.07495117 17.96273994 23 23 21
245816.92687988 3357510.09481812 18.09041023 138 132 120
245818.69610596 3357502.06607056 17.81321144 52 67 46
245816.80267334 3357506.21258545 18.56210709 230 232 231
245816.71441650 3357505.62145996 18.16362953 244 233 213
245815.46466064 3357503.67456055 18.00415039 21 42 27
245814.96752930 3357503.16531372 18.02244949 230 221 212
245813.59234619 3357504.13049316 18.17214394 243 236 184
245817.34423828 3357505.58001709 18.20936775 239 235 226
245815.31085205 3357503.54101563 18.14397430 208 215 208
245821.10272217 3357508.43057251 17.81806946 72 75 58
245816.85644531 3357506.45306396 18.10007668 217 216 212
245821.36706543 3357508.83599854 18.03014946 38 40 35
245814.69268799 3357503.19821167 17.98674583 98 123 39
245817.04187012 3357502.16372681 17.94123459 49 58 55
245817.52148438 3357506.12100220 18.65288734 76 87 83
245821.30157471 3357509.21554565 17.91531754 23 28 24
245816.58880615 3357502.20684814 18.02118492 226 224 209
245816.86126709 3357505.82641602 19.02842140 250 249 245
245817.65423584 3357506.28610229 17.91679192 8 20 10
245821.23022461 3357508.80151367 18.16303825 83 75 64
245816.78552246 3357506.54852295 17.89575386 114 123 78
245817.27325439 3357506.56024170 18.10822678 155 163 174
245821.09716797 3357509.14453125 18.26920509 159 155 146
245815.55072021 3357503.50961304 18.02882385 59 70 64
245820.85040283 3357508.36328125 17.91013718 190 195 154
245820.44982910 3357508.83230591 17.84945488 195 172 140
245820.92584229 3357509.61166382 17.77641869 33 38 32
245816.58410645 3357505.82192993 18.24526596 232 227 224
245817.15460205 3357505.59136963 18.54899597 232 228 217
245817.04083252 3357505.44418335 17.93752861 146 153 109
245816.80505371 3357506.32995605 19.06994438 227 223 222
245812.93041992 3357507.68359375 18.13758087 51 46 26
245814.96002197 3357502.98248291 17.98280334 246 243 200
245817.03826904 3357506.61526489 19.61960411 101 113 109
245817.62384033 3357505.93820190 18.22593880 56 60 61
245815.50146484 3357503.05462646 17.99927521 231 234 217
245816.74145508 3357506.21868896 19.09659004 206 206 206
245813.88433838 3357503.99063110 18.27863503 227 215 173
245813.75793457 3357504.23110962 18.15142441 221 220 166
245821.87542725 3357505.85989380 17.71183968 239 201 164
245818.94940186 3357501.49191284 17.90926933 235 236 222
245816.83117676 3357506.47027588 19.22426033 211 212 206
245818.67492676 3357510.29202271 17.91574860 114 105 96
245821.01806641 3357509.55474854 17.85456848 30 35 29
245813.96398926 3357503.80429077 18.27711678 250 236 187
245819.08203125 3357502.11264038 17.75285912 5 27 14
245815.51611328 3357503.66390991 17.98045731 44 65 48
245816.88323975 3357506.48300171 19.74510002 225 234 239
245816.40747070 3357501.82949829 17.94362640 140 139 83
245817.03540039 3357510.23852539 18.06531143 129 128 123
245819.05651855 3357510.00878906 17.85242271 15 21 17
245816.70062256 3357506.30877686 19.44828796 222 222 222
245817.57727051 3357506.07180786 18.49247551 89 94 97
245817.30883789 3357505.68457031 18.54095078 68 71 62
245817.30157471 3357506.44931030 18.68968391 106 116 117
245821.19769287 3357509.49041748 17.81591988 18 40 19
245821.98840332 3357505.79373169 17.64709282 95 72 54
245815.55407715 3357503.50006104 18.02801895 59 70 64
245817.01922607 3357506.59762573 19.34997177 106 117 101
245814.77124023 3357503.22573853 18.00329781 223 222 192
245816.79730225 3357506.25070190 18.85243034 229 229 229
245816.82855225 3357506.35922241 19.02062607 227 226 224
245814.17156982 3357503.96221924 18.30277634 228 217 189
245820.96478271 3357509.19107056 18.29174042 240 240 232
245817.03515625 3357506.46722412 18.26318741 235 236 241
245816.46459961 3357501.87780762 18.00741577 244 234 199
245816.59515381 3357505.89041138 18.32259178 233 226 234
245814.14617920 3357504.21981812 18.14629173 24 36 12
245814.75122070 3357509.19641113 18.17771721 149 150 119
245817.30236816 3357505.54574585 18.14304161 241 236 230
245814.10467529 3357503.79434204 18.25360680 158 143 112
245821.75543213 3357506.17312622 17.69533920 220 197 145
245820.89862061 3357508.63775635 18.24032784 185 166 149
245816.65637207 3357502.24993896 18.03595352 218 216 203
245817.02941895 3357510.12957764 18.07492447 153 152 147
245817.11529541 3357506.60733032 18.11526489 191 189 202
245816.78790283 3357506.45471191 19.29527855 203 203 201
245816.74957275 3357501.71398926 17.95071602 231 222 179
245821.09313965 3357508.74768066 18.23265839 194 172 149
245817.02697754 3357510.23138428 18.07077217 129 128 123
245813.99298096 3357504.12106323 18.24698067 213 198 159
245817.60308838 3357506.26788330 18.10874557 61 71 73
245820.84521484 3357503.26165771 17.79784012 69 73 50
245820.46368408 3357508.72998047 17.74416351 161 165 114
245819.07440186 3357501.68475342 17.88380051 209 214 207
245818.94348145 3357501.44125366 17.88123131 244 238 224
245821.10473633 3357508.41839600 18.11690521 75 66 51
245816.80560303 3357506.30328369 19.60752296 249 249 251
245815.45343018 3357503.25930786 18.07256126 215 217 204
245816.54418945 3357501.70028687 17.90257645 148 152 91
245816.74401855 3357505.82275391 18.78778648 246 245 243
245820.97839355 3357509.25332642 18.29039764 250 249 247
245814.37701416 3357504.12835693 18.04780769 15 34 15
245816.63208008 3357505.64770508 18.04258728 231 231 197
245813.00378418 3357507.66406250 18.11443901 35 36 22
245820.70526123 3357509.34228516 18.23320580 240 238 225
245813.94921875 3357504.29455566 18.09930229 43 59 22
245815.37365723 3357502.93798828 18.02011108 238 236 215
245816.79473877 3357506.29101563 18.27322197 228 226 231
245817.51373291 3357505.80780029 18.27214432 56 62 58
245817.56719971 3357506.35684204 18.00871849 2 15 8
245813.78948975 3357503.76333618 18.27182007 232 225 181
245816.38751221 3357501.90325928 17.96299744 244 241 198
245817.35235596 3357506.34552002 19.15136909 101 113 127
245818.61602783 3357510.19348145 17.96965790 177 164 148
245817.28540039 3357505.86865234 18.89087105 90 95 98
245817.05206299 3357505.89550781 19.17621613 195 195 195
245816.73962402 3357505.79077148 18.61936760 255 254 252
245816.82305908 3357506.25161743 18.42692947 230 230 232
245820.63739014 3357508.97253418 18.26032257 226 205 188
245817.07489014 3357505.96640015 19.25132561 198 203 209
245815.38287354 3357503.41705322 18.11717987 213 218 211
