245828.23962402 3357564.35516357 16.62041092 176 192 192
245830.06829834 3357562.36669922 17.90810966 193 203 205
245826.75073242 3357562.82794189 17.81789207 251 251 251
245826.63220215 3357562.30670166 16.44476891 176 172 125
245830.14532471 3357562.49761963 16.27845955 104 125 128
245830.43286133 3357562.51373291 16.19454956 17 41 17
245829.74890137 3357562.06384277 17.91688156 189 194 190
245828.45245361 3357564.34692383 16.38409233 60 76 73
245829.65472412 3357561.91491699 16.59032631 225 234 233
245830.06750488 3357564.45214844 16.21758080 15 35 23
245830.15270996 3357561.72766113 16.20943260 97 121 43
245828.80493164 3357562.93414307 17.93242455 220 222 221
245828.24407959 3357564.35076904 17.65590858 85 96 98
245827.39855957 3357563.32427979 17.93187523 225 230 224
245827.50921631 3357562.14373779 17.94995117 207 207 207
245826.73944092 3357562.37133789 16.82400894 242 240 241
245827.62994385 3357564.82727051 16.47019958 41 58 24
245829.34436035 3357564.67218018 16.31442642 14 31 15
245830.11956787 3357562.06250000 16.43980980 152 166 177
245829.89190674 3357564.35974121 16.27808189 19 43 30
245828.21624756 3357562.79028320 17.94259834 161 161 159
245827.75671387 3357563.72924805 17.93231010 150 152 149
245829.98144531 3357561.63269043 16.23342705 86 109 31
245828.75250244 3357564.05255127 17.91036224 167 167 167
245829.56481934 3357561.99505615 17.91414261 192 189 180
245828.16894531 3357564.89111328 16.44143867 12 37 15
245830.13781738 3357563.65777588 16.55682564 132 150 164
245827.33111572 3357562.78210449 17.94219398 157 158 153
245829.53637695 3357562.05950928 17.92294693 158 154 145
245827.94616699 3357564.87188721 16.42790222 20 38 14
245827.68353271 3357564.28814697 17.27033234 118 128 129
245827.54736328 3357563.78417969 17.94059181 212 214 211
245829.95227051 3357564.13696289 17.91786194 159 161 160
245829.69665527 3357564.44061279 16.25578308 10 30 18
245830.13543701 3357563.84082031 16.46970558 88 107 114
245827.59942627 3357564.23498535 17.92326355 150 149 147
245830.05346680 3357563.39013672 17.05297279 115 133 145
245830.13214111 3357562.06158447 16.74748039 156 170 183
245829.42095947 3357564.66717529 16.31185532 11 29 13
245830.07684326 3357561.97174072 16.62705994 210 221 227
245826.91381836 3357562.66406250 17.94264030 170 172 171
245830.11834717 3357562.00225830 17.53308678 144 149 155
245828.72137451 3357563.70111084 17.91798592 222 223 225
245828.78729248 3357562.07061768 17.92968369 169 173 159
245826.80035400 3357564.39843750 17.69113922 209 209 209
245830.08392334 3357563.78588867 17.01674461 86 104 114
245830.03369141 3357564.29693604 16.88553810 151 169 173
245830.13500977 3357563.74938965 16.34590340 83 103 104
245830.04815674 3357562.50866699 17.19709778 125 141 156
245827.83990479 3357564.87207031 16.44553947 26 45 13
245828.10192871 3357563.30371094 17.93406677 217 219 218
245826.93847656 3357562.92419434 17.93624496 220 222 217
245828.11126709 3357564.33117676 17.56132507 71 85 86
245829.41467285 3357564.01715088 17.91907883 218 218 220
245828.97796631 3357564.24316406 17.17597961 141 150 155
245826.85546875 3357563.64166260 17.28068161 253 253 251
245826.87408447 3357563.20715332 17.05697060 227 226 222
245830.10382080 3357562.47631836 17.87950706 166 177 181
245826.42687988 3357563.39605713 16.54730034 122 149 80
245830.00354004 3357561.93054199 17.15718651 236 241 245
245830.13195801 3357562.90972900 16.47946930 118 135 151
245826.90997314 3357563.79321289 17.92254257 227 231 230
245829.36260986 3357564.02239990 17.91819954 222 222 224
245827.62164307 3357564.26074219 17.00794220 107 118 124
245826.76556396 3357562.86328125 16.69329071 251 251 251
245826.73040771 3357563.35693359 16.62958717 251 253 248
245826.75061035 3357562.50427246 16.68486214 255 253 254
245828.59136963 3357564.28533936 17.39942551 102 113 115
245826.78497314 3357562.58587646 17.57232475 254 254 254
245826.76916504 3357564.21502686 17.36805153 253 253 253
245826.86505127 3357564.69085693 16.53740883 56 81 13
245829.53015137 3357563.25982666 17.92343521 205 207 206
245828.39514160 3357564.24780273 16.99307632 97 106 111
245829.34436035 3357561.93664551 17.46986008 211 208 201
245828.35864258 3357563.36254883 17.92984200 224 226 225
245828.71130371 3357563.34838867 17.92584801 226 227 229
245830.13500977 3357563.35559082 16.39801788 71 89 101
245828.58312988 3357564.87396240 16.42082787 10 28 12
245826.79095459 3357562.72741699 17.48654556 255 255 253
245830.13574219 3357563.84649658 16.50708008 95 113 123
245829.24511719 3357564.32745361 16.53942299 164 182 182
245828.59039307 3357564.33825684 16.56897545 150 164 165
245830.17181396 3357564.11987305 17.84187317 113 117 118
245828.38507080 3357563.90185547 17.92018509 163 165 164
245829.69171143 3357564.35137939 16.27364159 51 73 70
245826.91815186 3357562.66290283 17.94188309 172 174 171
245829.08660889 3357562.68603516 17.93365860 218 218 216
245829.61309814 3357563.99713135 17.91946220 201 201 201
245827.55145264 3357564.92407227 16.45538902 124 145 78
245829.24761963 3357564.35223389 17.66775131 68 78 79
245828.62060547 3357564.34179688 16.71845818 109 123 124
245829.77868652 3357564.28985596 17.32983589 170 181 185
245829.22601318 3357561.92041016 17.50581360 223 216 208
245829.43902588 3357564.32067871 16.53057480 162 177 182
245828.29223633 3357564.25311279 17.01803970 111 120 125
245829.65106201 3357561.91314697 16.77742386 196 197 199
245830.04724121 3357562.82635498 16.95675278 75 94 108
245826.86346436 3357563.17523193 16.98966217 197 196 192
245828.31457520 3357564.48297119 16.32068443 19 33 20
245826.85931396 3357562.89257813 17.08967209 230 230 228
245828.14483643 3357562.98132324 17.93978691 228 228 226
245830.01458740 3357564.30303955 16.58009911 157 172 179
245830.11926270 3357562.12268066 17.22468376 169 191 202
245827.94110107 3357564.56744385 16.40184021 20 43 23
245830.03704834 3357564.27490234 17.11516953 169 188 194
245827.24530029 3357563.06921387 17.93577766 157 159 154
245827.49322510 3357562.38464355 17.94955063 166 165 161
245826.39733887 3357563.68450928 16.55920219 99 129 55
245830.07763672 3357561.97540283 17.39663696 230 234 243
245829.16766357 3357563.37158203 17.92290306 204 205 207
245827.74908447 3357562.39031982 17.95054245 218 218 216
245828.45092773 3357563.21386719 17.93149376 229 231 230
245826.77154541 3357564.17224121 17.64454651 251 251 251
245830.13360596 3357562.15765381 16.32430267 127 145 155
245830.20910645 3357564.25054932 17.63912582 137 154 161
245828.16888428 3357562.70043945 17.94494057 227 227 225
245830.18414307 3357564.02758789 16.23423958 22 41 37
245830.13842773 3357563.53460693 16.84827805 56 76 85
245830.14233398 3357562.59020996 16.39969826 128 147 161
245829.29016113 3357562.28399658 17.93454933 157 159 156
245828.55120850 3357564.34271240 16.66741753 162 176 177
245828.03540039 3357564.74218750 16.42510605 18 42 18
245829.63195801 3357561.90625000 17.69031715 140 142 139
245830.11987305 3357562.14086914 17.19346046 165 184 198
245827.35229492 3357564.33245850 16.90778160 80 90 91
245827.06951904 3357564.94500732 16.49588585 60 90 16
245830.14166260 3357563.88842773 17.57087898 72 83 85
245827.94512939 3357564.95709229 16.41911507 26 46 11
245830.13922119 3357563.40093994 16.44480324 109 126 136
245830.09826660 3357562.07971191 17.22137260 173 195 206
245828.97161865 3357564.32446289 17.54480553 74 86 86
245828.22314453 3357563.37963867 17.93115997 226 228 227
245826.75177002 3357563.82257080 16.73664856 246 247 239
245830.13494873 3357563.85144043 16.43282127 86 105 111
245829.36053467 3357561.91906738 16.96028328 181 180 178
245829.26489258 3357564.32849121 16.58010101 166 182 182
245827.90844727 3357564.94573975 16.42870331 16 36 0
245830.13507080 3357562.54077148 16.63651085 163 179 204
245828.29852295 3357564.36456299 16.34057999 23 39 36
245828.76751709 3357564.28833008 16.86432838 83 92 99
245826.96112061 3357562.65814209 17.94177246 183 185 184
245827.33288574 3357564.31848145 16.95362663 61 72 68
245826.81481934 3357563.83618164 17.59727287 239 239 237
245826.84069824 3357563.19433594 16.89377403 244 244 242
245829.79638672 3357561.91467285 16.85386848 203 207 206
245828.36004639 3357564.35235596 16.70024872 154 164 166
245826.55822754 3357563.99993896 16.56864738 116 143 66
245830.07733154 3357562.94104004 16.90093040 49 65 80
245830.13854980 3357562.53198242 16.52568436 133 148 167
245826.60693359 3357564.48913574 16.61166954 81 120 37
245827.72851563 3357563.80847168 17.93106461 154 156 151
245830.02282715 3357563.00445557 17.92211723 185 184 189
245830.16229248 3357563.59704590 16.22711945 32 54 51
245830.04193115 3357563.19848633 17.29607391 117 131 142
245826.80316162 3357562.90618896 17.90134048 237 239 238
245826.78204346 3357563.08776855 17.55538368 255 255 255
245826.74145508 3357562.64874268 16.57188225 233 234 226
245826.81634521 3357563.92388916 17.25673866 255 255 253
245830.21002197 3357564.22393799 17.68953896 94 107 113
245826.54418945 3357562.45269775 16.46952057 162 172 112
245829.52459717 3357564.31701660 17.66446877 51 59 61
245828.60473633 3357562.62084961 17.94099426 234 236 231
245826.48907471 3357564.75378418 16.60135460 62 88 25
245826.79931641 3357562.66870117 17.88255501 248 248 248
245828.46240234 3357564.96301270 16.43671608 19 36 20
245830.10314941 3357563.39916992 17.54327583 46 57 63
245828.64617920 3357564.27636719 17.33977318 118 129 133
245829.65924072 3357564.26373291 17.10303879 139 150 154
245828.42974854 3357564.34136963 16.45876122 152 166 166
245827.87268066 3357564.04406738 17.92010307 239 243 242
245830.27447510 3357563.73217773 16.19276237 18 40 28
245826.85485840 3357562.81079102 17.06771660 230 230 228
245829.76934814 3357564.77545166 16.33221054 16 40 18
245830.06072998 3357562.67523193 17.46312523 79 96 103
245830.45190430 3357562.93005371 16.16028786 29 48 28
245829.15649414 3357562.64447021 17.93297386 228 228 228
245829.79547119 3357562.93737793 17.92490387 190 192 191
245830.03442383 3357561.95593262 17.82880211 157 159 158
245828.86877441 3357562.03802490 17.92458344 129 131 118
245827.35516357 3357562.29833984 17.95041084 153 154 149
245827.95892334 3357563.29962158 17.93594742 212 214 213
245826.82952881 3357563.34375000 16.89467049 238 237 235
245830.06243896 3357562.79693604 17.92294312 185 189 188
245827.90203857 3357562.44860840 17.95021439 230 230 228
245827.96380615 3357563.82824707 17.92338753 193 197 196
245826.86169434 3357563.60876465 17.15094376 242 243 237
245829.94580078 3357561.95550537 17.85955620 169 170 165
245827.27478027 3357564.95812988 16.46898270 80 102 30
245827.51263428 3357564.37078857 17.86989784 137 139 136
245828.86291504 3357562.32586670 17.93540192 143 140 133
245829.92968750 3357564.30224609 17.35445404 173 187 190
245830.06311035 3357562.84405518 16.92727470 74 92 106
245829.44854736 3357563.87231445 17.92039490 230 230 232
245829.10522461 3357564.36151123 17.76023483 76 85 84
245829.92932129 3357561.92578125 17.27302933 232 236 235
245829.77691650 3357561.91668701 16.61030197 225 231 229
245828.99084473 3357564.35089111 17.64361000 58 68 69
245830.17944336 3357564.10058594 17.50279427 176 192 205
245829.61633301 3357563.80218506 17.91983223 150 150 152
245827.01916504 3357562.29455566 17.94654846 231 233 230
245827.11791992 3357564.33972168 17.18559265 141 145 144
245826.92694092 3357564.02612305 17.92205620 186 186 186
245826.63232422 3357563.53106689 16.59481430 109 127 77
245828.59722900 3357564.01263428 17.91309929 221 222 224
245829.38323975 3357562.85156250 17.92974091 209 210 212
245828.47369385 3357564.36151123 16.34534836 26 43 37
245830.04028320 3357563.31909180 17.23327065 115 132 140
245827.28784180 3357563.02154541 17.93707657 150 151 146
245827.25518799 3357562.11932373 17.94519424 248 246 249
245826.80010986 3357563.64758301 16.91295242 240 240 238
245830.12042236 3357562.16491699 16.70220566 147 164 174
245827.82611084 3357564.38781738 17.71860886 120 124 125
245826.76550293 3357562.32244873 17.02435875 224 225 220
245828.77618408 3357564.33789063 16.54647636 163 176 182
245826.89672852 3357563.29931641 17.14246750 231 230 226
245826.95544434 3357564.51879883 16.55103874 67 88 47
245827.62310791 3357564.37554932 16.64224243 155 173 175
245826.77246094 3357563.18505859 17.74823761 211 213 212
245826.77667236 3357563.29046631 16.73744392 254 254 254
245829.38592529 3357564.38806152 16.26752090 1 21 12
245829.91021729 3357561.93463135 17.84652710 170 172 167
245827.86633301 3357562.98168945 17.94112015 212 214 211
245827.51513672 3357562.82672119 17.94222641 201 203 200
245829.80609131 3357564.29864502 17.36717796 173 184 186
245827.54858398 3357562.16400146 17.94337082 245 245 245
245827.43682861 3357563.09405518 17.93680954 168 173 167
245830.17340088 3357562.54547119 16.23134422 12 33 18
245827.76867676 3357564.13012695 17.92075539 207 207 205
245829.19677734 3357564.32568359 16.34322929 98 117 115
245826.84375000 3357563.70715332 17.92024803 237 241 242
245829.98083496 3357564.19146729 17.91594124 223 225 224
245830.09716797 3357563.89904785 17.28933525 166 184 196
245829.08221436 3357564.36120605 17.74203300 69 78 77
245828.24792480 3357565.03601074 16.41526031 18 40 19
245828.00085449 3357562.43664551 17.95083618 231 231 229
245830.24633789 3357562.99145508 16.11917877 16 37 18
245827.16894531 3357562.14093018 17.94712257 237 235 236
245828.69995117 3357564.24090576 16.98190689 92 101 108
245828.35076904 3357562.34503174 17.94955063 246 246 244
245828.94110107 3357564.33850098 16.52910995 165 180 183
245827.21154785 3357564.34289551 17.41149712 112 122 121
245826.81115723 3357563.09240723 16.80471039 233 233 233
245826.78558350 3357563.19030762 16.73595428 252 252 254
245830.04669189 3357563.50793457 17.20814705 111 129 139
245828.59979248 3357564.22839355 17.04359627 143 152 157
245828.94732666 3357564.33862305 16.58192635 166 181 184
245830.13146973 3357564.13958740 16.62639999 159 177 181
245829.65246582 3357561.92260742 17.61251640 149 151 148
245830.04357910 3357561.80407715 16.22690582 97 119 57
245827.15753174 3357563.88763428 17.94535828 220 224 225
245827.35040283 3357562.76965332 17.94248390 154 153 151
245826.73327637 3357562.36279297 17.78738976 220 218 219
245830.24493408 3357563.86010742 16.20806313 8 32 18
245829.82171631 3357561.91180420 16.88084602 190 195 191
245826.83892822 3357562.89483643 16.96869659 211 211 209
245826.80603027 3357562.44091797 17.19099998 245 246 241
245829.63879395 3357561.91192627 16.88257027 200 202 201
245827.27154541 3357564.10998535 17.94085121 239 243 244
245828.04602051 3357563.62084961 17.92906189 194 198 197
245830.07421875 3357563.48986816 17.00266457 89 107 119
245828.78765869 3357564.21063232 17.90735817 156 160 163
245829.29669189 3357564.48852539 16.26608849 12 28 15
245828.35369873 3357564.36987305 17.73544884 67 78 80
245828.98297119 3357564.31884766 17.87533188 140 145 148
245829.46685791 3357561.93096924 17.01820374 176 178 175
245828.48071289 3357563.30187988 17.92949677 227 229 228
245830.04022217 3357563.23028564 17.16328430 118 134 147
245830.14721680 3357563.28845215 16.75669098 84 104 115
245828.86523438 3357562.55377197 17.93901634 171 171 169
245827.77990723 3357564.37445068 16.82611656 83 99 99
245827.72314453 3357564.23986816 17.91925430 182 181 179
245828.45812988 3357564.48632813 16.32061958 17 35 21
245828.73748779 3357564.40496826 16.33750153 15 35 26
245826.88079834 3357563.22808838 17.08457375 228 227 223
245829.24047852 3357564.35357666 17.66846657 68 78 79
245828.15887451 3357562.41546631 17.95059967 222 222 220
245828.72869873 3357564.46697998 16.30663490 14 37 19
245830.12072754 3357562.16821289 16.67784119 160 177 187
245829.87835693 3357564.38055420 16.26432991 17 41 28
245826.75085449 3357562.80828857 17.80814171 251 249 250
245826.84405518 3357562.66003418 17.13801384 237 238 233
245829.96575928 3357564.31567383 17.44050598 174 188 191
245828.07025146 3357563.03997803 17.93958664 217 219 216
245829.04003906 3357563.33728027 17.92377853 218 219 221
245829.89178467 3357564.32775879 17.50970078 157 166 171
245829.59210205 3357564.31646729 16.32849121 112 131 138
245830.13476563 3357563.42474365 16.29793358 75 94 100
245829.61328125 3357561.91156006 16.91640472 201 203 202
245827.21466064 3357564.38854980 16.69994736 147 157 159
245829.38201904 3357561.89019775 17.66474342 155 155 147
245826.60217285 3357563.00634766 16.48899841 133 152 86
245830.05279541 3357561.96411133 16.58219528 208 219 223
245830.18322754 3357564.17907715 17.46880722 173 193 202
245828.30535889 3357565.07055664 16.40464783 20 39 19
245829.30303955 3357562.51660156 17.93271255 215 219 218
245828.28222656 3357564.35162354 17.89132118 142 146 147
245829.20574951 3357564.37658691 16.24081421 4 21 11
245829.82281494 3357564.01892090 17.91855049 195 197 196
245828.63092041 3357562.76885986 17.93778992 217 219 216
245827.94567871 3357562.66900635 17.94670296 126 124 125
245827.92474365 3357563.89776611 17.92233467 229 233 232
245827.52813721 3357564.27917480 17.19779205 119 131 131
245827.82287598 3357562.20800781 17.95391464 178 179 173
245827.88085938 3357564.39312744 16.45441628 10 31 22
245828.06927490 3357564.34210205 16.84652901 74 84 86
245830.13610840 3357563.58666992 16.40814209 101 119 129
245830.13989258 3357562.01354980 16.77673912 155 171 186
245829.70465088 3357564.21148682 17.91866112 221 222 226
245830.09448242 3357562.51672363 16.90102577 133 146 165
245829.58984375 3357563.84234619 17.91986465 216 216 218
245830.35113525 3357563.59411621 16.17724609 16 38 25
245827.41534424 3357563.31665039 17.93216133 211 216 210
245830.14453125 3357564.14843750 16.92858696 162 179 187
245829.42657471 3357563.20874023 17.92448044 219 221 220
245827.98596191 3357564.35870361 16.77956581 77 88 92
245828.82196045 3357564.40307617 16.35509300 6 27 20
245826.58135986 3357564.68768311 16.59605217 52 85 14
245829.01428223 3357563.52117920 17.92290306 234 235 237
245827.64019775 3357564.38000488 17.65931702 105 111 111
245829.60638428 3357563.53692627 17.92039680 232 232 234
245828.01080322 3357564.99597168 16.41391563 51 69 31
245827.65136719 3357563.70532227 17.93817139 180 180 178
245828.23272705 3357564.95178223 16.43697739 16 40 16
245826.75537109 3357563.03466797 17.80755997 237 237 237
245830.03985596 3357562.71112061 17.33929825 104 121 129
245827.43945313 3357564.38177490 16.59014702 138 153 158
245829.83441162 3357564.32208252 16.81393623 97 111 112
245829.27496338 3357564.13348389 17.91461372 177 177 179
245829.97314453 3357562.26696777 17.92308998 167 171 172
245828.44433594 3357564.08551025 17.91632080 187 191 194
245829.72375488 3357563.46276855 17.92005157 208 208 208
245827.50128174 3357564.37463379 16.63156319 160 173 179
245827.35565186 3357562.41827393 17.94840240 177 176 174
245829.14404297 3357562.57415771 17.93267059 206 208 205
245829.95141602 3357561.77130127 16.23805046 76 98 33
245829.18426514 3357561.97558594 17.94627953 192 194 173
245828.62457275 3357562.15435791 17.94040871 206 208 203
245830.06726074 3357562.38598633 17.23678207 120 138 152
245830.13134766 3357562.57727051 16.75307465 115 130 151
245826.80346680 3357563.47497559 17.92285156 182 183 177
245830.04943848 3357562.47229004 17.92501831 179 187 189
245826.70068359 3357562.34130859 16.47803497 234 231 212
245828.59045410 3357563.49896240 17.92465782 215 216 218
245830.16546631 3357564.12353516 17.30272865 163 188 195
245830.06414795 3357563.73895264 17.30934525 122 136 147
245828.61761475 3357564.23095703 17.09532547 142 151 156
245828.58123779 3357564.30895996 17.88546181 168 172 175
245828.47039795 3357563.69232178 17.92276764 179 180 182
245829.70587158 3357562.37036133 17.92937851 220 222 221
245830.03643799 3357562.93322754 17.02487755 105 124 138
245828.30950928 3357564.32720947 16.86344337 122 132 133
245830.13537598 3357563.16894531 16.62976074 147 164 180
245829.67260742 3357561.89703369 17.81808472 162 161 157
245830.13897705 3357564.15917969 16.31659126 97 117 116
245830.03735352 3357561.92974854 17.56103325 164 165 169
245829.20495605 3357564.47814941 16.26269913 15 31 18
245830.13610840 3357563.34484863 17.82504272 123 132 137
245829.39654541 3357563.84735107 17.92066193 232 231 236
245830.12304688 3357562.21179199 17.05873108 119 141 154
245829.25024414 3357564.27050781 17.41286659 106 115 120
245827.74340820 3357564.26519775 16.96601677 79 90 94
245829.58514404 3357564.79553223 16.34091377 15 38 18
245830.13177490 3357563.14111328 16.51889420 97 114 130
245830.11645508 3357562.03808594 16.52660751 163 176 185
245826.80950928 3357563.05480957 16.81125450 230 230 230
245827.72454834 3357564.37951660 16.69302750 165 181 181
245826.75689697 3357564.18078613 16.73095703 254 252 255
245827.28875732 3357564.01947021 17.94531631 242 244 243
245827.71209717 3357564.30749512 17.91787148 165 164 162
245827.02752686 3357563.71209717 17.93894768 156 158 157
245826.74475098 3357562.19110107 17.60410500 255 255 255
245829.46636963 3357561.95812988 17.28051949 214 215 210
245830.11022949 3357562.12066650 17.28418922 180 200 211
245827.51147461 3357562.87762451 17.94135857 231 233 228
245826.77581787 3357562.21252441 17.47641563 254 254 254
245829.67431641 3357562.02551270 17.91519737 191 193 188
245828.85968018 3357564.75842285 16.36670303 15 36 17
245827.29846191 3357564.00427246 17.94534874 242 244 243
245828.20770264 3357564.60418701 16.39412117 11 28 10
245826.95068359 3357563.15509033 17.93169975 181 182 176
245828.30895996 3357564.34893799 16.55571938 161 177 177
245829.15618896 3357564.06646729 17.91423607 180 180 180
245830.06774902 3357562.35931396 17.16160393 118 137 151
245826.67083740 3357563.21435547 16.55412674 142 157 114
245829.84564209 3357562.41632080 17.92751694 219 220 222
245830.18280029 3357563.86859131 16.24079895 21 44 38
245827.71258545 3357564.48345947 16.41346741 12 30 18
245829.64135742 3357564.73931885 16.32600212 9 33 9
245830.21606445 3357563.39147949 16.17262077 25 44 38
245828.73156738 3357562.62976074 17.93922424 217 217 215
245830.12658691 3357564.35430908 17.78735733 84 94 96
245829.45141602 3357561.75659180 17.95543480 185 179 157
245829.94635010 3357564.32000732 16.71513176 122 136 139
245830.08135986 3357562.40649414 17.89496803 187 197 199
245827.80157471 3357564.24688721 17.14110374 117 128 132
245829.77282715 3357564.33978271 16.30650902 54 75 70
245827.88195801 3357564.23797607 17.07285309 115 126 132
245827.19097900 3357564.39752197 17.68304825 110 114 113
245826.82336426 3357564.64599609 16.55403328 90 122 49
245829.30444336 3357562.54632568 17.93247986 213 217 216
245830.13006592 3357563.07354736 16.37602615 119 137 149
245829.15051270 3357564.25274658 17.31599998 130 141 145
245830.05004883 3357561.97546387 17.14689255 206 219 227
245828.82012939 3357563.33361816 17.92480850 236 237 239
245828.71185303 3357564.33709717 16.69034386 143 150 156
245828.36053467 3357564.33129883 17.61717606 69 80 82
245829.69458008 3357563.38562012 17.92112732 193 195 192
245829.89123535 3357564.73242188 16.28594780 20 44 22
245829.09588623 3357563.85266113 17.91774368 163 163 163
245829.73156738 3357564.70642090 16.31461143 14 37 17
245830.01007080 3357564.76678467 16.21134949 19 40 23
245826.78009033 3357564.30841064 17.69809151 199 199 197
245826.59997559 3357564.46575928 16.61365700 94 129 47
245830.09997559 3357562.46124268 17.88175774 165 176 180
245829.55255127 3357561.92596436 17.02494621 176 181 177
245830.12933350 3357562.44989014 16.82907295 96 107 125
245829.72772217 3357564.36572266 16.26721191 22 43 36
245829.63482666 3357564.85064697 16.35369110 11 34 14
245830.26220703 3357563.30438232 16.14402199 24 40 30
245828.54949951 3357564.28277588 17.41138268 102 113 117
245828.96136475 3357564.91986084 16.39499092 10 32 11
245830.13690186 3357562.77111816 16.34576225 113 133 142
245829.18676758 3357561.97753906 17.27323341 234 233 228
245826.82818604 3357563.32415771 17.38453102 255 255 255
245830.17175293 3357562.13427734 16.22372818 34 53 34
245830.06176758 3357561.99792480 17.23295403 183 196 204
245830.08673096 3357562.52435303 17.60787964 54 68 69
245826.87762451 3357562.64379883 17.93449783 174 176 175
245829.71368408 3357564.38732910 16.25068474 22 43 36
245827.63525391 3357563.99584961 17.92939758 151 153 150
245829.42150879 3357564.58575439 16.29450607 19 38 19
245830.14666748 3357562.27380371 17.81528664 86 97 101
245829.93078613 3357561.90600586 16.80011177 212 217 213
245828.46435547 3357564.21807861 17.91244698 191 192 196
245829.30725098 3357564.26312256 17.39317513 109 120 122
245827.31420898 3357564.88934326 16.46971703 73 95 30
245830.28924561 3357562.74566650 16.17633629 15 41 14
245827.86663818 3357562.17108154 17.95472145 188 189 183
245828.74121094 3357565.05859375 16.40681267 19 43 21
245828.79650879 3357564.30902100 17.47443199 97 107 109
245829.99755859 3357561.91497803 17.63266373 186 188 187
245827.45300293 3357562.95184326 17.93979645 151 152 147
245827.61956787 3357563.92370605 17.93252563 163 163 161
245828.90435791 3357564.33679199 16.65221596 151 165 168
245829.54528809 3357562.91271973 17.92767525 193 194 196
245827.74847412 3357564.37573242 16.81464386 69 83 83
245829.70880127 3357561.92047119 17.06490517 206 208 207
245830.03259277 3357561.91333008 16.94832611 193 198 201
245830.12438965 3357562.35516357 16.86865807 95 111 127
245829.09020996 3357564.28857422 17.45715141 91 101 103
245830.09497070 3357564.25750732 17.29839897 167 185 195
245828.37890625 3357563.39343262 17.92902374 225 227 226
245827.55072021 3357563.79809570 17.93997192 212 214 211
245829.32873535 3357563.84564209 17.92094803 232 232 234
245830.05841064 3357564.35778809 16.25038719 17 38 29
245829.79113770 3357563.25195313 17.92276955 220 222 221
245829.96295166 3357564.32012939 17.46669579 172 186 189
245830.05895996 3357562.73034668 17.44700623 71 88 95
245829.73461914 3357563.71124268 17.91951752 203 203 205
245826.58300781 3357564.88238525 16.56667328 86 115 48
245828.30877686 3357562.50500488 17.94697380 240 242 239
245829.44073486 3357564.27191162 17.45780754 80 91 95
245827.11230469 3357564.89410400 16.49249077 91 123 48
245830.09887695 3357561.79577637 16.22218513 83 105 40
245827.33148193 3357565.00567627 16.46403885 101 124 54
245828.67382813 3357564.43090820 16.32757187 12 34 22
245830.15509033 3357564.00244141 16.97374535 143 161 171
245826.96520996 3357563.27429199 17.92942047 183 182 177
245826.75653076 3357563.10314941 17.81146240 248 250 249
245826.92333984 3357564.25878906 17.90490341 216 215 210
245830.12487793 3357564.07476807 16.50220680 149 164 169
245827.63983154 3357564.37652588 17.86720848 145 150 146
245828.27191162 3357564.35449219 17.66895866 81 91 93
245829.96936035 3357564.71685791 16.24784470 13 38 16
245827.56134033 3357563.77569580 17.94019890 230 235 231
245826.80804443 3357563.77624512 17.69748688 219 219 217
245827.27020264 3357562.49206543 17.94680023 173 173 171
245827.30993652 3357562.99377441 17.93781090 147 146 142
245830.24572754 3357564.48767090 16.17285728 13 34 17
245828.63592529 3357564.87408447 16.41489601 17 38 21
245830.11608887 3357563.33764648 17.61253548 37 48 52
245827.11291504 3357564.32293701 17.88874245 183 182 180
245830.07818604 3357562.56793213 16.92111397 114 130 146
245829.60858154 3357564.16168213 17.91897392 212 211 216
245829.80944824 3357564.28912354 17.24832726 171 186 189
245830.13153076 3357562.92388916 16.49849892 123 138 157
245829.89202881 3357561.91473389 16.67054558 226 231 227
245826.64849854 3357564.47393799 16.60791016 72 110 33
245828.16558838 3357564.23767090 17.19930840 113 122 127
245829.40502930 3357561.90356445 17.95253372 100 94 70
245829.90399170 3357561.92919922 17.47026062 198 204 202
245830.01196289 3357564.34173584 17.63857460 94 105 107
245830.41748047 3357562.64129639 16.18852043 14 36 13
245827.52703857 3357564.72180176 16.45465660 20 39 19
245828.65454102 3357563.88726807 17.91469574 240 241 243
245829.70227051 3357561.91516113 16.64901543 225 229 230
245829.54486084 3357564.24243164 17.21414948 133 147 150
245830.04339600 3357562.59808350 17.31713486 110 127 137
245826.60949707 3357563.63348389 16.56871796 118 139 80
245828.90179443 3357564.22863770 17.07929230 149 158 167
245827.69561768 3357563.47656250 17.93332291 236 238 237
245827.17541504 3357562.87200928 17.93918610 138 139 133
245830.07250977 3357562.47338867 17.51479340 74 87 93
245827.95617676 3357564.29650879 17.90996552 164 164 162
245828.58459473 3357563.23046875 17.92957115 172 174 173
245828.76776123 3357564.57055664 16.32096672 13 38 17
245829.51226807 3357561.78430176 17.92377472 194 182 170
245826.78417969 3357563.42083740 16.79521370 228 228 226
245826.58953857 3357563.99896240 16.56916428 116 143 66
245828.77001953 3357564.11798096 17.90912628 161 163 162
245830.00122070 3357564.14331055 17.91525459 161 161 161
245827.33447266 3357564.29846191 17.00644302 94 105 101
245827.81329346 3357564.37640381 16.70249367 164 179 182
245827.27575684 3357563.33660889 17.93064499 175 177 172
245830.14105225 3357563.57055664 16.78659058 51 71 80
245830.32647705 3357563.00366211 16.12929153 27 46 26
245827.83117676 3357563.20294189 17.93725777 200 205 201
245826.54919434 3357562.96710205 16.48933029 144 160 95
245827.66046143 3357564.37872314 16.61939812 156 176 175
245830.12145996 3357563.95513916 17.35980797 171 189 201
245830.36871338 3357563.65087891 16.18785858 15 37 24
245826.80560303 3357563.26800537 16.80989456 229 229 229
245826.79644775 3357564.37188721 17.62641525 183 182 180
245828.29785156 3357562.65863037 17.94412613 232 232 230
245828.98272705 3357564.78204346 16.35594177 14 35 16
245827.25396729 3357564.31390381 16.99991035 91 100 97
245829.97875977 3357562.00567627 17.89190292 169 171 170
245827.15161133 3357564.39373779 17.81286240 153 152 150
245826.59387207 3357564.51922607 16.61152267 74 112 29
245830.07751465 3357562.93762207 17.50664139 69 84 91
245830.02368164 3357563.04711914 17.13980675 114 134 143
245828.56188965 3357563.81005859 17.91965294 218 222 223
245827.97021484 3357563.53552246 17.93143272 200 201 203
245830.19226074 3357563.62280273 16.18901253 15 38 32
245826.46667480 3357564.43212891 16.63001633 102 130 55
245829.47052002 3357561.95245361 17.32778358 214 211 206
245827.58221436 3357564.33264160 17.92088509 135 137 132
245830.13873291 3357563.09326172 17.83225441 143 156 165
245829.66528320 3357564.32818604 16.63286591 156 167 173
245830.03613281 3357562.80511475 17.30802917 115 132 140
245829.93017578 3357561.78295898 16.25065422 71 94 26
245827.45898438 3357564.04071045 17.93641663 172 172 170
245828.43060303 3357564.87310791 16.43183708 17 34 18
245829.42169189 3357564.25238037 16.99757576 134 145 147
245827.09039307 3357563.70953369 17.93917084 151 155 154
245826.75408936 3357563.37408447 16.69776535 251 253 252
245830.14111328 3357562.30572510 16.28590393 93 112 118
245830.14172363 3357563.45721436 16.64593697 147 163 178
245827.44964600 3357562.18359375 17.94663239 199 199 199
245828.73266602 3357564.24145508 16.98466873 90 99 106
245829.14416504 3357562.83404541 17.93073082 217 219 218
245829.51519775 3357563.61920166 17.92061615 217 218 220
245830.09515381 3357562.87530518 17.62150192 72 86 95
245827.12414551 3357563.95581055 17.94051933 235 239 240
245829.19213867 3357564.32928467 17.60210991 64 74 75
245828.95251465 3357564.35864258 17.85205269 103 107 110
245826.78857422 3357563.21661377 17.89599991 236 238 235
245830.05206299 3357563.27270508 17.92020798 214 218 221
245826.83599854 3357562.93865967 17.32544136 255 255 253
245828.80102539 3357563.26690674 17.92628098 224 225 227
245829.88195801 3357561.90106201 17.75166130 162 164 159
245829.30535889 3357563.03399658 17.92736435 169 171 170
245828.67968750 3357563.44122314 17.92458534 223 224 226
245829.95434570 3357561.91815186 16.40316582 235 239 248
245829.71423340 3357562.74713135 17.92689323 165 165 165
245826.80682373 3357563.98468018 17.25873947 254 254 252
245828.96594238 3357564.33703613 16.72418785 131 142 146
245828.35626221 3357563.34741211 17.93015289 224 226 225
245828.21002197 3357564.78796387 16.42926598 17 41 19
245826.43768311 3357564.30291748 16.63236618 105 132 55
245827.66558838 3357562.14459229 17.94668388 241 241 241
245830.15948486 3357564.33111572 17.72793388 88 102 103
245826.76397705 3357562.38476563 17.62460327 233 233 233
245826.79772949 3357564.04034424 17.28742790 255 255 253
245830.08587646 3357562.51239014 16.91461563 122 135 154
245826.96496582 3357562.29736328 17.94335747 237 239 234
245829.50006104 3357564.80310059 16.34405136 17 40 20
245830.01971436 3357563.10430908 17.92155266 212 211 216
245826.80725098 3357562.80639648 16.87574196 219 219 221
245827.87066650 3357564.37646484 17.84208679 142 146 145
245830.13140869 3357562.46514893 16.76184273 127 142 163
245830.13342285 3357562.16198730 16.94579887 88 106 116
245829.87554932 3357562.43334961 17.92707443 226 227 229
245828.23834229 3357564.92321777 16.44171143 13 37 13
245827.60296631 3357564.28552246 17.92143059 156 155 153
245828.11303711 3357564.80749512 16.43386269 14 37 11
245830.15106201 3357564.07647705 17.13184166 171 196 203
245830.13256836 3357562.85076904 16.30811119 122 145 153
245830.32342529 3357562.90338135 16.14763832 23 45 24
245826.71832275 3357562.94195557 16.52119827 197 207 183
245830.13079834 3357562.92584229 16.73463058 106 123 141
245830.13568115 3357562.72277832 16.59953308 143 160 180
245830.11773682 3357563.19403076 16.85728264 77 91 104
245829.20965576 3357564.25488281 16.99743462 123 132 139
245830.07891846 3357563.73962402 17.37850380 115 129 138
245829.63793945 3357564.55572510 16.27715874 12 33 18
245827.73034668 3357562.75817871 17.94429207 236 238 235
245829.89575195 3357561.91284180 17.56437683 191 197 195
245830.05145264 3357562.50463867 17.03347588 114 125 143
245829.21673584 3357564.57873535 16.29491234 11 32 15
245829.36474609 3357563.76080322 17.92096519 163 163 163
245829.00134277 3357562.95745850 17.92961884 225 227 226
245826.72723389 3357562.27899170 16.55491257 253 252 250
245830.06237793 3357562.31201172 17.91328049 206 216 217
245829.74487305 3357564.55065918 16.27341461 16 39 23
245826.99615479 3357564.39105225 16.94666481 98 102 103
245830.38659668 3357562.14532471 16.19804573 23 45 9
245827.88153076 3357564.21527100 17.91562271 177 178 173
245827.68859863 3357562.25994873 17.95247459 229 230 225
245827.14349365 3357564.39428711 16.69463921 161 170 175
245829.64086914 3357562.13800049 17.92516327 141 146 140
245830.05859375 3357563.38238525 17.34202003 112 129 137
245826.75537109 3357562.96752930 17.78196144 205 207 206
245827.03161621 3357564.37402344 17.17824554 186 186 186
245829.28881836 3357565.04095459 16.39893532 14 36 15
245826.73297119 3357564.44366455 16.60251617 151 177 129
245829.80895996 3357564.31024170 16.39431190 107 131 131
245828.09985352 3357564.23626709 17.91319656 161 163 160
245828.72424316 3357564.99554443 16.40464783 12 35 15
245830.13592529 3357563.51593018 16.38520813 119 137 147
245830.25756836 3357563.36523438 16.15097809 17 37 26
245828.87805176 3357564.35107422 17.64672470 74 79 82
245830.31103516 3357563.67089844 16.18663025 15 37 25
245829.14440918 3357565.04949951 16.40230560 15 37 16
245830.13903809 3357563.26416016 16.60007858 130 148 162
245827.51007080 3357564.36413574 17.57276344 90 99 98
245827.35278320 3357564.40075684 16.50241661 58 75 69
245829.67126465 3357564.26483154 17.21945953 137 148 152
245827.13079834 3357562.76251221 17.94103050 163 164 159
245829.82336426 3357562.28826904 17.92869568 220 224 225
245826.82592773 3357563.29602051 17.38994408 255 255 255
245828.34381104 3357564.24353027 17.24677849 101 112 114
245827.55853271 3357564.36706543 16.75313568 81 92 94
245830.15893555 3357563.92272949 17.82919884 109 115 115
245828.22418213 3357563.71282959 17.92535400 186 188 187
245829.65887451 3357561.91027832 16.38728523 173 184 168
245828.06341553 3357563.29626465 17.93469620 216 218 217
245827.14379883 3357564.57574463 16.46283340 30 51 10
245830.05151367 3357562.53363037 17.30664253 115 132 142
245829.90570068 3357562.22406006 17.92145920 183 184 186
245830.12933350 3357561.98931885 17.63669205 96 100 103
245827.31420898 3357564.37359619 16.81425285 63 71 73
245827.94067383 3357564.94415283 16.42076111 26 46 11
245830.15698242 3357563.43713379 16.26514053 57 76 80
245827.91491699 3357564.39123535 16.45021248 6 27 20
245828.80664063 3357564.71539307 16.36097336 14 35 16
245827.68548584 3357564.45648193 16.41954803 9 31 19
245830.01611328 3357561.94189453 16.54125595 240 249 254
245827.60095215 3357562.72210693 17.94434738 212 212 210
245828.11968994 3357562.48394775 17.94976425 241 241 239
245829.62597656 3357561.83367920 16.28487968 92 110 36
245830.07568359 3357562.55755615 17.55434227 51 66 69
245830.18609619 3357563.96545410 16.23496819 19 40 33
245829.35058594 3357561.93511963 17.00335503 177 177 175
245828.66778564 3357564.43395996 16.32634163 12 34 22
245827.74700928 3357564.25018311 17.03676987 111 122 126
245830.04083252 3357561.95361328 17.28499413 237 245 248
245830.13183594 3357562.85388184 16.26707268 110 130 137
245830.13269043 3357564.07360840 17.86891365 145 147 146
245829.66992188 3357561.90942383 17.65961266 143 148 144
245830.42004395 3357563.13513184 16.14503860 26 44 22
245828.13586426 3357564.29852295 16.92098808 77 87 89
245826.97491455 3357564.39599609 17.18208694 189 188 186
245828.66516113 3357562.67474365 17.93918800 213 218 214
245826.77435303 3357564.14874268 17.69625092 224 226 223
245826.88281250 3357564.39898682 17.82734299 167 166 161
245830.12969971 3357562.95062256 16.46037102 115 133 147
245826.78637695 3357563.79357910 17.89297485 241 243 242
245826.79791260 3357564.33306885 17.11561394 250 251 246
245829.96820068 3357563.28546143 17.92101097 208 208 210
245830.15948486 3357562.22076416 16.24177361 59 78 74
245829.32409668 3357562.91601563 17.92901230 184 185 187
245829.16314697 3357564.35864258 17.68404579 74 82 84
245828.39508057 3357564.73596191 16.40686417 15 36 17
245826.80688477 3357563.97045898 17.42614365 255 255 255
245827.64898682 3357564.66424561 16.44219017 16 37 18
245826.78216553 3357562.59075928 16.88803482 221 222 217
245829.34851074 3357562.04760742 17.93312836 104 100 88
245828.33508301 3357564.28601074 16.93356323 59 70 72
245828.26153564 3357563.99414063 17.92007446 188 192 193
245829.38922119 3357563.65850830 17.92106438 195 195 197
245829.40344238 3357563.44305420 17.92143059 189 190 192
245828.56726074 3357562.62481689 17.94138908 238 238 236
245827.67285156 3357564.29638672 16.91361618 53 64 68
245830.01879883 3357564.22045898 17.91287804 230 234 235
245827.14361572 3357564.41424561 16.53277779 65 85 76
245830.07708740 3357561.98358154 17.77809334 132 138 138
245826.39068604 3357563.96569824 16.57988167 103 129 55
245829.49426270 3357561.91113281 16.72169304 215 218 225
245829.95513916 3357564.04724121 17.91800690 224 224 224
245826.88354492 3357563.19140625 17.12386513 221 220 216
245827.28210449 3357564.69348145 16.43870735 46 67 26
245826.86309814 3357562.86340332 17.19611359 241 241 239
245826.82214355 3357563.62255859 16.97585106 235 236 231
245829.30773926 3357564.74285889 16.33221245 12 31 12
245826.78436279 3357563.19677734 17.67606926 212 212 210
245826.81750488 3357562.26788330 17.92168045 249 249 247
245826.82739258 3357563.54663086 17.40558815 255 255 255
245827.62994385 3357564.32312012 17.40449905 106 116 117
245829.73309326 3357564.32043457 16.32241821 77 99 97
245829.65698242 3357563.29241943 17.92258644 199 201 200
245827.99908447 3357564.37670898 17.79636192 99 108 107
245828.33581543 3357563.31958008 17.93091774 222 223 225
245830.10021973 3357562.77728271 16.85680389 114 130 146
245828.93951416 3357564.33679199 16.70446968 123 132 137
245830.08593750 3357562.89868164 17.56023598 62 77 84
245829.05041504 3357562.99200439 17.92873192 214 216 215
245830.13018799 3357562.71343994 16.77540779 102 118 134
245830.13531494 3357563.57025146 16.33648682 91 110 116
245826.79028320 3357563.85083008 17.74185944 244 244 242
245829.66284180 3357564.32922363 16.69899750 130 141 145
245827.95440674 3357564.27947998 16.94814491 73 83 85
245826.85260010 3357563.46838379 17.92800903 184 185 179
245829.42785645 3357564.31353760 17.62882042 62 72 73
245829.73004150 3357561.91314697 16.90603828 198 200 197
245830.15478516 3357563.99682617 16.82753563 53 71 81
245826.75909424 3357562.59283447 16.74055862 235 235 235
245827.56195068 3357563.25048828 17.93466187 226 228 227
245830.12799072 3357563.77886963 16.91764641 76 96 105
245829.18823242 3357564.35894775 17.72366333 77 85 87
245830.30621338 3357564.05413818 16.20941353 11 31 19
245827.98205566 3357563.39886475 17.93372917 190 192 191
245828.93786621 3357563.50750732 17.92251015 235 235 237
245826.79199219 3357562.68096924 17.48713493 255 255 255
245829.98565674 3357564.32653809 17.52230644 158 172 175
245829.01922607 3357564.28564453 17.42985535 107 117 119
245830.14007568 3357564.14343262 16.72675705 89 108 115
245829.51916504 3357561.93927002 17.43371582 203 200 193
245828.39410400 3357563.79064941 17.92198944 161 163 162
245826.96759033 3357564.81994629 16.51509476 60 83 15
245829.55621338 3357564.64111328 16.30228996 16 37 20
245829.22698975 3357564.29040527 17.49338722 84 94 96
245827.14672852 3357562.48052979 17.94647026 195 198 191
245829.60211182 3357564.93780518 16.36975670 12 35 15
245828.55010986 3357564.28021240 17.39032555 102 113 117
245829.16473389 3357564.70751953 16.32698631 14 35 18
245828.46905518 3357563.13446045 17.93275261 203 203 203
245830.11968994 3357563.92053223 17.04678345 161 181 192
245830.16369629 3357563.86370850 16.26348114 37 59 56
245829.43438721 3357561.91241455 16.48798180 218 227 224
245830.09320068 3357562.48242188 17.64316940 68 81 87
245830.30651855 3357563.57489014 16.17065239 16 38 25
245830.13427734 3357562.55023193 16.66164589 162 180 204
245827.03961182 3357564.80206299 16.50619507 69 100 30
245830.13513184 3357563.66174316 17.65306473 36 47 49
245829.05950928 3357561.97473145 17.26976776 239 240 232
245826.79278564 3357563.78155518 17.74310493 238 238 236
245826.89715576 3357563.60437012 17.92873955 168 170 165
245826.76184082 3357562.67669678 17.68850708 216 216 216
245830.04058838 3357563.24572754 17.28193855 116 130 139
245829.26904297 3357564.80792236 16.34873199 17 36 17
245826.80810547 3357564.35876465 17.45456696 241 240 238
245830.09112549 3357563.85284424 17.33921432 143 157 168
245829.90826416 3357561.89819336 17.67456436 171 176 170
245830.03991699 3357561.92346191 17.60844421 148 149 151
245828.15594482 3357564.24389648 17.07773972 109 120 124
245830.15863037 3357563.95806885 16.94252586 117 135 145
245828.26617432 3357563.01831055 17.93754005 172 172 172
245829.74407959 3357564.32458496 17.80026054 85 93 95
245829.83135986 3357563.41271973 17.92032814 212 212 214
245826.78814697 3357564.07232666 17.59219170 255 255 253
245828.08074951 3357564.28179932 16.94784546 62 72 74
245827.97998047 3357565.04058838 16.40703964 78 98 47
245828.27563477 3357564.35449219 16.64814377 174 188 189
245828.98358154 3357562.50543213 17.93605614 147 147 145
245827.57324219 3357564.28271484 16.95501328 67 78 80
245828.50115967 3357563.72045898 17.92191696 192 193 195
245830.08081055 3357562.83660889 17.52679062 52 67 74
245830.18847656 3357564.33032227 16.22376633 14 36 24
245827.88360596 3357564.73150635 16.42764854 8 32 8
245830.07702637 3357562.15734863 17.88817406 152 162 163
245827.01623535 3357563.32318115 17.92884254 147 146 141
245827.99194336 3357563.46948242 17.93230820 215 217 216
245829.21466064 3357564.22308350 17.09889221 134 145 151
245826.74407959 3357563.48767090 16.70680428 248 248 248
245829.63562012 3357563.96313477 17.91943359 177 177 177
245828.82672119 3357562.90502930 17.93270302 217 219 216
245826.90069580 3357564.13269043 17.91678429 204 204 202
245827.47222900 3357562.77130127 17.94297409 195 197 194
245829.47845459 3357561.91082764 16.73127747 215 218 225
245828.57196045 3357563.01989746 17.93365669 150 150 150
245828.63256836 3357562.82659912 17.93664742 228 230 227
245828.00445557 3357564.23333740 17.08540726 109 120 124
245826.78582764 3357564.10974121 17.36014748 254 254 254
245827.73364258 3357564.38360596 17.80691147 139 143 142
245829.37408447 3357564.33184814 16.74805069 114 124 126
245829.50036621 3357564.73828125 16.32811928 18 42 20
245830.08056641 3357562.53485107 17.57929611 50 64 65
245826.83996582 3357563.76208496 17.33086967 254 254 254
245826.84869385 3357562.71087646 17.09378624 239 239 237
245830.10467529 3357562.76495361 16.83803558 109 125 141
245830.13110352 3357562.93475342 16.72447395 137 154 172
245830.14294434 3357563.81787109 16.69138145 130 148 160
245827.15454102 3357563.53594971 17.93355942 193 195 190
245830.13037109 3357563.13769531 16.25730133 88 107 113
245827.75756836 3357563.89398193 17.92690468 197 199 196
245829.31250000 3357564.33349609 16.73771286 111 120 125
245829.46679688 3357564.31597900 16.32331276 106 126 127
245827.10424805 3357562.81292725 17.93980408 169 171 166
245830.13793945 3357564.10107422 16.65160179 164 181 188
245829.60400391 3357562.51623535 17.92942810 169 169 169
245828.05017090 3357564.16162109 17.91484261 185 185 183
245829.17028809 3357564.34753418 16.27074432 28 48 39
245827.82586670 3357564.63073730 16.41662979 19 43 19
245830.13543701 3357563.59271240 16.34577179 87 106 113
245829.98010254 3357563.35028076 17.92049980 206 207 209
245826.76062012 3357563.68768311 17.87582397 249 249 247
245829.28601074 3357564.47143555 16.26268005 7 23 10
245827.83428955 3357564.45001221 16.41001892 5 27 15
245827.12615967 3357563.61248779 17.93603325 185 187 182
245830.11419678 3357562.44671631 17.73972321 92 107 112
245826.45489502 3357564.35681152 16.63525772 112 140 65
245829.44488525 3357564.34552002 17.74633408 55 65 66
245830.07116699 3357562.42352295 17.38277817 116 133 141
245827.41229248 3357562.52130127 17.94691467 231 233 230
245828.69232178 3357563.66174316 17.92064476 214 215 217
245826.76745605 3357564.22723389 17.35296822 253 253 253
245826.82836914 3357563.26416016 17.37893677 255 255 255
245830.13134766 3357563.06665039 16.64991951 162 181 198
245830.01916504 3357561.61779785 16.22666740 95 116 39
245828.99926758 3357563.15490723 17.92653275 235 236 238
245828.45941162 3357563.89880371 17.91934967 193 194 196
245830.13476563 3357562.62487793 16.63874245 167 184 210
245829.74621582 3357562.90014648 17.92564201 182 184 181
245827.13446045 3357564.33868408 17.10921860 123 127 126
245827.79180908 3357563.68701172 17.93200874 153 155 152
245828.53131104 3357564.80383301 16.41053009 14 33 14
245829.61810303 3357561.93688965 17.50552177 197 193 190
245828.61260986 3357564.33959961 16.50254822 139 157 157
245826.84997559 3357563.69921875 17.19400406 250 250 248
245829.03344727 3357564.30059814 16.85170174 113 124 128
245830.03668213 3357564.26690674 17.17924881 167 186 192
245829.09289551 3357563.76104736 17.91958618 180 180 180
245830.04736328 3357563.26684570 17.06743240 113 131 145
245827.40844727 3357563.44830322 17.93144417 206 208 207
245827.34338379 3357564.32281494 17.36862946 118 132 133
245830.06304932 3357562.71594238 17.47170830 64 81 88
245829.35174561 3357562.15850830 17.93479156 135 135 127
245826.81091309 3357564.34600830 17.31235695 229 228 226
245828.30957031 3357562.11791992 17.95274734 250 252 247
245828.80651855 3357564.47845459 16.29378891 11 32 17
245828.22314453 3357564.35534668 16.74454689 94 108 109
245829.51922607 3357561.96038818 17.91312408 156 150 136
245829.97088623 3357561.91345215 16.96919060 192 196 197
