246100.22546387 3357498.15408325 15.86005878 128 128 128
246099.44177246 3357507.59664917 15.96075535 128 128 128
246101.29211426 3357496.69525146 15.83581448 128 128 128
246100.46154785 3357497.31509399 15.83037949 128 128 128
246101.81750488 3357498.78576660 13.91627026 102 96 100
246099.68127441 3357506.74139404 16.69085312 49 215 231
246101.00292969 3357506.46725464 14.02131271 109 102 110
246101.41784668 3357506.47061157 16.26583099 14 142 213
246100.66564941 3357507.34869385 15.96479416 128 128 128
246099.46459961 3357507.93206787 14.33086681 211 206 200
246098.67065430 3357506.10702515 16.12352753 212 226 237
246100.41015625 3357497.35671997 15.83315945 128 128 128
246099.38891602 3357506.09796143 15.99869156 128 128 128
246101.99475098 3357497.08209229 16.48968124 10 110 186
246101.46240234 3357506.06988525 16.06849098 128 128 128
246099.64453125 3357508.72286987 14.02796459 203 198 192
246099.08105469 3357507.42749023 15.93479824 128 128 128
246099.58911133 3357508.14926147 16.25067520 19 156 228
246100.69152832 3357506.28338623 16.01092720 128 128 128
246102.70068359 3357496.68176270 15.75881672 128 128 128
246098.68566895 3357506.12515259 16.16588974 155 196 218
246100.93957520 3357508.19604492 15.99959278 129 128 123
246100.29626465 3357496.66656494 13.97267532 198 194 195
246099.85974121 3357505.75155640 16.03278923 128 128 128
246102.79882813 3357496.77066040 15.80327702 147 161 162
246102.72729492 3357497.04202271 15.79198647 135 146 148
246101.07751465 3357505.99655151 16.31283760 67 177 210
246099.40588379 3357498.56451416 13.93888950 198 197 193
246102.75878906 3357498.01565552 16.08175468 67 92 123
246099.98986816 3357508.43664551 14.06411076 175 166 159
246099.27258301 3357507.74804688 16.38458252 15 136 217
246100.45898438 3357496.72891235 16.36127090 9 185 245
246099.52563477 3357497.76284790 13.94024086 203 202 200
246098.90783691 3357506.40267944 14.11922359 203 203 201
246099.89709473 3357497.59060669 13.95722294 181 182 177
246099.83813477 3357507.78088379 16.39901352 104 157 191
246100.89990234 3357506.47222900 15.99743748 128 128 128
246098.60278320 3357507.28881836 16.00304031 241 237 238
246100.29516602 3357506.16946411 14.41006184 219 218 216
246102.33532715 3357498.61502075 13.90126228 178 177 172
246101.31604004 3357505.97515869 16.09481621 128 128 128
246102.44177246 3357497.02780151 16.27835846 17 117 193
246101.53735352 3357497.00000000 16.63779259 12 134 207
246101.53503418 3357496.70538330 15.84472370 128 128 128
246102.27941895 3357496.18954468 15.87550259 160 177 158
246102.13195801 3357497.52416992 16.43155670 119 163 208
246102.30566406 3357497.79705811 15.78217506 128 128 128
246100.56018066 3357496.54208374 15.83496952 128 128 128
246100.64709473 3357507.78100586 15.97795105 128 128 128
246100.89428711 3357498.47839355 14.27983856 179 175 163
246099.95617676 3357506.62643433 16.76826096 9 167 230
246100.82946777 3357498.77810669 13.91246700 207 203 192
246101.80786133 3357497.27896118 15.79702282 128 128 128
246100.82946777 3357508.06948853 14.11832619 80 84 95
246101.59155273 3357498.46847534 16.28452110 6 123 219
246098.71862793 3357506.89590454 14.15143299 210 209 205
246099.27795410 3357498.35375977 13.93950367 202 203 197
246102.54992676 3357497.84994507 15.77650166 129 129 131
246099.19775391 3357507.32525635 16.44425011 55 209 233
246100.51989746 3357498.54129028 15.94956875 198 198 196
246101.26354980 3357497.76791382 14.36180401 198 197 203
246101.30969238 3357506.72863770 15.98070908 125 129 132
246100.55395508 3357507.02545166 16.66109467 11 87 171
246100.74291992 3357506.90759277 15.95379925 128 128 128
246098.57006836 3357507.50659180 14.08521366 206 205 200
246100.35632324 3357497.45898438 14.02336121 201 196 190
246099.13403320 3357507.85095215 15.99512386 127 129 128
246100.63403320 3357497.82501221 16.51127052 57 196 219
246100.62390137 3357498.58108521 13.99012089 204 199 193
246100.39709473 3357508.16961670 16.32427788 11 166 232
246100.88696289 3357507.97427368 15.99278927 128 128 128
246100.12243652 3357496.25097656 16.12832260 5 162 239
246099.39465332 3357505.73995972 16.29767418 10 139 231
246101.20227051 3357506.82629395 14.02610493 92 98 112
246099.66040039 3357498.31192017 13.93796730 185 184 180
246100.06652832 3357497.50674438 16.19646263 33 185 235
246099.00646973 3357508.07708740 14.14409256 210 210 202
246098.60571289 3357507.46588135 16.24517632 155 225 255
246102.54614258 3357496.74310303 15.78169537 128 128 128
246102.28063965 3357496.91629028 16.35043335 13 119 193
246100.64355469 3357506.70205688 16.61350441 9 125 198
246101.45397949 3357496.53356934 13.94292736 159 163 138
246101.36499023 3357506.74084473 15.98979568 72 95 113
246101.18273926 3357506.90777588 15.97214317 128 128 128
246101.34020996 3357506.09072876 16.07716370 128 128 128
246101.33068848 3357497.97583008 15.81897449 128 128 128
246101.13647461 3357506.87811279 15.96925926 129 129 127
246099.98950195 3357497.59295654 15.87989712 177 191 192
246100.55773926 3357498.05087280 16.41232109 11 134 194
246100.20690918 3357497.34478760 15.83954906 128 128 128
246099.18872070 3357506.51062012 16.41151237 71 220 242
246100.70959473 3357498.46035767 16.23062897 3 126 220
246101.40344238 3357498.19934082 15.83099842 128 128 128
246101.79284668 3357496.78564453 14.01858521 167 170 177
246101.93737793 3357496.76171875 14.04318523 164 166 179
246102.23974609 3357497.80017090 14.01487541 138 64 53
246101.03649902 3357499.04208374 13.89128304 206 202 190
246100.53076172 3357508.42660522 16.10597801 175 185 158
246099.79162598 3357507.15884399 14.39791584 186 187 182
246098.96423340 3357508.00744629 16.26808739 2 148 225
246099.55078125 3357505.87377930 16.00225830 128 128 128
246099.67504883 3357506.55822754 14.31905556 182 181 179
246101.63195801 3357496.23641968 16.22010612 37 149 189
246098.91125488 3357507.30673218 14.18246651 204 201 196
246099.34960938 3357507.49645996 14.38343239 203 202 200
246098.39538574 3357505.82427979 14.02936459 216 215 213
246098.41064453 3357507.92959595 16.22024727 147 208 236
246100.35290527 3357507.25183105 15.94863224 128 128 128
246099.51733398 3357506.04406738 16.00277519 128 128 128
246099.23522949 3357506.16024780 16.40490341 63 214 241
246100.75476074 3357496.07656860 15.88182068 128 128 128
246100.80041504 3357507.32775879 14.31046677 152 104 66
246100.19702148 3357497.62429810 16.26893616 37 195 234
246099.88134766 3357506.01730347 14.48827553 190 182 163
246102.10656738 3357496.41189575 16.28684425 8 156 204
246100.96826172 3357497.44424438 16.64231491 38 209 239
246101.66333008 3357496.87222290 16.52884483 5 138 205
246100.49877930 3357497.55953979 16.40112686 94 192 227
246099.31481934 3357507.61917114 15.96979237 128 128 128
246099.91894531 3357506.43032837 14.48111725 149 156 172
246101.07531738 3357497.75311279 16.59754372 2 113 195
246101.60522461 3357497.30435181 15.80028439 128 128 128
246101.12829590 3357498.58801270 13.95298290 171 160 142
246099.70532227 3357506.50424194 14.36405373 189 184 181
246100.69567871 3357498.50717163 14.09462833 205 202 193
246099.60449219 3357506.67337036 16.61617661 76 219 235
246101.76281738 3357496.66989136 16.41145325 1 144 202
246101.02001953 3357496.65942383 16.44422913 25 169 219
246099.60656738 3357506.04498291 16.44848251 15 137 220
246100.76867676 3357498.23443604 14.23917007 195 194 190
246101.56164551 3357497.60119629 14.08392525 196 195 193
246100.43151855 3357496.40756226 16.28646278 1 162 234
246100.12902832 3357506.56042480 14.33453274 92 131 162
246098.57116699 3357503.54791260 13.99002647 195 195 195
246101.84204102 3357498.58645630 16.26075363 5 135 223
246100.61499023 3357508.08486938 15.99585533 128 128 128
246100.31604004 3357507.38897705 15.95151615 128 128 128
246099.81396484 3357497.41882324 13.96178150 194 193 191
246100.42700195 3357507.66833496 16.52849770 10 115 207
246100.97155762 3357498.28961182 14.57810497 191 171 160
246102.18725586 3357497.66281128 14.02198982 185 107 97
246101.18542480 3357507.66656494 16.27279663 34 181 235
246099.63525391 3357496.21871948 13.94787788 193 197 196
246099.28613281 3357498.80264282 13.94866276 215 216 210
246100.50952148 3357498.24411011 15.85304546 128 128 128
246098.51904297 3357507.54013062 16.23278236 94 167 218
246100.83972168 3357498.55349731 14.02048683 171 168 159
246101.15673828 3357506.57006836 14.00298691 105 105 115
246099.22009277 3357505.66101074 15.99702835 128 128 128
246098.88684082 3357506.55624390 16.27502251 21 204 246
246098.41821289 3357508.37734985 14.09825611 206 205 200
246101.64697266 3357496.66854858 13.95419979 170 172 169
246099.87011719 3357496.86151123 13.96967411 195 194 192
246099.90393066 3357497.88311768 16.12486839 78 188 213
246100.54602051 3357508.92410278 14.02243996 185 180 176
246099.46533203 3357507.50384521 15.93581009 128 128 128
246102.63171387 3357496.64199829 16.17355537 19 119 194
246100.12585449 3357497.26629639 15.84017086 128 128 128
246100.65490723 3357498.02859497 15.84262848 128 128 128
246102.31433105 3357496.06045532 16.02115059 60 147 139
246101.26867676 3357498.54537964 14.29257584 246 201 170
246100.65466309 3357507.61169434 14.23470116 117 101 101
246099.89367676 3357506.55334473 16.71529007 7 155 225
246101.53601074 3357496.33709717 13.91711903 183 178 172
246102.43066406 3357497.33654785 15.80274487 128 128 128
246099.16406250 3357505.77548218 16.31665039 81 205 239
246099.60156250 3357496.34133911 13.95394421 188 192 191
246101.16088867 3357496.53091431 14.15246010 212 212 214
246098.41137695 3357506.36343384 14.07035732 193 194 189
246100.40136719 3357496.81665039 15.83243179 128 128 128
246101.94274902 3357496.89651489 14.04714394 153 160 170
246102.32470703 3357496.36212158 13.89564800 187 186 181
246098.94042969 3357505.66662598 15.97815228 127 129 128
246102.12121582 3357498.07162476 16.40198708 6 129 197
246100.37231445 3357498.53662109 14.02592373 211 204 198
246100.54504395 3357507.15237427 14.28922462 187 184 179
246101.23388672 3357507.34820557 15.98847008 122 129 137
246100.38061523 3357507.66519165 16.52463341 12 119 215
246100.14013672 3357508.11303711 16.03807640 128 128 130
246098.88916016 3357507.97094727 14.15583420 211 210 205
246098.62695313 3357507.14581299 15.99837589 240 238 239
246102.57263184 3357497.15017700 15.78078365 128 128 128
246101.30957031 3357506.38204956 16.31687355 14 139 206
246100.59155273 3357508.06069946 14.18448544 78 75 82
246098.85791016 3357507.28659058 16.33438873 11 200 240
246101.58825684 3357496.51330566 13.92344952 174 174 166
246100.21887207 3357507.34896851 14.36190987 151 156 159
246100.87036133 3357506.77828979 15.96595955 128 128 128
246100.92749023 3357507.34869385 14.31257534 166 116 79
246100.82775879 3357507.52877808 14.22331047 146 102 77
246101.35009766 3357506.36215210 16.01610565 127 129 126
246099.82189941 3357507.43048096 16.62014389 17 128 220
246100.46020508 3357507.39044189 16.66914177 5 101 188
246100.85351563 3357497.67645264 15.82689190 128 128 128
246102.26049805 3357497.66601563 14.04411316 152 81 79
246102.48327637 3357497.11346436 15.79349136 128 128 128
246098.70837402 3357507.82983398 14.13938808 207 206 201
246100.55578613 3357498.37213135 16.26106071 5 123 213
246100.77099609 3357507.25173950 16.52012062 114 166 226
246099.43212891 3357506.32412720 15.97971249 128 128 128
246100.07226563 3357498.24664307 16.24724388 61 183 220
246100.29528809 3357497.02270508 15.83028221 128 128 128
246099.41223145 3357506.95178223 16.53224945 210 145 175
246099.58264160 3357498.70388794 13.95660210 210 210 202
246100.05017090 3357497.49435425 13.96530247 189 185 184
246101.19763184 3357506.05310059 16.09554291 128 128 128
246098.46691895 3357508.13159180 16.14503670 172 184 172
246102.32812500 3357497.87161255 15.78338051 128 128 128
246100.28039551 3357498.69427490 14.01825523 204 204 196
246100.14636230 3357497.00564575 13.97481060 177 173 172
246101.68164063 3357496.31225586 16.25431824 28 145 189
246102.16113281 3357496.27474976 15.84474373 205 206 198
246100.95654297 3357498.57040405 16.22135544 0 126 225
246098.67480469 3357507.74008179 16.29713631 19 200 245
246099.09008789 3357507.49597168 14.24706173 208 209 203
246098.68530273 3357506.69628906 16.22185135 147 218 238
246100.27844238 3357506.95578003 16.92266273 7 87 174
246102.21008301 3357496.68740845 13.95214844 134 136 148
246098.51965332 3357507.78164673 16.25667191 35 182 233
246101.31445313 3357507.43804932 16.02254677 141 154 171
246098.59167480 3357507.36123657 14.08137035 206 205 200
246101.18750000 3357507.76489258 16.25970459 43 189 230
246101.65197754 3357498.60870361 15.93488503 203 203 195
246100.69580078 3357507.11834717 14.24722481 167 154 145
246098.66174316 3357507.90829468 15.98573303 127 128 130
246099.35266113 3357507.67721558 14.34145641 213 212 208
246100.26782227 3357506.12341309 14.42971611 237 236 234
246099.02539063 3357507.07122803 14.21919823 210 209 205
246102.06347656 3357496.35366821 15.84895897 128 128 128
246101.84484863 3357498.03640747 14.02980232 97 79 79
246098.70800781 3357505.92593384 16.03723335 254 245 250
246101.05700684 3357507.64831543 15.99076557 128 128 128
246100.77380371 3357498.23437500 14.25896645 195 194 190
246100.47827148 3357508.83917236 14.02648735 206 201 195
246100.34729004 3357497.82064819 16.36084747 38 197 226
246102.80664063 3357496.12927246 15.88049412 139 155 118
246100.23876953 3357507.04571533 15.93722916 128 128 128
246100.50085449 3357508.25534058 16.29648399 19 166 210
246100.15771484 3357507.23205566 16.80327606 1 89 187
246101.50000000 3357506.05975342 16.25676918 22 134 180
246099.87353516 3357507.76025391 15.96965694 128 128 128
246101.47436523 3357506.51934814 16.23648643 44 164 225
246101.28808594 3357496.36981201 15.87151241 128 128 128
246100.08593750 3357496.63049316 16.16483879 7 158 237
246099.92492676 3357496.80166626 13.96965313 195 191 190
246101.03393555 3357498.52963257 14.18128586 189 179 169
246100.48681641 3357506.42974854 14.32547379 135 134 132
246100.99316406 3357498.58184814 13.96467781 190 182 169
246100.04296875 3357505.91104126 16.33985519 91 162 204
246100.59094238 3357499.01498413 13.92442989 189 184 178
246099.43444824 3357506.48336792 14.19590759 195 196 191
246100.05004883 3357497.57086182 13.96261024 188 184 181
246100.13818359 3357498.26992798 14.02035236 210 205 199
246098.54248047 3357507.40545654 16.05234337 237 237 239
246099.24401855 3357506.04461670 16.38747597 49 203 227
246099.40856934 3357497.88348389 13.93911076 211 211 211
246101.69116211 3357497.38397217 15.79709435 128 128 128
246098.98339844 3357508.34701538 14.07858086 206 205 200
246100.43615723 3357506.73089600 16.75695610 11 114 189
246100.45776367 3357496.25851440 16.26449585 102 228 255
246099.63720703 3357506.71911621 15.93959618 128 128 128
246100.26538086 3357506.66799927 15.96117783 128 128 128
246101.22937012 3357497.52294922 16.76219559 0 122 189
246100.76000977 3357507.92477417 16.43634033 31 146 201
246102.19592285 3357496.41033936 15.83014393 128 128 128
246102.43640137 3357498.14193726 15.82005692 128 128 128
246101.10498047 3357508.24197388 16.02797699 82 121 152
246100.04968262 3357496.90197754 15.83726501 208 207 212
246099.67114258 3357506.92987061 14.31700325 105 105 103
246100.76745605 3357498.70492554 16.06185722 104 141 186
246099.42565918 3357506.27038574 16.50073624 67 209 229
246099.46813965 3357505.90280151 15.99957085 128 128 128
246098.60083008 3357508.09124756 16.07863045 171 182 166
246099.88745117 3357498.57955933 16.10351944 181 202 203
246098.15502930 3357507.67184448 14.06823730 207 206 201
246100.61962891 3357507.07543945 16.62013245 33 95 172
246100.03137207 3357497.52243042 13.96339703 183 182 177
246102.00317383 3357497.89569092 15.79471874 128 128 128
246100.86218262 3357507.81906128 15.98814678 128 128 128
246100.83923340 3357508.13671875 16.37096786 64 175 192
246099.87402344 3357506.69229126 16.81356049 92 235 252
246099.09973145 3357507.31384277 16.40850449 42 216 241
246101.24401855 3357497.41162109 16.84875298 11 157 206
246101.18823242 3357499.02783203 13.89795971 200 194 180
246101.26440430 3357498.51354980 14.35717297 250 214 192
246102.51831055 3357496.92016602 16.23778152 15 115 190
246100.25317383 3357496.65588379 16.25607109 0 170 248
246101.52587891 3357496.41503906 13.91406727 172 167 164
246102.01196289 3357498.11566162 13.97192287 85 80 84
246100.82238770 3357497.09695435 15.81899357 128 128 128
246100.96875000 3357497.40609741 14.09457207 153 152 148
246100.71887207 3357507.75332642 15.98005104 128 128 128
246100.65576172 3357508.05505371 15.98538303 128 128 128
246100.43298340 3357506.25134277 14.37615776 161 161 161
246100.32360840 3357506.94119263 16.87651825 7 93 180
246098.95434570 3357507.14349365 16.34240723 35 202 234
246102.25720215 3357496.91735840 13.93887138 151 154 159
246100.92504883 3357497.27792358 14.05347157 199 192 184
246099.65893555 3357507.50274658 16.56108093 14 128 216
246102.71093750 3357497.14581299 16.15540314 25 122 199
246099.93054199 3357507.09506226 16.93874550 25 132 188
246100.94812012 3357497.26412964 14.04749298 199 192 184
246099.16821289 3357507.61062622 14.25835800 207 208 202
246101.84887695 3357496.75280762 16.44582939 5 146 199
246102.17089844 3357498.67105103 16.04070663 152 212 220
246100.12255859 3357507.83886719 16.39562988 207 220 237
246101.09899902 3357497.57751465 16.67342567 4 137 196
246101.84997559 3357496.61495972 15.86768436 128 128 128
246098.42700195 3357507.16363525 14.07828999 206 205 200
246099.56335449 3357497.24453735 13.96221256 192 192 192
246100.20397949 3357497.71505737 15.84930992 128 128 128
246099.74182129 3357506.76861572 16.74956131 45 218 232
246101.53173828 3357506.14950562 16.05139732 128 128 128
246100.77453613 3357497.99121094 16.45387840 3 114 193
246100.40368652 3357506.52633667 15.97901154 128 128 128
246101.32153320 3357496.57916260 16.38745689 168 77 110
246100.44641113 3357498.13473511 16.37334061 13 120 192
246100.64611816 3357496.46990967 15.83481693 128 128 128
246100.46838379 3357508.13125610 16.01831055 127 129 126
246100.13635254 3357497.33340454 16.21255112 28 168 221
246101.22082520 3357498.14178467 14.51439476 161 129 132
246100.01062012 3357498.49926758 15.98086452 187 199 199
246102.32250977 3357496.14566040 16.10108185 21 155 180
246101.32092285 3357497.41314697 16.86425972 4 106 178
246102.91748047 3357496.32763672 15.96228790 58 104 156
246101.50988770 3357498.17630005 14.28916740 173 82 64
246101.68457031 3357496.73278809 15.84787655 128 128 128
246102.60327148 3357496.80364990 15.77383137 128 128 128
246102.35656738 3357496.32333374 15.83747387 203 205 194
246102.15405273 3357496.70245361 13.99069023 135 139 150
246100.68505859 3357507.75857544 14.19199944 80 75 79
246101.10998535 3357498.92886353 13.89262486 201 191 179
246102.41857910 3357497.71160889 14.06118870 181 88 81
246097.87036133 3357508.62634277 14.06047630 195 192 187
246101.64318848 3357498.65893555 13.97183418 194 135 119
246101.25354004 3357498.44665527 14.43742943 252 210 198
246101.75451660 3357497.28030396 15.79798889 128 128 128
246099.84265137 3357508.08831787 14.15161228 57 55 56
246098.73779297 3357506.28958130 16.03362465 249 238 246
246098.44628906 3357507.47817993 14.07211876 210 207 202
246099.58581543 3357505.81124878 16.35059166 12 137 219
246101.00659180 3357498.71325684 16.03274155 198 211 219
246100.02807617 3357508.72836304 14.02618027 199 192 186
246100.93750000 3357505.96401978 16.18822289 108 186 206
246099.61474609 3357506.38699341 14.36772442 194 190 189
246099.90222168 3357506.91680908 14.21484947 135 140 143
246099.61853027 3357496.40124512 13.95787144 186 190 189
246098.83520508 3357507.19702148 14.15842819 207 204 199
246101.96252441 3357496.66790771 16.40494919 7 146 205
246101.60925293 3357497.21536255 16.75160408 7 89 162
246102.41564941 3357497.79196167 15.77841377 128 128 128
246100.45764160 3357507.66299438 14.27420139 106 106 108
246100.37963867 3357508.72650146 14.03139400 195 186 177
246098.66284180 3357507.10317993 16.24229622 142 230 250
246100.14550781 3357507.94998169 14.22467422 135 124 120
246099.67895508 3357498.84216309 13.97278690 210 211 206
246098.59509277 3357506.15151978 14.06182098 196 195 193
246099.83386230 3357507.67453003 14.39274502 193 202 209
246099.14038086 3357507.31735229 15.91327190 128 128 128
246102.63684082 3357497.29150391 16.19620895 23 127 198
246100.74987793 3357498.23175049 14.19604111 193 189 186
246099.83142090 3357496.46405029 13.96407986 195 197 196
246101.11254883 3357506.88488770 14.03475761 70 77 96
246101.74145508 3357496.88583374 16.53691483 4 136 200
246101.41857910 3357506.89233398 16.04499054 82 116 141
246100.27856445 3357497.71456909 16.31657028 35 199 236
246101.54528809 3357498.46884155 14.31785488 212 113 82
246102.41943359 3357498.74090576 16.05427361 77 160 202
246101.42565918 3357506.58715820 16.25181580 23 151 214
246101.22192383 3357496.81201172 15.82005024 128 128 128
246100.58239746 3357506.99896240 15.95004749 128 128 128
246101.66491699 3357497.64892578 16.63967705 12 86 161
246101.10107422 3357497.84204102 16.55333138 13 102 194
246100.00170898 3357505.91976929 16.01898003 128 128 128
246099.21948242 3357505.55883789 16.17503166 7 161 223
246100.17810059 3357506.43844604 15.98192215 128 128 128
246102.49804688 3357498.28259277 15.85173416 130 128 131
246099.65417480 3357508.03277588 14.28142929 166 163 154
246102.38684082 3357497.75564575 14.04746342 180 84 68
246101.19287109 3357497.28692627 15.80830193 128 128 128
246101.04797363 3357496.98223877 16.63179016 60 198 234
246101.61877441 3357498.13385010 15.82078362 128 128 128
246099.98510742 3357496.49288940 15.90549183 238 240 239
246102.66796875 3357497.98785400 16.17378998 59 154 220
246100.50256348 3357498.12680054 16.37665176 16 128 194
246102.55786133 3357497.89569092 16.21843338 12 138 215
246101.70800781 3357497.62484741 14.04110909 184 177 169
246102.80676270 3357496.40316772 15.78595161 156 158 171
246099.56982422 3357506.54193115 14.26042938 187 188 182
246098.49462891 3357507.46875000 14.07435036 207 206 201
246101.06054688 3357506.49816895 14.01239109 144 143 151
246100.86303711 3357499.07150269 13.90997791 196 189 181
246100.81005859 3357507.10754395 16.51351929 70 41 85
246101.08227539 3357496.31256104 15.86932755 128 128 128
246101.37194824 3357496.70751953 13.98984146 159 168 165
246101.61083984 3357498.77874756 16.12472343 106 173 216
246100.37390137 3357496.53417969 15.83859444 128 128 128
246101.19152832 3357497.29058838 16.82973099 84 235 255
246098.48999023 3357507.59487915 16.09090996 224 233 240
246099.86352539 3357506.32513428 14.56567955 203 208 214
246100.22863770 3357507.71139526 16.47877502 33 114 195
246102.08740234 3357496.93130493 16.44282150 14 120 194
246101.21215820 3357507.05825806 15.97821903 125 129 132
246100.47534180 3357506.67211914 15.96626091 128 128 128
246102.24951172 3357498.52572632 15.88358021 128 128 126
246099.81530762 3357505.58221436 16.22616768 12 153 224
246100.26721191 3357507.89462280 14.22800636 150 129 124
246099.50598145 3357506.05450439 16.00247383 128 128 128
246102.82751465 3357496.88079834 16.06601906 91 139 188
246099.64587402 3357507.62890625 14.41839695 198 201 206
246100.70581055 3357498.98037720 13.92723846 204 200 191
246100.50964355 3357497.87802124 13.99246025 203 204 209
246099.24731445 3357506.15112305 14.11805153 193 189 180
246102.07373047 3357496.48522949 16.32029915 8 155 206
246101.47534180 3357497.68933105 15.80673122 128 128 128
246101.58044434 3357505.96548462 16.07130051 128 128 128
246099.79394531 3357508.15991211 14.12365150 117 110 104
246099.64501953 3357506.80578613 15.93110371 128 128 128
246101.24206543 3357498.16186523 15.82675266 128 128 128
246100.01367188 3357498.50445557 16.20475006 98 192 220
246101.08337402 3357506.88095093 15.96713448 128 128 128
246099.61657715 3357507.52246094 16.54496193 17 128 217
246098.71923828 3357506.14260864 16.19541359 140 204 232
246102.77001953 3357497.17248535 16.12852287 34 110 185
246101.07751465 3357507.94628906 16.28938103 37 182 229
246098.45874023 3357508.58163452 14.05789566 200 199 194
246099.31396484 3357507.38934326 14.39034176 203 204 199
246101.96435547 3357496.84030151 14.04740238 159 163 174
246101.75451660 3357497.30136108 15.79756641 128 128 128
246101.77246094 3357496.79779053 16.46718025 1 143 207
246100.83276367 3357496.76248169 15.82549191 128 128 128
246101.42980957 3357495.95751953 16.00587654 187 206 210
246102.35668945 3357498.49722290 16.30539513 7 145 207
246100.27270508 3357497.93582153 13.97315884 192 189 184
246102.08349609 3357496.55715942 15.84753132 128 128 128
246102.13183594 3357496.64257813 13.97966290 67 70 87
246099.65209961 3357506.95608521 14.34326077 147 149 146
246101.68701172 3357497.42193604 16.68511581 1 66 146
246100.34118652 3357507.34658813 16.71304893 32 132 217
246099.84692383 3357498.55401611 14.10433769 205 206 200
246098.36083984 3357506.20059204 14.04942131 200 200 198
246100.86267090 3357498.71414185 16.03980827 194 207 223
246098.79150391 3357506.23007202 15.98250675 249 238 244
246101.13745117 3357497.37203979 15.80958652 128 128 128
246102.13867188 3357498.36944580 13.94920254 83 78 85
246100.19018555 3357507.76553345 14.29734325 128 126 129
246099.44934082 3357506.77322388 16.54132080 224 238 241
246100.87121582 3357508.36972046 16.08413696 174 184 159
246099.83630371 3357507.52212524 16.56208992 61 117 168
246098.91723633 3357506.41821289 15.96163464 128 128 128
246102.88525391 3357496.71575928 15.96827316 57 86 120
246102.01318359 3357496.66049194 15.85848045 128 128 128
246100.88781738 3357506.77664185 16.47883987 19 119 194
246100.00122070 3357497.28414917 15.86178398 224 223 221
246101.59484863 3357498.58810425 15.92260075 201 202 196
246100.74633789 3357498.14328003 15.84260559 128 128 128
246100.23168945 3357496.00994873 15.87549496 128 128 128
246102.46655273 3357497.42761230 16.26879120 90 176 227
246101.30529785 3357496.82647705 14.05124187 153 162 169
246100.50317383 3357507.60839844 16.57315445 40 155 235
246101.11437988 3357507.38824463 16.32505989 8 109 187
246100.38891602 3357506.49923706 16.62801743 16 128 210
246102.16857910 3357496.99435425 16.40679741 21 119 194
246101.02453613 3357497.45318604 14.13280773 143 143 143
246101.64428711 3357497.84854126 16.55236626 7 89 188
246100.12902832 3357498.24050903 14.01487255 208 203 199
246100.08044434 3357496.66921997 15.84134960 127 129 128
246102.27539063 3357497.89538574 16.33575249 0 127 198
246101.14440918 3357498.21853638 16.36395264 39 72 123
246100.48205566 3357506.88049316 14.21056938 114 167 183
246099.94775391 3357506.41564941 15.97817707 128 128 128
246099.96801758 3357506.02609253 14.54597282 159 152 134
246102.32824707 3357498.00198364 16.31509781 9 137 210
246100.08483887 3357508.02682495 16.02062607 128 128 128
246102.51721191 3357498.65649414 16.25847054 35 156 225
246101.36767578 3357498.17901611 16.38786316 160 54 92
246099.94128418 3357508.98229980 14.01442337 197 190 182
246099.03918457 3357508.16699219 16.06638718 115 133 137
246100.60937500 3357506.87738037 15.94917965 128 128 128
246102.53710938 3357497.73556519 16.22976112 13 134 213
246101.02319336 3357498.51037598 14.36184597 143 130 121
246101.21997070 3357496.83892822 14.07539177 132 144 156
246102.70019531 3357498.60113525 16.11476898 11 54 109
246101.04846191 3357506.67419434 16.40812302 11 132 205
246102.89611816 3357496.18511963 16.03096390 68 141 186
246100.71142578 3357498.19885254 14.14368629 189 184 181
246101.37854004 3357496.62310791 13.97099972 156 154 141
246100.96057129 3357497.32510376 14.06589413 171 168 159
246102.45019531 3357496.08239746 15.95142269 113 145 98
246102.92614746 3357496.20489502 15.89732552 128 145 171
246099.88940430 3357508.81906128 14.01906013 204 197 189
246100.00646973 3357507.51959229 14.41589928 154 158 157
246100.67846680 3357507.89004517 14.20800209 84 81 88
246100.46704102 3357499.00607300 13.92363548 195 192 185
246102.26708984 3357497.26519775 16.36181641 128 135 190
246099.09362793 3357507.53918457 15.95066071 128 128 128
246101.10083008 3357508.19396973 16.27387428 76 171 191
246100.68078613 3357507.83828735 15.98120213 128 128 128
246101.19677734 3357506.18502808 16.06360435 128 128 128
246098.73461914 3357508.07809448 14.16044521 204 203 198
246101.26770020 3357498.97811890 13.89995193 203 197 181
246099.52465820 3357507.69866943 14.39883709 213 215 212
246099.59130859 3357506.18151855 15.99863529 128 128 128
246102.49523926 3357497.30737305 13.91647434 144 148 157
246100.69042969 3357507.06097412 16.58100700 92 97 165
246100.45581055 3357497.57061768 14.03793716 193 192 188
246100.03210449 3357496.30813599 16.07101631 30 169 238
246099.29614258 3357507.85208130 16.00122070 128 128 128
246100.28808594 3357505.98437500 16.02996254 128 128 128
246100.50939941 3357498.95910645 13.92632484 195 192 185
246100.51074219 3357497.58212280 14.04981804 195 196 191
246099.70300293 3357498.20706177 13.93822384 180 182 177
246098.77233887 3357502.10827637 13.98868656 198 198 196
246101.52844238 3357499.13796997 13.89362335 191 185 173
246102.28942871 3357497.22836304 13.93861485 144 148 159
246100.55249023 3357506.35543823 16.54288101 10 132 207
246102.42626953 3357497.35104370 15.80348969 128 128 128
246101.12976074 3357506.76660156 16.36396790 15 135 211
246100.79418945 3357506.55438232 14.10439205 112 93 99
246099.99719238 3357496.69631958 15.89240360 239 243 244
246102.82360840 3357496.96658325 15.84595776 163 180 187
246100.13720703 3357497.55895996 13.96729565 193 190 183
246100.76989746 3357508.14770508 16.00008583 128 128 128
246101.07836914 3357498.23861694 14.59651566 126 95 92
246100.26208496 3357497.29241943 16.26050949 216 226 238
246102.90246582 3357496.22171021 15.86109924 170 182 198
246099.99914551 3357498.11010742 15.90512562 128 128 128
246100.51672363 3357506.96960449 14.21027756 156 179 187
246101.43798828 3357496.34466553 13.91963577 151 146 140
246101.28442383 3357507.61389160 16.23239136 89 202 244
246102.53479004 3357496.60144043 13.87784863 148 148 146
246099.39733887 3357508.01388550 16.02723503 128 128 128
246100.87768555 3357507.03283691 16.47721672 102 53 98
246100.04479980 3357507.94442749 16.34270668 36 127 171
246101.75695801 3357496.17996216 16.19451714 2 147 194
246101.14147949 3357506.16281128 16.40131950 83 166 208
246101.16552734 3357507.28149414 15.98346806 128 128 128
246100.69592285 3357498.06610107 14.09921360 202 200 203
246098.79064941 3357506.09704590 14.07157898 193 193 191
246099.67346191 3357505.58459473 16.06818771 106 135 149
246099.98498535 3357506.86526489 16.96926117 120 228 241
246100.96850586 3357498.60513306 13.93456268 173 165 154
246099.33471680 3357506.85699463 14.24886894 184 183 178
246099.85241699 3357507.21987915 15.92673302 128 128 128
246100.21801758 3357507.31628418 14.35781002 196 202 202
246099.51074219 3357507.48391724 16.54904747 10 129 213
246100.56726074 3357496.56445313 15.83439064 128 128 128
246100.70642090 3357496.37292480 13.99804211 152 150 151
246100.76269531 3357497.57437134 15.82721901 128 128 128
246101.28942871 3357497.02310181 15.81178474 128 128 128
246101.89196777 3357496.20889282 16.20700264 10 151 196
246101.19470215 3357497.79681396 14.44179058 154 153 159
246098.49719238 3357508.02694702 14.14078617 207 206 201
246101.47290039 3357498.25186157 14.33140755 181 88 70
246100.66528320 3357498.19671631 14.11609650 190 185 181
246099.97814941 3357508.33728027 14.11403275 70 65 62
246098.19238281 3357508.61819458 14.05666542 200 199 194
246101.57482910 3357506.26733398 16.18917465 16 121 179
246100.23925781 3357506.42712402 15.98466110 128 128 128
246100.48889160 3357496.96292114 16.37044716 21 178 229
246100.10095215 3357507.90310669 16.36753654 33 121 184
246099.31066895 3357498.42776489 13.93973827 201 202 197
246099.48449707 3357508.16415405 14.18107414 218 211 203
246101.04040527 3357507.51544189 14.19961166 86 71 64
246100.50280762 3357496.05078125 15.87540150 128 126 127
246098.51831055 3357507.46923828 16.21844864 192 219 248
246100.31127930 3357497.53387451 15.84104252 128 128 128
246101.82348633 3357497.04028320 15.81972027 128 128 128
246100.59509277 3357508.61465454 14.00935173 187 183 180
246100.10363770 3357498.16061401 15.88444138 128 128 128
246102.12512207 3357497.48870850 16.43418884 194 224 255
246102.08471680 3357496.35549927 15.84587860 128 128 128
246099.01538086 3357506.44915771 16.33430099 20 208 243
246099.44775391 3357497.75988770 13.93941593 206 205 203
246100.81811523 3357497.86404419 14.32904243 244 239 243
246099.19042969 3357505.90631104 16.34767342 37 182 211
246099.86047363 3357498.14981079 16.00148010 128 201 220
246100.48852539 3357506.71731567 16.72399902 13 118 201
246102.36450195 3357497.82385254 14.03059578 172 87 66
246101.83007813 3357496.84222412 14.04141521 167 169 181
246101.39208984 3357495.99780273 16.11334991 40 132 173
246102.34741211 3357496.88360596 13.90970993 156 155 160
246101.55505371 3357497.46197510 16.76453781 0 57 134
246102.07409668 3357498.84860229 13.90487862 99 101 113
246100.12646484 3357495.98760986 16.14312363 26 170 240
246100.85192871 3357506.38116455 16.50986481 26 136 213
246100.18029785 3357498.24670410 15.87185001 128 128 128
246099.68310547 3357507.08453369 14.40237045 194 199 195
246098.61462402 3357507.43594360 14.08343983 209 208 203
246100.24084473 3357506.30981445 14.41698074 215 198 190
246101.13635254 3357507.59384155 16.30047798 24 167 225
246101.36218262 3357498.62756348 16.22690773 13 138 230
246099.55615234 3357496.13232422 13.94064999 188 192 191
246102.25585938 3357497.59375000 14.04809570 152 113 132
246102.44714355 3357496.78216553 16.26612282 17 119 193
246100.87536621 3357508.19815063 16.34692764 103 193 201
246098.66137695 3357506.26348877 16.12887955 250 248 249
246101.67858887 3357497.26364136 15.79973507 128 128 128
246100.90161133 3357507.10061646 14.23400688 88 86 97
246100.39575195 3357498.44805908 14.07473087 203 196 188
246102.38684082 3357497.70248413 14.05778027 167 77 68
246098.83850098 3357508.12069702 14.14270020 205 205 197
246099.49023438 3357506.57592773 14.20892048 187 188 183
246101.14404297 3357497.56039429 16.70281410 11 144 201
246098.61596680 3357506.90029907 16.01831818 230 230 230
246102.35217285 3357497.79937744 15.78070259 128 128 128
246101.41137695 3357496.67044067 16.42168427 170 86 120
246100.87121582 3357497.00961304 14.05279160 77 73 72
246099.75268555 3357506.60339355 16.73861694 92 236 245
246100.25012207 3357507.88595581 14.23332310 150 129 124
246099.63842773 3357496.63009644 13.96391773 188 187 185
246100.07775879 3357507.97427368 16.00801659 128 128 128
246100.28955078 3357507.20672607 16.83029938 23 110 190
246100.07348633 3357507.11145020 16.92719269 0 98 192
246099.82983398 3357507.55941772 15.93482876 128 128 128
246099.48986816 3357507.89819336 16.32587433 20 132 218
246102.16687012 3357496.93548584 16.40527916 12 115 190
246100.11535645 3357506.80914307 15.94308758 128 128 128
246098.65759277 3357506.32278442 14.08813953 200 201 196
246100.93811035 3357507.98513794 16.35302925 28 148 200
246100.27575684 3357496.50717163 13.96975803 190 190 192
246098.71472168 3357508.62319946 14.03778744 198 197 192
246100.80053711 3357497.89340210 15.83430099 128 128 128
246100.85034180 3357507.58291626 16.43393517 17 128 200
246099.85266113 3357508.05541992 16.28647041 78 173 205
246099.05004883 3357500.01834106 13.95966053 196 197 192
246100.65905762 3357497.57812500 15.83073616 128 128 128
246099.30249023 3357506.17507935 16.43254089 64 216 239
246101.99951172 3357497.14514160 13.96913338 143 155 169
246098.94519043 3357507.64898682 16.38895226 35 186 213
246098.78186035 3357505.81048584 16.17918777 96 211 242
246099.23315430 3357508.09588623 14.16079617 211 208 203
246100.24572754 3357496.38894653 15.84388256 128 128 128
246102.41821289 3357496.89831543 16.28439331 13 117 190
246102.35229492 3357497.49923706 16.32496452 56 138 196
246099.75842285 3357507.37985229 15.92796898 128 128 128
246099.99536133 3357505.63687134 16.21102142 51 167 218
246100.08862305 3357506.32992554 16.54355431 217 207 234
246099.48498535 3357508.85595703 14.02059174 203 198 192
246101.51098633 3357506.11068726 16.24111366 22 139 193
246099.21423340 3357506.95809937 16.40629768 227 219 230
246102.30810547 3357497.54541016 14.02979946 113 100 126
246100.43957520 3357497.93695068 13.97246838 193 191 196
246102.60766602 3357497.93969727 16.19827271 16 134 208
246101.25183105 3357497.55432129 16.74497414 2 112 189
246100.23339844 3357507.02020264 14.24114609 161 186 193
246100.04040527 3357506.37338257 14.49062634 171 159 171
246100.65075684 3357506.35055542 16.53908920 8 134 211
246100.69628906 3357498.68017578 16.12952232 121 174 240
246101.06933594 3357508.11267090 16.28809547 63 171 207
246101.75268555 3357496.78674316 14.00735283 169 172 177
246102.67431641 3357498.22344971 15.87158680 166 175 172
246102.18969727 3357498.30059814 16.36417961 38 157 225
246100.73645020 3357506.81756592 15.95850945 128 128 128
246100.66442871 3357496.89578247 16.45328331 27 196 237
246099.68530273 3357507.81600952 16.36621666 13 124 203
246098.89489746 3357505.53720093 16.21649933 33 169 211
246101.64965820 3357498.78152466 16.06671906 185 208 216
246100.59973145 3357498.65112305 16.05870247 117 164 210
246101.04882813 3357506.52813721 16.41911888 14 132 206
246100.58227539 3357508.89794922 14.01886082 156 151 147
246101.36901855 3357496.28045654 15.88469791 128 128 128
246102.71044922 3357498.21838379 15.88231182 170 176 174
246098.86499023 3357505.43099976 16.08295250 128 177 207
246100.41162109 3357506.86328125 16.78463554 8 97 181
246102.02868652 3357498.27584839 16.37054443 2 110 201
246098.93249512 3357505.45449829 16.07751846 107 169 206
246100.17211914 3357507.96920776 14.21387196 139 114 107
246102.66955566 3357497.20346069 15.76711178 128 128 128
246101.67419434 3357497.19454956 14.04285812 164 174 183
246099.46643066 3357508.14498901 16.06008720 128 128 128
246099.55725098 3357507.11251831 14.39902306 188 190 189
246098.79406738 3357506.79315186 16.25603676 36 200 238
246100.87780762 3357496.46615601 14.12683201 198 202 203
246100.42150879 3357496.32797241 15.84183407 128 128 128
246100.04248047 3357507.26983643 15.93627071 128 128 128
246100.96960449 3357498.01391602 15.83187199 128 128 128
246099.42297363 3357506.83190918 14.25543976 178 177 173
246098.71191406 3357502.50012207 13.98660088 205 205 203
246100.42968750 3357507.02542114 16.77301407 2 92 178
246101.62231445 3357498.66400146 13.96716690 194 126 107
246100.98059082 3357497.64273071 14.32029152 220 218 223
246099.51391602 3357508.27752686 14.10891533 219 212 204
246101.99035645 3357498.59848022 16.25829315 3 144 226
246102.42321777 3357497.37240601 16.28971100 78 152 201
246100.21984863 3357507.57705688 14.37021351 134 137 142
246102.05700684 3357498.67343140 16.01444244 167 207 207
246100.77392578 3357499.00408936 13.92206001 209 205 194
246100.38024902 3357506.03564453 16.02763176 128 128 128
246099.89807129 3357507.55563354 16.54559898 178 152 177
246099.58947754 3357497.62094116 13.94828987 192 192 192
246098.79223633 3357508.13812256 16.15785599 96 199 232
246099.47912598 3357497.11288452 13.96518612 186 186 184
246100.56201172 3357497.20980835 16.40077782 255 253 255
246100.83752441 3357506.35461426 16.00675392 128 128 128
246099.57434082 3357505.68124390 16.02761269 128 128 128
246101.84558105 3357496.94766235 16.54721260 33 150 217
246100.02429199 3357506.93966675 14.20331383 152 169 177
246099.81542969 3357498.10528564 13.93845844 198 198 196
246101.27453613 3357507.26477051 16.27047157 15 160 225
246101.60839844 3357497.10058594 15.80430126 128 128 128
246100.80456543 3357507.98446655 15.98826218 129 128 126
246100.65185547 3357498.64950562 13.93718624 198 194 185
246099.94079590 3357506.47167969 14.44285583 165 173 186
246101.68664551 3357498.52633667 15.88274288 200 200 192
246099.35510254 3357498.48254395 13.93916988 204 203 199
246101.13500977 3357507.06411743 16.33882904 96 181 235
246100.30578613 3357497.32797241 15.83584976 128 128 128
246099.05883789 3357508.06652832 14.14384937 208 208 200
246098.92382813 3357506.39001465 14.11893654 205 206 201
246102.28247070 3357496.77813721 15.82023525 128 128 128
246102.40722656 3357496.52276611 13.87473774 171 170 166
246099.28283691 3357506.70941162 15.93242550 128 128 128
246100.55200195 3357506.94616699 15.94707870 128 128 128
246101.72583008 3357497.25363159 14.03331566 159 171 183
246099.31811523 3357507.22830200 16.48206139 85 204 224
246099.50732422 3357506.26708984 16.52882957 78 225 245
246100.89099121 3357508.18606567 16.00070000 128 129 123
246100.91809082 3357498.56268311 16.22032547 0 127 224
246098.93029785 3357507.14999390 16.33837891 19 201 238
246098.66931152 3357505.97027588 16.09660339 237 246 251
246101.12438965 3357506.46029663 14.00117683 146 145 151
246100.61889648 3357498.28103638 14.13572979 191 183 180
246101.58459473 3357497.49810791 14.07297134 188 192 195
246100.96472168 3357505.99783325 16.33182335 63 171 209
246099.75549316 3357505.82235718 16.35128593 16 141 223
246101.67529297 3357496.84487915 14.00550556 166 171 175
246100.10205078 3357497.54333496 15.85210037 128 128 130
246098.68237305 3357507.67761230 15.95468235 248 248 248
246101.84020996 3357498.45712280 14.06275368 88 81 88
246101.98364258 3357498.57598877 13.97215271 85 86 91
246100.97717285 3357505.96514893 16.18922615 108 185 203
246100.95239258 3357498.39483643 14.51719475 203 201 202
246101.13635254 3357506.64404297 15.98580265 128 128 128
246099.30493164 3357506.87573242 14.25089455 187 186 182
246101.41601563 3357497.70959473 16.63272858 0 88 175
246098.70410156 3357508.03939819 14.15859795 204 203 198
246101.31909180 3357506.01651001 16.08902550 128 128 128
246099.26464844 3357506.35549927 15.97374153 128 128 128
246101.61584473 3357506.18457031 16.14211273 1 83 139
246100.49609375 3357496.98458862 14.00158119 195 191 182
246101.30895996 3357498.86489868 13.90357304 203 192 172
246100.49645996 3357507.31134033 15.95653248 128 128 128
246100.93347168 3357497.57427979 14.22165012 234 235 240
246098.93005371 3357507.64822388 16.38631058 26 189 220
246100.80249023 3357497.28982544 16.53993607 98 202 229
246102.43054199 3357497.68807983 16.28673363 4 127 195
246101.55639648 3357498.10379028 14.23873329 179 89 80
246102.14587402 3357496.52557373 13.94253063 187 187 199
246100.32458496 3357506.99432373 15.93915176 128 128 128
246100.91662598 3357508.41339111 16.13877678 140 165 146
246101.78027344 3357497.47344971 15.79364586 128 128 128
246101.30114746 3357498.09539795 14.44814587 244 208 208
246100.90673828 3357498.46408081 14.34045982 160 157 148
246099.23181152 3357506.39938354 16.43211746 85 226 246
246100.53186035 3357498.45281982 16.22227669 5 126 217
246100.21496582 3357497.38992310 13.99581146 188 183 179
246099.59680176 3357507.42315674 15.92206764 128 128 128
246099.59533691 3357506.17227173 16.50264549 17 139 224
246101.02441406 3357498.19970703 14.59909630 91 57 45
246101.01977539 3357497.48254395 14.15912724 117 118 120
246100.85656738 3357507.15695190 14.28024101 115 91 81
246099.03833008 3357506.13003540 16.32894325 19 209 243
246101.97546387 3357496.55337524 15.86317444 128 128 128
246102.53930664 3357498.41061401 16.23252487 16 143 220
246099.44970703 3357506.73013306 14.21831989 181 182 177
246100.43054199 3357498.37698364 14.09868717 202 195 187
246100.33996582 3357496.38293457 13.95912838 180 180 180
246102.70300293 3357496.92886353 16.15088463 24 117 194
246100.29614258 3357508.37335205 16.10692024 126 169 152
246099.71423340 3357507.44131470 15.92810822 128 128 128
246101.30749512 3357497.34332275 14.14369678 165 165 175
246099.55944824 3357507.68844604 16.43436813 14 124 219
246098.11853027 3357508.15734863 14.07262135 203 202 197
246101.67712402 3357496.21304321 15.90403843 128 128 128
246099.68640137 3357507.20144653 15.91921711 128 128 128
246100.69177246 3357508.65786743 13.98884296 117 118 120
246098.58740234 3357507.17172241 16.02466393 239 237 238
246099.96862793 3357507.15332031 15.92943478 128 128 128
246101.49841309 3357497.03558350 16.66828918 15 138 208
246099.74182129 3357507.07730103 14.37715721 230 230 228
246100.83300781 3357498.57171631 15.93129826 200 201 196
246100.31103516 3357506.59466553 16.69598389 6 122 207
246101.84448242 3357498.78607178 16.09749603 166 200 212
246101.45983887 3357497.07519531 16.70038033 14 130 205
246101.47680664 3357497.01715088 15.80841923 128 128 128
246099.54296875 3357507.58609009 14.41723537 210 211 206
246100.46569824 3357496.04492188 16.19191551 7 146 215
246099.85717773 3357498.33453369 16.03551483 161 218 229
246100.51062012 3357507.48873901 16.63133430 3 102 185
246100.32446289 3357497.41421509 16.29523277 119 184 212
246101.43737793 3357497.66189575 16.66300774 0 84 169
246099.48254395 3357505.62237549 16.03533745 128 128 128
246099.79492188 3357506.57983398 16.73000717 49 200 231
246102.79943848 3357497.77719116 15.93086910 85 87 108
246101.02172852 3357497.20443726 16.67275238 62 228 254
246102.73364258 3357497.87579346 16.12705803 45 104 160
246098.99780273 3357507.15725708 16.35476303 35 200 228
246100.08337402 3357506.51022339 15.97223949 128 128 128
246101.55798340 3357498.88589478 13.90270615 166 144 131
246100.54968262 3357497.19360352 15.82430267 128 128 128
246098.01245117 3357508.58361816 14.05727673 197 193 190
246100.17565918 3357506.57626343 16.69680214 14 135 218
246101.84667969 3357497.81121826 15.79767418 128 128 128
246100.91235352 3357498.67510986 16.19016647 15 137 223
246099.75939941 3357507.34536743 15.92690182 128 128 128
246102.37829590 3357497.73693848 14.04969883 180 84 68
246100.53479004 3357507.22052002 16.65744209 8 94 181
246100.00476074 3357506.91217041 17.01023102 136 224 238
246100.03491211 3357506.76177979 14.21382904 106 166 190
246101.08837891 3357507.52468872 16.32662010 20 132 204
246100.46655273 3357506.78396606 14.23421764 63 134 164
246099.67053223 3357507.22079468 16.72889137 83 226 255
246100.76196289 3357498.74624634 13.93063068 202 198 187
246099.52294922 3357508.25442505 14.11738396 219 212 204
246100.17187500 3357507.64706421 15.95359802 128 128 128
246099.93212891 3357508.13226318 16.05828476 130 129 127
246102.90258789 3357496.63250732 15.94379807 54 89 131
246102.25549316 3357497.58145142 14.04048443 152 113 132
246100.51452637 3357498.60656738 16.11433411 78 160 218
246101.21484375 3357496.62261963 14.09822369 129 137 150
246100.41259766 3357497.73974609 16.37843323 22 196 231
246100.62500000 3357508.32717896 16.27646828 64 185 214
246100.53576660 3357498.38354492 16.25479317 9 127 217
246102.83203125 3357496.71774292 15.81499767 136 150 150
246100.05017090 3357495.94268799 15.99917412 85 190 247
246100.95886230 3357498.45520020 14.46945477 172 174 173
246102.07128906 3357498.77038574 13.90726662 90 93 102
246102.83154297 3357497.17694092 15.88347530 144 153 162
246099.03259277 3357507.01321411 16.33381462 167 231 240
246101.71801758 3357498.34701538 14.17559624 130 77 63
246100.99951172 3357496.85943604 16.56698799 18 173 217
246099.51232910 3357508.22747803 14.13612366 213 204 197
246101.76367188 3357498.05300903 15.80846500 128 128 128
246101.12390137 3357506.07873535 16.37121582 99 185 220
246099.57397461 3357506.75466919 14.26485825 168 168 166
246099.12487793 3357505.84277344 16.31385422 31 181 208
246099.77563477 3357506.51620483 14.37127018 190 185 182
246101.39404297 3357497.96487427 15.81659985 128 128 128
246101.16162109 3357507.70001221 15.99679661 128 128 130
246099.07336426 3357506.33364868 14.12012577 199 200 195
246100.14733887 3357496.28936768 15.84770393 128 128 128
246100.67407227 3357497.67465210 14.12146568 243 243 251
246101.33837891 3357506.85784912 16.26307487 17 164 231
246099.12341309 3357505.80859375 15.98618603 128 128 128
246100.98608398 3357507.96649170 15.99806690 126 127 129
246099.43066406 3357506.16210938 14.21154881 204 200 189
246099.90002441 3357506.36077881 14.53766537 225 228 237
246102.73071289 3357497.72149658 15.83692169 121 125 136
