245699.11853027 3357566.47186279 18.57455254 183 198 179
245699.67645264 3357566.85424805 22.91020012 156 175 171
245698.91156006 3357567.30657959 22.52291489 114 147 118
245696.15679932 3357566.15093994 23.96831131 239 246 239
245697.26165771 3357565.21563721 23.06748772 132 155 149
245696.50915527 3357563.68041992 23.34401131 106 137 129
245697.72454834 3357566.65820313 21.17542839 202 221 193
245701.76141357 3357563.27947998 21.77558327 119 139 114
245699.41241455 3357565.15124512 24.23978996 141 163 160
245697.68969727 3357565.18414307 21.91307640 113 139 130
245696.12500000 3357561.51989746 23.10772514 176 192 179
245697.71636963 3357565.10308838 19.72906113 125 148 140
245695.88543701 3357561.25720215 20.59195328 223 233 225
245700.31054688 3357567.49023438 23.88987350 167 186 166
245697.00531006 3357566.18170166 21.16647339 114 141 122
245701.13366699 3357566.73046875 20.50780106 141 165 141
245697.73223877 3357563.58117676 18.24266815 90 112 99
245701.50555420 3357566.15557861 23.58695793 106 132 103
245701.81054688 3357560.93536377 18.67728806 142 154 152
245697.60589600 3357564.07141113 17.62792587 241 242 236
245698.60974121 3357562.55981445 24.44772911 149 170 165
245696.09234619 3357563.87664795 23.87466621 105 128 120
245698.28814697 3357567.49755859 19.16643524 225 238 231
245701.06225586 3357561.24542236 17.87010574 168 182 165
245696.47491455 3357561.55493164 21.01729584 114 155 113
245699.59051514 3357567.28082275 24.19683838 152 177 174
245695.94946289 3357567.22467041 24.28713417 245 247 242
245697.81530762 3357562.19067383 20.19642830 188 212 198
245701.16949463 3357567.22668457 19.63827133 106 131 125
245696.44525146 3357564.63891602 23.65466309 110 130 121
245700.55377197 3357561.77960205 20.91816902 134 158 144
245697.71392822 3357561.99584961 17.66378403 203 221 205
245701.76550293 3357561.99047852 24.08481979 128 153 131
245699.39630127 3357566.57989502 24.29731178 132 154 151
245698.55218506 3357566.51452637 24.48444939 139 157 157
245701.81152344 3357564.78631592 24.23223495 146 169 159
245696.70434570 3357566.83959961 20.38404274 102 126 112
245696.25775146 3357567.05505371 19.43047142 138 163 134
245702.04016113 3357567.26611328 21.72764397 113 130 124
245698.13427734 3357561.09271240 23.20928574 230 246 236
245701.81854248 3357563.34680176 23.30911636 125 155 121
245701.78289795 3357562.42083740 23.32768250 132 157 127
245698.43786621 3357567.57800293 22.81080818 99 119 108
245697.00158691 3357566.75952148 20.93768501 183 191 178
245700.89617920 3357565.81011963 18.30129433 115 128 111
245701.56317139 3357563.93511963 20.39991379 127 151 129
245700.17755127 3357561.39385986 20.41724777 148 159 151
245697.32098389 3357561.95831299 19.93029022 101 127 114
245698.02307129 3357561.47058105 24.33898926 171 190 184
245698.03948975 3357565.46978760 20.18380547 142 152 141
245696.33789063 3357563.58020020 17.82775497 136 151 128
245697.98608398 3357565.28826904 22.22464752 168 184 173
245696.37799072 3357564.48315430 23.66456413 108 129 120
245701.32873535 3357566.81341553 22.73626900 108 134 109
245696.82592773 3357567.23370361 23.34866333 154 184 160
245698.19592285 3357566.68005371 24.51159668 171 180 175
245697.11364746 3357566.82873535 18.85607147 153 166 146
245698.82543945 3357560.95928955 17.86159515 145 164 142
245701.66656494 3357565.97039795 19.58548164 119 138 118
245700.58056641 3357566.19866943 24.32225990 133 160 153
245701.82275391 3357561.44995117 21.73834801 103 119 106
245701.08734131 3357566.47662354 18.13697624 134 156 144
245697.37316895 3357567.37994385 22.05017853 134 150 137
245696.16198730 3357567.22937012 23.38718796 198 219 202
245697.43383789 3357562.25207520 24.42244720 151 173 170
245701.64971924 3357560.89312744 24.18940735 172 192 191
245699.62219238 3357567.12890625 17.95233154 161 170 167
245700.13061523 3357561.74780273 21.27675819 98 130 107
245696.55773926 3357563.43835449 17.78583908 148 161 143
245701.00109863 3357561.55181885 21.13541412 119 132 122
245699.95361328 3357561.17590332 19.59951210 122 140 128
245696.44781494 3357562.08734131 21.25212479 138 172 158
245700.97778320 3357566.29107666 20.25218391 121 141 116
245696.06591797 3357560.99926758 18.46759033 196 221 202
245700.89770508 3357565.34875488 18.88929749 115 133 111
245698.57482910 3357567.48474121 21.55129623 138 167 139
245695.31524658 3357564.98468018 17.96153450 72 119 23
245696.96191406 3357561.05303955 17.90413094 207 227 202
245696.41448975 3357563.42742920 21.43984413 112 138 125
245697.93603516 3357567.30676270 23.68920898 156 175 156
245697.77679443 3357565.90258789 22.41624832 109 125 115
245697.60711670 3357565.89050293 20.68994904 95 129 113
245696.25787354 3357561.22076416 21.18376160 120 154 137
245700.40521240 3357562.02545166 18.45608521 112 132 123
245696.03173828 3357563.29260254 20.03160095 228 238 229
245699.41400146 3357567.16204834 20.17179680 103 120 110
245697.19921875 3357562.09814453 18.86204147 97 114 106
245698.66162109 3357567.10363770 24.32854080 146 171 178
245701.30828857 3357566.72412109 22.62318230 98 122 96
245698.01751709 3357566.17956543 20.36380577 143 156 146
245697.01129150 3357562.07843018 20.45864105 156 177 160
245700.88250732 3357565.98321533 18.49084854 101 115 102
245696.43389893 3357562.10766602 19.45343590 194 220 207
245696.64294434 3357567.07501221 23.27054596 168 187 168
245696.48071289 3357563.12799072 20.20432091 154 171 152
245696.37890625 3357563.35748291 22.51865387 119 146 131
245697.18603516 3357566.87548828 21.38646317 174 193 163
245700.86108398 3357561.50744629 21.25448990 145 159 146
245696.95343018 3357566.32202148 21.27590561 152 177 158
245697.81469727 3357566.57855225 21.06901932 163 178 157
245696.52227783 3357561.79791260 20.28906441 145 175 137
245696.09338379 3357564.51898193 19.92271042 242 254 242
245699.62268066 3357563.54400635 24.18237495 136 148 144
245696.73541260 3357566.28979492 19.89365005 102 129 96
245701.76104736 3357565.90478516 20.07275772 105 126 107
245696.37506104 3357561.13275146 21.60314751 118 150 127
245700.09808350 3357566.34106445 24.49541855 149 161 157
245697.00335693 3357564.64721680 19.09491158 122 149 132
245700.76727295 3357561.54174805 21.25618553 216 234 220
245700.93121338 3357561.36511230 20.17904472 122 138 135
245696.89233398 3357566.16107178 23.30831528 116 143 134
245698.50860596 3357563.16931152 24.52842140 150 169 167
245697.42437744 3357567.36840820 19.88304901 123 138 119
245697.95764160 3357563.32073975 24.25413513 135 152 146
245696.48846436 3357563.40356445 21.36536980 117 141 128
245700.44116211 3357567.62542725 24.26667213 148 170 158
245696.92846680 3357567.83355713 24.47658730 184 204 195
245697.96887207 3357567.07904053 24.12167168 156 176 165
245701.59942627 3357561.04492188 20.74298286 213 233 224
245699.76782227 3357564.79736328 24.34626770 153 166 156
245696.95788574 3357561.14154053 24.36384201 161 180 178
245699.39508057 3357564.25543213 24.29240799 151 171 162
245697.78411865 3357567.32635498 19.68415833 126 140 123
245695.67810059 3357563.99475098 17.79700851 61 86 46
245699.29046631 3357566.45690918 18.59902382 119 131 117
245698.09680176 3357566.52178955 24.39840317 152 158 148
245697.72009277 3357565.49725342 19.59891510 172 188 177
245699.71276855 3357560.97009277 23.87082481 145 164 158
245700.31909180 3357566.43878174 17.90682983 136 153 145
245696.00305176 3357565.44805908 24.41260338 201 208 200
245697.23126221 3357566.77935791 21.26613808 172 192 165
245698.47180176 3357564.74517822 24.49736595 150 168 170
245697.48535156 3357562.57415771 18.31711769 150 160 149
245700.37463379 3357562.72875977 24.35195541 123 143 144
245696.30780029 3357562.58361816 19.55362892 135 158 148
245700.49682617 3357566.83526611 17.58544350 143 163 152
245696.28845215 3357567.61169434 23.78133774 158 177 157
245697.15911865 3357566.74615479 19.67513275 132 146 133
245700.29803467 3357567.10479736 22.32815361 134 153 149
245696.18975830 3357564.03656006 23.70597076 115 143 131
245698.28991699 3357560.96105957 21.81576729 156 169 159
245700.27941895 3357561.46038818 24.36184502 166 186 184
245696.85705566 3357566.82348633 21.12746239 167 188 169
245697.16961670 3357561.43157959 24.39629173 233 248 243
245700.44830322 3357567.29693604 23.63864517 170 191 172
245696.80340576 3357563.07128906 21.11346054 181 199 185
245696.37872314 3357562.10253906 21.35283661 155 188 177
245695.87054443 3357564.63494873 17.76310539 167 169 155
245696.76940918 3357565.01342773 22.02248001 91 116 97
245700.78179932 3357564.85955811 18.59219360 125 144 122
245695.91772461 3357565.65374756 24.31258392 222 226 212
245696.87908936 3357564.55487061 17.66758156 108 128 116
245701.40484619 3357565.28546143 23.28993988 128 154 119
245699.31976318 3357566.79473877 19.12580109 148 161 141
245701.25451660 3357567.47784424 24.27126503 148 171 165
245697.62792969 3357566.76080322 22.97042084 161 174 164
245697.37396240 3357564.26843262 24.33238983 150 174 158
245698.95989990 3357564.05902100 24.35285950 139 155 154
245696.47412109 3357564.12322998 17.69862366 79 94 71
245696.60510254 3357561.19006348 21.68351936 112 146 111
245697.59020996 3357564.89001465 20.54392052 110 135 116
245695.65960693 3357565.49914551 17.77974701 25 50 11
245696.99957275 3357564.85839844 23.24851990 103 129 120
245696.27410889 3357561.86761475 20.17436028 137 173 109
245701.46136475 3357561.36151123 19.12956810 120 137 119
245695.37585449 3357564.26251221 17.93960381 48 83 15
245701.67553711 3357561.56396484 22.41572952 110 128 116
245701.96270752 3357567.17242432 20.88533592 114 140 139
245696.79229736 3357567.55914307 17.74784088 42 59 53
245701.67370605 3357567.37237549 18.63085556 163 186 180
245700.20294189 3357561.65069580 18.13984680 92 110 98
245700.15924072 3357561.73394775 21.35543442 89 124 104
245697.95428467 3357565.84167480 19.99104118 254 255 253
245696.18896484 3357561.80633545 19.51302338 173 192 162
245696.12774658 3357566.27722168 24.34493256 147 153 141
245696.13293457 3357566.90069580 21.92529297 186 200 185
245698.69787598 3357561.05731201 21.67376900 112 144 123
245701.60607910 3357563.43267822 19.58961678 93 109 98
245701.96386719 3357567.09136963 23.75447083 176 193 175
245696.20727539 3357565.14782715 23.85014725 129 141 137
245698.32043457 3357567.43395996 21.18303299 242 250 239
245697.89886475 3357566.96252441 22.70577812 160 177 159
245698.01470947 3357561.96502686 18.29702187 103 123 112
245698.87664795 3357567.35589600 23.52222633 136 163 154
245701.48931885 3357561.46569824 18.43342209 113 129 118
245701.42193604 3357561.39782715 19.06226158 127 142 123
245697.11560059 3357563.53161621 20.33518791 192 211 191
245699.24383545 3357561.03704834 23.68835831 119 142 134
245697.06274414 3357561.56292725 19.51047897 148 172 148
245700.59924316 3357566.38317871 18.80252457 184 198 181
245697.85260010 3357566.15704346 19.70120811 84 102 90
245701.76074219 3357563.08959961 21.71838379 102 127 97
245701.58276367 3357566.88140869 22.22066116 118 139 120
245700.95367432 3357565.42877197 24.31186485 148 164 154
245698.36291504 3357561.05358887 20.15444946 100 121 112
245697.93212891 3357561.08575439 24.03309822 129 156 147
245700.84094238 3357565.26062012 18.87252235 115 130 109
245696.64062500 3357566.37799072 20.01479721 86 116 80
245696.14782715 3357560.98278809 19.76203918 188 212 198
245701.41394043 3357563.43060303 20.81862259 113 136 120
245697.55065918 3357564.90557861 20.62907410 105 132 115
245696.07434082 3357567.28417969 20.34959984 223 238 233
245696.77008057 3357563.95623779 20.96128845 142 163 146
245701.57690430 3357565.94976807 23.71136284 110 136 107
245698.83361816 3357567.33331299 17.83807373 116 134 134
245701.68438721 3357561.52648926 22.37560463 111 129 117
245696.39666748 3357564.81567383 19.92280579 222 228 216
245698.13403320 3357566.82391357 24.25167847 182 193 185
245696.19042969 3357564.66052246 19.66621399 132 147 128
245700.28491211 3357564.22467041 24.38234329 172 195 185
245697.18914795 3357566.31921387 22.08710098 222 245 229
245696.83300781 3357563.02764893 20.34431839 226 236 227
245697.59637451 3357567.74261475 17.59127808 4 15 7
245698.14135742 3357560.93365479 21.84626007 210 220 209
245701.77868652 3357565.70703125 24.01844406 120 144 118
245697.24035645 3357562.56445313 20.77243423 110 130 118
245697.90332031 3357565.53393555 19.74861717 135 157 144
245700.44897461 3357561.28375244 20.26182938 86 101 94
245701.74084473 3357562.93151855 22.27376175 116 141 111
245701.73999023 3357561.33709717 20.66334343 98 120 108
245696.55993652 3357561.49969482 21.23676300 103 148 105
245700.33288574 3357562.05102539 18.64540482 144 164 155
245701.83874512 3357561.76690674 23.36620712 129 149 122
245699.99499512 3357565.89227295 24.45202065 145 159 160
245698.15948486 3357567.21069336 23.25668526 172 190 178
245700.77172852 3357566.92669678 20.28182030 131 150 148
245701.26324463 3357566.52557373 18.84555244 124 146 134
245697.61462402 3357565.46630859 24.23149872 153 172 168
245701.25744629 3357567.65814209 18.19371796 15 51 25
245696.82348633 3357566.96923828 22.84510231 165 183 161
245701.39111328 3357566.39074707 19.36063766 112 130 114
245697.00628662 3357566.52966309 20.28020096 158 181 165
245701.49383545 3357562.69561768 19.43945694 112 129 113
245701.64581299 3357567.54394531 24.38747025 149 169 168
245696.61169434 3357561.76318359 18.75279427 132 159 126
245701.01177979 3357566.16540527 20.23749733 123 143 118
245700.86584473 3357567.02459717 17.66123199 121 141 130
245701.67144775 3357564.26354980 23.45249748 141 173 124
245695.98333740 3357563.57678223 17.85184479 195 213 191
245698.76739502 3357566.30718994 24.45460510 148 168 169
245697.83563232 3357564.99090576 20.28019333 143 157 142
245696.74365234 3357563.43359375 17.68182373 159 174 155
245699.12384033 3357564.83966064 24.31583214 143 163 164
245701.11633301 3357565.71929932 18.36297798 84 96 86
245701.14471436 3357566.55096436 20.09627724 73 90 74
245701.25677490 3357561.73211670 18.90267181 117 135 111
245696.07885742 3357567.52526855 18.08417702 168 182 167
245696.59783936 3357561.67687988 18.62399483 148 170 147
245696.49511719 3357566.87744141 18.17872429 194 208 185
245699.18054199 3357566.64080811 24.31653786 129 153 153
245701.35198975 3357566.71496582 21.10918427 107 137 103
245701.84039307 3357561.47088623 22.00283432 80 99 93
245697.95239258 3357561.55377197 24.26802254 205 220 215
245696.05548096 3357564.63507080 17.86801338 216 227 211
245701.48675537 3357565.03967285 20.95834923 127 159 118
245697.22839355 3357566.81097412 22.74375534 151 173 150
245701.22521973 3357566.86035156 21.09273529 165 177 163
245697.45117188 3357565.11407471 24.36181831 154 180 169
245701.35321045 3357563.05242920 20.10916710 100 127 112
245701.02532959 3357563.87945557 18.83484840 102 123 108
245696.66339111 3357566.35253906 22.18716431 147 171 149
245701.45001221 3357566.40655518 22.27128983 99 123 101
245695.84472656 3357561.12701416 18.00975037 164 188 162
245696.69104004 3357566.87298584 20.53092575 237 245 232
245699.68975830 3357566.08972168 24.22337151 184 199 196
245695.33807373 3357565.05108643 17.96577835 87 137 40
245701.65454102 3357560.98516846 20.90887070 218 233 228
245695.92480469 3357561.51092529 21.81311607 150 170 158
245698.13690186 3357566.65466309 20.36460876 132 145 135
245699.49121094 3357561.36975098 21.26548958 142 166 152
245698.47912598 3357561.06848145 22.52208328 101 125 112
245701.72210693 3357561.34338379 20.34788132 71 88 78
245697.98583984 3357562.33111572 24.41730309 166 181 174
245701.76910400 3357564.04449463 19.85493088 120 138 126
245696.06787109 3357562.98651123 21.91043854 145 165 154
245698.88543701 3357566.68963623 24.36198997 144 165 170
245697.97540283 3357561.96746826 24.49466133 138 147 142
245696.39916992 3357561.76416016 18.17552185 130 150 125
245696.76892090 3357565.89343262 22.05948257 112 146 130
245701.89031982 3357560.96154785 21.47400093 136 163 156
245696.15386963 3357567.05017090 23.83897972 170 187 171
245696.22747803 3357563.62939453 21.67055511 103 129 118
245701.47796631 3357566.28082275 22.22815895 105 122 103
245695.98095703 3357561.42028809 22.39801025 168 186 164
245700.07318115 3357561.11016846 21.95039940 161 181 169
245698.88055420 3357560.92608643 24.20931053 165 187 185
245697.10797119 3357563.51043701 18.77159119 101 130 112
245696.20135498 3357564.57305908 22.21213341 172 186 171
245701.70825195 3357561.45086670 22.41224861 104 125 110
245701.69769287 3357564.58929443 20.04453850 94 116 103
245697.97375488 3357561.42694092 20.33539200 125 139 126
245700.55761719 3357566.52111816 18.99242592 180 197 178
245697.98022461 3357561.36315918 24.30678177 157 176 172
245701.92657471 3357565.54968262 24.22303772 132 156 134
245696.70562744 3357562.84649658 23.07004166 126 137 129
245698.78057861 3357561.79443359 24.54280472 148 167 165
245696.69140625 3357566.93310547 20.82352066 116 141 109
245697.06072998 3357567.76037598 17.60046387 11 25 12
245697.63861084 3357562.14379883 18.07686996 222 234 222
245697.13623047 3357566.48620605 20.45399475 202 219 201
245695.99395752 3357562.53588867 17.89658737 217 228 214
245701.74493408 3357560.63946533 17.66295433 57 69 57
245698.17669678 3357567.18310547 21.07951355 206 222 212
245696.45288086 3357563.25195313 23.38350677 130 152 140
245701.23577881 3357564.73126221 24.18838692 137 163 160
245700.59771729 3357560.98950195 24.43521690 151 168 162
245701.55541992 3357560.88909912 21.96407318 164 184 182
245701.59222412 3357566.97192383 20.39068413 128 149 144
245698.90222168 3357561.15472412 19.80337334 172 197 193
245696.35827637 3357566.09411621 20.02149010 111 131 106
245701.39373779 3357566.57574463 23.32263374 111 133 110
245696.64508057 3357561.85504150 20.89554024 118 156 115
245696.61572266 3357567.16668701 23.04488945 145 173 135
245696.93322754 3357565.86291504 19.18301392 138 152 135
245701.23223877 3357560.85150146 18.01888275 128 153 111
245698.00299072 3357565.70629883 24.09093666 143 160 152
245697.18041992 3357561.42761230 22.33996201 122 148 123
245696.82421875 3357566.79071045 18.47285843 122 143 124
245696.18377686 3357565.88177490 24.37346840 165 168 161
245696.17364502 3357566.51733398 17.99789810 179 192 175
245698.53417969 3357561.04895020 23.37202835 122 139 129
245701.96014404 3357561.81768799 24.29201889 143 164 155
245696.74609375 3357566.96569824 18.73896599 119 132 115
245699.24890137 3357561.25042725 20.63385582 140 171 153
245699.33233643 3357561.54364014 18.97135162 88 111 101
245697.17987061 3357560.62066650 17.83557320 83 118 18
245696.13220215 3357567.57348633 19.60346222 132 153 136
245697.14587402 3357564.69537354 17.71039581 164 173 156
245699.32281494 3357561.53118896 18.87677383 95 115 106
245700.44354248 3357566.35668945 24.37717247 139 160 153
245701.27655029 3357565.33831787 20.44642639 118 145 110
245697.08990479 3357564.91156006 21.02667618 120 141 132
245697.15887451 3357565.43054199 19.00277519 111 128 112
245696.29278564 3357567.22747803 22.78042603 208 229 214
245696.41143799 3357565.69146729 19.51826096 179 194 173
245700.70239258 3357564.85351563 24.23724174 154 183 165
245696.99835205 3357561.16040039 22.19456291 161 185 169
245701.63854980 3357565.44818115 23.63203049 125 153 115
245695.56878662 3357562.38073730 17.81146812 52 83 24
245696.96447754 3357565.04260254 19.14568520 134 151 132
245701.41583252 3357566.49682617 20.01405716 70 91 74
245696.03839111 3357561.03070068 21.70921707 197 226 222
245701.90295410 3357561.60504150 23.57283211 116 138 115
245697.11950684 3357561.47680664 21.42169380 98 128 90
245701.19702148 3357561.80743408 20.64311790 153 173 164
245696.51586914 3357567.05639648 18.21034622 129 152 134
245697.13610840 3357561.68090820 19.36502075 170 192 171
245695.94274902 3357561.54962158 23.72813225 170 187 171
245699.34912109 3357561.43627930 24.31165123 154 170 167
245699.88739014 3357566.69183350 21.11908150 145 168 139
245701.43603516 3357562.97119141 19.26440239 100 118 106
245697.56066895 3357564.00939941 20.34272957 128 138 129
245696.12103271 3357564.80432129 17.97792625 222 229 213
245696.53442383 3357564.95666504 17.83780670 64 85 66
245698.44348145 3357560.99499512 22.81392288 95 119 106
245701.41180420 3357567.16021729 23.36839867 192 209 191
245697.08923340 3357563.68792725 22.69998741 163 182 163
245701.59497070 3357563.50659180 18.16571999 111 131 129
245701.93676758 3357567.28143311 22.60713196 124 143 139
245697.81250000 3357567.62127686 24.35023308 121 141 140
245697.25311279 3357563.52435303 20.56980515 78 93 86
245698.13317871 3357566.95501709 20.64577103 133 149 138
245701.51043701 3357564.65832520 23.28505707 139 171 130
245700.27728271 3357561.38055420 17.99999046 76 94 80
245701.29644775 3357566.74340820 20.21823502 103 128 107
245698.05639648 3357565.32519531 20.16112709 173 183 174
245697.18841553 3357564.89099121 18.95398903 130 153 137
245701.41387939 3357566.82952881 18.66362762 113 131 119
245696.39672852 3357561.66662598 18.50224686 133 157 131
245697.40997314 3357566.01165771 24.05007172 140 159 153
245697.41491699 3357564.31195068 22.06993675 106 138 125
245695.90655518 3357562.32354736 24.33517075 182 182 172
245696.07537842 3357561.40979004 20.42140961 142 169 162
245701.44177246 3357567.20013428 17.92058754 182 205 197
245701.41705322 3357563.46252441 18.56983948 92 104 100
245701.74108887 3357567.23876953 20.89947128 143 166 160
245698.09655762 3357561.23675537 23.01655769 229 246 236
245696.36834717 3357564.17565918 21.55073738 95 123 111
245698.89996338 3357567.33081055 20.06930542 118 140 128
245701.97644043 3357566.97143555 19.32058144 155 176 169
245697.67279053 3357561.32751465 23.24557114 152 178 169
245701.76800537 3357561.49737549 21.59202766 109 132 106
245696.11419678 3357563.96453857 23.87367821 111 134 126
245701.43402100 3357564.92663574 20.52303886 122 150 112
245696.40496826 3357562.60015869 23.53938103 128 155 138
245697.14538574 3357564.41448975 20.84181595 107 127 116
245700.80694580 3357567.53308105 24.37045097 138 164 161
245697.99853516 3357563.94696045 24.21111298 173 190 182
245701.75109863 3357561.17822266 19.39399910 138 158 147
245699.56463623 3357561.29193115 18.08845139 67 84 66
245696.44226074 3357567.04516602 18.37156105 115 142 123
245695.90777588 3357563.58666992 24.27235413 233 234 228
245695.31732178 3357563.09863281 17.87411880 76 116 19
245701.56536865 3357563.76654053 21.53674126 122 161 116
245696.12237549 3357560.98284912 19.68799210 195 222 205
245698.13153076 3357561.13983154 22.73621368 241 252 244
245698.30590820 3357567.33746338 22.61268616 149 166 158
245701.92968750 3357565.44177246 24.52650452 162 180 182
245698.46112061 3357561.16156006 18.27557755 105 132 117
245699.67620850 3357567.36004639 21.69790459 168 178 169
245696.77233887 3357564.24371338 19.25050545 135 164 146
245696.21453857 3357561.18286133 20.39326096 107 134 119
245695.92877197 3357561.12097168 24.17346764 221 229 218
245701.48773193 3357561.78662109 20.73642159 113 136 118
245695.40924072 3357563.16864014 17.84727669 105 146 52
245696.50714111 3357564.35772705 23.53391266 115 141 130
245701.75891113 3357560.89343262 18.10199356 181 204 194
245697.17291260 3357567.22283936 19.51379585 173 188 159
245701.69616699 3357565.38769531 19.53721809 112 131 109
245701.76892090 3357563.62976074 23.20497513 123 160 117
245695.97406006 3357561.59008789 21.81066704 144 164 152
245699.39843750 3357561.09259033 22.57076263 138 164 155
245700.45275879 3357562.84014893 24.48206329 189 206 198
245696.94409180 3357566.92315674 18.95077515 144 160 134
245697.41192627 3357561.80017090 20.76508904 124 147 131
245699.13873291 3357561.08685303 22.85289574 109 132 122
245696.39355469 3357566.33502197 21.66310120 124 146 133
245699.10906982 3357567.26367188 19.59025764 136 149 142
245697.19049072 3357562.16192627 20.26402092 125 148 132
245700.61334229 3357567.07550049 24.16351318 135 155 146
245699.83435059 3357566.61254883 18.48180008 124 141 131
245700.66259766 3357567.07556152 21.50020027 186 198 184
245699.73681641 3357561.39916992 24.59837151 194 202 204
245700.55303955 3357566.32324219 18.65087700 162 181 162
245699.21990967 3357566.47180176 24.34652519 124 150 149
245701.29388428 3357567.10913086 19.50006866 112 135 127
245696.25256348 3357561.18579102 20.29925346 113 137 123
245701.66619873 3357564.57434082 21.64641762 126 155 124
245700.39953613 3357567.12567139 22.41995049 154 174 165
245696.09863281 3357565.31372070 24.08985901 253 253 251
245695.88842773 3357561.12646484 18.06127167 192 215 197
245697.60119629 3357563.20605469 24.29044914 142 161 155
245701.91882324 3357561.23834229 22.02473259 79 98 96
245696.40881348 3357563.38043213 23.37751007 139 163 149
245696.35272217 3357563.45941162 24.26531792 136 151 146
245701.52557373 3357560.89965820 19.62642670 195 216 207
245699.17987061 3357567.07763672 23.08073044 105 133 121
245701.15173340 3357562.86175537 18.45983315 86 106 97
245700.26898193 3357560.76892090 17.90406418 125 148 104
245699.80462646 3357566.91979980 24.24402237 205 215 207
245696.21832275 3357563.23425293 21.67871475 131 151 142
245698.79382324 3357566.68255615 24.39063263 149 168 172
245697.96960449 3357561.41833496 18.90548515 208 225 217
245701.23187256 3357565.62841797 19.16339874 108 130 109
245698.99151611 3357560.92877197 17.82308578 143 167 141
245697.58801270 3357566.52270508 18.00583458 227 227 219
245696.11932373 3357566.58404541 19.80175781 193 216 198
245701.48913574 3357565.83416748 20.09466934 161 184 156
245697.64666748 3357564.63946533 22.04593658 94 122 110
245701.76617432 3357563.40612793 17.98659515 134 156 154
245695.92706299 3357564.83575439 17.80513763 165 177 157
245696.32092285 3357565.22747803 21.72913933 165 181 170
245696.44268799 3357561.82781982 20.24884033 134 171 117
245695.66394043 3357562.71472168 17.84906578 121 158 81
245696.56536865 3357565.19458008 22.00188065 121 139 125
245697.05450439 3357567.44885254 23.88194275 163 180 162
245697.63159180 3357564.71276855 22.62155724 114 142 130
245701.14819336 3357566.12792969 22.81105423 116 137 118
245700.87084961 3357560.82409668 17.93939590 138 169 110
245699.68023682 3357566.69219971 21.12015152 137 157 129
245701.71539307 3357567.23132324 20.79183388 158 177 175
245696.15106201 3357567.16882324 23.73110008 198 215 197
245696.12091064 3357561.39978027 20.36255455 143 168 164
245697.26422119 3357563.21002197 24.37333107 155 172 164
245696.84539795 3357562.12768555 23.18977165 105 141 129
245696.73571777 3357566.59582520 24.07153702 192 214 201
245697.18023682 3357563.03985596 18.38426399 158 166 142
245701.54327393 3357564.84936523 19.53235817 113 130 111
245697.75689697 3357566.23736572 18.08567619 153 153 141
245701.11688232 3357565.67669678 20.42436218 119 145 108
245697.52520752 3357562.65191650 18.36355400 171 184 167
245701.69311523 3357563.71466064 22.94184113 115 151 107
245701.22454834 3357565.74395752 22.51095009 122 148 121
245696.11376953 3357560.43353271 17.92104530 121 154 49
245700.83013916 3357561.31103516 22.67878532 146 165 159
245701.02111816 3357561.40332031 22.77805328 131 151 142
245701.59179688 3357562.29986572 22.33178329 110 130 119
245695.90509033 3357561.20281982 20.49650002 238 249 241
245701.75067139 3357562.48962402 22.86776543 122 146 124
245700.10052490 3357567.02551270 20.21868515 124 136 124
245696.09545898 3357564.14068604 21.92447662 157 173 173
245701.22814941 3357566.82153320 21.02990723 153 166 156
245696.84619141 3357561.16253662 19.83246422 172 193 176
245702.02612305 3357567.04998779 19.36948586 67 86 80
245701.76330566 3357563.92468262 18.16223717 111 142 137
245701.53717041 3357566.89282227 20.01976204 130 149 147
245699.87066650 3357566.62780762 20.49737930 143 153 142
245696.25164795 3357567.58807373 19.60248566 141 162 147
245695.87652588 3357561.27551270 21.32348442 242 249 242
245697.18164063 3357562.91082764 20.70153236 112 130 118
245701.38861084 3357561.48205566 18.92400169 125 140 119
245696.09509277 3357562.45617676 17.99770737 196 204 189
245699.55126953 3357564.98254395 24.20816422 145 162 154
245701.96252441 3357567.07971191 17.91903877 71 100 98
245697.53552246 3357564.21411133 18.61080551 123 150 133
245700.10858154 3357563.15100098 24.54089546 155 170 167
245697.90563965 3357561.34783936 22.10579681 179 193 180
245701.32360840 3357562.92004395 20.33439064 102 122 111
245701.58770752 3357566.89190674 23.55469322 104 127 109
245696.03002930 3357561.05609131 21.13564682 196 219 211
245695.91015625 3357561.48547363 21.89501762 151 169 157
245701.16998291 3357565.41802979 17.72989464 128 145 126
245701.64343262 3357566.19177246 23.73326111 108 132 108
245695.92486572 3357561.37005615 18.91562843 149 170 151
245701.04431152 3357567.30651855 24.20797920 174 192 180
245697.42547607 3357563.88610840 22.53968620 195 213 197
245701.21209717 3357567.09710693 22.81868744 146 164 150
245699.28729248 3357567.13439941 20.66789055 125 145 134
245700.97607422 3357562.64807129 24.35663605 132 154 152
245697.66735840 3357563.59643555 18.31357956 86 108 95
245696.62420654 3357561.22058105 21.60128021 103 139 101
245697.31347656 3357565.25225830 23.03199768 140 161 154
245697.26861572 3357562.09326172 18.81522179 88 105 97
245696.02514648 3357567.35107422 20.17936516 206 222 212
245701.02453613 3357566.26251221 18.48604584 148 169 154
245696.83526611 3357562.36718750 22.88142967 176 186 178
245697.78179932 3357565.62072754 22.63072586 137 153 142
245701.79345703 3357563.15087891 23.97170639 107 133 104
245696.46862793 3357564.62670898 17.79657555 80 92 78
245696.62487793 3357563.91064453 19.29168892 119 152 135
245701.77465820 3357564.14410400 22.22259331 127 158 117
245699.03887939 3357562.82635498 24.31112480 155 172 164
245701.51757813 3357567.03570557 20.83166122 136 155 149
245700.92980957 3357561.44805908 21.32011986 117 130 120
245696.03363037 3357561.77917480 17.96516991 226 238 226
245696.60021973 3357564.68835449 22.10300827 117 159 119
245701.12719727 3357567.27770996 19.76928329 103 126 120
245698.08111572 3357562.71197510 24.51651573 152 162 153
245697.73675537 3357564.92309570 22.56099510 105 131 122
245697.94305420 3357560.93450928 24.40192413 164 174 173
245696.12579346 3357562.40075684 22.30926895 141 144 133
245700.68975830 3357567.32727051 21.71461296 154 166 156
245696.45892334 3357564.81195068 24.33888435 144 162 148
245701.75366211 3357562.57080078 22.98976898 119 145 116
245701.20178223 3357566.64587402 20.86062431 113 144 103
245696.84606934 3357566.77233887 18.30958366 181 194 176
245701.28503418 3357566.53704834 22.96917534 116 140 118
245697.17907715 3357562.11212158 24.50667953 148 167 165
245697.68206787 3357565.48205566 18.35234642 144 157 137
245701.92742920 3357567.24243164 21.19334412 129 151 138
245699.36462402 3357561.06658936 24.28836823 160 176 175
245700.21850586 3357561.97271729 18.54965973 137 157 148
245699.61523438 3357561.19592285 21.67628098 157 184 167
245701.37915039 3357565.14819336 20.46969795 114 142 102
245698.96997070 3357566.62701416 18.77387428 118 132 117
245699.85986328 3357566.84216309 24.41561699 168 174 174
245701.62506104 3357560.95538330 20.58758163 211 234 226
245697.29766846 3357566.40002441 20.62620544 136 149 139
245701.64678955 3357567.52606201 21.94218636 117 132 127
245701.00720215 3357564.49389648 18.27571106 98 117 98
245701.39416504 3357562.91082764 20.01486588 95 116 107
245697.51745605 3357566.06738281 20.00660133 125 146 131
245695.85345459 3357565.67095947 17.74475670 163 166 155
245700.43005371 3357566.92828369 19.43403244 146 165 145
245699.70654297 3357566.58483887 18.59546471 134 148 135
245696.71789551 3357564.76232910 19.79291153 214 222 211
245700.81542969 3357566.47119141 17.71829224 133 156 140
245695.87603760 3357566.82385254 17.76726151 169 183 157
245696.40887451 3357567.12744141 20.63066292 78 101 85
245696.83422852 3357567.25616455 19.89376831 132 147 140
245697.73272705 3357566.28491211 20.69630623 161 173 159
245696.38348389 3357564.08148193 21.53527641 90 120 108
245698.56713867 3357567.48370361 22.73845673 95 122 103
245701.37933350 3357563.12579346 24.24945831 187 203 192
245701.59887695 3357567.32446289 18.16757393 140 163 155
245702.00317383 3357567.12683105 19.20004654 96 117 108
245701.71575928 3357562.44165039 22.71904945 128 145 129
245701.65484619 3357562.90472412 21.45162964 118 145 114
245699.53863525 3357561.11468506 20.07777596 161 181 172
245697.93218994 3357565.67016602 22.14822388 212 222 211
245695.89099121 3357561.24737549 20.88196945 235 244 241
245701.28643799 3357566.47955322 22.45487595 105 127 106
245700.82720947 3357566.84600830 21.13113976 190 202 188
245698.60089111 3357562.97741699 24.51952171 126 145 143
245698.02612305 3357561.71038818 18.42506790 165 181 171
245696.27398682 3357565.29931641 19.91875648 174 184 160
245700.12640381 3357567.04608154 20.20197868 124 138 125
245697.26763916 3357565.48669434 24.18385124 151 168 160
245701.55273438 3357564.76477051 20.98104286 136 166 130
245700.51208496 3357561.60437012 19.23332787 143 157 144
245700.79742432 3357565.97320557 18.40997124 100 112 100
245701.65283203 3357561.98431396 24.26581573 199 216 200
245701.40850830 3357567.57110596 24.07661247 193 207 192
245696.79669189 3357565.93817139 23.37267113 106 129 121
245698.43182373 3357567.55633545 21.79406738 124 146 125
245701.73040771 3357565.10919189 23.75713158 119 146 111
245699.31109619 3357566.99163818 22.91574097 103 124 117
245698.91088867 3357567.32257080 17.78689575 83 101 103
245700.66265869 3357566.97589111 21.36414337 205 218 201
245700.16418457 3357567.06304932 20.17247391 117 133 120
245699.61694336 3357567.76623535 17.67749023 15 33 17
245697.21417236 3357562.18676758 20.54349518 131 152 137
245697.78387451 3357561.37084961 21.29206467 100 120 109
245696.69897461 3357564.89532471 19.80816078 244 249 243
245696.27838135 3357565.32043457 21.79324722 173 191 177
245697.94689941 3357566.36669922 20.62149620 147 160 151
245697.07135010 3357562.92791748 24.43998146 172 191 185
245696.90777588 3357567.43304443 21.93583488 90 104 91
245697.79284668 3357564.07708740 24.19669533 149 171 159
245697.11682129 3357561.52355957 24.41847229 220 240 239
245696.23651123 3357561.15386963 20.68441200 109 140 122
245699.18536377 3357566.70281982 17.86746788 120 143 137
245701.73498535 3357564.16284180 22.87156487 116 154 107
245700.51409912 3357561.10003662 23.94066238 138 154 151
245701.99493408 3357565.94769287 24.25662231 126 153 146
245698.55938721 3357567.46392822 24.32251167 134 158 162
245700.99383545 3357567.09790039 19.53837013 109 131 119
245701.54516602 3357564.01403809 21.49723244 124 163 116
245700.32061768 3357567.41589355 23.76393318 171 193 172
245698.67065430 3357561.37121582 24.47401047 146 166 164
245696.01696777 3357561.82495117 21.92637634 164 180 177
245696.81457520 3357565.67126465 23.36141205 108 127 123
245698.33666992 3357567.46716309 22.41731071 150 169 165
245696.46008301 3357561.08337402 23.82336998 129 157 145
245697.91668701 3357563.70263672 17.96517754 136 144 133
245695.78045654 3357566.02136230 17.67837334 109 121 97
245701.62506104 3357564.38427734 21.57405281 121 153 116
245696.01373291 3357566.88909912 24.31921387 218 229 215
245697.51684570 3357561.13812256 24.19011879 188 207 203
245700.65173340 3357566.86590576 17.51368904 146 163 153
245697.50360107 3357565.83599854 20.80401993 101 133 118
245696.63787842 3357565.76000977 18.07440758 89 103 90
245696.92260742 3357563.39788818 17.65895844 170 183 163
245697.85351563 3357564.98547363 17.86732864 239 241 227
245696.40435791 3357565.23242188 21.64745140 155 173 161
245701.25183105 3357566.71801758 17.94219017 122 143 138
245696.27270508 3357564.70855713 23.79503822 125 137 133
245697.94824219 3357562.04473877 17.96311188 151 168 160
245697.12609863 3357561.10156250 23.66080475 134 156 144
245696.55316162 3357562.06121826 23.53773308 160 190 178
245695.72241211 3357562.02496338 17.80679703 142 153 137
245698.10668945 3357561.08197021 23.52656555 219 232 222
245697.48461914 3357560.89025879 24.38071823 178 194 191
245696.12237549 3357564.79150391 21.87056923 176 196 184
245696.20587158 3357562.86370850 18.04955292 140 155 134
245700.90356445 3357561.32550049 22.92435074 137 154 146
245701.30877686 3357565.45989990 17.64649010 126 150 128
245695.52508545 3357563.18988037 17.81884956 105 144 53
245701.93994141 3357561.17047119 23.97883606 130 153 147
245698.37347412 3357565.29547119 24.54289436 156 167 169
245701.44262695 3357564.85626221 23.32898521 131 162 118
245697.31146240 3357564.10797119 19.90665627 113 136 120
245695.29046631 3357560.32965088 17.82949829 128 154 55
245697.26928711 3357565.75946045 19.58925056 118 143 124
245701.34082031 3357565.23907471 22.94968414 136 160 138
245701.50726318 3357563.54443359 21.40390587 122 159 115
245701.45178223 3357566.50604248 24.11639786 124 155 149
245697.32476807 3357565.53668213 18.05457687 231 234 223
245696.23004150 3357561.77563477 19.45123863 159 180 147
245701.62738037 3357561.24371338 19.13038445 108 128 116
245697.80902100 3357561.14611816 19.76944351 150 168 154
245696.15441895 3357563.34094238 19.60309601 164 181 165
245699.36706543 3357567.32196045 19.91577148 123 143 132
245697.02215576 3357562.73840332 20.25748634 120 144 131
245697.63787842 3357565.27954102 21.79857063 114 137 129
245696.26904297 3357562.14337158 20.09243965 117 141 93
245701.37200928 3357567.67956543 24.34607315 184 198 183
245696.81188965 3357565.19555664 23.38535309 107 126 120
245699.62280273 3357561.44433594 24.34014130 188 199 195
245697.82098389 3357564.22363281 22.28439140 160 178 166
245701.80255127 3357560.92163086 23.45453835 194 216 214
245696.92706299 3357561.93347168 20.12586021 138 165 146
245701.51824951 3357567.24633789 21.27926064 149 168 162
245701.13916016 3357561.62744141 20.98034286 119 135 124
245695.87597656 3357567.70678711 17.78378487 132 153 97
245696.99774170 3357561.75988770 17.97345543 135 151 138
245701.40393066 3357562.89129639 20.84041023 122 143 126
245696.06732178 3357564.13800049 24.35401154 143 151 138
245698.87188721 3357567.30975342 21.41136551 113 149 111
245701.50439453 3357565.45288086 24.18980980 119 138 132
245697.31427002 3357565.38616943 18.23137283 220 222 211
245701.73339844 3357562.78759766 24.00355148 135 161 134
245699.89581299 3357561.03491211 22.07342529 174 191 181
245697.91674805 3357565.27209473 22.55894852 124 144 133
245699.99157715 3357566.91876221 17.90576744 155 167 163
245698.13928223 3357561.08227539 18.53960609 227 244 228
245697.81188965 3357561.40234375 20.92112160 63 90 75
245697.68426514 3357564.65594482 20.03775406 204 225 206
245701.56378174 3357561.38146973 18.23185349 112 127 122
245701.93267822 3357562.81420898 24.39755058 151 173 160
245697.77386475 3357566.75488281 19.76966476 83 101 85
245696.88208008 3357564.91137695 21.19081497 82 106 93
245697.40515137 3357564.32690430 19.85499573 113 140 123
245701.67376709 3357562.61431885 22.30630302 109 133 111
245699.83038330 3357561.08575439 23.50455666 117 143 130
245696.04376221 3357563.66595459 24.09435654 255 255 255
245698.37774658 3357567.52020264 23.52941322 204 218 205
245696.12988281 3357561.42309570 20.51366997 140 168 154
245697.70935059 3357561.24212646 23.56549454 153 179 168
245700.98120117 3357561.04650879 19.88135910 206 218 216
245697.57269287 3357560.72869873 17.80457306 96 122 59
245699.55560303 3357567.52307129 24.08886147 119 139 128
245700.64715576 3357566.35241699 17.87685394 142 156 139
245697.54010010 3357566.32006836 24.08658981 143 160 150
245700.09832764 3357561.79425049 18.37015152 49 64 57
245697.22528076 3357561.25323486 19.72082138 142 172 146
245697.71447754 3357567.01416016 23.20206642 161 179 163
245701.79418945 3357567.04156494 20.58815002 152 177 174
245699.28131104 3357563.19079590 24.33797455 142 158 155
245699.17614746 3357561.44372559 18.50733757 91 112 105
245697.88586426 3357565.26971436 21.96818542 111 133 121
245701.35772705 3357567.10040283 17.86204338 35 55 46
245698.10101318 3357561.13806152 18.84752846 219 237 223
245696.23858643 3357567.10089111 23.68358612 173 191 175
245700.86254883 3357561.33392334 17.88302040 102 113 99
245701.34838867 3357566.77734375 18.43533134 125 143 131
245701.41918945 3357561.07299805 19.57711983 213 228 221
245699.20483398 3357566.65417480 18.96704483 152 165 145
245699.50915527 3357567.33032227 21.69755173 173 191 169
245696.14208984 3357561.00201416 18.52216530 194 221 204
245700.09033203 3357561.58166504 18.11704826 72 90 76
245701.38830566 3357563.35302734 20.39529800 123 145 133
245695.74072266 3357561.21545410 18.04340935 126 153 108
245696.62561035 3357567.57177734 23.76871109 175 195 170
245698.62347412 3357561.05853271 22.62678909 76 98 86
245697.62982178 3357564.19744873 20.31759453 108 118 107
245695.85174561 3357561.34564209 19.12706566 241 243 240
245700.35205078 3357567.39349365 24.25951195 133 158 152
245701.64782715 3357560.90460205 22.08708763 192 219 214
245701.78454590 3357563.38049316 21.94380951 128 147 128
245697.19586182 3357562.17431641 20.33237267 139 161 149
245697.25909424 3357565.40625000 18.18865967 233 238 216
245697.52258301 3357566.90179443 17.98587608 212 219 211
245701.33703613 3357566.33850098 23.31900978 109 134 105
245696.54547119 3357566.66967773 20.13122559 59 90 59
245696.84484863 3357564.73016357 19.76810074 219 231 219
245695.70788574 3357567.47149658 17.75704384 90 119 37
245697.41143799 3357564.28063965 22.77249336 142 168 155
245696.70202637 3357563.03204346 20.26307678 246 254 241
245700.26074219 3357566.35144043 24.46881866 140 160 151
245695.87030029 3357561.31079102 20.62067604 234 240 238
245701.73321533 3357565.05639648 23.85609627 118 145 114
245697.57061768 3357565.42230225 24.30336571 158 175 167
245696.67303467 3357562.11224365 19.24183083 177 205 190
245697.96325684 3357567.80285645 17.48780060 11 23 11
245701.69244385 3357565.84252930 17.52312279 109 124 121
245695.79003906 3357560.40472412 17.87695503 103 134 30
245701.96307373 3357566.79699707 17.52476692 51 65 66
245701.62341309 3357562.19726563 22.17457771 112 133 116
245700.34619141 3357566.74810791 17.61529160 75 95 84
245696.95281982 3357566.35711670 19.17558098 139 156 137
245701.51550293 3357561.97485352 20.99933243 113 131 115
245696.52020264 3357563.12854004 21.39191246 110 136 125
245701.48291016 3357567.29040527 19.57766724 139 159 150
245701.63964844 3357567.13708496 22.49661255 161 178 170
245698.49395752 3357567.38427734 19.27143669 110 128 106
245700.57989502 3357567.22784424 23.57840157 151 172 153
245698.28259277 3357560.90997314 23.20082283 179 197 185
245696.01593018 3357562.30529785 20.02678871 243 249 249
245696.26947021 3357561.04357910 23.43870544 172 192 191
245701.68542480 3357565.30261230 24.26552010 183 194 188
245701.31884766 3357566.88928223 20.96117592 120 144 122
245701.47692871 3357563.54553223 21.26998138 123 155 118
245697.85345459 3357565.27355957 20.53439903 79 103 90
245696.93475342 3357564.65966797 19.74956131 144 162 150
245701.94006348 3357566.99078369 19.09144783 166 192 183
245696.61895752 3357561.08001709 23.47302055 159 185 172
245695.94952393 3357562.75225830 24.30483627 250 249 245
245701.55816650 3357561.36242676 18.14483833 172 185 168
245700.54565430 3357566.50457764 24.31178093 144 167 159
245701.60015869 3357563.94610596 21.58032608 125 167 121
245696.72216797 3357567.12481689 21.46177673 130 150 122
245695.99780273 3357563.04278564 24.21473503 255 255 255
245697.15454102 3357562.95428467 18.26272202 236 239 220
245700.12677002 3357564.43682861 24.42299843 169 187 173
245698.00665283 3357563.29010010 24.43030739 134 149 144
245695.94134521 3357565.72625732 24.29884338 236 238 227
245698.08752441 3357565.97686768 24.14482117 182 193 185
245696.39923096 3357561.31921387 20.15362930 102 133 99
245696.84698486 3357563.15118408 21.05082893 137 159 146
245700.28228760 3357567.45800781 23.81528854 169 191 170
245697.71240234 3357567.33435059 19.82174110 144 158 143
245700.92687988 3357567.22161865 19.64478874 96 117 110
245701.55737305 3357566.40875244 19.47749519 86 110 94
245701.00756836 3357566.58929443 17.99238777 136 153 137
245697.72570801 3357563.48626709 18.16834068 92 108 97
245697.55572510 3357566.65808105 22.52637100 156 174 160
245699.67468262 3357567.03344727 24.14802551 138 155 147
245697.15527344 3357561.65130615 17.84537125 140 154 139
245696.43743896 3357561.51300049 22.35003471 85 109 83
245696.23590088 3357564.80468750 22.26306343 133 150 132
245696.45294189 3357561.67547607 20.63151741 138 165 124
245695.59887695 3357567.32257080 17.79696846 113 150 54
245697.92926025 3357561.32122803 23.04530907 150 176 165
245696.58325195 3357564.62017822 22.10546875 101 144 99
245696.04730225 3357561.88031006 21.87481117 157 178 173
245701.76025391 3357566.41955566 17.50372696 154 167 160
245696.23571777 3357562.39440918 23.71189690 118 146 132
245697.22631836 3357561.19219971 18.01037979 171 185 162
245698.16357422 3357566.77758789 20.11139488 113 129 118
245699.25726318 3357561.19873047 20.36274147 131 155 141
245700.99133301 3357566.72271729 20.54208755 221 239 223
245698.72814941 3357562.43743896 24.45704651 148 168 159
245696.54760742 3357567.01159668 20.50083542 160 173 156
245697.50067139 3357565.45373535 18.39947510 133 146 126
245700.62799072 3357567.24572754 22.40813255 154 175 166
245701.87335205 3357567.41900635 22.99146843 133 153 144
245700.35931396 3357561.74578857 20.91201782 118 145 130
245695.98327637 3357567.34594727 19.89276314 170 186 176
245697.21997070 3357562.44366455 20.31758118 179 201 188
245701.68066406 3357561.50933838 17.96667290 146 162 151
245701.89367676 3357565.17578125 17.85004807 82 103 104
245699.70568848 3357566.58386230 18.26346779 113 130 120
245696.71478271 3357561.39099121 19.59042931 129 159 125
245698.58557129 3357561.43902588 18.64718056 107 130 122
245700.96734619 3357567.35589600 21.97123337 123 142 136
245697.06518555 3357566.41619873 19.76880646 105 130 109
245701.58599854 3357567.18725586 18.23288345 150 173 163
245701.45483398 3357566.99163818 20.82883644 106 127 112
245701.67279053 3357566.19183350 21.40055466 114 141 108
245701.66955566 3357562.42022705 22.03947449 118 141 123
245696.35235596 3357567.11883545 18.46367455 122 150 128
245697.98333740 3357561.09777832 22.06346512 189 207 191
245697.90850830 3357561.21380615 21.66646004 193 212 193
245701.32397461 3357566.85998535 20.61455917 120 145 126
245696.06414795 3357567.35302734 18.65127754 240 250 239
245698.51031494 3357567.50329590 22.57992935 93 115 103
245698.50134277 3357567.58856201 23.10522079 103 124 115
245695.95245361 3357561.24780273 23.61844063 203 215 203
245701.93872070 3357567.06793213 18.11541939 127 152 149
245697.46423340 3357567.57745361 24.32392311 169 192 184
245701.64062500 3357567.24713135 18.99235535 160 186 177
245697.31726074 3357565.50756836 24.15461159 145 164 158
245701.60693359 3357562.78979492 21.33423615 123 149 120
245701.71832275 3357562.61743164 22.06194878 128 151 133
245696.06414795 3357564.09991455 24.02436829 238 249 245
245696.61450195 3357562.70074463 23.37006187 165 186 177
245701.85906982 3357561.79443359 23.69669914 129 152 124
245697.78161621 3357565.85278320 20.41206551 118 140 127
245701.35156250 3357563.11962891 20.43094444 136 157 148
245697.76214600 3357561.17358398 21.97935486 191 212 197
245695.86132813 3357561.31127930 20.21214485 232 244 234
245697.63293457 3357567.28057861 19.60322189 179 192 175
245701.60229492 3357567.46606445 21.67003632 135 150 143
245697.13146973 3357566.89996338 22.60134506 144 167 139
245701.82385254 3357567.51159668 23.98203087 149 170 151
245698.90966797 3357566.82305908 17.89824104 141 158 150
245696.19024658 3357561.00799561 21.72972298 168 199 191
245700.62200928 3357567.24694824 17.93941498 181 203 201
245701.25140381 3357562.73461914 17.86306572 85 102 94
245698.20861816 3357567.25848389 22.22510910 135 145 137
245700.02490234 3357566.97222900 21.24293900 174 189 170
245701.47100830 3357567.00177002 20.84483910 136 156 147
245700.96936035 3357565.51776123 17.69880676 121 134 116
245696.91912842 3357561.72424316 24.49445343 172 188 187
