246111.43017578 3357580.01879883 14.06680298 146 154 165
246113.00109863 3357581.30395508 13.42378521 88 88 88
246111.46203613 3357578.45306396 14.73521614 111 113 110
246111.84411621 3357580.67980957 14.44256878 221 221 221
246109.84313965 3357575.90191650 14.42506218 159 165 165
246110.10058594 3357577.62695313 13.75874424 214 209 205
246110.25793457 3357577.86743164 13.96811771 146 147 151
246111.01586914 3357580.21594238 13.35663986 185 178 170
246111.19982910 3357579.42645264 14.65989113 94 104 106
246114.08276367 3357585.15582275 13.56132603 152 152 142
246113.23474121 3357582.31500244 14.94229507 159 161 150
246109.59350586 3357576.92810059 15.12668419 210 204 204
246111.19628906 3357579.40332031 14.83639336 88 95 101
246109.55212402 3357574.56072998 14.87812519 166 168 165
246111.75793457 3357581.81903076 13.33416939 178 171 153
246110.96777344 3357578.13348389 14.02005100 155 158 149
246112.35302734 3357581.96118164 14.47797489 229 236 228
246110.95495605 3357578.11834717 14.08307838 152 158 148
246114.97375488 3357585.27850342 13.56232071 101 95 95
246110.83081055 3357577.15386963 13.48488808 73 74 76
246113.42126465 3357582.76043701 15.08927917 142 120 109
246113.90466309 3357583.32946777 13.68669128 98 100 99
246110.70446777 3357578.76593018 13.51030827 229 222 214
246111.36291504 3357579.90917969 14.18713665 188 196 207
246111.83728027 3357580.71453857 14.05205822 223 225 224
246113.35339355 3357583.73406982 14.62357426 241 240 236
246112.74523926 3357581.17102051 14.77897644 149 152 145
246114.69836426 3357584.66784668 14.45075607 203 206 213
246110.65124512 3357577.87200928 14.08291531 115 121 117
246110.61572266 3357578.47027588 14.63207817 174 174 182
246110.45300293 3357577.96716309 14.33240795 144 153 152
246112.53552246 3357582.29327393 13.51910686 226 222 211
246112.79833984 3357583.27258301 13.46602726 242 241 236
246113.77819824 3357582.77038574 13.32972527 100 101 96
246110.87231445 3357577.24694824 15.10093403 154 151 144
246113.91418457 3357584.44561768 15.05594635 246 242 233
246111.03027344 3357579.23889160 14.26423645 122 121 126
246110.94165039 3357578.82727051 15.16398621 141 135 135
246114.46728516 3357585.59222412 13.66844559 160 157 152
246111.95410156 3357580.09429932 15.11933804 216 210 210
246110.43481445 3357578.42779541 13.38819122 183 179 170
246113.66381836 3357582.93811035 14.39764118 154 159 155
246110.03869629 3357577.10681152 15.15873241 198 173 179
246111.18969727 3357578.16900635 13.84652901 107 109 108
246114.95019531 3357585.29125977 13.91958332 124 120 119
246112.22546387 3357581.49334717 14.85249329 143 144 139
246114.02429199 3357583.46398926 14.47031021 133 137 138
246109.23168945 3357575.65325928 13.55516148 159 161 160
246111.77685547 3357581.86248779 13.33556843 176 169 151
246114.18920898 3357583.66064453 13.93871593 103 103 103
246110.26916504 3357576.64428711 13.87982559 73 78 81
246113.19836426 3357582.32092285 15.08356667 116 109 101
246114.44140625 3357584.28576660 13.53330326 102 102 100
246112.23632813 3357579.88201904 13.63589573 129 129 129
246114.44433594 3357584.29602051 14.15414429 130 132 131
246113.63964844 3357583.83502197 15.08959579 129 129 127
246109.34667969 3357575.82177734 14.18720055 80 84 87
246108.56164551 3357574.76263428 14.26450443 163 165 162
246112.99914551 3357581.42266846 14.73098946 155 155 155
246112.38366699 3357582.12713623 13.43516922 239 222 204
246109.66662598 3357575.57617188 13.45331001 97 101 104
246111.61450195 3357581.62713623 13.34644794 183 176 160
246112.92297363 3357581.37725830 14.61837959 86 86 86
246112.21582031 3357579.66912842 15.00616169 151 150 145
246109.91870117 3357575.03002930 13.65779495 92 94 93
246109.64538574 3357577.04949951 13.52082157 147 134 126
246112.02404785 3357581.34588623 13.37820148 190 178 162
246109.19799805 3357575.55126953 14.35181999 77 82 85
246114.50170898 3357584.02416992 13.36422539 117 116 112
246113.09387207 3357581.61248779 14.51413155 166 175 180
246114.06555176 3357585.29510498 13.33900547 121 114 104
246109.26098633 3357574.29949951 13.99554729 174 176 173
246110.13513184 3357577.12078857 15.18472099 202 197 201
246109.38867188 3357574.99176025 13.62805271 72 76 77
246109.01147461 3357575.44122314 13.55447006 117 114 107
246110.22033691 3357576.12139893 13.45419216 91 93 92
246110.67968750 3357577.99963379 13.97705936 73 75 70
246110.28076172 3357576.74993896 14.34808064 120 122 119
246109.58691406 3357574.68096924 14.42080021 124 125 127
246109.75268555 3357576.62500000 15.18428040 149 158 165
246113.61950684 3357584.26531982 14.87503529 229 226 221
246109.07617188 3357574.21502686 13.66851711 232 227 223
246109.22619629 3357575.04772949 15.22415447 181 178 173
246109.43762207 3357575.55035400 13.44160843 96 101 104
246109.64221191 3357575.90704346 13.51216793 157 157 157
246108.96520996 3357574.36798096 14.89764500 233 230 225
246111.04858398 3357579.23852539 14.30939770 84 88 89
246110.66296387 3357578.09521484 14.85852814 90 95 98
246114.33276367 3357585.54034424 14.02277660 104 106 101
246108.72131348 3357575.18115234 14.02883434 134 139 143
246112.88391113 3357583.60681152 13.58654308 239 235 206
246114.37426758 3357585.56927490 14.03594780 144 144 142
246112.54882813 3357580.40960693 15.10776234 221 214 204
246113.26647949 3357581.92834473 14.81750011 133 135 132
246110.35266113 3357578.76983643 13.39943123 129 128 126
246111.19995117 3357579.53424072 14.04818916 224 232 235
246111.52575684 3357578.53479004 15.00194263 143 140 131
246112.34692383 3357581.94433594 14.05924892 231 236 229
246112.64270020 3357580.90985107 15.03796482 206 210 219
246110.80261230 3357577.48175049 15.15401363 173 172 167
246114.72692871 3357584.65716553 14.25421238 112 117 123
246111.45324707 3357579.46343994 15.12109947 202 196 206
246110.62890625 3357578.39508057 14.21191311 221 221 229
246113.38439941 3357583.79974365 14.86783314 227 224 219
246109.12182617 3357575.51391602 14.37441540 118 123 116
246111.82299805 3357580.70733643 13.81468678 224 223 218
246114.33312988 3357583.55108643 13.34249687 98 97 95
246114.19213867 3357584.56396484 15.02091217 232 227 221
246113.25708008 3357582.59484863 15.08601952 141 141 139
246114.05212402 3357585.08111572 13.65870380 189 189 179
246110.81201172 3357579.08892822 14.41687584 138 146 157
246109.10827637 3357574.26879883 14.04069328 217 218 213
246113.90734863 3357583.33197021 13.63280964 84 86 85
246113.34582520 3357582.44616699 14.61683750 109 110 104
246109.84680176 3357575.92889404 13.87435246 152 157 160
246109.20019531 3357575.56164551 14.29347038 75 83 85
246110.31359863 3357577.94659424 14.79687214 211 217 215
246114.34484863 3357585.52679443 14.65293026 137 138 133
246113.27270508 3357582.44506836 15.10467720 194 191 184
246114.99902344 3357585.07482910 13.68244839 74 78 79
246112.17602539 3357581.30133057 14.45206261 167 169 168
246112.95129395 3357580.78582764 13.38909340 83 83 83
246110.65185547 3357578.26110840 14.71088982 131 134 139
246114.40466309 3357583.97705078 15.01282883 150 133 123
246111.23022461 3357580.53808594 13.35899734 187 178 169
246110.41650391 3357576.82165527 14.52733135 117 119 116
246110.04638672 3357577.75964355 13.39439964 201 192 183
246110.86401367 3357578.02813721 14.29963207 46 50 49
246109.38037109 3357575.91870117 13.79402161 128 130 125
246114.23937988 3357585.81829834 13.27104282 149 145 142
246109.53601074 3357576.92102051 14.94405746 199 197 198
246113.77343750 3357583.12573242 15.06997776 248 244 243
246111.03344727 3357578.34454346 15.14871120 199 203 202
246109.12426758 3357575.38195801 14.40411091 122 128 124
246111.80395508 3357580.59210205 14.84382153 212 213 208
246113.01452637 3357583.39514160 14.37884712 236 237 241
246110.10754395 3357576.00701904 14.21632385 89 94 98
246114.21948242 3357583.70666504 14.62552452 152 153 148
246111.29284668 3357579.16210938 15.13262463 130 132 131
246110.60266113 3357578.20788574 13.62240219 90 79 77
246113.53466797 3357582.71582031 13.71467400 145 147 144
246110.84155273 3357577.28173828 13.71542549 56 61 65
246112.75463867 3357582.92590332 13.96424007 129 132 123
246112.59924316 3357580.40100098 14.63913631 156 168 182
246113.19262695 3357582.05798340 15.08846664 221 210 206
246113.68652344 3357582.87597656 15.05584431 187 179 168
246109.63696289 3357575.68762207 14.72449112 181 183 182
246109.64941406 3357574.71417236 15.16035557 214 213 209
246110.91345215 3357579.18865967 14.28428364 178 178 186
246113.60046387 3357582.79937744 14.11436272 147 148 142
246112.75207520 3357582.60375977 14.89855099 209 206 199
246109.28576660 3357576.58160400 13.92554188 117 118 120
246114.35827637 3357585.52709961 15.04352951 214 205 200
246112.66931152 3357581.78564453 15.10361576 145 145 143
246113.65893555 3357582.90039063 14.74007511 169 170 162
246110.80688477 3357577.23181152 14.15735245 65 72 82
246114.91442871 3357584.92712402 15.04144382 181 167 158
246110.56689453 3357579.17797852 13.38724995 183 180 173
246109.48059082 3357574.97839355 14.34973812 52 57 61
246113.02575684 3357583.62664795 13.51607895 91 88 43
246113.18298340 3357581.80853271 14.10184193 55 62 68
246111.63574219 3357580.30737305 13.82727146 181 175 179
246112.15405273 3357581.23437500 13.62023830 197 206 201
246110.82556152 3357577.25518799 14.22550774 61 70 79
246112.84765625 3357581.55780029 15.08884621 144 144 142
246115.02160645 3357585.26287842 14.93237495 167 164 157
246113.10156250 3357583.08935547 15.08510780 212 208 209
246110.17297363 3357576.15447998 13.66865540 52 56 55
246111.82885742 3357581.08551025 13.32927418 206 194 178
246111.05065918 3357579.24169922 14.49251938 108 108 110
246114.06469727 3357585.10302734 13.87212944 202 202 194
246112.40686035 3357581.07269287 15.09701729 172 180 182
246110.86218262 3357578.84521484 15.16818714 146 129 119
246108.74768066 3357574.54193115 14.03205872 230 229 225
246112.06384277 3357581.11035156 14.76487255 228 226 229
246112.53466797 3357582.27789307 13.89487648 160 162 157
246113.93701172 3357584.98370361 13.56164455 134 131 124
246110.73205566 3357577.13623047 14.77550220 194 202 204
246109.73754883 3357576.01580811 15.18121815 192 176 163
246113.60717773 3357584.25927734 14.39853764 245 253 255
246114.19726563 3357585.29187012 13.59118080 194 185 180
246109.80981445 3357577.34082031 13.47127056 180 167 158
246108.62841797 3357575.32690430 13.58411694 110 112 107
246112.47119141 3357582.19879150 13.49698830 251 239 225
246113.13439941 3357582.26800537 15.09990215 136 128 125
246112.18054199 3357581.27954102 13.82859898 181 186 189
246114.52258301 3357585.59600830 15.04333591 188 183 177
246114.02624512 3357583.46606445 14.47181034 133 137 138
246111.96911621 3357579.36529541 14.80538177 154 157 148
246112.54626465 3357582.28833008 14.73644543 206 212 202
246111.25903320 3357578.18646240 13.85000324 141 142 144
246110.43469238 3357576.74243164 15.04006672 126 127 121
246110.78564453 3357578.98895264 13.63467884 218 210 208
246111.63525391 3357579.08258057 14.80175209 65 66 61
246111.26281738 3357578.16430664 13.65185165 140 141 143
246110.77563477 3357578.98889160 14.54580021 236 243 251
246109.80017090 3357577.31555176 13.46465492 188 175 167
246112.43029785 3357582.09387207 14.56341648 195 200 193
246112.65625000 3357582.76226807 13.44016933 185 178 152
246112.79394531 3357580.93511963 15.08624935 236 228 225
246108.66503906 3357575.11053467 14.27396965 67 72 75
246109.42309570 3357576.17059326 14.88618279 207 211 212
246111.64245605 3357580.30151367 15.07134151 214 208 210
246110.05395508 3357577.57202148 13.70861721 230 222 219
246110.16540527 3357577.72735596 13.86670971 159 158 154
246109.41394043 3357575.83502197 14.48510456 98 103 107
246112.80065918 3357582.97717285 13.71829224 150 153 136
246109.24890137 3357576.28240967 13.57960320 177 178 173
246111.73510742 3357579.20812988 13.93940735 128 130 129
246112.63842773 3357580.48089600 14.59997940 152 164 176
246111.56835938 3357578.87493896 14.52657986 132 137 131
246112.37121582 3357581.52111816 15.08204746 209 204 200
246115.02026367 3357585.15344238 14.28503990 155 155 155
246110.80651855 3357579.06414795 14.60288525 222 222 230
246110.42309570 3357576.76513672 14.99297810 119 120 112
246108.57165527 3357574.78985596 14.99083042 170 169 165
246112.10107422 3357582.34924316 13.29118824 177 168 151
246112.20532227 3357582.43695068 13.28968048 183 174 159
246110.53051758 3357578.05249023 13.66221333 116 117 119
246114.66735840 3357585.54449463 14.14804649 116 114 115
246110.64233398 3357578.33197021 15.02810383 210 210 212
246113.28112793 3357581.93603516 13.43798161 100 100 98
246115.02868652 3357585.21374512 14.74829483 143 139 136
246112.05749512 3357579.52307129 15.14702606 188 179 170
246112.74243164 3357581.12451172 13.92568588 97 97 95
246113.73913574 3357582.43859863 13.29706478 109 108 106
246114.43066406 3357584.75769043 15.07017708 155 159 158
246114.91113281 3357584.94409180 13.62100124 78 81 86
246112.77111816 3357582.11004639 15.06550217 140 136 133
246110.22790527 3357576.60253906 14.11309719 88 92 95
246108.69409180 3357575.06689453 15.23326302 181 183 182
246111.39123535 3357580.58117676 13.35517120 197 188 179
246112.15795898 3357579.61254883 15.13549042 182 178 169
246111.95544434 3357580.49560547 15.10735893 201 202 197
246111.55212402 3357578.95556641 13.80082130 124 126 121
246112.92858887 3357583.29687500 14.64783573 234 234 242
246110.48046875 3357576.86315918 13.80743313 120 128 130
246112.56555176 3357582.31695557 14.80144024 240 246 234
246114.11584473 3357583.55914307 14.57916737 89 91 88
246112.47924805 3357581.77355957 15.10336494 149 140 143
246114.29516602 3357583.86279297 14.36199760 160 163 156
246113.80664063 3357582.83850098 13.33401299 102 103 98
246111.51367188 3357578.63775635 14.43091965 131 137 133
246109.41027832 3357576.78503418 14.34032726 148 148 150
246109.38647461 3357575.89965820 14.23598289 35 46 32
246110.91894531 3357577.55737305 14.07215881 127 132 136
246113.85278320 3357583.36816406 14.61141777 106 108 105
246113.16552734 3357581.78454590 13.85343361 45 54 61
246114.26586914 3357585.42089844 13.87337112 132 134 129
246109.18823242 3357575.19207764 13.58926392 66 70 73
246110.77050781 3357578.47692871 15.18043518 151 143 141
246110.70800781 3357577.85803223 15.14369392 143 141 144
246109.56591797 3357576.91601563 13.83855152 191 187 186
246112.81311035 3357580.86175537 14.10264492 34 45 51
246113.99316406 3357585.03411865 14.97674656 176 168 155
246110.25451660 3357578.17858887 13.40573406 183 174 169
246112.98364258 3357581.44329834 14.58116150 135 136 140
246111.52929688 3357580.18792725 14.62069893 196 194 207
246113.85754395 3357585.03887939 13.49377441 102 99 92
246110.63452148 3357577.01086426 14.68138027 213 218 221
246111.32885742 3357579.83587646 14.02493668 176 181 187
246113.48901367 3357584.41815186 13.72473049 99 92 82
246108.77709961 3357574.06988525 13.45685482 198 181 171
246109.24658203 3357575.42340088 14.57596970 69 75 75
246109.39709473 3357575.03448486 13.93486691 59 64 68
246108.48730469 3357574.70727539 13.59143353 138 128 116
246114.07836914 3357585.30218506 13.34498978 121 114 104
246111.26733398 3357579.72082520 14.06485939 163 174 180
246112.96679688 3357583.33337402 14.96279144 222 209 201
246111.96899414 3357579.53228760 15.14370441 189 190 185
246111.73840332 3357580.39813232 14.26837730 43 43 41
246109.51440430 3357576.89221191 15.08119869 242 236 238
246113.08959961 3357582.39331055 15.09057331 183 178 174
246109.17675781 3357575.48107910 13.48839664 126 130 131
246111.33728027 3357579.86108398 13.56016350 233 222 220
246114.22143555 3357583.71881104 14.13413620 153 154 149
246112.95751953 3357583.32879639 14.73456287 237 236 242
246113.81420898 3357583.33868408 14.59233570 98 100 97
246110.25598145 3357577.87634277 14.52303410 137 146 145
246109.34533691 3357574.35418701 15.11930656 151 153 152
246114.95947266 3357584.75372314 13.29968262 105 104 100
246109.73571777 3357576.97515869 14.57862568 97 98 100
246110.31372070 3357577.01672363 15.18992424 210 216 206
246112.09204102 3357581.14916992 13.75520897 154 160 158
246114.04187012 3357585.54583740 13.25934315 154 153 149
246109.90673828 3357577.21246338 15.09489441 237 231 235
246112.51464844 3357580.00976563 13.38449669 74 74 74
246110.76318359 3357579.04925537 13.48134422 164 154 145
246109.74597168 3357575.91711426 14.90787506 238 238 240
246109.61608887 3357575.93188477 14.65154171 227 236 241
246112.62365723 3357582.43121338 14.27075577 116 117 112
246111.40771484 3357578.78643799 15.11933994 185 184 179
246113.40039063 3357583.84344482 14.83146286 224 221 216
246111.50952148 3357578.60186768 14.45954514 138 145 138
246112.68261719 3357582.79064941 14.48653984 150 153 146
246113.54980469 3357582.65753174 14.90610695 171 167 156
246112.98693848 3357583.86553955 13.67483521 155 148 122
246113.47436523 3357582.84313965 15.08958340 218 211 203
246109.96997070 3357577.41326904 15.00360680 205 201 198
246113.52258301 3357583.91094971 15.10985279 173 152 133
246113.14562988 3357583.87634277 13.57153416 169 165 156
246110.35229492 3357578.54388428 13.37559223 155 154 149
246112.98828125 3357581.45288086 14.20307636 38 43 49
246114.56774902 3357584.52301025 13.68241787 108 113 117
246110.40393066 3357576.80969238 13.80586433 62 64 63
246110.64282227 3357578.40765381 13.93237019 192 191 196
246115.01928711 3357585.15661621 14.28502178 155 155 155
246114.31433105 3357583.94378662 14.11913681 163 164 158
246110.53271484 3357578.00726318 14.13156414 110 115 119
246109.45129395 3357575.98962402 14.45344067 127 137 147
246110.23901367 3357576.17797852 14.15621758 81 86 89
246109.28930664 3357574.19946289 13.60940456 115 110 104
246114.46740723 3357584.26892090 14.96800804 208 205 200
246111.30700684 3357577.76239014 13.38642406 87 89 88
246109.31738281 3357574.63189697 15.18393803 155 154 159
246114.48242188 3357584.37597656 13.94831276 79 83 84
246109.03723145 3357575.40545654 13.81074238 84 90 90
246109.90551758 3357577.25244141 14.86004066 222 220 223
246110.29162598 3357576.31842041 14.21889782 98 102 105
246113.72985840 3357583.01745605 14.79954052 142 142 134
246114.06164551 3357585.07159424 14.27402115 172 175 166
246108.84619141 3357574.47290039 14.62667465 233 231 232
246109.71398926 3357576.97839355 14.05765343 82 80 81
246113.17858887 3357583.53698730 14.33617401 99 99 97
246112.84350586 3357583.14953613 14.81498051 213 216 221
246111.34228516 3357577.84289551 13.39465332 95 97 96
246110.89648438 3357578.11743164 13.60085106 172 175 166
246114.51635742 3357584.46368408 14.72748852 161 160 158
246109.79162598 3357577.58929443 13.45083332 130 123 115
246108.92578125 3357575.18640137 15.22012043 203 202 200
246113.14624023 3357581.02117920 13.36608791 110 112 107
246113.03625488 3357581.53100586 13.66610813 44 45 50
246109.57995605 3357575.63989258 14.69259834 121 123 120
246109.31835938 3357575.04772949 15.22860909 203 198 192
246110.19299316 3357578.01123047 13.40028095 176 166 157
246112.07043457 3357579.79150391 15.11766434 196 197 199
246110.74414063 3357577.08422852 15.09843826 165 161 149
246109.30566406 3357574.29376221 13.79844093 155 156 150
246111.85986328 3357580.74279785 14.34320545 223 225 220
246113.15600586 3357581.43872070 13.38642597 66 68 67
246111.08190918 3357578.14709473 14.08447933 148 154 144
246110.42907715 3357578.46765137 13.38080406 185 180 174
246109.34472656 3357574.39556885 14.66915512 121 120 125
246113.01464844 3357583.39923096 14.59408283 241 244 249
246109.58093262 3357574.42938232 13.57210922 104 104 96
246108.46838379 3357574.90728760 13.98381042 157 156 154
246113.81359863 3357582.56182861 13.29866886 114 113 111
246112.74841309 3357580.73242188 14.00662327 52 65 73
246112.24096680 3357581.70733643 14.98121452 210 207 192
246110.19458008 3357576.12426758 13.46671677 91 93 92
246110.88000488 3357577.65264893 13.87373352 82 86 89
246114.96179199 3357585.52209473 13.49246407 114 112 113
246113.28234863 3357582.11358643 15.02183914 178 178 168
246114.94433594 3357584.98345947 13.59915161 71 74 79
246110.54211426 3357578.38055420 13.46591091 204 191 183
246109.97290039 3357575.92230225 14.56119156 156 162 162
246110.33569336 3357576.66619873 15.08536148 71 68 61
246112.73242188 3357580.62237549 14.26892376 48 57 64
246110.53417969 3357577.23608398 15.18586063 160 161 165
246109.46386719 3357575.92095947 14.26186848 111 116 112
246109.61950684 3357574.81451416 15.17316151 172 171 167
246114.97509766 3357585.02581787 14.48733521 142 141 147
246114.64001465 3357584.60607910 13.74812412 68 76 79
246114.76440430 3357584.69427490 14.82590389 184 179 176
246110.63574219 3357578.38299561 14.86638451 235 238 243
246110.75451660 3357578.10992432 13.70843220 163 163 153
246113.10400391 3357581.65820313 13.83343029 111 118 124
246111.09118652 3357577.20031738 13.40900135 58 59 63
246110.80285645 3357579.45672607 13.35188770 181 174 164
246110.25854492 3357577.87799072 14.40980434 146 155 152
246109.28820801 3357575.45935059 14.57216835 83 84 89
246110.85571289 3357578.82958984 15.16852856 182 164 152
246113.79174805 3357584.52392578 14.17984390 124 126 125
246111.96289063 3357579.73699951 15.12541389 140 145 148
246114.68859863 3357584.21441650 13.29738617 117 116 114
246114.98937988 3357585.05462646 14.75382900 177 173 172
246109.11547852 3357575.52020264 13.57213974 116 117 119
246108.78405762 3357574.54150391 15.02196026 226 223 216
246109.00927734 3357575.36871338 13.90398026 110 115 118
246114.10583496 3357583.54266357 13.70484543 95 99 100
246110.22021484 3357575.52026367 13.53623486 122 123 125
246114.27661133 3357583.69293213 13.45402813 130 132 127
246111.34228516 3357577.94049072 13.39984608 92 93 95
246111.73339844 3357579.16925049 13.65089321 113 117 118
246109.71545410 3357576.98065186 14.12694836 80 79 77
246109.23779297 3357575.63372803 13.55883980 153 152 148
246111.64526367 3357578.68469238 13.40867710 67 67 67
246110.91979980 3357577.58624268 14.19911194 131 136 140
246111.67834473 3357579.19390869 15.10397339 221 211 212
246110.88598633 3357579.19439697 14.03628922 217 214 223
246112.79882813 3357580.99346924 13.98317623 95 96 98
246110.02124023 3357578.01025391 13.45136642 153 146 138
246114.03967285 3357584.80596924 15.03464603 185 177 166
246108.98510742 3357574.37347412 14.54204845 235 231 228
246110.77685547 3357579.02593994 14.33536434 138 150 166
246109.79858398 3357577.03259277 13.73130226 55 56 51
246108.38281250 3357574.83831787 13.68512440 134 136 133
246113.78857422 3357583.23797607 14.43196106 144 148 147
246112.80737305 3357582.43969727 15.05344105 143 138 134
246108.98596191 3357575.35028076 14.20443726 133 139 139
246112.35534668 3357582.41107178 13.32073021 206 189 169
246109.90356445 3357577.21856689 13.82326221 218 214 211
246110.63439941 3357578.31976318 14.58724499 186 186 194
246111.88391113 3357579.40252686 15.13891697 146 152 150
246110.58825684 3357576.36584473 13.45282841 89 93 96
246112.81945801 3357581.02502441 15.09084225 212 201 197
246110.48767090 3357578.03765869 13.83349419 123 127 130
246111.75842285 3357579.22271729 14.42638874 140 143 136
246111.79479980 3357580.07043457 15.12069416 201 209 211
246113.73583984 3357583.92608643 15.08325481 135 135 133
246109.84814453 3357575.90020752 14.55776405 164 169 172
246110.91699219 3357577.57263184 13.76141930 91 97 97
246109.55505371 3357576.04779053 14.62343216 204 214 226
246113.00952148 3357583.26501465 15.10634613 255 243 234
246109.32238770 3357575.05603027 13.64008141 80 85 88
246109.83898926 3357576.78460693 15.16843891 215 201 192
246111.37744141 3357578.21923828 14.98492813 147 149 144
246109.68603516 3357574.88812256 13.60759258 56 54 55
246114.36242676 3357584.10614014 14.33648396 171 172 167
246112.74328613 3357582.77716064 15.07027912 255 255 243
246111.60351563 3357579.03637695 14.55403805 121 123 118
246111.36950684 3357578.85491943 15.10858154 173 177 178
246109.46801758 3357574.95013428 13.89951706 59 62 67
246109.08886719 3357575.33837891 14.04324436 103 109 105
246109.96484375 3357575.24072266 13.55841541 102 103 105
246112.28015137 3357581.83172607 14.44069004 218 223 216
246112.61474609 3357580.44464111 13.52125263 77 78 82
246108.50720215 3357574.90960693 14.83799267 143 149 149
246110.05493164 3357575.93713379 14.96058083 172 174 173
246114.06787109 3357585.09960938 13.70275879 210 210 202
246114.45446777 3357584.32946777 14.20526791 124 126 123
246113.92517090 3357584.69665527 14.52874184 51 53 48
246108.75415039 3357575.34930420 14.94777298 124 128 127
246111.64648438 3357579.85888672 15.13982677 167 165 168
246113.80358887 3357584.32879639 15.07193184 147 134 125
246111.29272461 3357578.13879395 13.53920460 132 132 132
246109.17626953 3357574.30010986 14.51099014 197 197 197
246112.39550781 3357582.06628418 14.20453167 228 231 224
246111.09216309 3357578.87048340 15.15531254 164 171 177
246113.87121582 3357582.59448242 13.29268837 113 112 110
246113.88378906 3357584.63171387 14.86100864 59 62 55
246112.84411621 3357581.23809814 15.09789562 192 181 177
246114.46691895 3357584.32940674 14.90404987 106 107 101
246111.34204102 3357580.05718994 13.41593647 195 183 171
246109.12402344 3357575.46264648 14.30426407 82 93 89
246109.93457031 3357575.87274170 15.10387993 193 191 192
246110.75488281 3357578.90930176 13.68640709 187 183 184
246112.08374023 3357579.50726318 14.79518986 144 149 145
246114.80432129 3357585.44311523 14.57100964 113 112 108
246110.70227051 3357577.32775879 15.18473244 160 155 159
246110.39355469 3357578.28198242 13.40298653 187 180 174
246114.53540039 3357584.44848633 14.10755444 131 135 138
246110.77563477 3357577.91705322 15.11470127 181 181 189
246114.81286621 3357584.72326660 13.39976025 127 126 122
246110.74829102 3357577.12268066 14.33006191 63 74 80
246113.90319824 3357583.33123779 14.12640762 71 73 72
246112.47143555 3357582.14453125 15.01520061 231 222 207
246110.82983398 3357577.25726318 13.75101662 52 57 61
246110.38635254 3357576.57092285 15.11116314 114 114 114
246114.27685547 3357585.42596436 13.64572811 149 149 137
246112.35302734 3357580.06512451 15.09622860 134 131 126
246111.95666504 3357580.92321777 14.84231758 232 233 227
246110.74108887 3357577.14801025 14.78270817 194 202 204
246112.99719238 3357581.62170410 15.09846878 174 161 153
246112.84265137 3357583.11541748 14.55626011 239 244 248
246112.39599609 3357580.20910645 14.63749409 133 137 136
246109.45410156 3357576.11163330 13.85986042 57 58 62
246111.96337891 3357580.97155762 13.78963947 214 220 210
246110.23791504 3357576.14404297 14.63880920 91 97 97
246112.17761230 3357581.30767822 14.56795120 169 173 172
246113.22045898 3357582.17346191 14.27465439 119 124 120
246114.30798340 3357584.93231201 15.06643105 138 137 135
246108.58361816 3357574.72619629 13.94632530 203 205 202
246109.18859863 3357574.30889893 14.54419899 199 199 199
246114.39526367 3357585.57678223 14.68414021 182 182 180
246114.52111816 3357585.58459473 14.36091042 135 134 132
246109.27770996 3357575.65478516 13.52398682 150 150 148
246109.34765625 3357576.13482666 14.43658447 40 50 60
246109.39343262 3357575.78918457 13.75988293 110 112 111
246112.96887207 3357582.65087891 15.07783699 181 176 172
246113.42395020 3357584.30694580 13.70214272 238 236 239
246112.47546387 3357580.27600098 13.81796551 53 56 63
246112.67504883 3357580.53851318 14.36385918 137 147 156
246111.51538086 3357580.19335938 14.43353558 190 190 198
246114.54577637 3357585.65020752 13.41665649 68 64 61
246110.46472168 3357578.55975342 13.37444115 194 187 181
246113.70520020 3357583.09765625 15.08531094 223 218 212
246109.44018555 3357575.85192871 13.59462070 128 128 126
246112.00756836 3357579.76495361 15.12119675 171 176 180
246110.98889160 3357577.49664307 13.52203465 106 111 107
246109.16381836 3357576.38989258 13.70086861 172 172 172
246110.25683594 3357576.52593994 14.23010445 125 129 130
246111.59167480 3357580.26214600 14.69036674 186 183 194
246112.32897949 3357581.89392090 14.94765663 238 228 216
246109.72302246 3357575.94848633 13.85153580 130 134 137
246114.84118652 3357584.85498047 13.62042713 73 76 81
246110.87158203 3357577.67950439 14.73845291 107 112 108
246110.28686523 3357577.92120361 14.80481148 211 217 213
246114.28198242 3357585.16918945 15.07911015 189 179 167
246114.48449707 3357584.62023926 15.07006645 227 225 226
246112.32312012 3357580.08349609 15.10525703 124 119 113
246111.09765625 3357579.26843262 14.12905979 69 69 71
246113.81372070 3357584.98547363 13.53539562 229 228 223
246111.85803223 3357580.63287354 15.10726452 240 233 223
246110.01086426 3357575.12951660 13.57820320 112 113 115
246110.04614258 3357575.96209717 14.57895088 91 95 96
246113.63244629 3357582.78637695 13.45866489 129 132 125
246112.49829102 3357580.25195313 15.11708927 195 192 185
246110.86389160 3357577.87377930 13.43680763 104 106 101
246111.36914063 3357578.22998047 13.57907391 86 87 89
246112.85107422 3357583.11328125 14.32965374 153 154 148
246114.02197266 3357583.43505859 13.82654667 140 146 146
246114.17175293 3357583.63372803 13.70399380 102 104 103
246112.08813477 3357581.65930176 13.38966942 192 180 164
246110.64746094 3357578.24487305 14.32520866 85 85 87
246109.89831543 3357575.93103027 13.98869228 101 105 108
246114.71862793 3357585.38067627 15.04370403 239 230 221
246114.30505371 3357585.46582031 14.64731884 113 115 110
246112.87927246 3357581.14025879 13.44143295 61 61 61
246108.98632813 3357575.38916016 15.06549358 151 152 147
246109.17761230 3357574.26983643 14.05123043 191 193 188
246115.01416016 3357585.12750244 14.63072586 147 147 147
246111.00244141 3357579.22094727 14.30346966 143 144 149
246109.32385254 3357574.38043213 14.62765789 127 128 132
246110.33703613 3357577.93640137 14.88811207 210 212 211
246113.78002930 3357583.82336426 15.07986259 126 128 127
246111.98071289 3357580.95989990 14.57471943 213 215 214
246112.71374512 3357582.91729736 13.43907070 210 198 172
246113.83264160 3357583.22344971 13.52539825 58 59 54
246112.00048828 3357581.01757813 13.55797672 246 240 226
246113.71716309 3357583.00231934 14.75632191 165 167 162
246110.53588867 3357577.15563965 15.18870068 156 159 164
246111.48535156 3357580.81982422 13.34369564 199 190 181
246114.67773438 3357585.53649902 14.05277252 124 122 123
246109.84973145 3357577.13439941 14.90127277 64 68 67
246111.36340332 3357580.21221924 13.38979244 203 189 180
246113.24987793 3357583.86199951 13.54992962 183 179 170
246110.62536621 3357578.49237061 14.12362289 139 142 149
246110.18566895 3357577.76770020 15.10073471 228 220 209
246111.89550781 3357580.81195068 14.67128086 222 223 217
246113.17114258 3357582.21661377 13.89613342 110 112 109
246112.95715332 3357582.02813721 15.00419426 181 181 179
246113.27575684 3357583.70550537 13.48808670 99 96 81
246113.04736328 3357583.82427979 13.60420036 99 91 70
246111.55444336 3357578.83776855 14.46181393 131 138 131
246109.57495117 3357577.33752441 13.49492741 94 92 80
246113.19226074 3357581.78063965 14.26300240 52 56 65
246110.14965820 3357576.04077148 14.82254505 109 115 115
246110.78369141 3357577.89703369 14.41225052 81 90 87
246112.82983398 3357580.75689697 15.09690094 159 149 139
246109.38464355 3357576.20489502 14.92033386 215 215 215
246108.87194824 3357573.92547607 13.46446514 192 174 162
246113.77221680 3357583.14703369 13.75533104 120 124 123
246111.66613770 3357580.34130859 13.87756824 142 138 139
246112.17626953 3357579.90911865 15.10498714 192 188 187
246114.02050781 3357584.92950439 15.05366421 237 222 215
246113.12939453 3357581.65722656 14.78918839 149 155 151
246112.25256348 3357581.41015625 13.93280697 61 60 56
246110.27465820 3357577.89575195 14.07674503 142 148 146
246110.36865234 3357577.97161865 14.09474373 158 162 165
246113.46398926 3357582.62243652 14.18964195 63 65 64
246110.75793457 3357577.15832520 13.97295380 113 120 128
246113.65881348 3357582.89941406 14.75158215 169 170 162
246112.17297363 3357581.85095215 13.37834644 192 181 163
246111.02478027 3357578.04827881 14.77892399 121 126 120
246113.00622559 3357583.66522217 13.53643322 84 84 46
246111.59167480 3357580.50036621 13.36028481 191 181 172
246110.36718750 3357577.28863525 15.18209076 170 174 177
246109.12341309 3357575.45281982 14.33603001 81 92 88
246109.51574707 3357574.16479492 13.45191383 171 169 157
246112.67224121 3357581.86224365 15.09798336 200 199 197
246109.23681641 3357576.34094238 13.94137764 216 219 224
246110.26208496 3357576.53045654 14.37589169 135 139 138
246112.30871582 3357579.94708252 15.05235481 143 142 137
246108.47546387 3357575.09356689 13.77113533 111 113 110
246113.83557129 3357582.38378906 13.29646492 110 110 110
246112.23535156 3357581.68139648 14.90192127 202 199 190
246110.98779297 3357577.89801025 14.95798016 113 118 112
246110.23840332 3357577.83929443 13.96921635 150 150 150
246111.55322266 3357578.78479004 13.61984158 117 117 117
246111.55261230 3357580.64813232 13.34804440 193 183 173
246111.86767578 3357580.86444092 13.42975616 221 208 191
246111.87255859 3357579.30053711 14.52629185 77 82 76
246112.28601074 3357581.81439209 13.56895256 235 228 218
246112.43786621 3357582.73315430 13.32181072 157 150 121
246114.42138672 3357585.34478760 15.06362247 225 221 220
246114.72644043 3357584.26928711 13.29601002 116 115 113
246114.29016113 3357585.94177246 13.26824665 175 174 172
246108.81713867 3357575.49108887 13.46616364 155 158 151
246108.53161621 3357575.01904297 14.00236416 102 114 112
246111.46643066 3357578.50543213 13.72645569 126 131 127
246109.33776855 3357576.24102783 14.81436443 217 225 228
246114.30236816 3357583.80810547 13.55090904 152 153 148
246108.81323242 3357575.32305908 14.70206165 90 96 94
246110.27429199 3357576.70202637 14.48387814 123 127 126
246114.00256348 3357583.38543701 14.99699306 198 195 190
246112.45617676 3357580.15136719 15.04186821 128 125 118
246109.42810059 3357574.99829102 13.92142868 45 48 53
246109.10815430 3357575.51037598 14.25669384 98 108 100
246110.81335449 3357577.26983643 14.34916878 58 66 77
246111.96008301 3357579.37628174 14.48097610 84 86 83
246112.25122070 3357581.75701904 14.66713905 226 229 222
246110.24658203 3357576.25402832 13.92593288 82 86 87
246110.14709473 3357575.59558105 13.50230598 115 116 118
246111.11193848 3357578.16687012 13.99763012 104 106 103
246113.62329102 3357584.26373291 14.95086956 231 224 214
246109.32238770 3357575.13513184 14.71461391 147 148 153
246110.61206055 3357578.08636475 14.30173397 89 94 98
246114.34313965 3357585.54376221 14.94801998 198 193 189
246114.56225586 3357584.50750732 13.59745502 112 116 119
246110.87365723 3357577.73358154 14.75603104 116 121 117
246110.39880371 3357577.16925049 15.18542671 151 151 161
246109.67297363 3357575.96734619 13.84311485 113 117 118
246108.83984375 3357574.45690918 13.97638035 229 228 226
246108.94689941 3357575.32031250 13.95422268 65 73 75
246111.50634766 3357578.57604980 14.46771812 138 145 138
246112.46203613 3357580.90216064 15.07344151 188 195 201
246109.36694336 3357573.81207275 13.46047688 162 158 149
246114.28442383 3357585.43682861 14.54691505 132 137 131
246112.80688477 3357582.40820313 15.06743908 127 122 116
246110.63232422 3357578.56933594 14.15357208 154 158 167
246111.62585449 3357578.54620361 13.41886330 65 65 65
246110.98693848 3357579.21331787 14.83119488 167 168 170
246108.56774902 3357574.30169678 13.44966507 201 187 178
246115.01269531 3357585.10156250 14.72818375 173 169 168
246110.11059570 3357576.07684326 15.22980213 214 206 195
246109.41979980 3357576.17218018 14.84050465 213 221 224
246112.14697266 3357581.25646973 14.25015640 190 195 191
246113.39245605 3357583.82116699 14.23254871 116 118 115
246109.52746582 3357574.49737549 13.78216076 91 90 86
246114.33007813 3357583.99389648 14.14393234 161 162 157
246113.97937012 3357583.82476807 15.07361221 138 134 133
246113.58666992 3357582.76739502 14.47185898 160 162 157
246113.16284180 3357581.71520996 14.33952713 64 69 75
246111.11218262 3357578.46704102 15.14399433 164 167 172
246111.64416504 3357580.32733154 13.76651859 179 170 173
246114.97363281 3357584.78497314 13.30056858 101 97 96
246114.80834961 3357584.81188965 14.50996494 184 188 200
246114.58508301 3357584.53424072 13.78458118 90 95 99
246113.55004883 3357582.64196777 15.03116512 171 161 149
246113.18664551 3357581.78253174 14.21588421 48 55 61
246109.29516602 3357576.62060547 14.16698074 137 141 144
246111.54992676 3357578.90466309 14.26338482 128 130 127
246113.62634277 3357584.26696777 13.91816521 130 130 130
246110.29492188 3357576.58197021 13.73872757 88 94 90
246109.44409180 3357576.10681152 13.73272419 107 108 110
246109.99145508 3357575.93316650 14.19592953 83 88 91
246113.47290039 3357583.52880859 15.08167648 167 162 158
246114.63708496 3357585.57025146 15.00810909 165 151 148
246113.53308105 3357582.71655273 14.15422440 138 140 137
246112.84777832 3357583.09020996 14.07522964 146 146 134
246110.44812012 3357576.84686279 13.88208866 104 109 112
246113.46533203 3357582.61163330 14.39908695 75 77 76
246110.56921387 3357576.90521240 13.62183952 32 35 42
246111.84777832 3357580.77069092 13.60586739 237 227 215
246113.11047363 3357583.46667480 13.84567451 224 225 220
246108.99035645 3357574.33978271 15.02308464 210 205 199
246109.47277832 3357574.46936035 13.96966743 97 101 102
246112.25976563 3357581.75524902 14.90188885 217 211 195
246109.22497559 3357574.26330566 13.85151863 195 196 190
246110.35510254 3357576.08441162 13.44042110 88 88 88
246111.90856934 3357579.33587646 13.75836468 86 90 91
246110.69689941 3357578.70971680 14.79714775 238 242 251
246109.45617676 3357575.95025635 13.60486794 171 168 163
246110.84802246 3357577.29687500 14.00771523 52 59 69
246113.07910156 3357583.44104004 13.99246502 173 175 170
246109.48034668 3357575.93139648 13.83664513 96 97 101
246109.96276855 3357577.37628174 14.08156681 209 210 205
246111.69006348 3357579.03344727 15.02671242 109 108 104
246111.54614258 3357578.85406494 14.34339523 129 134 128
246113.46777344 3357582.00543213 13.29403877 107 107 107
246111.84680176 3357580.79327393 13.84346771 223 225 220
246111.25256348 3357579.69848633 13.99881649 183 194 198
246109.40051270 3357574.39428711 13.87127876 119 124 120
246115.01953125 3357585.11761475 14.56817913 113 113 115
246109.30249023 3357576.24725342 14.59701252 189 197 208
246112.81420898 3357583.03253174 14.05063057 193 191 176
246112.78698730 3357583.00933838 14.37967110 164 165 159
246114.41247559 3357584.26068115 13.91024113 115 120 116
246110.29882813 3357577.94677734 14.71508503 180 189 186
246111.27246094 3357580.36364746 13.35081482 202 193 184
246110.36047363 3357577.95208740 13.84444714 155 155 157
246113.14294434 3357583.72888184 13.48109531 255 251 242
246109.57226563 3357574.72302246 15.20325375 196 196 194
246109.40014648 3357575.03527832 13.95789719 75 80 84
246110.71789551 3357577.06384277 14.35039520 69 78 87
246113.25964355 3357581.85186768 13.41250896 76 76 74
246108.94567871 3357574.38482666 14.38425159 234 233 229
246108.86145020 3357574.45898438 14.66839409 232 231 229
246114.02990723 3357584.43170166 15.05545902 244 240 229
246114.16870117 3357583.61553955 14.64499855 123 124 119
246109.02075195 3357575.42321777 15.17663002 178 175 170
246114.43200684 3357584.23388672 15.06991291 208 201 195
246112.63354492 3357582.40905762 13.72109985 156 158 155
246110.19702148 3357577.86877441 13.46907711 195 182 173
246111.40063477 3357579.96636963 14.37421036 203 209 221
246114.24353027 3357585.36828613 14.69448376 153 160 153
246110.78820801 3357578.46563721 15.17515755 151 143 141
246111.37744141 3357578.27471924 14.82392025 147 150 143
246108.72570801 3357574.56158447 13.97952461 233 234 229
246111.23266602 3357579.61437988 13.64063358 155 150 147
246112.08166504 3357581.13952637 14.66200924 116 118 115
246114.18054199 3357583.64648438 13.72214794 102 104 103
246114.35644531 3357585.54772949 14.48074913 142 144 141
246112.82409668 3357583.07226563 14.55449009 250 254 255
246112.67834473 3357582.48034668 14.75663853 72 74 71
246111.51232910 3357580.43664551 13.34590530 197 187 178
246114.82641602 3357585.40728760 13.95717907 105 105 105
246110.93139648 3357577.47265625 13.73246384 71 75 78
246112.98706055 3357583.34216309 14.34969521 209 210 212
246108.67736816 3357574.60223389 13.65439987 236 234 222
246113.65649414 3357582.89770508 13.71680260 141 142 137
246113.63195801 3357582.78857422 13.46660137 129 132 125
246110.10632324 3357576.20172119 15.19581699 225 225 217
246109.79992676 3357577.01666260 13.99694824 48 46 47
246112.29479980 3357580.06390381 14.56160259 88 90 85
246110.77783203 3357578.92156982 15.02483273 244 240 237
246110.72583008 3357577.68182373 15.13589191 193 188 185
246112.23229980 3357581.53692627 14.33020115 233 238 241
246113.47277832 3357582.63916016 14.10480022 77 79 78
246109.92871094 3357575.07501221 13.63504314 93 94 96
246113.94445801 3357584.84307861 13.82709217 229 231 226
246110.05346680 3357575.99023438 13.55971909 107 109 106
246112.59033203 3357582.92333984 13.36256313 149 137 99
246114.98803711 3357584.94091797 13.37959003 91 90 86
246110.85925293 3357578.12463379 13.64354324 172 173 165
246108.67382813 3357574.81854248 15.23539734 171 168 163
246112.53039551 3357580.32519531 13.91855526 42 51 56
246113.89599609 3357585.24285889 13.33324528 132 132 124
246112.25097656 3357581.66918945 15.06004047 249 235 226
246113.41052246 3357582.65625000 15.09299564 222 210 196
246109.95495605 3357577.35906982 13.86578274 210 210 202
246113.25390625 3357582.08929443 14.43822575 117 121 122
246110.91943359 3357578.65582275 15.15400410 140 140 142
246110.64440918 3357578.62048340 14.15180111 149 158 167
246114.42028809 3357583.50201416 13.32338715 104 104 106
246112.82019043 3357580.95294189 13.70774937 99 101 100
246113.26684570 3357581.90844727 14.95280361 126 126 118
246115.01000977 3357585.12365723 13.56064892 91 91 91
246112.16967773 3357581.72076416 13.42072201 198 186 172
246114.13305664 3357583.58544922 14.12398052 91 95 96
246113.76904297 3357583.14404297 13.81564617 126 128 127
246108.33776855 3357574.63903809 13.50540829 117 109 106
246109.55798340 3357577.15332031 13.44138718 148 144 135
246108.70031738 3357574.57818604 13.84603310 234 236 231
246114.32482910 3357583.98529053 14.21624851 163 164 159
246113.00415039 3357584.08148193 13.72052383 242 238 227
246110.88745117 3357579.18231201 14.47333527 179 179 187
246110.93188477 3357577.49346924 14.56697178 137 142 145
246111.60791016 3357578.76519775 15.09588909 133 125 122
246111.27001953 3357579.71502686 14.55645275 204 214 223
246108.76794434 3357575.63787842 13.55640697 121 122 116
246112.70495605 3357582.87677002 14.83279800 209 206 201
246112.51428223 3357582.28381348 14.20711136 170 172 167
246113.64135742 3357585.22674561 13.32902336 59 55 46
246114.32507324 3357583.62261963 13.37870026 101 101 99
246108.45288086 3357575.06323242 13.80739689 127 129 128
246109.41687012 3357576.63720703 15.19982147 206 193 185
246114.44445801 3357584.25738525 14.87342739 117 116 112
246111.15075684 3357578.10693359 13.57798386 106 111 107
246113.12670898 3357583.48718262 13.82532787 184 185 179
246112.89038086 3357580.86920166 13.44205093 99 98 96
246113.17114258 3357582.04504395 15.07865334 221 210 206
246111.77929688 3357580.51904297 13.97886562 235 235 235
246110.60375977 3357578.56665039 13.52119446 199 192 182
246113.13549805 3357583.65606689 13.46810246 255 253 244
246113.25830078 3357582.02178955 14.34577179 48 51 56
246114.37438965 3357583.97705078 15.08430195 201 183 171
246110.06213379 3357575.98437500 14.71980762 95 99 102
246110.87390137 3357577.00512695 13.42574978 57 61 64
246110.60961914 3357578.18334961 13.70198059 77 68 71
246110.86120605 3357579.16180420 13.72033119 224 213 219
246110.62817383 3357578.03741455 14.54096985 102 108 108
246109.47412109 3357575.88903809 13.69580173 119 121 120
246113.38513184 3357582.48907471 14.64892387 111 112 104
246110.29919434 3357578.14257813 13.41069889 181 172 167
246109.63586426 3357576.92657471 14.52269650 169 169 169
246110.25744629 3357577.87707520 14.24641037 148 154 154
246110.02624512 3357578.22875977 13.51272869 130 130 122
246110.28295898 3357576.40850830 14.38220119 138 142 143
246110.61315918 3357578.50256348 14.55700207 138 141 150
246109.80151367 3357577.01513672 14.59034538 35 39 42
246111.59436035 3357580.25732422 14.51320648 184 181 192
246109.34692383 3357574.35595703 15.12010384 148 150 147
246111.44970703 3357578.33258057 15.12794781 157 154 149
246113.24926758 3357582.07611084 14.30327225 110 116 116
246110.26306152 3357578.76904297 13.44707966 106 105 101
246113.07019043 3357581.58264160 14.04717541 43 51 62
246112.93041992 3357581.38812256 14.50647163 77 78 80
246114.48181152 3357584.75469971 15.06866360 149 148 146
246111.77392578 3357580.47760010 14.60924149 195 197 194
246111.32202148 3357579.82812500 14.13931370 161 170 179
246111.02172852 3357578.07586670 13.51467514 100 105 101
246112.96582031 3357581.20660400 13.39258862 81 79 80
246113.39221191 3357583.56384277 15.04956722 151 147 138
246110.73229980 3357578.89111328 14.23735332 114 126 140
246110.63012695 3357577.66583252 15.12526035 189 193 196
246109.33923340 3357576.23498535 15.03972816 229 222 214
246113.06042480 3357581.19403076 13.36321640 89 87 88
246113.40209961 3357582.55889893 14.16205978 56 58 57
246112.40783691 3357579.77716064 13.36873245 74 74 76
246110.57629395 3357579.30065918 13.40249348 168 165 160
246114.85900879 3357584.88714600 13.69105148 56 63 69
246112.10632324 3357579.49920654 15.10562325 143 135 132
246113.81091309 3357585.02667236 13.49722385 176 173 166
246110.08703613 3357577.85974121 13.37743473 198 188 179
246109.75585938 3357576.99670410 14.01639080 58 56 57
246114.59484863 3357584.53790283 14.70747852 191 187 186
246109.95654297 3357575.83862305 13.51565647 80 84 85
246108.58544922 3357575.00567627 14.15379429 58 68 70
246109.22912598 3357575.73797607 13.73078060 133 133 131
246109.46740723 3357574.84600830 15.21363926 205 204 200
246115.00842285 3357585.18450928 14.38861847 156 154 155
246109.23034668 3357576.25164795 13.52464771 152 153 148
246113.27600098 3357581.88970947 13.40779686 80 79 77
246110.42443848 3357577.98400879 14.04764748 113 118 121
246108.89465332 3357575.28137207 13.66961193 129 134 130
246113.66247559 3357584.39355469 13.86186218 63 65 62
246112.20104980 3357582.74853516 13.31280136 166 154 142
246110.27783203 3357577.77685547 15.16778278 210 193 177
246113.88842773 3357583.31201172 13.72802830 96 98 97
246109.05786133 3357576.06726074 13.50286293 163 163 161
246111.34228516 3357578.21472168 15.13790226 218 219 213
246110.66955566 3357578.38543701 15.09898758 202 198 199
246111.26147461 3357579.68206787 15.00366306 224 217 207
246114.37145996 3357585.56030273 14.47997952 161 161 159
246109.23706055 3357576.30474854 13.64488029 173 173 173
246109.52197266 3357576.48376465 15.19915390 137 139 151
246113.25842285 3357583.59710693 14.78395557 53 50 43
246111.30017090 3357578.21844482 13.81483364 111 112 114
246114.64880371 3357585.21148682 15.00857830 192 194 191
246111.46240234 3357578.45947266 13.94525146 87 93 91
246113.36328125 3357583.71844482 13.94536591 236 237 232
246112.89404297 3357583.14715576 13.53467369 228 224 197
246109.57604980 3357576.89483643 14.71148205 181 181 181
246109.96887207 3357577.53863525 13.57369614 197 187 178
246114.10473633 3357583.27856445 13.35087204 106 106 106
246110.33178711 3357578.79760742 13.41746712 127 126 124
246109.56152344 3357574.85791016 14.83337402 148 149 151
246108.63525391 3357574.64813232 14.24177551 222 221 217
246111.77868652 3357579.06079102 13.41893768 82 83 87
246111.21093750 3357579.47827148 14.42724895 147 155 158
246109.92504883 3357577.00756836 15.10717392 139 138 143
246109.84838867 3357577.05529785 13.82356739 45 46 41
246113.91430664 3357583.72045898 15.07349586 133 133 131
246109.42419434 3357574.15728760 13.48613644 152 148 139
246112.42871094 3357582.09423828 14.53194427 190 196 186
246110.17858887 3357577.76019287 14.30733109 141 142 144
246110.40161133 3357579.00811768 13.43262291 131 127 124
246109.12487793 3357575.61523438 13.69542122 120 120 120
