246089.29846191 3357486.58093262 16.16529846 96 164 201
246089.92358398 3357486.79956055 16.33258247 44 141 194
246089.14941406 3357486.56964111 16.17369843 92 158 192
246088.50256348 3357488.41275024 16.63498878 13 133 209
246087.45202637 3357487.45086670 16.21563911 70 140 192
246090.02026367 3357488.45529175 14.43915081 166 172 186
246088.13610840 3357488.68136597 16.53481102 27 153 211
246088.89001465 3357488.32720947 16.64552116 183 177 215
246089.24938965 3357487.27301025 16.69732285 26 141 222
246087.82604980 3357487.25424194 16.42370605 13 154 225
246087.80187988 3357487.10278320 16.41566467 21 156 222
246089.43151855 3357486.99475098 15.99948883 128 128 128
246087.43090820 3357489.16992188 14.12279510 141 150 159
246087.57336426 3357489.30923462 14.12921333 147 157 166
246089.16418457 3357488.68560791 16.44432259 22 101 160
246088.14282227 3357486.98294067 16.52363396 1 140 223
246089.38073730 3357486.61984253 16.10961151 118 165 195
246087.97802734 3357487.24307251 16.49551773 6 161 228
246089.37036133 3357486.90618896 16.55267715 12 159 229
246089.90747070 3357486.68362427 16.31951904 80 150 184
246088.05493164 3357487.50228882 16.55474281 12 161 229
246088.64501953 3357488.58148193 14.14253426 146 155 162
246089.37475586 3357488.32754517 15.93994141 128 128 128
246087.60852051 3357487.06835938 16.12153625 128 128 128
246089.61218262 3357487.88485718 14.38630199 147 151 154
246088.23901367 3357488.89440918 16.23992920 123 180 199
246088.62036133 3357487.65472412 16.90051079 14 179 225
246087.86303711 3357488.11578369 14.08299065 140 149 156
246087.55944824 3357487.72631836 16.12289238 127 129 128
246088.80273438 3357486.59020996 16.14249039 128 128 128
246089.69970703 3357487.19863892 14.29373074 182 182 182
246089.15502930 3357487.39254761 16.76782227 20 142 217
246089.94018555 3357487.60125732 16.38325691 116 207 254
246088.74487305 3357488.06100464 14.20302582 126 131 137
246089.00170898 3357486.73614502 16.09090042 128 128 128
246088.91162109 3357488.57025146 14.23760414 153 160 170
246087.74670410 3357488.02371216 16.39187241 41 142 212
246088.91174316 3357488.15167236 14.25323963 140 143 148
246089.78613281 3357487.00540161 16.41926575 27 149 214
246088.66235352 3357487.02139282 14.21936035 123 128 131
246089.79455566 3357487.55047607 16.44430542 125 165 227
246087.51037598 3357488.14349365 16.16538239 125 169 196
246088.08911133 3357488.95745850 14.14772701 147 157 166
246089.37817383 3357486.94052124 14.42158318 177 181 182
246087.73132324 3357488.08822632 14.08387089 146 153 163
246089.79089355 3357487.25851440 15.94533062 128 128 128
246087.47753906 3357487.17718506 16.20435143 41 139 184
246087.69470215 3357488.42346191 16.10953712 82 147 205
246090.29541016 3357488.13900757 16.05329704 149 173 201
246088.50048828 3357487.21514893 16.01136780 128 128 128
246088.08435059 3357487.51000977 14.08511734 139 144 148
246087.77746582 3357486.79989624 16.37476349 43 145 194
246087.57592773 3357487.54397583 16.31872177 6 132 217
246088.14367676 3357488.91415405 16.27061844 111 178 197
246088.04797363 3357488.13345337 16.05543709 128 128 128
246089.71887207 3357487.22113037 14.26469231 192 192 192
246087.75512695 3357487.86535645 14.08189964 146 153 161
246089.22961426 3357487.62466431 15.93807602 128 128 128
246089.53405762 3357487.13287354 15.97140312 128 128 128
246090.19311523 3357488.37963867 16.17984009 54 127 172
246088.24804688 3357487.78552246 16.66913795 183 196 228
246089.60400391 3357486.72338867 16.47768593 41 169 230
246088.69091797 3357488.14950562 15.99122047 128 128 128
246089.42407227 3357488.76721191 14.33339500 149 157 170
246088.22741699 3357488.20050049 14.09820557 136 143 151
246088.36157227 3357488.69894409 16.05334282 128 128 128
246087.65161133 3357487.44137573 16.35099983 13 144 216
246087.94567871 3357488.72131348 14.13166428 139 150 156
246087.89453125 3357488.07037354 16.45720863 30 133 202
246088.94970703 3357487.47564697 15.96619892 128 128 128
246088.65417480 3357489.13113403 14.12462902 140 150 159
246088.37817383 3357486.70355225 16.42423630 10 136 220
246088.61853027 3357488.18545532 15.99840164 128 128 128
246089.32434082 3357486.78182983 16.07189560 128 128 128
246089.24841309 3357488.56646729 14.40182972 150 155 161
246087.75781250 3357487.16064453 16.08559036 128 128 128
246088.43737793 3357487.44116211 16.01740074 128 128 128
246088.99218750 3357489.03591919 14.12827682 130 139 146
246088.56213379 3357487.73156738 14.17829037 143 146 153
246089.64318848 3357488.78778076 14.29063320 184 191 207
246087.78039551 3357489.13653564 14.10071754 138 147 154
246089.51562500 3357486.56817627 16.17912292 126 167 195
246089.37487793 3357486.98379517 14.44255257 165 169 170
246088.50988770 3357487.21469116 16.01043320 128 128 128
246087.40673828 3357487.56784058 16.17766953 38 126 176
246089.76232910 3357486.70645142 16.42298889 45 141 201
246087.80004883 3357488.43252563 14.09070778 142 151 160
246089.27124023 3357486.55874634 16.20168495 91 166 208
246089.56311035 3357487.26361084 15.95285416 128 128 128
246087.55932617 3357487.60708618 14.08369541 149 158 163
246088.43481445 3357487.83004761 16.76723862 25 192 237
246089.31750488 3357487.32937622 16.68327522 23 132 217
246087.95654297 3357487.44274902 16.50247192 7 159 232
246089.70214844 3357487.45281982 16.48249054 132 174 248
246087.57666016 3357487.03323364 14.12108803 146 155 162
246089.65710449 3357487.22000122 16.49205399 13 136 214
246088.44616699 3357487.23583984 16.01676559 128 128 128
246089.92797852 3357488.63269043 14.36809063 172 176 187
246087.90710449 3357488.43850708 16.07501984 128 128 128
246090.26184082 3357488.28668213 16.11001778 84 135 182
246089.20910645 3357487.88757324 14.35375690 160 161 163
246087.82250977 3357487.91073608 16.07820892 127 127 127
246089.48303223 3357488.64642334 16.36862564 55 153 188
246088.52832031 3357487.85803223 14.16813564 119 124 130
246089.25183105 3357488.06274414 14.42509747 116 114 125
246089.71264648 3357488.73736572 14.31843948 171 177 191
246088.61230469 3357488.07919312 16.80228424 33 161 222
246088.04089355 3357487.43350220 14.07834721 145 150 154
246089.80212402 3357487.65112305 14.15336990 147 148 152
246089.76049805 3357488.24758911 16.42970276 25 103 142
246089.60278320 3357486.59359741 16.16556740 141 164 180
246089.26525879 3357488.19931030 16.59873772 28 113 177
246087.76403809 3357488.70132446 14.11211967 140 151 157
246090.14294434 3357488.34710693 15.96206760 106 105 87
246087.96594238 3357487.46292114 16.50867844 7 159 232
246088.28808594 3357487.62640381 16.67083168 25 186 232
246089.28198242 3357486.98089600 16.00463104 128 128 128
246087.98547363 3357488.28530884 14.09075356 138 147 154
246088.36462402 3357487.93682861 16.72080231 18 174 223
246089.63757324 3357488.52005005 15.99604893 91 88 71
246089.73120117 3357487.09414673 14.27316380 192 191 189
246089.33715820 3357488.24740601 14.45606709 167 167 175
246089.41247559 3357486.75012207 16.06979179 128 128 128
246089.53979492 3357487.34106445 14.47426128 162 163 167
246087.80603027 3357488.99307251 14.10157394 147 156 165
246087.71520996 3357487.07397461 16.37595749 29 157 220
246087.42004395 3357488.40328979 14.09075737 141 150 159
246089.01062012 3357486.66687012 16.40503883 21 154 229
246088.92614746 3357487.59942627 16.92646790 30 131 209
246088.12036133 3357487.80267334 16.59737968 174 154 189
246088.52380371 3357486.82522583 16.49134636 44 135 206
246089.44494629 3357487.68408203 16.64241409 132 165 219
246089.75073242 3357488.51516724 14.45925808 155 155 165
246089.27404785 3357488.99932861 14.20373631 126 134 145
246087.79260254 3357487.93496704 14.08169460 145 152 160
246088.04833984 3357487.36386108 16.05633163 128 128 128
246089.20239258 3357486.67205811 16.10336876 128 128 128
246089.47094727 3357487.79861450 14.41032410 149 150 145
246088.65295410 3357487.86151123 16.92924118 1 169 214
246088.83337402 3357488.23321533 15.98051739 128 128 128
246087.43127441 3357487.49911499 14.08529282 136 143 149
246088.07373047 3357487.27517700 16.05390930 128 128 128
246089.95898438 3357487.27139282 15.95043087 172 195 209
246088.89709473 3357487.78143311 15.97107697 128 128 128
246089.97814941 3357487.20782471 16.32354355 30 148 220
246088.50708008 3357488.07006836 16.00967216 128 128 128
246090.28918457 3357488.76522827 14.18042660 164 174 186
246088.88525391 3357487.59436035 15.97249222 128 128 128
246089.70239258 3357488.34497070 15.94323635 98 101 84
246087.63537598 3357489.05819702 14.12192917 140 150 159
246087.85473633 3357487.99057007 14.08094311 144 151 159
246087.85668945 3357487.42950439 14.07703590 152 156 165
246088.61791992 3357486.80633545 16.47920990 174 203 245
246089.89343262 3357487.27227783 14.10497189 197 196 191
246087.76672363 3357488.41326904 16.36573601 34 141 213
246088.87561035 3357487.74227905 17.03298187 96 186 238
246088.71899414 3357488.68518066 16.02135086 130 128 129
246088.75439453 3357487.46105957 16.81737900 18 143 223
246090.04846191 3357488.11740112 16.30821609 19 120 166
246090.21606445 3357488.34417725 16.01352692 70 122 169
246089.20227051 3357487.55706787 15.94088268 128 128 128
246089.08593750 3357486.97827148 16.57904053 20 149 214
246087.68347168 3357488.68835449 16.18103981 27 125 190
246087.63269043 3357488.68490601 14.10879993 142 151 160
246089.79614258 3357488.56677246 16.02635002 103 100 81
246089.68750000 3357487.27148438 15.94731998 128 128 128
246090.03308105 3357488.02590942 15.86252880 94 93 88
246087.70458984 3357486.85128784 16.10045433 128 128 128
246087.87353516 3357488.09439087 16.44417953 25 133 205
246088.22033691 3357487.55172729 14.11054420 132 137 141
246090.02539063 3357488.34921265 15.95451450 102 101 83
246088.68334961 3357487.36968994 14.21158695 189 189 187
246087.24645996 3357487.13882446 14.11735916 125 132 140
246087.48742676 3357487.14544678 14.11290836 138 145 153
246090.09606934 3357488.44848633 16.26399231 105 179 208
246089.13623047 3357488.12814331 16.65975380 26 121 189
246088.77795410 3357486.92373657 16.02663803 128 128 128
246089.09680176 3357488.89141846 14.22178364 133 142 151
246089.02062988 3357488.35311890 16.60694122 180 161 193
246089.03527832 3357488.07974243 15.95691872 128 128 128
246088.75244141 3357486.82812500 16.48303604 143 141 180
246088.90356445 3357488.50045776 16.57797050 177 113 139
246089.26977539 3357488.92892456 14.22969151 128 136 147
246089.53588867 3357487.60729980 15.90780354 128 128 128
246090.14965820 3357488.48208618 14.38467407 131 143 159
246088.52832031 3357486.75842285 16.46217537 34 134 210
246087.75439453 3357488.61035156 16.32684517 25 145 206
246089.39074707 3357488.43658447 14.45045185 167 174 182
246088.29479980 3357487.54037476 16.66038132 14 189 244
246088.37658691 3357487.67291260 14.14007568 130 133 138
246088.49121094 3357488.68872070 14.13125801 140 149 156
246087.62963867 3357488.43609619 14.08756733 147 156 165
246088.72802734 3357489.07949829 14.13068962 140 149 158
246087.68847656 3357488.50607300 14.09462547 145 154 163
246087.50085449 3357487.95062256 16.26445580 86 164 226
246089.64086914 3357486.55538940 16.40342903 57 172 216
246089.14111328 3357487.81811523 14.34796524 143 143 143
246089.13928223 3357486.86267090 14.33515644 165 166 168
246088.83166504 3357486.92721558 16.02429390 128 128 128
246087.93518066 3357488.74420166 16.07407570 128 128 128
246090.21105957 3357488.45672607 16.01726532 53 116 169
246089.97949219 3357487.85046387 16.36058235 22 130 194
246090.20300293 3357487.62756348 16.24616432 86 177 234
246088.06372070 3357487.80654907 16.56931686 190 188 225
246088.83410645 3357486.84317017 16.05373192 128 128 128
246089.24963379 3357486.61505127 16.10967827 128 128 128
246089.65014648 3357487.91210938 16.50778389 23 117 171
246089.98889160 3357487.38833618 16.33809662 22 145 225
246087.65600586 3357488.95217896 14.11877918 146 156 165
246089.47717285 3357486.86032104 16.53836250 15 157 223
246089.14575195 3357488.51934814 14.35736370 149 153 162
246088.42810059 3357487.19168091 16.01862717 128 128 128
246089.23278809 3357488.04956055 15.93723297 128 128 128
246088.14978027 3357486.75512695 16.08588409 128 128 128
246090.02709961 3357488.39205933 15.97201443 102 101 83
246089.72558594 3357487.07681274 16.45182991 25 141 216
246089.36328125 3357487.00762939 16.60123634 17 160 230
246089.13781738 3357486.65368652 16.11264992 128 128 128
246088.38476563 3357486.67932129 16.41411400 2 131 212
246090.24121094 3357488.00744629 16.22742844 53 139 198
246088.09265137 3357488.30981445 16.05075836 128 128 128
246089.66027832 3357486.54507446 16.38776588 57 172 216
246088.34130859 3357487.72076416 16.72036362 30 172 218
246089.52331543 3357487.65905762 16.59550476 142 86 123
246088.80895996 3357488.80322266 14.17455769 143 152 161
246088.97290039 3357488.60223389 14.26792717 153 160 168
246088.72802734 3357488.07577515 16.80694771 7 137 213
246088.19030762 3357489.08679199 14.13561821 146 154 165
246088.52551270 3357487.06430054 16.01690292 128 128 128
246087.56054688 3357488.09500122 16.26959991 64 144 203
246087.39465332 3357488.52490234 14.09172058 140 149 158
246089.76269531 3357488.09454346 15.89031506 128 128 128
246089.65661621 3357487.17623901 14.34087276 168 170 169
246087.64672852 3357488.99935913 14.12018108 144 154 163
246089.52807617 3357487.80529785 15.90805054 128 128 128
246089.01037598 3357487.84579468 14.32190228 122 125 130
246087.75561523 3357489.18914795 14.10703945 137 146 153
246089.57263184 3357487.82916260 15.90357399 128 128 128
246088.10571289 3357488.69735718 16.06674194 128 128 128
246088.36279297 3357488.82980347 14.16489124 141 150 159
246088.52575684 3357486.92306519 16.53371429 57 137 200
246088.20959473 3357487.12600708 16.04052544 128 128 128
246088.42553711 3357486.90679932 16.04159546 128 128 128
246087.81030273 3357486.72073364 16.31899643 62 155 189
246087.99975586 3357488.84448242 16.41357040 65 160 190
246090.13159180 3357488.00830078 14.06533813 191 194 199
246087.43811035 3357487.17623901 14.11138630 135 142 150
246088.36535645 3357486.63540649 16.12852478 128 128 128
246089.29455566 3357487.35812378 15.94986343 128 128 128
246088.37902832 3357486.70565796 16.10277557 128 128 128
246088.29992676 3357487.83953857 16.69405746 106 198 245
246088.26660156 3357487.13931274 16.57142830 5 146 225
246089.49023438 3357486.81439209 14.30140972 193 189 186
246087.99328613 3357487.23889160 14.07682228 145 150 154
246089.97351074 3357487.86288452 16.36233139 26 131 196
246087.43176270 3357488.25979614 14.08991146 145 154 163
246089.10998535 3357488.13638306 15.94987679 128 128 128
246087.67663574 3357488.73974609 14.11218834 136 145 154
246088.71508789 3357487.44750977 16.80189133 9 145 219
246089.02331543 3357487.02679443 16.00399971 128 128 128
246088.34802246 3357487.63479614 16.02608490 128 128 128
246089.53527832 3357486.61584473 16.43093491 30 166 226
246088.27758789 3357487.20944214 16.03363037 128 128 128
246088.94360352 3357487.23065186 14.29296112 148 149 153
246088.14196777 3357487.84396362 16.04639816 128 128 128
246089.29357910 3357488.52362061 14.42638302 152 156 165
246090.02941895 3357488.51596069 16.02243233 104 103 83
246089.53466797 3357486.56097412 16.38970184 21 155 216
246088.22570801 3357488.39376831 16.62289238 10 154 214
246087.67504883 3357488.43771362 16.27480888 48 143 211
246089.63171387 3357486.50869751 16.29472542 109 169 195
246090.22082520 3357488.37918091 16.03254700 64 122 168
246088.13574219 3357487.18957520 16.04781914 128 128 128
246089.76452637 3357487.26528931 14.19994354 195 194 192
246088.74401855 3357488.79843140 14.17778683 142 151 160
246087.47033691 3357487.65640259 14.08566284 143 150 158
246088.20922852 3357487.25631714 14.08572388 130 133 140
246088.77380371 3357488.29605103 16.68333817 5 117 191
246088.23071289 3357487.21392822 14.09429646 118 121 128
246088.12463379 3357488.17178345 16.04772949 128 128 128
246088.46105957 3357488.73794556 16.04735756 128 128 128
246087.74353027 3357487.24215698 16.38311768 21 154 223
246089.44592285 3357487.37191772 14.49248600 173 174 176
246089.60461426 3357487.10208130 16.51872826 23 135 217
246087.87854004 3357487.59170532 16.07300568 128 128 128
246089.31726074 3357488.32461548 15.94473553 127 127 127
246089.78662109 3357488.20800781 14.42142773 141 141 151
246089.62890625 3357487.43786621 14.37163258 159 160 164
246087.80053711 3357487.98684692 16.42199135 75 172 241
246089.84326172 3357488.56872559 16.37390327 83 127 136
246088.70214844 3357487.53915405 15.99083710 128 128 128
246088.13916016 3357488.38397217 16.05113411 128 128 128
246089.93249512 3357487.41113281 16.36627388 33 144 223
246088.78979492 3357487.42990112 14.27376175 167 168 163
246089.98059082 3357488.18170166 14.25641823 153 160 168
246087.82849121 3357488.46243286 16.40295601 28 139 211
246090.25964355 3357488.06140137 16.19796181 63 135 193
246088.87426758 3357486.70178223 16.42311478 29 135 185
246088.37829590 3357486.91491699 16.51871490 16 135 219
246088.89123535 3357487.54534912 16.90028572 24 120 204
246088.32336426 3357487.28228760 16.02897263 128 128 128
246089.15441895 3357488.39202881 16.56470108 37 93 142
246090.11267090 3357487.59167480 15.92134571 207 203 202
246089.66149902 3357486.63378906 16.13356209 147 165 177
246087.64245605 3357487.85137939 14.08386326 145 154 161
246089.13012695 3357488.10858154 14.37646389 153 153 161
246087.66699219 3357488.58316040 16.19426727 35 128 197
246089.78735352 3357487.89700317 14.25041294 165 169 172
246087.49890137 3357487.63989258 14.08502769 145 152 160
246089.26403809 3357486.73089600 16.08684158 128 128 128
246088.51940918 3357488.88684082 16.05246544 128 128 126
246088.58532715 3357488.73538208 16.03639030 128 128 128
246089.46582031 3357487.25805664 16.59694672 14 129 209
246088.54309082 3357486.66769409 16.42218590 36 139 208
246090.26159668 3357488.07867432 15.95502758 171 187 200
246087.75976563 3357488.68133545 14.11122894 141 152 158
246087.48669434 3357487.47265625 16.14573479 118 130 142
246089.96716309 3357487.38861084 15.92156219 128 128 128
246088.31518555 3357487.90908813 16.02903175 128 128 128
246089.24194336 3357487.72042847 16.76022720 23 121 192
246089.22253418 3357487.36294556 16.74154472 18 134 211
246088.14587402 3357486.96459961 14.13216209 132 140 143
246088.65783691 3357487.40090942 16.75831795 5 156 225
246088.92675781 3357488.60937500 16.52582169 223 209 232
246089.71203613 3357487.61560059 14.25302124 147 151 154
246087.59460449 3357487.78704834 16.11542130 125 129 132
246088.08227539 3357487.94226074 16.56869698 105 113 162
246087.90759277 3357487.68591309 16.49437332 100 200 250
246088.69311523 3357486.71459961 16.43625069 42 119 163
246088.68298340 3357488.04769897 14.18837357 123 130 138
246088.67907715 3357487.21551514 15.99353981 128 128 128
246089.43554688 3357487.83090210 14.41402435 157 157 155
246089.59655762 3357487.79074097 16.53988647 238 241 248
246088.07910156 3357486.93048096 16.05378914 128 128 128
246089.87145996 3357488.33377075 15.94277287 103 100 83
246088.69921875 3357487.82479858 16.96379852 16 173 216
246088.43176270 3357486.95230103 16.54120445 13 127 215
246089.38244629 3357488.35827637 16.51909637 24 101 145
246088.11633301 3357487.74227905 14.09212112 141 145 154
246088.59741211 3357488.53439331 16.02160835 128 128 128
246089.27856445 3357488.35714722 16.54528236 22 105 155
246088.24768066 3357487.05078125 16.55377769 2 142 221
246089.78576660 3357487.58740234 14.16358280 150 154 155
246087.81994629 3357488.60668945 14.10611057 141 152 158
246088.71496582 3357487.64739990 14.26198769 211 216 212
246088.55090332 3357487.14413452 16.63771057 14 144 222
246089.22949219 3357488.02523804 14.41081810 104 102 113
246087.84777832 3357489.14739990 14.09916592 133 142 151
246089.18115234 3357486.95068359 16.01540375 128 128 128
246089.46435547 3357487.68215942 14.42056847 171 170 168
246089.76855469 3357487.02209473 15.98690033 128 128 128
246087.71569824 3357487.16909790 16.36350250 25 154 220
246089.65307617 3357487.32836914 15.94093895 128 128 128
246088.06604004 3357487.32400513 16.05461311 128 128 128
246089.21203613 3357487.29171753 16.71059608 24 143 225
246089.85803223 3357486.59457397 16.19120026 189 191 188
246089.92993164 3357487.27505493 16.35282326 26 140 213
246089.93151855 3357488.12921143 16.36072159 23 115 164
246089.93298340 3357487.16827393 15.97479057 162 193 211
246088.66687012 3357488.00900269 15.99379349 128 128 128
246087.69299316 3357487.97817993 16.09439659 128 128 126
246087.75561523 3357486.91824341 16.41801071 29 152 220
246088.22155762 3357486.62860107 16.34129143 32 143 189
246089.75830078 3357486.94149780 16.01086617 128 128 128
246088.65673828 3357486.89208984 16.51478767 153 90 111
246089.58117676 3357487.29461670 14.40906620 151 155 156
246087.91247559 3357488.36575317 14.08632088 140 149 158
246088.10595703 3357488.19396973 14.09642315 138 145 153
246087.62512207 3357487.95059204 14.08486366 151 158 168
246087.47485352 3357487.33471680 16.22896004 75 139 187
246088.93664551 3357487.08541870 15.99927139 128 128 128
246089.86865234 3357487.02020264 16.37321091 24 141 208
246088.95007324 3357487.42367554 15.96623230 128 128 128
246088.50830078 3357488.84127808 16.31828117 121 175 211
246089.66333008 3357488.09423828 14.46064091 157 160 169
246088.36926270 3357488.27932739 14.10224915 137 144 152
246087.88195801 3357488.77517700 14.11226082 138 147 154
246088.91857910 3357487.39987183 16.79506683 23 128 209
246089.05700684 3357486.90130615 16.53554726 14 141 182
246089.80798340 3357486.85046387 16.04302788 128 128 128
246089.73522949 3357486.69512939 16.43251610 42 147 204
246088.64685059 3357487.09219360 16.62017250 188 204 255
246089.38598633 3357488.23303223 14.46977901 166 166 174
246088.63525391 3357486.94668579 16.02870560 128 128 128
246088.11132813 3357489.05209351 14.13691330 146 156 165
246087.84765625 3357487.17160034 16.07660103 128 128 128
246087.55957031 3357488.77743530 14.11183453 138 148 157
246089.67895508 3357487.76138306 15.89304543 128 128 128
246089.48925781 3357486.77597046 16.05800819 128 128 128
246088.99523926 3357488.13449097 15.96085167 128 128 128
246090.14514160 3357488.62530518 14.33393955 162 171 178
246088.09997559 3357487.03842163 16.05157661 128 128 128
246088.84118652 3357488.48699951 15.99719143 128 128 128
246088.67529297 3357486.77389526 16.07829857 128 128 128
246088.43798828 3357486.90203857 16.04178429 128 128 128
246089.17224121 3357487.51498413 15.94393444 128 128 128
246089.45227051 3357486.69805908 16.45805931 17 163 223
246087.76367188 3357488.94790649 16.30595016 127 174 194
246089.70800781 3357487.65267944 14.26279926 150 154 157
246089.46398926 3357488.73306274 14.35505486 161 167 181
246088.51440430 3357487.60192871 16.00950623 128 128 128
246088.37023926 3357488.70312500 16.05287361 128 128 128
246087.94360352 3357488.87048340 14.12054729 145 156 162
246089.68603516 3357487.05383301 14.30746937 194 193 191
246088.80004883 3357487.54782104 16.89086914 19 145 222
246087.72802734 3357487.66333008 16.40245819 10 135 201
246089.22570801 3357486.90972900 14.38389492 156 160 161
246088.63452148 3357488.11859131 16.78583908 13 138 205
246088.22656250 3357488.86441040 16.05246925 128 128 128
246088.07177734 3357488.86053467 14.15319729 146 157 163
246087.98388672 3357488.84994507 16.07218170 128 128 128
246088.37011719 3357488.44589233 14.09082508 138 147 154
246089.56994629 3357486.80911255 14.27696514 188 187 183
246088.15747070 3357487.13140869 16.04572678 128 128 128
246088.25207520 3357487.07803345 16.03634644 128 128 128
246088.42321777 3357488.56625366 14.11509991 134 143 150
246087.97106934 3357488.61343384 14.12905216 143 152 159
246087.63769531 3357487.94396973 14.08458805 151 158 168
246088.38305664 3357487.70022583 14.14142036 129 132 137
246088.26025391 3357486.92483521 16.04512978 128 128 128
246089.56323242 3357487.29730225 15.94833565 128 128 128
246090.10559082 3357488.20693970 15.91228390 112 114 101
246089.39819336 3357486.79867554 14.30580807 192 188 185
246088.50488281 3357488.72067261 14.13590908 139 148 155
246089.86437988 3357487.40490723 14.09378052 208 208 206
246088.95849609 3357486.58593750 16.14152527 128 128 128
246089.31469727 3357486.64288330 16.09859467 128 128 128
246088.23840332 3357488.79412842 14.16239643 144 153 160
246088.98645020 3357487.35006714 14.35178280 223 223 223
246087.83288574 3357487.77188110 14.07983208 137 144 152
246089.45471191 3357487.05746460 14.44673061 139 143 146
246089.53710938 3357488.53073120 14.44734383 179 182 191
246088.67309570 3357487.84906006 16.94581604 9 170 214
246089.19726563 3357488.28784180 14.39381886 166 170 179
246089.22705078 3357486.96875000 14.39567089 137 142 145
246089.47241211 3357488.28793335 16.52763176 21 102 145
246088.41601563 3357487.42932129 16.01954842 128 128 128
246089.66186523 3357486.58676147 16.18031120 148 165 175
246088.81274414 3357488.21926880 15.98135757 128 128 128
246087.79199219 3357488.29815674 16.38786507 29 135 209
246088.66345215 3357488.67193604 16.49288177 27 105 151
246089.27209473 3357486.90490723 16.54741669 13 157 228
246089.45837402 3357487.67001343 15.91517830 128 128 128
246089.71557617 3357487.68634033 15.89075089 128 128 128
246089.57446289 3357487.20507813 16.53542519 16 135 215
246087.69873047 3357487.14151001 16.35827446 29 157 218
246089.34228516 3357488.54519653 14.42621994 154 161 169
246087.32812500 3357487.94610596 14.09012032 145 154 163
246089.60876465 3357487.46054077 14.39555168 161 162 164
246087.53723145 3357486.80212402 16.11781883 128 128 128
246087.77966309 3357487.50296021 14.07894993 150 157 163
246087.71459961 3357488.41220093 16.32479858 29 134 202
246088.85034180 3357487.53280640 16.88541603 19 128 211
246087.67382813 3357487.21304321 14.10425854 139 146 152
246089.08605957 3357487.35333252 15.95801067 128 128 128
246087.95349121 3357486.99826050 16.06624603 128 128 128
246088.15087891 3357487.08023071 16.54371643 1 144 223
246089.56994629 3357487.61712646 14.37830067 153 154 156
246088.95971680 3357488.70022583 16.00976372 104 111 95
246087.91223145 3357487.10897827 16.47044563 13 156 226
246088.37036133 3357489.02548218 14.14874363 146 155 164
246090.09497070 3357488.55023193 16.25735664 115 184 213
246089.93176270 3357486.84161377 16.33231163 40 139 194
246089.46936035 3357487.65786743 15.91409874 128 128 128
246088.34643555 3357487.64511108 16.02622604 128 128 128
246090.13244629 3357488.66485596 14.30498981 143 154 160
246088.59326172 3357488.12600708 16.00099373 128 128 128
246088.01684570 3357487.09774780 14.10265255 130 135 141
246088.93310547 3357488.65576172 16.50047112 94 113 155
246087.66882324 3357486.99545288 16.10707092 128 128 128
246088.80566406 3357488.14752197 14.20975018 130 135 141
246087.81970215 3357488.71765137 16.35803795 21 139 200
246089.84570313 3357487.09524536 15.96522236 128 128 128
246087.53955078 3357487.99316406 16.13365173 143 175 196
246090.17529297 3357488.86547852 14.14976788 134 153 168
246088.31457520 3357488.14959717 16.02879715 128 128 128
246087.46179199 3357487.69656372 16.25183296 115 207 255
246088.25488281 3357487.30493164 16.03578758 128 128 128
246088.77685547 3357487.97308350 16.88272858 9 133 205
246089.94543457 3357487.01715088 16.05854225 149 189 214
246089.38269043 3357488.66854858 14.39005756 153 160 170
246088.64978027 3357488.75408936 16.42910004 26 82 117
246090.06616211 3357488.40563965 15.98031425 104 103 85
246087.94519043 3357486.98864746 14.12097836 136 143 149
246089.01074219 3357488.45306396 15.98013783 128 128 128
246087.80151367 3357487.07080078 16.41993141 24 159 225
246089.49560547 3357487.37658691 16.58838844 50 128 210
246087.93029785 3357488.84912109 14.11882210 142 151 158
246088.93566895 3357488.21063232 16.67861366 9 120 192
246088.73046875 3357488.78643799 14.18033028 144 153 160
246089.51843262 3357487.66638184 14.39646912 155 155 155
246088.18530273 3357487.18215942 14.09642792 116 119 124
246088.94763184 3357486.96835327 14.27854729 131 136 140
246089.39624023 3357486.96328735 16.01058197 128 128 128
246089.18640137 3357487.97537231 14.37589169 109 108 114
246089.58251953 3357486.96862793 16.53345680 17 128 207
246089.19995117 3357487.81347656 14.35555840 152 152 150
246089.60449219 3357486.80786133 14.26625061 191 190 186
246088.90161133 3357487.43524170 15.97105980 128 128 128
246089.97082520 3357486.89508057 16.29326057 56 147 200
246088.18920898 3357488.95938110 14.14630413 148 158 167
246089.86669922 3357487.54821777 14.09583187 188 189 191
246089.11596680 3357488.20199585 14.35895920 166 167 172
246089.22546387 3357486.73226929 16.45208168 12 154 226
246089.57775879 3357488.00936890 16.53028679 27 120 189
246088.83728027 3357487.28625488 15.97766304 128 128 128
246087.86035156 3357487.72796631 14.07902718 132 139 147
246087.87988281 3357488.87945557 14.10371399 137 146 153
246088.01306152 3357488.92068481 16.07138062 128 128 128
246089.93310547 3357486.99694824 16.33769417 36 144 208
246089.48376465 3357486.83511353 16.52896309 21 163 229
246089.99975586 3357488.44760132 15.99258423 100 99 81
246088.01855469 3357488.07998657 14.09288597 142 149 157
246088.20690918 3357487.98364258 14.11003017 131 138 146
246089.87329102 3357487.26495361 14.11238480 191 190 186
246090.31530762 3357488.63967896 14.19487190 152 161 170
246088.00268555 3357488.69207764 14.13920593 141 150 157
246087.99951172 3357487.63812256 14.08057404 140 144 153
246088.79431152 3357488.67068481 16.48839378 35 88 120
246088.12292480 3357488.92730713 16.26838303 117 175 189
246089.89282227 3357488.05209351 16.38439941 22 119 174
246089.03918457 3357487.83425903 16.87705231 23 111 185
246089.80847168 3357488.50430298 16.39953995 44 93 110
246088.84375000 3357488.08154297 16.78302383 10 126 201
246087.85754395 3357488.43737793 16.07924843 128 128 128
246088.77624512 3357486.83480835 16.05677223 128 128 128
246088.97033691 3357486.58154297 16.35548401 27 146 214
246089.50451660 3357486.98071289 16.00426674 128 128 128
246088.75280762 3357488.37487793 16.64822960 87 148 195
246088.69616699 3357488.02960205 16.85153389 1 135 208
246088.37756348 3357486.77053833 16.08004570 128 128 128
246089.67675781 3357487.88516235 14.35857964 149 153 156
246088.04394531 3357487.06369019 14.11000538 135 143 146
246087.74963379 3357487.03164673 16.08769608 128 128 128
246088.22631836 3357487.21975708 16.59101677 7 158 229
246088.99963379 3357487.78552246 16.91611290 26 114 188
246088.97509766 3357487.76318359 14.33430290 138 141 146
246090.04443359 3357487.95755005 14.07532883 188 191 196
246087.86682129 3357486.93011475 16.46615982 45 175 251
246088.84533691 3357486.94073486 16.54741096 255 247 251
246087.79797363 3357487.76196289 16.08084488 128 128 128
246089.98400879 3357488.02655029 14.13296986 153 158 162
246089.84570313 3357487.48837280 16.41426849 82 157 222
246088.75769043 3357488.30554199 14.18604660 133 140 148
246089.38195801 3357488.64743042 14.40248680 153 160 170
246088.14514160 3357488.16479492 16.59181595 28 147 213
246089.05944824 3357487.69256592 15.95498180 128 128 128
246089.76330566 3357488.42398071 14.48287678 191 191 201
246087.85986328 3357487.98013306 16.45110321 98 183 250
246089.92529297 3357487.18194580 16.34603691 33 147 217
246089.62426758 3357487.45083618 16.52405930 115 153 224
246089.78125000 3357488.40481567 14.48795986 182 182 194
246087.70410156 3357488.83560181 14.11565495 143 152 159
246087.49536133 3357488.05578613 16.18201637 135 184 216
246088.19323730 3357488.54238892 16.59832191 30 169 226
246088.22570801 3357487.44833374 14.10641861 138 143 147
246089.70019531 3357488.36425781 14.49875927 167 165 176
246087.75927734 3357487.21850586 14.09705257 136 141 147
246090.03979492 3357487.22210693 16.29712677 22 142 218
246087.50793457 3357487.15151978 16.14643669 129 129 129
246087.46655273 3357487.69442749 16.16826248 112 159 189
246090.04040527 3357488.14010620 14.17556000 146 153 159
246089.73461914 3357486.85415649 16.03917313 128 128 128
246088.35766602 3357487.91204834 16.02477646 128 128 128
246090.04602051 3357488.02175903 15.86202335 94 93 88
246088.86108398 3357486.84634399 14.27927113 169 174 177
246088.16931152 3357488.60787964 16.56849861 45 174 231
246087.68090820 3357487.64163208 16.37737083 14 138 226
246088.50683594 3357488.77401733 14.14585781 138 147 156
246088.25842285 3357488.25201416 16.03427696 128 128 128
246088.67944336 3357488.08843994 16.80414963 7 137 213
246088.52758789 3357487.77764893 16.82490540 23 202 243
246087.78625488 3357488.58081055 14.10315990 143 152 159
246089.27856445 3357488.73156738 16.08215332 111 114 105
246088.77819824 3357488.43862915 16.61407852 171 173 198
246090.03881836 3357488.23376465 16.30358696 28 105 133
246088.65136719 3357487.76602173 15.99563026 128 128 128
246089.88513184 3357488.11920166 15.88293839 109 110 96
246087.42431641 3357487.62026978 16.18935776 63 136 177
246089.84240723 3357486.58911133 16.19374466 188 189 191
246087.52954102 3357488.00701904 16.13804436 144 176 197
246088.20019531 3357487.48178101 14.10647488 138 143 147
246088.44763184 3357487.94625854 16.77099419 30 196 244
246087.61218262 3357487.85488892 14.08444118 147 156 163
246088.96911621 3357486.91806030 16.02723885 128 128 128
246090.14196777 3357488.01464844 15.86327553 109 111 98
246089.36291504 3357487.18444824 15.97066402 128 128 128
246090.09619141 3357488.20068359 15.91059494 112 114 101
246088.85107422 3357487.24761963 15.98062992 128 128 128
246088.80346680 3357487.47647095 16.83551788 24 133 218
246089.42858887 3357486.83612061 14.33039474 193 189 188
246089.15979004 3357487.70767212 15.94493771 128 128 128
246089.67089844 3357487.65829468 15.89611244 128 128 128
246087.61303711 3357487.21231079 16.31801224 33 153 206
246089.65637207 3357486.66580200 16.10107231 142 164 178
246088.24584961 3357487.91647339 16.03594208 128 128 128
246087.44750977 3357487.82199097 14.08722210 149 158 167
246087.73327637 3357487.63958740 16.40371513 6 136 211
246089.54541016 3357486.57427979 16.40643692 28 164 224
246088.13146973 3357487.64593506 16.60375404 215 255 255
246087.68713379 3357488.66802979 16.19570351 32 135 204
246088.65612793 3357486.76806641 16.46100807 155 202 246
246087.59106445 3357487.26818848 16.31037712 23 149 208
246089.33630371 3357488.74954224 14.34050751 140 148 159
246088.57678223 3357486.92175293 16.03414917 128 128 128
246088.73327637 3357488.93084717 14.15573597 144 153 162
246088.18920898 3357487.49639893 14.10450935 132 137 141
246088.91809082 3357488.00265503 15.96870995 128 128 128
246089.50500488 3357488.27890015 16.52585983 31 113 153
246089.86853027 3357486.78952026 16.37672806 34 140 200
246089.80200195 3357487.24658203 15.94652939 128 128 128
246089.60583496 3357487.51171875 14.39259434 158 159 161
246089.77575684 3357487.56207275 14.17181969 153 157 158
246088.31652832 3357487.36212158 14.10104752 139 142 147
246089.09387207 3357488.53979492 14.33114433 153 157 168
246090.15466309 3357488.15985107 15.90063095 117 122 115
246088.81567383 3357488.38650513 15.99253464 128 128 128
246089.23754883 3357488.03900146 14.41821289 104 102 113
246090.07434082 3357488.06668091 15.87602997 107 108 94
246089.40112305 3357487.31436157 16.63510895 12 122 207
246089.53833008 3357486.73550415 14.22876740 195 191 188
246088.51513672 3357487.31085205 16.00979805 128 128 128
246087.47119141 3357487.21826172 16.15482521 121 130 135
246089.03247070 3357487.03082275 16.00313377 128 128 128
246087.81054688 3357487.99044800 14.08174992 146 153 161
246088.61804199 3357487.00680542 16.02127075 128 128 128
246088.37365723 3357487.06445313 16.57554626 10 142 224
246089.27587891 3357488.66656494 16.41473198 26 116 166
246088.13464355 3357488.36505127 16.57530022 11 147 207
246088.17541504 3357487.04370117 16.54142380 0 141 221
246088.90747070 3357487.93493652 15.96986294 128 128 128
246088.70715332 3357487.63626099 14.25662327 210 215 209
246088.30859375 3357488.49832153 14.10709476 147 156 163
246089.58581543 3357487.76843262 16.54966164 223 209 222
246088.33666992 3357488.53631592 16.58223915 9 125 202
246088.05737305 3357488.88430786 16.06375504 128 128 128
246088.48510742 3357487.38024902 16.71955490 2 155 222
246089.71105957 3357487.33386230 15.93811512 128 128 128
246089.75244141 3357488.61676025 14.40711594 151 155 164
246088.67285156 3357487.07830811 16.61395073 211 201 251
246088.28515625 3357488.63977051 16.05593491 128 128 128
246088.71496582 3357487.24923706 14.19436741 98 98 100
246088.18518066 3357487.69094849 14.10464478 137 144 150
246087.53112793 3357487.21374512 14.10702515 141 148 154
246087.68017578 3357487.41079712 16.36362457 15 147 219
246089.65393066 3357487.57174683 14.33111763 152 153 157
246090.07702637 3357487.27761841 16.28692436 26 142 215
246088.84045410 3357488.07806396 15.97637844 128 128 128
246089.72900391 3357486.57641602 16.38664818 77 180 215
246089.15600586 3357487.70645142 14.37896633 144 144 144
246090.00708008 3357488.46511841 16.30642319 96 162 186
246089.77099609 3357486.70727539 14.14519501 195 191 188
246090.29296875 3357488.05972290 16.16516113 76 132 183
246089.95275879 3357487.24539185 16.33918762 26 143 213
246087.71472168 3357488.91653442 16.11159134 128 128 128
246090.21875000 3357488.43127441 16.14875412 64 129 171
246088.21020508 3357489.18194580 14.12848186 142 152 161
246089.19555664 3357487.38204956 15.95022583 128 128 128
246090.23608398 3357488.35577393 14.22678280 162 172 182
246089.08959961 3357488.50906372 16.53420639 142 62 97
246089.82092285 3357487.72589111 14.15800762 153 156 161
246088.73400879 3357488.62286377 16.51581001 71 143 168
246087.51110840 3357487.81011963 16.17264557 128 174 210
246088.90747070 3357487.01495361 14.26499462 118 122 125
246089.46667480 3357487.73861694 14.41174507 155 154 152
246087.86682129 3357488.65121460 14.11383820 138 149 155
246087.71789551 3357488.65686035 14.10822487 141 152 158
246089.71630859 3357486.85198975 16.46076393 24 135 206
246089.46350098 3357487.46463013 16.61154556 72 128 205
246090.30456543 3357488.13595581 16.12836838 147 175 215
246088.50927734 3357488.70983887 16.04124832 128 128 128
246088.96044922 3357488.38156128 14.26800632 139 144 150
246090.08959961 3357487.93829346 14.07654095 197 200 205
246087.40991211 3357488.16574097 14.08982754 146 155 164
246089.44274902 3357488.39791870 16.49918747 28 96 133
246089.31372070 3357487.13400269 15.97918701 128 128 128
246090.11022949 3357487.38510132 16.00172424 187 197 207
246088.05468750 3357488.30187988 16.05455971 128 128 128
246088.51330566 3357488.06372070 14.14437103 120 127 135
246088.10937500 3357488.94161987 16.05926323 128 128 128
246089.14794922 3357488.96627808 14.19507790 134 143 152
246090.23339844 3357487.76486206 16.24355888 84 173 229
246087.72351074 3357488.69354248 16.25089455 35 144 203
246089.84790039 3357488.21957397 15.91248608 108 107 89
246088.51794434 3357488.50259399 14.10919571 143 154 160
246088.01904297 3357488.38827515 16.06186295 128 128 128
246088.42651367 3357487.64874268 14.14103031 124 129 132
246090.17626953 3357487.52880859 16.26998520 48 141 211
246088.36486816 3357486.80252075 16.06886864 128 128 128
246089.06396484 3357488.77911377 16.06322861 97 103 89
246087.84997559 3357487.51153564 16.07595444 128 128 128
246089.66210938 3357487.26919556 16.49250412 20 137 216
246089.90185547 3357488.08547974 16.37766266 23 117 169
246089.59960938 3357487.71051025 16.55257988 114 68 94
246087.57080078 3357487.41055298 14.08213043 155 162 168
246089.20288086 3357487.08532715 14.40706539 122 127 130
246089.05041504 3357488.37289429 15.97121429 128 128 128
246088.54833984 3357488.03024292 14.15628242 119 126 134
246089.40515137 3357488.57412720 15.99990463 111 113 99
246089.07751465 3357486.97283936 14.33044910 135 143 145
246089.94519043 3357487.66976929 14.09208393 187 190 195
246089.96203613 3357487.84207153 16.36929703 19 127 191
246089.79919434 3357486.52938843 16.31972885 155 176 197
246088.86730957 3357487.15209961 14.25553989 111 114 119
246089.42797852 3357488.64913940 16.38272095 48 140 181
246088.80261230 3357487.65063477 14.31307507 182 186 185
246088.99438477 3357487.96228027 16.82326889 23 113 191
246087.46203613 3357489.06381226 14.11978149 147 156 163
246088.35009766 3357488.89266968 14.15903473 148 157 166
246089.57250977 3357488.73065186 14.34389114 166 174 187
246088.40417480 3357487.03408813 14.14378548 194 198 201
246087.74816895 3357487.57498169 16.08604813 128 128 128
246088.15783691 3357487.12680054 14.10376072 114 119 123
246089.45495605 3357487.08795166 14.45539474 138 142 145
246088.76098633 3357487.67114258 15.98480797 128 128 128
246089.97192383 3357488.36941528 16.32951927 59 123 148
246089.26818848 3357486.61016846 16.38967133 16 153 223
246088.00537109 3357488.52792358 14.12456417 141 150 157
246089.61547852 3357486.88528442 16.02622795 128 128 128
246088.01794434 3357488.48931885 16.51679993 10 140 215
246088.54357910 3357487.75976563 14.16939163 130 130 138
246088.18591309 3357488.27008057 14.09473419 138 145 153
246089.91003418 3357486.85556030 16.08174896 143 183 209
246088.06005859 3357488.13403320 16.54601669 44 144 203
246088.55358887 3357488.48880005 16.59315681 19 126 196
246089.72058105 3357487.43084717 15.92478275 128 128 128
246089.45202637 3357488.91387939 14.23361969 112 121 136
246089.42749023 3357486.81677246 16.05603981 128 128 128
246087.70251465 3357488.17724609 16.35222244 30 125 207
246087.56152344 3357488.61627197 14.10136414 146 155 164
246088.45605469 3357486.95690918 14.17749023 234 239 242
246089.64440918 3357487.26828003 16.50191689 21 137 214
246087.56176758 3357487.47036743 14.08270931 154 161 167
246088.11157227 3357486.96533203 16.05050468 128 128 128
246087.93066406 3357488.74472046 16.07471848 128 128 128
246088.42639160 3357488.00482178 16.74978256 25 186 238
246088.46154785 3357487.50378418 16.01490211 128 128 128
246089.02600098 3357486.79638672 14.26249599 158 159 161
246087.83752441 3357487.57379150 16.45247459 3 151 223
246088.12133789 3357488.31546021 16.04800415 128 128 128
246089.54711914 3357488.04663086 14.47395229 182 182 194
246088.58483887 3357488.00537109 16.00198746 128 128 128
246087.82897949 3357487.74603271 16.45816612 62 166 221
246087.71655273 3357487.00842285 16.38577080 31 156 214
246088.40124512 3357487.56460571 14.12966919 128 133 137
246089.28503418 3357488.70040894 14.36755848 148 154 166
