245672.82177734 3357688.51208496 17.43013954 51 53 52
245666.60766602 3357690.53558350 18.03538322 38 44 44
245667.52514648 3357688.19610596 20.07839775 143 170 189
245668.54895020 3357690.24084473 17.93043900 19 27 30
245663.90911865 3357688.74114990 20.07973862 173 201 213
245670.48590088 3357689.53424072 17.08642197 15 16 20
245668.16296387 3357690.36859131 19.63934326 210 229 243
245672.57934570 3357690.26531982 16.55586052 46 51 55
245663.08557129 3357686.83459473 19.20895004 15 24 21
245672.94396973 3357689.17285156 16.55351448 56 60 61
245670.25024414 3357689.68243408 17.92238617 52 58 58
245667.34490967 3357690.36096191 18.28307533 111 112 116
245665.96777344 3357687.13122559 16.54217911 105 112 118
245668.88104248 3357688.21301270 20.00464058 149 176 197
245664.11383057 3357687.64471436 19.77405739 149 172 188
245668.51098633 3357687.47406006 19.60908318 143 170 187
245667.08300781 3357689.50720215 20.11540031 200 226 239
245665.76153564 3357690.81311035 18.85184479 17 22 25
245667.55407715 3357688.29785156 20.13570786 144 171 190
245671.91717529 3357689.86938477 18.32052612 89 103 104
245665.58416748 3357687.24932861 17.00966454 31 32 36
245668.38745117 3357686.55450439 16.61465836 23 24 28
245669.05755615 3357689.77947998 19.99791145 180 207 224
245667.55541992 3357690.38836670 17.81941986 39 44 47
245666.37359619 3357690.46240234 17.83735085 67 72 76
245664.91748047 3357690.53564453 18.77045631 94 103 108
245671.69519043 3357689.61804199 18.05674553 150 160 159
245664.29864502 3357690.71289063 19.35871315 127 131 130
245673.26171875 3357690.42492676 16.63709068 44 47 52
245668.36804199 3357687.16925049 17.52616501 10 12 11
245664.29943848 3357686.90679932 16.71442223 55 61 61
245669.80822754 3357686.85729980 17.41541100 43 48 52
245666.10833740 3357687.47943115 19.61455345 142 171 189
245665.67993164 3357687.84008789 19.84322357 149 175 192
245663.65765381 3357689.25323486 19.81771278 204 221 228
245663.48742676 3357686.68774414 16.76324844 33 43 45
245671.50634766 3357690.50262451 19.43107605 230 243 249
245663.65234375 3357689.97363281 19.81298828 214 227 233
245667.53814697 3357688.92102051 20.32372665 188 215 232
245664.87310791 3357690.58856201 19.28739548 183 184 188
245664.21911621 3357686.72717285 16.71688652 36 41 45
245672.69390869 3357688.54028320 17.37439728 51 53 52
245667.70001221 3357687.24584961 16.95514488 0 0 2
245671.99926758 3357688.91552734 17.06016159 57 58 60
245666.35540771 3357690.04797363 17.16670227 42 52 53
245669.34759521 3357690.33282471 18.80078888 73 83 85
245671.67584229 3357690.05749512 18.49154472 144 149 152
245669.11157227 3357687.03802490 17.61864281 12 13 17
245666.65112305 3357688.51440430 20.04749107 161 189 210
245667.40521240 3357690.38464355 19.65781021 224 238 247
245667.81927490 3357688.84033203 20.61666679 170 196 213
245667.38439941 3357690.35467529 18.02358055 64 65 69
245667.69714355 3357686.86596680 16.44793510 43 47 50
245664.62921143 3357686.66894531 16.71239281 28 32 33
245672.43927002 3357690.64617920 19.38827705 220 231 235
245669.15399170 3357689.65832520 17.30576134 100 103 110
245664.92291260 3357688.65112305 20.51685333 148 171 189
245672.39709473 3357690.13018799 18.67511749 0 0 0
245665.78582764 3357687.19976807 17.42175674 27 28 33
245664.01861572 3357690.75238037 17.97444725 87 91 92
245663.76550293 3357686.76318359 16.74092865 34 43 48
245671.31036377 3357689.39202881 17.16712379 27 28 32
245666.71539307 3357687.23101807 19.46832275 147 164 180
245670.57788086 3357690.02893066 18.33502388 77 83 83
245667.89184570 3357688.79327393 20.64614296 162 187 207
245671.81494141 3357689.31402588 17.00945854 22 27 30
245671.27447510 3357689.80999756 18.18685341 103 109 109
245665.63482666 3357687.13275146 17.98615456 49 52 57
245672.28729248 3357688.81915283 16.58376694 77 79 78
245665.06469727 3357689.61700439 20.27783775 193 216 232
245670.28790283 3357689.32031250 20.16679001 193 219 232
245668.72973633 3357690.02032471 17.74909592 22 28 40
245669.63476563 3357686.88293457 18.58706665 27 31 34
245671.44995117 3357689.09204102 17.52288055 83 91 93
245671.24340820 3357689.72564697 17.05696678 19 22 27
245670.52972412 3357690.51654053 19.21557999 130 141 143
245668.34460449 3357689.73217773 20.05190849 179 210 228
245665.48840332 3357687.07690430 19.08604813 28 33 37
245664.23779297 3357690.02001953 19.96392441 196 215 230
245666.04711914 3357687.14581299 17.87848473 75 79 90
245665.82965088 3357687.53271484 19.67989349 149 170 189
245664.53314209 3357689.78302002 20.16497231 190 213 227
245672.14953613 3357687.21295166 19.60892868 153 164 160
245667.63604736 3357690.57495117 19.46456718 233 242 247
245670.20520020 3357687.89752197 19.82682037 160 187 204
245671.88305664 3357689.55194092 17.98644066 7 19 19
245672.71881104 3357690.41571045 18.94594193 63 75 65
245672.16046143 3357689.40277100 16.78745270 53 59 59
245667.47595215 3357687.23687744 17.06433487 9 13 14
245670.11096191 3357689.54528809 17.75906372 25 26 30
245669.90972900 3357690.64550781 19.08575439 155 172 180
245671.22406006 3357689.52563477 17.25764656 23 26 31
245665.44982910 3357690.60675049 19.41830826 191 196 200
245668.79876709 3357689.85528564 17.42744827 19 26 34
245671.10308838 3357690.18457031 19.78791428 221 237 250
245671.00512695 3357688.36889648 20.24645424 153 172 187
245672.61413574 3357688.72570801 17.52416992 45 49 48
245665.98968506 3357687.23144531 16.83107567 20 24 27
245666.91424561 3357690.63885498 18.54786873 30 33 40
245667.66961670 3357690.51013184 18.92598534 88 97 96
245667.54980469 3357687.20520020 16.37678719 16 21 17
245671.36297607 3357690.24627686 19.71676254 219 236 246
245671.20288086 3357687.76544189 19.82701111 147 166 183
245665.51684570 3357690.25231934 19.79861450 211 233 244
245669.07366943 3357689.54565430 20.13611984 173 202 220
245671.69525146 3357689.20434570 17.16169167 33 36 41
245664.20721436 3357690.81048584 19.21430206 32 36 37
245663.25274658 3357690.73608398 19.47297478 226 235 240
245671.10180664 3357689.98199463 17.04184151 5 8 15
245671.03344727 3357688.98864746 20.46780014 213 233 242
245664.06292725 3357687.10510254 17.03429413 29 34 38
245663.38201904 3357686.69427490 18.53514099 33 38 41
245668.62677002 3357687.83300781 19.80168343 145 171 186
245663.59771729 3357686.94610596 17.29962540 32 42 44
245669.48968506 3357689.00097656 20.09189796 171 204 223
245665.87744141 3357690.51208496 18.07136536 26 27 32
245665.09875488 3357687.22143555 17.20599747 64 65 69
245672.72778320 3357688.01800537 19.49985886 36 41 37
245671.71795654 3357689.85467529 18.29611015 162 171 170
245668.39422607 3357689.33087158 20.31790733 169 198 216
245669.97021484 3357686.78253174 17.42196274 47 52 55
245668.31506348 3357687.05859375 18.76531601 6 10 13
245666.64575195 3357687.01934814 16.41782570 16 21 24
245665.53411865 3357686.65545654 16.53308296 21 26 30
245663.44927979 3357688.79791260 19.48718452 64 77 86
245666.54357910 3357686.43890381 16.67421913 41 46 50
245663.35852051 3357686.84417725 17.19276428 32 37 41
245663.49536133 3357687.61511230 19.66596031 178 203 210
245663.60699463 3357689.58343506 19.76742363 208 226 228
245664.77917480 3357687.19812012 17.37342644 32 32 40
245672.64904785 3357688.96313477 17.80890656 23 25 24
245671.04040527 3357688.40954590 20.28801727 151 170 185
245664.13696289 3357690.10113525 19.90521431 217 234 242
245667.30761719 3357687.15570068 19.40496254 11 12 16
245669.46032715 3357688.52233887 20.01620865 162 190 211
245668.17169189 3357690.35009766 18.66181374 74 82 84
245669.94952393 3357689.41406250 17.47812843 23 22 27
245669.19207764 3357689.84277344 19.95729446 186 213 232
245666.62908936 3357687.63916016 19.68321800 147 174 193
245671.33709717 3357688.70495605 20.67557526 176 190 201
245672.59155273 3357689.48779297 18.22811890 47 51 50
245665.15240479 3357686.69805908 16.59216499 33 38 42
245666.17498779 3357689.99993896 17.25974274 45 50 53
245663.90130615 3357689.64929199 20.02487564 208 225 232
245668.36407471 3357687.06878662 19.08772278 8 11 16
245671.59509277 3357689.59686279 20.09761620 211 229 241
245672.43713379 3357689.22534180 19.59646988 180 195 202
245672.36444092 3357688.45190430 19.61607170 168 183 188
245671.13983154 3357687.67651367 19.76491547 155 174 188
245664.45690918 3357686.50543213 16.75966454 39 43 44
245669.20355225 3357689.75000000 17.67690659 17 22 28
245667.56542969 3357687.18542480 17.50098038 33 42 41
245669.14379883 3357687.48907471 19.62364006 145 172 191
245665.16473389 3357687.61694336 19.76124382 159 178 192
245665.93975830 3357687.14739990 17.91122818 50 53 60
245669.63146973 3357690.70440674 19.42884064 227 237 247
245665.51171875 3357689.66387939 20.20113754 194 217 233
245665.28808594 3357687.18963623 19.44619560 18 24 24
245665.77117920 3357688.97216797 20.29448318 157 188 208
245672.19073486 3357688.68603516 19.83360481 165 182 189
245664.80273438 3357690.46331787 19.64253616 199 217 229
245665.78393555 3357689.07897949 20.28824806 176 207 225
245665.91101074 3357687.05517578 19.26580238 23 28 34
245672.57708740 3357688.37487793 17.05654144 54 56 55
245667.05108643 3357687.22137451 16.44008636 43 47 50
245672.19354248 3357688.44714355 16.88731003 65 66 68
245667.59661865 3357686.94696045 16.37919235 35 40 43
245664.80603027 3357686.83282471 16.63981438 60 69 68
245670.09112549 3357689.44897461 17.60959625 42 43 47
245670.22741699 3357689.78460693 17.03800392 31 32 37
245671.93859863 3357689.79400635 19.88265038 220 238 250
245669.03344727 3357689.73138428 17.20608902 135 138 143
245663.31958008 3357686.83300781 17.11979103 29 37 40
245664.55432129 3357687.06988525 18.68704224 31 35 38
245665.23254395 3357688.03027344 20.01211548 154 173 190
245666.37237549 3357690.69274902 19.48594666 216 235 242
245666.66064453 3357687.50390625 19.62899399 146 172 189
245663.75048828 3357690.87402344 19.17585564 24 28 31
245666.62652588 3357690.37432861 19.68374443 225 242 250
245669.81756592 3357689.55584717 17.67652321 38 39 41
245663.53973389 3357690.86718750 19.37576675 19 29 28
245666.34460449 3357690.03833008 17.21641159 32 40 42
245667.26855469 3357690.40802002 17.67438507 46 55 54
245672.78851318 3357689.58038330 19.23080063 39 47 50
245668.41870117 3357687.23962402 16.88746452 17 18 22
245663.45141602 3357686.93066406 19.15434837 16 24 26
245666.85131836 3357689.25860596 20.14448357 188 215 234
245671.26287842 3357687.62103271 19.72664070 152 168 184
245664.48382568 3357690.80871582 18.71971703 81 89 92
245672.49206543 3357689.76257324 19.54515266 186 205 212
245667.05981445 3357690.24554443 19.75603867 226 240 251
245667.92895508 3357690.34234619 17.57679367 25 30 33
245668.44049072 3357687.13842773 17.70848083 10 14 17
245667.15887451 3357689.85479736 19.99311066 212 234 247
245669.38513184 3357690.77917480 19.36968613 220 224 227
245666.99475098 3357689.12426758 20.15054321 184 213 231
245669.71972656 3357686.60241699 16.95696068 37 41 44
245664.04656982 3357687.10333252 17.01608467 31 36 40
245666.58209229 3357690.41088867 17.05366135 13 18 21
245666.40649414 3357690.55749512 19.56984520 218 236 246
245663.72338867 3357687.85015869 19.84826469 170 198 212
245666.90332031 3357690.67175293 18.94074440 43 53 55
245667.78875732 3357687.09301758 18.96830177 43 44 49
245671.92529297 3357687.54797363 19.69170189 159 178 184
245663.24877930 3357690.01715088 19.55535507 46 52 48
245665.86151123 3357690.18273926 17.30119133 34 39 43
245669.28649902 3357690.17108154 18.68537521 94 104 106
245669.15325928 3357689.71398926 17.55412674 75 80 86
245665.13861084 3357688.30877686 20.20583153 149 172 190
245668.76727295 3357690.11395264 16.94137001 17 20 25
245668.71112061 3357690.62738037 16.65881729 58 61 66
245666.09313965 3357690.25494385 19.77261543 216 234 246
245664.42053223 3357687.11334229 16.75423431 28 32 35
245664.27691650 3357687.27917480 19.47830200 13 21 34
245668.99737549 3357690.62561035 19.13951492 38 46 49
245668.85064697 3357690.34753418 18.86828041 148 153 156
245672.33972168 3357690.15777588 18.69211960 0 0 0
245666.99603271 3357687.10467529 16.37692642 119 127 130
245667.76043701 3357687.17889404 19.37734413 7 11 12
245667.17962646 3357687.06268311 16.42854691 120 128 131
245665.29742432 3357690.36999512 19.71448898 211 231 242
245673.16156006 3357690.65838623 16.52317238 77 81 90
245663.91430664 3357690.67736816 19.53935623 223 236 242
245669.74755859 3357690.47064209 19.58034134 214 232 244
245670.50598145 3357690.32989502 18.90478134 61 71 70
245665.28234863 3357687.09185791 18.27491760 35 40 44
245671.06866455 3357688.50317383 20.36779976 159 178 193
245670.04260254 3357687.04528809 19.43915558 84 97 105
245668.84283447 3357690.53668213 19.50859451 217 234 244
245669.62597656 3357686.57714844 16.88492775 32 36 39
245671.59124756 3357690.20343018 16.73900414 19 22 27
245671.10052490 3357689.54296875 17.88092232 14 18 21
245669.10437012 3357689.63940430 20.08603859 180 207 224
245666.48760986 3357687.16864014 17.78526878 13 13 13
245667.23175049 3357689.15228271 20.21508408 184 215 233
245671.50482178 3357688.81964111 20.71298218 169 183 192
245669.30352783 3357690.61175537 19.46589851 221 234 243
245667.88073730 3357690.59289551 16.69179153 27 34 40
245668.45599365 3357687.19573975 16.59542847 7 12 15
245665.85028076 3357689.36505127 20.23791122 180 209 225
245670.20092773 3357687.54425049 19.67893982 149 177 191
245664.70831299 3357690.54766846 17.18367195 148 155 161
245667.72711182 3357687.08972168 18.52106094 9 13 14
245666.31707764 3357686.87133789 16.50528717 53 58 62
245669.33929443 3357686.93353271 19.10382271 9 17 19
245663.36566162 3357687.31036377 19.47926712 175 194 200
245668.02484131 3357690.11651611 16.83906746 24 34 36
245668.11529541 3357688.76281738 20.67584038 126 151 171
245664.90258789 3357690.48675537 17.69498634 48 52 55
245671.13952637 3357688.94696045 20.57986832 215 233 243
245673.20837402 3357690.74407959 16.52057076 74 79 82
245663.32763672 3357686.91668701 19.24048233 28 30 29
245671.81860352 3357689.25256348 17.68008614 33 39 39
245666.47839355 3357687.21350098 17.22013283 23 27 30
245670.34118652 3357690.06213379 16.75733566 40 45 48
245670.01043701 3357686.75354004 17.41757393 46 51 55
245667.84088135 3357686.98095703 16.36702347 16 21 24
245668.05657959 3357688.19354248 20.08210754 143 165 186
245670.76269531 3357690.32714844 18.76644897 112 122 123
245670.13958740 3357690.27136230 18.65635300 44 54 56
245668.20697021 3357689.56512451 20.17620659 183 212 230
245669.85784912 3357686.73394775 17.19518661 37 42 45
245668.52410889 3357687.04376221 18.84623909 15 16 18
245670.89147949 3357690.54217529 16.80157089 71 71 79
245667.06439209 3357689.48333740 20.12063789 200 228 242
245666.55590820 3357688.47528076 20.03909302 156 185 203
245665.10351563 3357687.23712158 17.08430862 20 21 23
245670.29345703 3357687.41424561 19.62375450 151 172 189
245670.85601807 3357689.61492920 20.14932632 218 236 248
245668.66076660 3357690.17913818 17.96422768 27 34 42
245665.28112793 3357687.25268555 16.97090721 28 27 33
245665.94439697 3357688.63995361 20.16565132 154 182 203
245666.72442627 3357687.08508301 18.58160782 10 14 17
245670.79565430 3357690.53741455 19.22595406 148 156 158
245670.55664063 3357689.94482422 17.02709389 26 25 30
245668.64086914 3357687.19299316 16.81332588 13 18 21
245666.14599609 3357690.77069092 19.44653130 209 226 236
245665.39282227 3357690.66717529 17.07081413 5 6 8
245671.91894531 3357688.86914063 20.16834641 159 176 183
245666.43981934 3357689.51153564 20.09632683 193 219 234
245667.72137451 3357690.65948486 16.96208954 84 91 97
245667.42468262 3357690.64819336 17.43943977 56 57 62
245665.86749268 3357687.13226318 19.44892693 23 32 41
245672.66094971 3357689.75506592 19.41702461 125 138 146
245667.91943359 3357690.42065430 18.80804825 115 124 123
245664.01995850 3357686.89678955 16.74678993 53 61 63
245668.81555176 3357690.14892578 19.76606941 196 222 237
245665.35626221 3357689.79785156 20.13807487 200 223 239
245671.41363525 3357690.24285889 16.66330910 11 19 22
245668.02423096 3357689.07275391 20.75379753 171 200 218
245672.36242676 3357688.96276855 16.59813118 62 66 67
245672.23937988 3357689.85162354 19.71984100 186 202 217
245672.22271729 3357690.39837646 16.65750504 42 45 50
245670.46929932 3357689.71453857 17.97264290 87 93 93
245670.65783691 3357690.21325684 17.02861786 97 101 110
245668.80474854 3357687.60375977 19.67170143 144 170 187
245667.80523682 3357689.91455078 19.93480492 200 223 239
245668.16882324 3357688.41174316 20.24418640 137 160 178
245670.52777100 3357689.56304932 20.15248489 210 232 245
245663.31036377 3357686.97503662 19.35839462 16 20 31
245670.08685303 3357688.95336914 20.13294601 188 215 232
245671.60736084 3357687.29260254 19.55250740 174 184 193
245669.10711670 3357688.32800293 19.99590683 154 181 202
245664.78601074 3357687.02532959 16.58859634 27 35 37
245664.77026367 3357690.57250977 16.74879074 99 107 110
245665.65753174 3357687.22534180 17.19907951 28 29 34
245666.21234131 3357687.20959473 19.48652267 139 165 180
245672.89324951 3357689.62933350 19.05781746 46 54 57
245669.76171875 3357689.20874023 20.11388969 178 206 227
245668.56488037 3357690.47558594 16.67215729 64 67 72
245666.49121094 3357690.52667236 16.77705383 41 50 55
245669.64752197 3357689.54260254 17.57521248 23 26 31
245672.60571289 3357688.46124268 19.49089432 89 100 104
245668.31054688 3357690.12756348 17.60583115 28 33 37
245670.65478516 3357689.66821289 17.94654846 10 15 18
245668.45831299 3357690.32501221 17.93747139 14 22 25
245671.86553955 3357690.17871094 16.98320007 71 72 77
245668.48162842 3357687.06683350 18.61593819 5 6 8
245671.39739990 3357689.16760254 17.60989571 79 87 89
245669.35864258 3357688.13464355 19.88227844 149 176 195
245667.81219482 3357690.61816406 16.94631577 23 31 33
245670.95159912 3357689.70928955 20.09206200 219 237 249
245669.23663330 3357686.96350098 19.03155899 16 24 27
245665.40966797 3357687.08514404 19.10034370 48 55 61
245668.09600830 3357689.57623291 20.18142509 183 212 230
245664.91638184 3357686.69360352 16.66251945 33 39 39
245665.67675781 3357687.06945801 18.87601852 17 22 26
245669.95092773 3357689.86053467 19.97005272 198 221 239
245666.54992676 3357687.04052734 18.78886795 39 42 47
245665.94757080 3357687.21484375 17.31867790 36 37 41
245669.34570313 3357690.57922363 19.49309921 221 233 245
245671.21069336 3357689.74316406 17.09701157 20 24 27
245669.13824463 3357689.66125488 17.23465729 155 160 164
245666.62823486 3357687.99688721 19.85128784 153 180 199
245667.97015381 3357690.11102295 17.04302597 48 51 56
245664.42169189 3357687.21429443 19.24719238 19 24 27
245668.41754150 3357688.28875732 20.13434792 142 165 181
245671.50939941 3357689.93695068 16.85343170 22 25 30
245665.83874512 3357690.25323486 17.49596024 33 36 41
245671.47711182 3357687.78851318 19.84309578 146 168 182
245672.12890625 3357688.70367432 19.90829468 162 179 186
245663.26727295 3357690.15856934 19.56292343 55 60 56
245668.24096680 3357690.01452637 17.13754463 26 29 34
245665.30224609 3357690.67425537 19.15001488 136 141 144
245671.27246094 3357687.30255127 19.55199051 159 173 182
245671.92877197 3357690.34088135 18.79357719 50 58 60
245668.46685791 3357690.55487061 19.41218376 225 236 242
245669.91827393 3357689.12329102 20.12433434 181 210 228
245667.70477295 3357690.51269531 19.52620506 226 239 247
245670.54522705 3357689.89636230 18.17732811 62 68 68
245664.28405762 3357687.09558105 18.90288162 22 27 33
245663.85125732 3357687.61816406 19.76090622 159 181 194
245665.35583496 3357687.50988770 19.69421387 155 176 193
245663.24713135 3357688.98663330 19.35758018 20 25 29
245670.44323730 3357690.06396484 16.83009338 35 41 41
245668.15631104 3357688.54486084 20.36705971 130 151 170
245667.58843994 3357690.49273682 18.86432457 50 58 60
245669.05358887 3357690.00897217 18.50872612 134 144 146
245672.48077393 3357688.53472900 17.21172523 50 50 50
245666.87683105 3357687.21429443 17.32995796 24 24 26
245667.20056152 3357689.05169678 20.19597435 182 213 233
245667.58435059 3357690.69891357 17.06653404 74 81 89
245670.05114746 3357690.56024170 16.58751106 128 143 150
245667.92767334 3357687.08825684 18.47158241 18 19 21
245668.22674561 3357690.46563721 18.37291145 30 31 35
245670.97296143 3357690.28942871 17.11488342 119 132 151
245664.47131348 3357686.63854980 16.74917984 26 30 31
245668.55096436 3357688.19366455 20.05375862 147 170 188
245673.21936035 3357689.85314941 16.86816788 48 52 53
245666.17779541 3357689.20458984 20.16941261 183 212 228
245668.98803711 3357687.03735352 17.16391945 79 85 83
245664.89965820 3357686.70074463 16.66300392 29 38 37
245663.13726807 3357690.66149902 19.46694374 72 78 76
245665.05493164 3357687.07739258 18.87811279 51 59 62
245667.35406494 3357690.62774658 19.42777061 201 211 213
245669.11309814 3357690.29315186 18.80606651 69 77 80
245670.84741211 3357689.13330078 20.35414124 214 234 245
245669.38269043 3357686.96722412 18.25180817 13 17 18
245668.84936523 3357689.16314697 20.26173019 161 192 212
245663.26141357 3357689.84234619 19.52056122 46 56 55
245668.42175293 3357689.64111328 20.10255814 181 210 228
245666.36791992 3357686.45562744 16.65847397 31 36 40
245663.09643555 3357686.96051025 19.32593536 139 148 145
245670.95983887 3357689.92218018 18.24423027 66 70 73
245669.80450439 3357689.87017822 17.09114647 16 17 21
245669.51934814 3357686.94476318 17.85779762 11 15 18
245664.11376953 3357688.33105469 20.20567131 171 198 209
245670.68347168 3357689.66339111 17.08397675 95 96 98
245665.24749756 3357690.54107666 19.53834534 233 242 249
245663.19506836 3357687.63922119 19.44378853 29 31 28
245671.78002930 3357688.54663086 20.25947380 140 157 164
245663.28497314 3357688.92883301 19.36297607 21 26 30
245669.09472656 3357689.77270508 17.60538673 35 42 48
245669.37768555 3357689.92205811 18.05957413 18 26 28
245668.43231201 3357687.04730225 18.92627716 4 5 7
245667.94415283 3357687.68096924 19.72405243 148 171 189
245669.64855957 3357690.80627441 19.14632988 223 234 236
245668.83038330 3357687.76190186 19.74686432 146 172 189
245671.26739502 3357689.12030029 17.49033165 163 169 169
245668.44531250 3357689.89947510 19.93163872 183 210 227
245671.53265381 3357689.19006348 20.40507889 198 218 229
245666.15478516 3357690.64544678 19.52515602 213 233 240
245664.93530273 3357687.11297607 16.55129051 139 147 150
245670.95825195 3357688.49188232 20.31781960 174 193 208
245667.55895996 3357688.82940674 20.32317543 177 204 221
245666.06542969 3357687.24774170 17.00855827 23 25 24
245667.07330322 3357687.14605713 18.04084969 15 19 20
245670.89129639 3357689.48907471 17.31296921 19 23 26
245667.30883789 3357690.71734619 17.21137619 26 27 31
245665.68505859 3357687.45080566 19.66070938 151 174 190
245672.42248535 3357688.56439209 16.59667397 61 65 66
245665.65051270 3357689.35034180 20.30019760 182 209 226
245663.61285400 3357689.18695068 19.77847862 207 224 232
245666.28338623 3357690.00457764 17.04373360 10 20 21
245664.01739502 3357688.22094727 20.12015343 174 200 213
245668.96160889 3357690.39025879 19.62182426 207 229 243
245665.33612061 3357687.10681152 18.15928078 26 29 34
245671.45996094 3357690.31842041 16.64567184 19 28 35
245667.86547852 3357690.24066162 19.72997665 212 231 245
245672.23138428 3357689.21801758 16.73907280 57 61 64
245668.11315918 3357690.38507080 18.62991524 78 83 86
245667.92852783 3357686.99639893 16.35516167 16 20 23
245666.68145752 3357687.87121582 19.79322433 151 178 199
245665.62072754 3357687.04858398 18.61215591 23 26 31
245667.82916260 3357690.32733154 16.88735580 115 123 126
245669.41961670 3357687.08038330 19.46063614 148 167 182
245665.88952637 3357689.53668213 20.16818428 192 220 234
245671.87738037 3357689.26409912 17.67063904 38 44 42
245670.27709961 3357688.91094971 20.17643738 190 216 231
245668.65466309 3357690.08526611 16.93135834 34 37 42
245663.97656250 3357687.04882813 16.85750198 26 34 37
245663.55725098 3357688.28063965 19.71784401 179 199 208
245669.17913818 3357687.01324463 17.34641457 60 64 67
245671.27673340 3357689.51971436 20.21433640 208 226 238
245669.56994629 3357690.75830078 19.11662292 183 193 195
245670.06481934 3357690.74053955 19.25177383 110 127 135
245668.43884277 3357687.09503174 18.11947823 8 12 15
245665.31707764 3357690.25213623 19.79308128 204 227 241
245668.49658203 3357686.63000488 16.62759590 34 34 36
245667.74645996 3357687.37738037 19.52404022 149 171 185
245665.60339355 3357687.65466309 19.76914597 152 175 193
245665.14385986 3357689.49053955 20.37350464 183 206 222
245667.33056641 3357690.23504639 19.75355339 223 240 250
245663.54211426 3357690.20336914 19.70990944 222 232 241
245667.65283203 3357687.82952881 19.83153534 142 164 185
245667.54302979 3357689.99719238 19.89332771 212 231 245
245665.74481201 3357687.18688965 16.51391029 119 124 128
245667.87048340 3357690.42871094 18.74083328 34 42 44
245664.24194336 3357687.51361084 19.69067383 165 183 197
245664.43933105 3357689.24017334 20.61502838 186 214 225
245667.41265869 3357689.77136230 20.03851700 207 231 243
245672.21063232 3357688.45233154 16.78267670 73 74 76
245668.13122559 3357690.33227539 19.66309738 205 227 241
245672.24664307 3357690.23248291 19.60606575 219 233 244
245663.59503174 3357687.82073975 19.76954842 176 198 211
245663.14550781 3357689.56909180 19.40551376 32 38 38
245668.46746826 3357689.31378174 20.31701279 167 196 214
245666.88909912 3357690.39599609 17.70446014 28 36 38
245664.77160645 3357690.57623291 19.49960709 231 239 241
245668.28540039 3357687.15679932 17.66671371 17 19 18
245670.66143799 3357687.35076904 19.59345627 153 170 188
245666.49713135 3357689.92474365 19.96108055 210 229 243
245664.19018555 3357687.24163818 19.41341400 19 28 37
245668.68371582 3357690.26574707 18.14746857 23 27 30
245672.88458252 3357690.08557129 19.11405373 43 48 52
245670.68176270 3357688.34332275 20.13278198 176 199 213
245665.99902344 3357687.03344727 18.70634270 14 17 22
245667.34552002 3357690.34796143 18.03250313 57 58 62
245672.63372803 3357688.48522949 16.61641121 61 65 66
245671.99462891 3357688.67236328 20.05619240 162 177 182
245669.40081787 3357690.41210938 18.85275841 61 69 72
245669.37225342 3357689.52874756 17.25464821 34 33 38
245667.34655762 3357690.63165283 17.38465309 57 58 63
245665.07550049 3357690.34136963 17.60979271 13 18 22
245666.17425537 3357688.05151367 19.87218094 149 176 197
245666.36297607 3357690.39929199 19.67027855 224 241 251
245667.85565186 3357687.19152832 17.42093849 13 17 16
245664.48443604 3357690.78363037 18.07314110 27 33 33
245664.63500977 3357690.68115234 18.70221138 146 156 158
245672.53961182 3357690.75378418 19.24847031 18 27 26
245669.31506348 3357690.74591064 19.25641441 116 124 126
245669.64544678 3357686.87469482 17.29426193 43 48 51
245671.59228516 3357690.37145996 16.63311577 29 36 42
245672.89013672 3357690.10028076 19.00992584 43 48 54
245664.54956055 3357687.11083984 17.87524033 29 32 37
245664.11560059 3357687.08526611 17.42352295 26 31 35
245669.77600098 3357686.63800049 17.01534462 37 41 44
245671.00238037 3357688.17773438 20.12185478 151 170 187
245664.50463867 3357686.49871826 16.75951958 27 31 32
245663.87561035 3357687.63977051 19.77117348 155 178 192
245665.85748291 3357687.17858887 17.62223244 23 26 31
245672.34747314 3357688.58575439 19.64439774 170 183 189
245664.02233887 3357687.04974365 17.64853477 25 30 34
245668.94213867 3357686.95544434 16.97195244 109 118 117
245671.51531982 3357688.37799072 20.30949211 139 157 169
245666.08862305 3357690.89367676 18.79740906 82 88 88
245666.62774658 3357687.11260986 18.38656044 19 23 26
245667.91180420 3357690.14825439 19.78562737 206 228 241
245665.53985596 3357690.47790527 17.19088173 26 31 35
245670.41723633 3357690.24932861 19.74965096 215 237 250
245666.82110596 3357690.72662354 17.22293854 54 60 60
245665.52954102 3357690.66674805 18.72138786 29 34 37
245671.08587646 3357690.11260986 18.45549965 116 121 124
245671.78485107 3357688.91772461 20.28905678 156 173 181
245668.03546143 3357690.28277588 19.69742584 208 230 244
245670.30914307 3357689.87487793 19.98413086 210 232 245
245663.86932373 3357689.13256836 20.03054619 188 210 224
245665.46820068 3357690.30603027 18.01687050 20 24 27
245671.92413330 3357688.94323730 20.14141464 160 177 184
245667.76843262 3357687.28021240 16.65557671 18 20 19
245665.72760010 3357690.01562500 19.96247864 202 225 241
245668.30517578 3357690.58819580 16.66594315 52 63 67
245672.29821777 3357689.23010254 19.73721886 177 191 200
245666.14764404 3357687.95495605 19.82843018 145 172 193
245667.07678223 3357688.34545898 19.99990654 163 190 209
245664.31384277 3357688.88555908 20.52347374 175 201 214
245663.57897949 3357686.80169678 16.76943016 47 57 59
245673.18884277 3357688.23962402 17.27161789 38 40 39
245666.13720703 3357690.95794678 19.23822594 61 77 92
245672.37286377 3357690.13031006 16.61536598 51 52 56
245672.80670166 3357689.67364502 19.18252945 28 38 39
245667.41802979 3357690.00292969 19.89444542 216 234 246
245665.25659180 3357690.50665283 19.59514999 214 231 241
245671.04229736 3357690.38153076 18.78193283 135 144 143
245671.53173828 3357687.84045410 19.87885284 141 164 180
245664.70336914 3357687.12225342 17.95983505 27 30 37
245667.87225342 3357689.55444336 20.19442940 187 214 233
245670.00689697 3357690.15155029 16.97832298 85 84 80
245668.00189209 3357690.17370605 19.76644325 205 227 241
245668.28710938 3357687.08856201 19.25071335 32 36 39
245668.35314941 3357687.07763672 18.48145676 18 19 23
245671.12823486 3357688.77178955 20.57142258 193 210 220
245670.36633301 3357689.61529541 20.10358429 204 230 243
245668.47875977 3357690.04583740 17.66225433 18 25 33
245664.78839111 3357687.04577637 18.56375122 31 34 39
245668.24731445 3357686.55792236 16.59408188 43 47 50
245668.30181885 3357690.48376465 19.03354073 67 72 75
245665.99975586 3357690.55114746 19.59110832 219 238 245
245665.13012695 3357690.54534912 18.06775093 59 64 70
245671.75909424 3357689.60638428 20.04970360 212 230 244
245672.50238037 3357690.68475342 19.35326195 224 235 239
245670.96783447 3357689.56799316 20.17924309 219 237 247
245666.02319336 3357687.01947021 18.79929924 18 21 26
245668.33441162 3357690.03991699 17.53151894 18 23 29
245665.65704346 3357686.73522949 16.47772980 43 51 54
245670.40246582 3357689.38299561 17.36844444 14 18 21
245670.77325439 3357689.92315674 18.22345924 27 31 34
245672.77404785 3357689.66009521 19.23674965 26 34 36
245664.70806885 3357689.29528809 20.74067879 184 210 223
245663.51629639 3357686.99108887 19.24684143 19 26 34
245665.56152344 3357688.85778809 20.36166382 154 185 205
245672.40924072 3357690.18157959 18.72303772 0 1 0
245664.30871582 3357688.57135010 20.38845444 165 193 205
245668.04309082 3357690.55572510 19.40076447 220 229 234
245664.35565186 3357690.76361084 19.12739944 23 28 31
245666.87402344 3357687.47265625 19.62494659 140 165 185
245665.05364990 3357688.79718018 20.56095314 150 176 193
245665.67053223 3357690.76129150 19.39182854 188 195 201
245666.49975586 3357686.50360107 16.65934372 39 49 51
245667.17230225 3357690.56256104 18.75080490 36 44 47
245671.77581787 3357690.45245361 19.07158089 73 81 84
245666.90087891 3357687.12933350 18.28400230 24 24 26
245672.67675781 3357690.10235596 18.78189659 42 47 51
245672.63177490 3357689.02471924 19.46544838 114 121 127
245668.55133057 3357687.79876709 19.78911591 143 169 184
245667.49359131 3357690.49096680 18.84447289 43 51 53
245667.68865967 3357688.58392334 20.32039261 165 190 210
245666.56365967 3357687.24432373 16.93560600 29 29 31
245663.78546143 3357689.36315918 19.92932129 204 221 229
245668.20562744 3357689.78619385 20.03235435 181 212 230
245663.63897705 3357688.22998047 19.80030060 176 200 212
245663.85485840 3357689.37182617 19.99006271 199 217 227
245667.96545410 3357687.26782227 16.70041084 16 20 23
245672.12286377 3357688.62652588 19.89899445 162 177 182
245663.54956055 3357690.16156006 19.71428490 222 232 241
245666.91088867 3357690.72155762 19.16649437 45 55 57
245665.60455322 3357687.19366455 17.44318390 23 24 29
245670.71466064 3357689.42993164 17.62036705 14 18 21
245664.45123291 3357688.11163330 20.09063530 154 175 192
245669.18981934 3357689.06048584 20.17368507 167 195 217
245670.08923340 3357690.69036865 19.19800949 114 131 138
245668.31213379 3357688.13299561 20.02612114 146 169 187
245672.31158447 3357690.40930176 18.85029030 50 61 57
245666.44213867 3357690.79937744 18.57506561 29 30 34
245672.75909424 3357689.82464600 19.28927612 20 27 33
245667.04602051 3357687.24310303 17.03984451 8 12 11
245669.42443848 3357687.51513672 19.62247467 147 173 190
245668.61511230 3357687.17224121 17.25779152 13 17 18
245665.94653320 3357690.54742432 18.02423096 22 27 31
245668.01196289 3357687.11627197 18.08222961 14 16 15
245668.01257324 3357688.85217285 20.83402634 161 189 210
245667.59063721 3357689.78118896 20.02570152 197 225 237
245670.25231934 3357688.33679199 20.00669098 170 193 211
245667.94067383 3357690.21832275 17.28396416 22 30 32
245668.02374268 3357690.64160156 16.66448021 34 43 48
245668.79077148 3357687.09698486 17.70288467 16 20 21
245671.16595459 3357688.92956543 20.61126709 202 219 227
245664.47491455 3357690.75354004 18.91828728 27 35 37
245666.78051758 3357687.14648438 18.09151077 16 17 21
245664.04455566 3357687.09881592 19.06560898 25 28 33
245671.60430908 3357689.14916992 17.20730782 54 59 62
245666.38873291 3357686.63537598 16.59799385 26 34 37
245665.99011230 3357690.92498779 18.90339470 23 28 32
245667.80761719 3357689.01641846 20.62828636 183 210 227
245666.94708252 3357689.44763184 20.12707138 202 223 240
245663.45672607 3357689.13439941 19.60254097 129 142 151
245663.41607666 3357686.82904053 16.82536316 42 50 53
245664.39306641 3357687.35870361 19.60419464 83 95 111
245672.62951660 3357688.43835449 19.49126625 96 106 108
245670.60217285 3357687.92608643 19.90925407 151 172 189
245672.85937500 3357690.78723145 19.27828979 220 231 233
245670.78747559 3357689.19720459 20.32211113 214 233 247
245668.93334961 3357687.06878662 18.40760612 3 7 10
245667.84082031 3357690.44000244 19.59321022 223 237 248
245668.01257324 3357690.38397217 18.74073601 88 96 98
245663.59948730 3357687.71447754 19.75623894 173 200 211
245667.99548340 3357687.15814209 17.70144463 3 8 11
245664.05261230 3357687.01489258 18.12367249 22 30 33
245666.47851563 3357686.60479736 16.62086487 41 46 50
245669.24468994 3357687.28283691 19.53556442 146 172 187
245673.21331787 3357690.56958008 16.51597214 59 63 72
245664.01898193 3357690.81750488 19.27565765 100 106 106
245667.56848145 3357689.66137695 20.10649490 190 219 235
245671.23211670 3357689.15832520 17.51896667 86 92 92
245667.45489502 3357690.42523193 18.61593246 23 26 31
245667.26916504 3357687.11114502 19.18244171 17 17 19
245666.76293945 3357687.20904541 17.41328812 23 22 27
245663.31439209 3357690.15557861 19.58416367 112 118 118
245668.23785400 3357687.25067139 16.77718735 11 12 14
245669.50946045 3357690.00634766 18.38282394 92 103 105
245671.44091797 3357690.11938477 18.52014160 136 141 144
245672.11016846 3357687.46313477 19.65969086 163 179 179
245663.74694824 3357686.98571777 17.46300697 15 25 27
245670.12420654 3357690.02453613 19.88954926 207 229 243
245672.82672119 3357689.63287354 19.15191269 37 45 47
245668.62158203 3357690.06927490 16.93996620 28 33 37
245670.33087158 3357689.58392334 17.82170296 79 85 85
245664.13250732 3357687.18359375 19.27224541 17 22 25
245663.32836914 3357686.87530518 16.90577698 35 40 44
245668.44641113 3357690.29870605 19.67348099 196 222 237
245670.69757080 3357690.47753906 16.76239204 40 43 48
245665.87500000 3357687.15203857 17.86041832 61 64 69
245666.31353760 3357690.53198242 18.04162598 24 25 29
245668.55010986 3357689.97192383 17.55775642 26 33 43
245672.89666748 3357689.56927490 18.49750710 16 20 21
245670.32647705 3357688.96343994 20.18533516 192 218 233
245670.97125244 3357687.89099121 19.91713524 152 169 185
245663.59082031 3357686.81036377 17.91377831 34 39 42
245665.11639404 3357688.85772705 20.56579971 151 178 197
245665.49652100 3357688.23779297 20.06848907 148 173 193
245666.92858887 3357687.26562500 16.54760361 46 47 49
245665.89086914 3357690.50756836 18.31523132 29 33 34
245672.86096191 3357690.45989990 19.11424637 12 22 31
245670.63604736 3357689.53173828 17.80351448 10 14 17
245665.14923096 3357690.51385498 19.59210587 212 229 239
245662.89898682 3357687.51696777 19.28837776 21 21 23
245670.42633057 3357689.54211426 17.78974152 42 47 50
245670.60021973 3357687.03472900 19.42831230 34 38 41
245671.74554443 3357688.81915283 20.38366318 146 163 171
245668.11541748 3357687.10620117 18.16384697 16 18 17
245672.07226563 3357688.90869141 16.77869797 56 57 59
245666.43621826 3357687.07330322 16.42121124 51 55 58
245664.25579834 3357687.05712891 18.47794914 23 30 36
245665.55914307 3357687.17138672 17.63001251 34 35 37
245666.33374023 3357687.15209961 17.92802620 12 17 21
245671.56317139 3357689.92974854 18.35303116 155 161 161
245664.14672852 3357687.33184814 19.57103348 148 160 174
245665.81951904 3357687.07794189 18.41491508 62 70 72
245669.55212402 3357687.75280762 19.72666550 148 175 194
245672.60870361 3357690.35980225 18.88039398 61 73 63
245664.91632080 3357686.63714600 16.67949867 37 43 43
245669.26916504 3357689.93078613 18.12553978 14 23 22
245665.07073975 3357687.11883545 19.10303497 33 41 44
245666.18206787 3357687.00616455 18.88125992 32 35 42
245666.06433105 3357687.08215332 19.43042564 95 104 113
245671.96771240 3357689.11383057 17.04157448 24 28 31
245669.71368408 3357690.34045410 16.91639137 52 52 50
245670.49322510 3357689.84478760 18.11591148 74 79 82
245666.50494385 3357687.86120605 19.78524780 150 177 196
245668.24261475 3357687.89593506 19.86641312 143 166 184
245666.52911377 3357689.58319092 20.07554054 198 224 239
245670.00482178 3357690.38574219 16.66374207 72 77 83
245664.73168945 3357688.84027100 20.77595520 128 151 167
245667.67034912 3357687.61090088 19.68477058 142 165 183
245666.95806885 3357688.23291016 19.95459747 158 185 204
245664.80603027 3357690.62481689 17.81166840 34 37 42
245664.16241455 3357689.19427490 20.31342697 191 214 228
245669.48583984 3357688.43218994 19.97656441 159 185 208
245663.13330078 3357690.63110352 19.47498894 47 53 49
245669.25311279 3357690.38262939 18.85859299 67 77 79
245664.10504150 3357687.08520508 17.39752769 26 31 35
245668.70159912 3357687.57836914 19.65951538 143 169 186
245664.28094482 3357687.72241211 19.82730103 164 183 200
245673.07818604 3357688.17993164 17.09706497 52 54 53
245664.44097900 3357690.74121094 19.07909012 6 15 14
245668.51116943 3357690.31958008 19.66041946 200 223 237
245667.84222412 3357687.10375977 18.27720451 17 18 22
245669.85522461 3357690.43072510 18.86260223 159 172 178
245672.39935303 3357689.14990234 17.84481812 30 34 35
245665.04608154 3357687.14593506 17.79049301 33 36 45
245671.21478271 3357689.98803711 16.94730377 18 21 26
245668.33587646 3357687.52648926 19.62695313 146 169 187
245663.42602539 3357687.33978271 19.54478455 170 188 198
245666.71984863 3357690.41552734 17.51012611 4 10 8
245663.93786621 3357687.69226074 19.80332565 157 180 194
245670.55432129 3357690.59503174 19.36978149 199 210 214
245668.87384033 3357686.78479004 16.84606361 45 50 53
245666.01013184 3357690.01501465 19.94654083 211 230 245
245668.08349609 3357687.09753418 16.40003586 113 118 122
245664.94653320 3357687.09429932 18.19691467 31 34 41
245667.67169189 3357689.03613281 20.44184875 190 218 232
245672.47296143 3357689.58709717 18.24030876 84 89 83
245665.40673828 3357690.18041992 19.84484100 205 226 243
245671.71618652 3357689.73193359 18.16672134 158 170 170
245667.88964844 3357690.48297119 17.28447533 0 4 9
245673.35699463 3357689.41192627 16.64993477 55 60 63
245670.00823975 3357686.77508545 18.26534081 33 38 42
245667.72125244 3357687.48229980 19.59762955 143 166 184
245663.99414063 3357686.72222900 16.72783852 28 36 39
245671.11865234 3357689.65679932 17.99950409 12 16 19
245669.90191650 3357687.49096680 19.62686920 154 175 192
245671.16400146 3357689.27484131 17.48392296 30 31 33
245671.04797363 3357690.42248535 19.59068489 222 236 245
245672.77343750 3357689.91241455 19.27577019 23 31 34
245672.42877197 3357688.39807129 16.99201012 48 50 49
245666.21887207 3357688.12658691 19.90583992 150 175 197
245671.88830566 3357687.28613281 19.54661179 173 186 192
245667.61920166 3357687.08984375 18.55721283 26 30 31
245664.00622559 3357690.86035156 19.03190041 27 32 35
245666.25610352 3357687.07635498 19.41777992 145 164 179
245668.95849609 3357688.56878662 20.14272690 148 179 200
245668.94256592 3357689.97521973 17.85865974 20 28 31
245667.62982178 3357687.24401855 16.40243912 6 11 7
245672.25408936 3357689.23083496 19.77069664 177 191 202
245668.82183838 3357686.80767822 16.80843925 44 49 52
245667.45196533 3357687.25189209 16.93270493 12 16 15
245667.46820068 3357689.42059326 20.20373726 195 223 237
245671.60058594 3357690.58660889 16.57650757 113 130 140
245668.27648926 3357687.30908203 19.52109528 158 175 191
245670.42218018 3357690.31542969 18.86841393 57 67 66
245669.30352783 3357687.00219727 17.72459221 10 16 16
245669.54364014 3357686.91217041 18.42870140 22 26 29
245672.54547119 3357688.34771729 16.98303032 56 58 57
245664.66790771 3357686.52905273 16.74941254 36 40 41
245666.61871338 3357687.25524902 16.68359947 45 46 48
245663.39288330 3357688.59869385 19.47990799 201 209 212
245666.47857666 3357690.24298096 17.45637321 16 17 21
245672.11889648 3357689.83111572 18.36819077 1 7 7
245668.89172363 3357686.95404053 16.88473320 102 111 110
245670.93701172 3357690.38311768 18.87223816 60 70 71
245668.37152100 3357690.65979004 16.63989258 35 50 55
245668.27917480 3357690.40594482 18.01322365 14 13 18
245666.83831787 3357687.29504395 19.52184486 140 162 175
245668.45312500 3357689.43804932 20.23128891 170 199 217
245668.49304199 3357687.05212402 16.50233459 121 124 129
245664.01879883 3357686.98645020 16.80919838 40 48 50
245663.88098145 3357686.98089600 17.85822296 19 29 31
245665.34368896 3357688.90576172 20.45511055 153 184 204
245664.01342773 3357687.00415039 18.47669983 28 36 39
245667.83135986 3357690.22296143 19.74225616 211 230 244
245663.98168945 3357687.08911133 17.03658295 30 35 39
245668.22088623 3357687.16387939 17.61514664 28 29 31
245666.81646729 3357688.30291748 19.97244453 156 184 205
245668.21093750 3357688.31915283 20.17213249 137 163 180
245666.44482422 3357688.04260254 19.86936951 153 178 198
245667.10296631 3357687.11822510 18.34616661 16 22 22
245667.20202637 3357690.29846191 19.71897507 226 240 251
245671.73242188 3357688.59497070 20.32507706 146 161 168
245667.22467041 3357687.23083496 17.13489342 7 11 10
245667.93310547 3357690.24499512 16.80566406 15 20 24
245668.17352295 3357689.17834473 20.52996254 169 196 217
245671.40515137 3357688.53399658 20.47072792 129 147 159
245669.31188965 3357690.05999756 19.82333183 194 220 237
245664.39459229 3357690.74426270 17.81554794 27 31 34
245668.40716553 3357687.07202148 18.55264473 9 10 12
245667.52728271 3357689.30120850 20.27606010 195 223 237
245665.81604004 3357689.61578369 20.15867996 191 218 235
245672.88177490 3357690.06585693 19.11818314 33 41 44
245663.86614990 3357689.17559814 20.02352715 191 213 226
245668.28851318 3357687.07983398 18.46690178 16 17 21
245663.47595215 3357686.39520264 16.79969215 14 22 25
245671.36932373 3357687.80529785 19.85088539 143 164 181
245670.84814453 3357690.52856445 19.46382332 226 237 243
245669.13696289 3357687.94958496 19.82146835 145 174 192
245666.75238037 3357686.87091064 16.47177887 45 55 56
245671.55181885 3357690.02258301 19.83980751 219 233 244
245665.77844238 3357690.35076904 17.72844696 24 25 29
245667.23718262 3357687.26348877 16.85692024 18 22 23
245664.89068604 3357686.76031494 16.64756966 51 60 59
245668.91497803 3357690.15698242 16.99903297 12 15 20
245667.87072754 3357689.54028320 20.20457458 187 214 233
245671.73126221 3357689.47332764 20.12765121 210 228 240
245671.37841797 3357690.45098877 19.24421883 186 191 197
245671.22265625 3357689.57464600 20.17040253 218 238 249
245671.88787842 3357689.06732178 17.18142509 29 34 37
245664.14642334 3357688.72369385 20.32781410 175 203 217
245665.41577148 3357690.63439941 18.74740028 22 27 30
245671.25573730 3357689.50897217 20.22063637 208 226 238
245669.43194580 3357686.92102051 18.71307564 11 16 19
245666.62664795 3357687.07666016 18.59974670 17 21 24
245663.65374756 3357689.03314209 19.82002640 195 215 226
245671.42462158 3357687.32916260 19.56389046 163 177 188
245669.16333008 3357688.85980225 20.14631081 162 189 210
245663.51025391 3357687.03314209 19.35111809 22 31 30
245666.26519775 3357690.55145264 19.57923508 218 236 246
245666.86407471 3357690.67993164 18.67966652 32 37 41
245667.05126953 3357687.36419678 19.56807327 139 161 182
245667.45263672 3357690.46697998 18.77079964 46 51 55
245669.69708252 3357688.09027100 19.87360001 153 180 199
245671.51263428 3357690.72766113 16.56256676 156 167 173
245666.28295898 3357687.04553223 16.44541359 60 65 68
245672.39202881 3357687.48956299 19.67320633 117 133 123
245667.30206299 3357690.35034180 18.23117065 60 61 65
245671.13647461 3357690.26068115 19.72367859 222 239 249
245668.82025146 3357690.41003418 19.60775566 207 229 240
245662.98004150 3357687.31573486 19.31143570 17 17 19
245669.14855957 3357688.78302002 20.13429642 159 186 207
245672.33154297 3357690.30822754 19.55939865 210 227 237
245670.52111816 3357687.78967285 19.82749748 152 173 190
245673.27813721 3357689.78533936 16.84124947 52 56 57
245668.23486328 3357687.20123291 17.27259445 23 24 26
245671.62261963 3357687.83392334 19.86540031 143 167 179
245670.65063477 3357689.77368164 20.04967690 220 238 248
245666.65014648 3357690.39123535 17.46077156 14 18 19
245664.50927734 3357690.29559326 19.76268959 200 220 231
245672.07269287 3357690.11944580 16.85101509 22 23 27
245670.44757080 3357690.12115479 18.44440079 121 127 127
245667.85882568 3357690.34130859 16.97114944 137 140 145
245668.21905518 3357690.20513916 19.73877144 197 223 236
245668.32104492 3357687.23883057 16.91362953 21 22 24
245666.15698242 3357687.07049561 19.42226219 162 178 194
245671.54132080 3357689.44427490 16.87724686 25 30 34
245663.41949463 3357688.59368896 19.52759361 165 173 175
245665.74243164 3357687.92657471 19.87383652 148 173 193
245668.22540283 3357690.06549072 17.42741776 16 21 24
245663.18115234 3357686.63153076 17.11314964 17 25 27
245670.64813232 3357686.96246338 19.35706329 33 38 42
245664.30084229 3357687.14105225 17.12755775 31 32 37
245669.97796631 3357690.54699707 16.59420395 83 96 102
245667.00573730 3357686.43762207 16.63188362 38 47 52
245668.68566895 3357690.50231934 19.53005981 213 231 241
245673.16558838 3357690.32727051 16.62323570 65 69 72
245671.76507568 3357689.18939209 20.22084999 169 187 199
245669.55529785 3357688.58276367 20.02628517 166 192 215
245672.80755615 3357690.16430664 18.94864082 58 66 69
245663.64459229 3357690.52392578 19.62106514 216 229 237
245672.25549316 3357687.26727295 19.63304710 181 192 184
245667.21496582 3357690.59448242 18.92863083 131 136 142
245669.18334961 3357690.02655029 19.84230995 193 219 236
245664.68341064 3357690.63574219 19.12399292 128 133 136
245669.77197266 3357689.06201172 20.10556030 181 209 230
245666.55004883 3357690.54479980 19.57681465 220 238 248
245663.69091797 3357688.00567627 19.85530472 172 199 210
245667.73645020 3357688.83819580 20.50034714 176 202 217
245668.43011475 3357688.48010254 20.24496078 138 163 183
245665.46240234 3357690.33691406 19.74101639 213 235 246
245664.99481201 3357687.06640625 18.79005241 36 44 46
245669.47796631 3357687.88342285 19.79219055 148 175 194
245666.79400635 3357687.09326172 18.98844910 12 20 22
245669.06573486 3357687.04595947 17.68272972 16 17 21
245665.78845215 3357690.30151367 17.57808876 34 35 40
245666.67333984 3357687.20172119 16.43851662 72 76 77
245668.24224854 3357687.07928467 18.49126053 21 22 26
245663.38317871 3357689.45483398 19.53059387 182 194 192
245665.61529541 3357690.26898193 17.31099510 28 33 37
245672.48480225 3357688.79003906 17.50416756 34 36 35
245672.04309082 3357689.84637451 16.86399078 24 29 33
