245741.47369385 3357544.62359619 18.67288780 176 178 177
245750.88891602 3357545.93780518 18.46574974 20 34 35
245740.04071045 3357548.44403076 18.65882874 170 172 169
245741.08978271 3357547.49493408 18.64908409 154 156 153
245744.99060059 3357558.23193359 18.51806259 155 160 156
245745.06695557 3357552.57757568 18.57288742 168 169 164
245740.51275635 3357547.97760010 18.65929604 181 183 180
245735.97467041 3357551.08062744 17.89407158 40 44 27
245735.66333008 3357549.00524902 18.51941109 170 174 160
245737.35736084 3357553.93054199 18.63535118 161 161 159
245743.00506592 3357547.55023193 18.63125801 177 178 173
245749.91009521 3357547.36346436 18.55624008 116 115 111
245749.31927490 3357551.62695313 18.54530907 163 165 164
245739.53222656 3357551.21057129 18.62966347 161 158 153
245745.50067139 3357556.18048096 18.53461075 160 162 157
245740.27337646 3357547.42803955 18.66928291 190 190 190
245740.81030273 3357555.43658447 18.60248566 165 166 160
245742.25872803 3357556.64984131 18.56402016 159 161 156
245739.90875244 3357551.88024902 18.63309288 157 162 158
245736.94860840 3357556.95397949 18.61422729 145 150 146
245751.09082031 3357554.74804688 18.46691895 123 124 118
245745.46118164 3357543.80804443 18.63923836 173 179 179
245744.12426758 3357548.60290527 18.61116409 173 174 169
245742.12487793 3357556.31616211 18.56798363 158 160 155
245742.93603516 3357546.77288818 18.64224815 185 186 188
245748.45239258 3357558.55572510 18.49115181 197 201 200
245739.25012207 3357554.51538086 18.61415863 166 168 163
245749.99169922 3357546.62982178 18.56610489 126 131 125
245738.74139404 3357546.40631104 18.69971848 170 170 170
245736.72821045 3357551.38037109 18.67728424 130 132 131
245748.47448730 3357543.57049561 17.95411110 17 19 14
245735.92803955 3357551.42181396 18.66313934 183 183 181
245744.87359619 3357551.17425537 18.59086227 167 167 165
245740.03918457 3357550.30322266 18.64332581 182 182 180
245736.02038574 3357555.77612305 18.62768364 186 189 182
245749.78662109 3357545.10595703 18.57448006 144 144 142
245737.64770508 3357555.32574463 18.63556099 163 165 162
245736.87939453 3357551.37780762 18.67299271 148 150 149
245735.84008789 3357547.32196045 18.46972084 129 131 126
245736.36120605 3357556.69738770 18.62292290 146 148 145
245746.80493164 3357547.07177734 18.59278679 125 127 122
245750.67834473 3357547.76397705 18.56336594 159 164 160
245743.17968750 3357548.18603516 18.63092995 174 174 166
245740.54785156 3357547.15698242 18.66709900 176 178 177
245740.25262451 3357549.83197021 18.64241600 162 164 159
245747.46875000 3357556.99682617 18.51161385 155 159 158
245737.31103516 3357558.80364990 18.59824181 166 176 175
245735.64349365 3357547.01062012 17.72833633 51 55 28
245740.12860107 3357551.11505127 18.63709450 178 183 179
245750.03430176 3357554.81628418 18.50144005 143 143 141
245736.45202637 3357546.85858154 18.71256256 106 107 102
245736.14862061 3357558.20788574 18.60889053 169 171 166
245744.55877686 3357558.84497070 18.52147484 156 160 163
245750.81701660 3357543.65447998 18.56556129 70 76 72
245735.85571289 3357546.55664063 18.38558769 146 148 143
245750.35302734 3357557.21228027 18.47148895 120 120 118
245750.03741455 3357545.99609375 18.56789589 124 125 119
245738.96282959 3357549.43493652 18.66124725 173 175 172
245750.95037842 3357552.72729492 18.52485847 193 195 194
245746.57299805 3357552.87237549 18.54695511 165 165 157
245736.75622559 3357556.35369873 18.61790085 132 134 131
245750.75500488 3357557.05865479 18.46680069 184 186 185
245738.25866699 3357546.57659912 18.69377136 174 174 172
245750.54882813 3357553.26892090 18.51717186 136 135 130
245742.31097412 3357555.89154053 18.56947517 161 163 158
245739.25671387 3357556.91967773 18.59537506 135 137 134
245735.79425049 3357545.79064941 18.70117378 198 201 208
245735.98321533 3357553.66564941 18.64469147 149 151 146
245749.21630859 3357545.29223633 18.58587074 167 169 168
245744.87103271 3357547.35174561 18.62073135 129 131 126
245748.65344238 3357556.30291748 18.50286102 146 145 141
245738.17620850 3357552.07232666 18.65124130 159 164 160
245740.56170654 3357557.89941406 18.56822586 153 157 156
245749.35662842 3357546.97216797 18.57896423 168 174 170
245745.89959717 3357548.25848389 18.59626770 159 160 155
245740.75109863 3357556.66625977 18.58363914 162 163 158
245746.62304688 3357547.61828613 18.59481621 170 172 169
245744.34527588 3357549.08947754 18.60945511 168 168 160
245745.97747803 3357558.90203857 18.47975349 6 12 10
245739.51373291 3357544.93463135 18.68197632 145 146 148
245737.51940918 3357549.26812744 18.67969322 159 161 158
245751.19696045 3357550.89703369 18.27353287 6 6 6
245743.82452393 3357556.41644287 18.54663086 161 157 146
245739.57745361 3357546.82104492 18.68666649 169 171 170
245744.34295654 3357553.40161133 18.57150269 174 175 169
245741.45928955 3357549.73089600 18.63283730 158 160 155
245736.44812012 3357557.05194092 18.61507607 140 141 136
245740.10699463 3357545.99945068 18.67603874 174 176 173
245748.22802734 3357543.74542236 18.62306976 167 172 176
245739.90100098 3357554.39056396 18.60748291 167 169 164
245743.97985840 3357548.22912598 18.61760902 176 176 174
245741.67559814 3357555.62713623 18.58471680 163 165 160
245740.00305176 3357554.20184326 18.60984612 168 170 165
245744.04846191 3357549.22515869 18.61071777 173 174 168
245741.22521973 3357559.13037109 18.44618988 13 22 21
245750.53485107 3357552.66601563 18.51311302 126 127 122
245750.20697021 3357555.33587646 18.48886299 135 137 134
245748.23468018 3357553.33789063 18.53777504 174 175 169
245747.04968262 3357556.27819824 18.52568054 162 164 161
245743.33807373 3357555.10156250 18.56818771 167 167 165
245745.62329102 3357547.19647217 18.61085129 172 173 167
245748.31420898 3357555.49450684 18.51743507 183 184 178
245739.03155518 3357554.46923828 18.61623764 154 156 151
245744.62951660 3357554.63385010 18.55527306 160 158 145
245735.92230225 3357546.24670410 17.85465813 71 75 52
245747.16156006 3357553.02270508 18.54982376 166 167 159
245742.86059570 3357553.10699463 18.59347725 170 171 165
245750.88964844 3357553.98419189 18.50581169 219 216 211
245743.76513672 3357546.48840332 18.63896179 184 186 185
245748.12231445 3357551.74151611 18.54768181 163 164 159
245743.48345947 3357543.67547607 18.46029282 58 61 54
245747.49621582 3357557.44598389 18.50178528 167 171 172
245742.86163330 3357553.22991943 18.59267616 168 169 163
245744.11437988 3357551.30468750 18.60093880 172 174 171
245739.38226318 3357558.37274170 18.57259178 141 143 140
245750.14385986 3357543.72668457 18.59214020 171 180 179
245740.18969727 3357558.53863525 18.56750107 145 150 146
245736.59759521 3357544.23577881 18.72435760 162 164 163
245739.61254883 3357558.85858154 18.58559608 170 180 182
245747.58514404 3357552.96429443 18.54262543 178 179 173
245750.97088623 3357554.68768311 18.50063133 175 176 168
245747.42834473 3357553.96038818 18.52587700 161 162 156
245742.78100586 3357555.78155518 18.56727028 173 173 171
245737.59289551 3357550.12005615 18.67740440 171 173 172
245751.19482422 3357552.31341553 18.41770554 8 12 15
245750.49224854 3357552.62451172 18.51148415 112 113 108
245749.54187012 3357556.65106201 18.49378777 154 158 157
245749.72998047 3357544.96142578 18.57534218 155 157 154
245739.38317871 3357552.04748535 18.63785934 174 176 173
245744.44335938 3357558.81494141 18.52861595 177 182 185
245736.51635742 3357557.45501709 18.61188126 132 133 128
245744.50646973 3357548.89630127 18.61428642 168 169 163
245743.04901123 3357556.78619385 18.56179810 170 171 173
245738.39666748 3357554.72045898 18.62092018 141 144 137
245739.59228516 3357545.46289063 18.68409157 168 169 171
245738.88452148 3357555.23669434 18.60908508 174 174 174
245746.26904297 3357558.84692383 18.48609161 7 8 10
245740.54833984 3357544.39001465 18.68914795 137 138 140
245745.40509033 3357557.05407715 18.53096581 175 177 176
245743.42651367 3357549.17095947 18.60636330 149 146 139
245750.81939697 3357543.66546631 18.10093880 36 42 32
245749.85675049 3357558.15728760 18.46711540 145 145 145
245735.64831543 3357550.43499756 18.30892563 48 60 40
245737.89349365 3357545.67004395 18.71018410 172 173 177
245739.47222900 3357552.56054688 18.63554573 152 151 149
245750.64282227 3357547.48406982 18.55856895 168 173 169
245743.44140625 3357549.38000488 18.60756493 200 197 190
245745.31402588 3357543.74975586 18.46958733 70 74 73
245750.48803711 3357545.93408203 18.56897926 146 147 142
245742.83984375 3357546.11352539 18.65095139 162 164 163
245737.10937500 3357549.38110352 18.68174934 134 136 133
245749.56695557 3357543.78771973 18.59289169 178 182 183
245747.45233154 3357554.62890625 18.52108002 166 168 163
245741.47772217 3357550.61303711 18.62830353 174 171 164
245748.99084473 3357544.58886719 18.59040833 137 141 142
245739.24291992 3357550.53503418 18.65377235 179 183 182
245743.24182129 3357547.59405518 18.62970352 179 180 175
245744.10058594 3357550.09027100 18.61309624 177 178 173
245736.84210205 3357543.59851074 18.21080208 23 26 19
245739.99945068 3357558.06610107 18.56950188 164 168 167
245749.91583252 3357553.63964844 18.51197815 156 157 152
245749.27630615 3357550.23028564 18.55259895 178 180 177
245741.46575928 3357556.81188965 18.57133293 172 177 173
245743.70080566 3357544.20965576 18.64438057 132 134 133
245739.96588135 3357544.70971680 18.68286705 134 135 137
245743.49822998 3357549.07733154 18.60680199 146 146 136
245742.81744385 3357547.48260498 18.63294029 189 191 188
245749.70025635 3357543.45495605 17.90931892 31 36 29
245749.81060791 3357557.32025146 18.48311424 163 165 162
245745.93359375 3357553.84570313 18.55560112 176 176 174
245741.79266357 3357548.88104248 18.63925362 145 147 144
245736.28118896 3357553.80456543 18.66134644 137 137 135
245746.29125977 3357549.06188965 18.59035873 177 178 172
245750.35455322 3357546.77801514 18.55311394 129 130 125
245735.93811035 3357546.74493408 18.24459839 152 154 143
245737.32830811 3357556.79095459 18.61291695 171 173 170
245742.69915771 3357546.46264648 18.64806557 170 172 171
245745.61126709 3357549.00726318 18.60496521 171 174 167
245745.10504150 3357555.35205078 18.54757118 168 171 164
245742.76965332 3357552.89074707 18.59536743 174 176 171
245738.73321533 3357558.24212646 18.58287048 153 155 154
245747.16143799 3357556.51007080 18.52500534 149 151 150
245739.47521973 3357557.92553711 18.57768059 159 161 160
245745.94891357 3357543.39239502 18.08545685 16 21 15
245749.59985352 3357553.74243164 18.51692963 176 177 172
245739.72680664 3357544.59179688 18.69024467 142 143 145
245750.90667725 3357544.62133789 18.48397064 24 33 32
245737.09631348 3357554.61267090 18.63521385 96 97 89
245748.46343994 3357557.53997803 18.49286270 145 149 148
245748.08148193 3357558.01312256 18.49153900 171 175 174
245746.16510010 3357552.27288818 18.56591606 173 174 169
245747.10302734 3357549.47204590 18.57483101 169 171 166
245742.02416992 3357547.47875977 18.64374352 184 186 183
245749.94104004 3357555.04364014 18.50250816 162 162 160
245736.99133301 3357559.10852051 18.22875786 18 20 17
245737.34906006 3357550.78234863 18.67907524 164 168 167
245739.71594238 3357546.42852783 18.68460274 173 175 172
245745.19769287 3357543.44189453 18.09153748 21 26 19
245748.05816650 3357545.29748535 18.60294724 173 179 179
245737.60052490 3357557.15277100 18.60765266 159 164 160
245749.65386963 3357544.23052979 18.58643913 130 131 133
245742.03894043 3357550.76556396 18.62257957 177 178 173
245738.11212158 3357550.87359619 18.66881943 170 172 169
245745.38610840 3357546.46307373 18.62093544 180 182 177
245735.74468994 3357552.67755127 18.23856735 50 59 42
245740.20550537 3357544.76831055 18.67971802 140 141 143
245744.37738037 3357544.45703125 18.64084625 106 106 104
245738.97515869 3357549.13110352 18.66532326 162 164 161
245736.42828369 3357559.49023438 17.71192932 38 45 29
245742.86230469 3357549.05804443 18.61011314 154 154 152
245747.11358643 3357557.67266846 18.50134850 135 141 139
245739.50360107 3357549.67968750 18.65156937 170 172 167
245748.12030029 3357556.56536865 18.51015854 180 182 181
245746.11901855 3357547.52087402 18.60250664 176 178 173
245745.06365967 3357558.58093262 18.52096558 188 194 194
245743.91088867 3357544.40191650 18.64360619 120 120 122
245737.02374268 3357551.12921143 18.67763901 163 167 166
245747.77807617 3357558.95111084 18.43323898 7 16 15
245749.27191162 3357543.35949707 17.98580551 45 53 42
245741.18432617 3357551.71380615 18.62804413 167 168 163
245736.01550293 3357557.72082520 18.56488609 196 198 193
245746.10345459 3357544.50402832 18.62871552 110 110 108
245748.52966309 3357551.24865723 18.55256081 148 149 143
245739.16333008 3357551.93603516 18.63949394 114 116 113
245749.59802246 3357548.27752686 18.56307411 164 169 165
245741.81097412 3357553.97967529 18.60752678 167 168 160
245749.21301270 3357549.95526123 18.55270004 177 179 176
245739.28613281 3357550.75506592 18.65068436 168 168 166
245741.09350586 3357556.56146240 18.58214760 157 159 156
245743.64300537 3357550.94055176 18.60845375 188 190 185
245744.76556396 3357553.00640869 18.56833458 170 172 167
245743.29693604 3357547.86761475 18.62738609 161 162 157
245736.09710693 3357546.05450439 18.72517776 156 156 158
245740.19012451 3357556.17669678 18.59468269 164 164 156
245738.07830811 3357545.11840820 18.70880318 160 164 167
245740.26794434 3357556.34118652 18.59121895 163 163 155
245745.93304443 3357556.97662354 18.52904320 154 158 157
245750.96301270 3357549.44653320 18.51885796 96 110 111
245739.89501953 3357558.71820068 18.57348824 179 184 188
245748.65032959 3357556.75427246 18.50325775 176 178 173
245750.10113525 3357550.84722900 18.52447701 121 123 120
245747.54974365 3357555.57183838 18.52048683 175 177 172
245748.25579834 3357556.53833008 18.50794411 176 180 179
245747.06396484 3357545.84149170 18.61383820 172 176 177
245747.36090088 3357549.28588867 18.57073784 180 181 175
245745.04315186 3357545.91156006 18.63001633 172 173 168
245745.82788086 3357557.23559570 18.52897263 177 181 182
245739.79589844 3357554.99316406 18.60876656 170 172 167
245747.21087646 3357554.09240723 18.52551651 149 150 145
245746.06994629 3357556.27227783 18.52763176 160 162 161
245739.30084229 3357550.38031006 18.65299797 177 179 174
245738.12377930 3357556.84283447 18.60705948 173 175 172
245751.18652344 3357553.73016357 18.38807678 20 28 30
245745.78729248 3357557.91662598 18.51395035 159 161 160
245739.22430420 3357559.20697021 18.48366165 9 10 12
245743.22320557 3357547.92028809 18.62815475 173 174 169
245743.39892578 3357546.18316650 18.64509773 182 183 178
245735.99890137 3357558.20050049 18.46306610 152 155 144
245745.82897949 3357545.11938477 18.63292122 146 150 151
245746.26776123 3357552.64099121 18.55575180 168 170 167
245747.61676025 3357545.59411621 18.61153793 170 176 176
245738.65228271 3357546.54223633 18.69899750 172 174 173
245738.07958984 3357550.19757080 18.67074203 164 164 162
245744.04663086 3357550.23889160 18.61310577 174 175 170
245744.64477539 3357549.25762939 18.60949135 179 178 173
245735.58172607 3357547.11834717 17.73373032 44 52 28
245735.89886475 3357557.85888672 18.26058388 88 92 77
245745.75213623 3357555.36553955 18.54231071 170 169 164
245749.36486816 3357544.17083740 18.59316635 121 125 126
245747.80450439 3357546.88397217 18.59680939 181 183 182
245739.23999023 3357549.38610840 18.66168594 165 167 166
245741.84118652 3357552.90557861 18.61280251 177 179 174
245751.40490723 3357557.89691162 18.20079613 25 33 35
245737.21423340 3357545.11145020 18.72157478 147 152 155
245745.24511719 3357557.31878662 18.52976036 169 171 170
245739.12103271 3357543.71368408 18.38044357 69 77 66
245739.66857910 3357547.26330566 18.67909813 170 172 171
245745.43554688 3357544.28735352 18.64282799 104 104 102
245747.10925293 3357554.36419678 18.52744293 170 171 166
245751.31298828 3357558.28564453 18.23929405 27 32 35
245740.87139893 3357545.22686768 18.66987228 163 167 170
245739.74407959 3357545.46221924 18.68133926 173 174 176
245746.71667480 3357545.84521484 18.62257767 174 176 175
245735.57373047 3357545.16156006 18.34760284 24 28 11
245741.80969238 3357552.35064697 18.60917664 165 167 162
245737.55926514 3357553.12292480 18.64260864 167 168 162
245736.96136475 3357544.92712402 18.72057152 154 159 162
245751.39611816 3357557.18145752 18.05114937 21 29 31
245739.07135010 3357557.82354736 18.58415222 164 168 167
245735.72412109 3357551.71960449 17.71463776 59 65 29
245737.24212646 3357556.89489746 18.61310959 160 165 161
245745.90435791 3357545.81665039 18.62831879 184 186 185
245745.69891357 3357550.61035156 18.59614754 175 178 171
245741.34057617 3357544.97155762 18.66710281 154 153 159
245739.14477539 3357555.83026123 18.60108566 159 161 158
245748.73028564 3357558.81903076 18.46628380 7 12 15
245748.95654297 3357544.50708008 18.59291458 126 128 127
245749.34466553 3357550.29174805 18.55071640 176 178 175
245743.59362793 3357544.59094238 18.64301109 120 118 119
245738.67242432 3357550.96582031 18.65580750 150 152 147
245746.88909912 3357554.39880371 18.53175163 168 170 165
245736.51306152 3357558.99591064 18.61488724 175 187 187
245735.85302734 3357552.66448975 18.35039520 130 133 124
245750.76293945 3357549.60546875 18.53558159 173 179 179
245741.16784668 3357555.46209717 18.59535408 169 169 167
245748.00433350 3357558.36993408 18.49287224 175 179 178
245748.04760742 3357555.05438232 18.51769638 140 142 137
245742.97552490 3357549.53564453 18.60931778 198 201 194
245739.41589355 3357544.30725098 18.69276810 127 128 130
245737.02667236 3357552.98504639 18.64956856 138 139 134
245736.67962646 3357555.14733887 18.64013481 113 115 110
245737.17083740 3357557.50445557 18.60673523 160 162 159
245742.99072266 3357555.68280029 18.56644249 173 175 172
245750.56127930 3357547.43457031 18.55598640 166 168 165
245741.22985840 3357544.16723633 18.68872833 187 188 190
245750.76342773 3357556.72460938 18.47265244 174 176 175
245736.17541504 3357556.62774658 17.69145966 52 56 31
245748.58306885 3357556.46343994 18.50348282 176 175 170
245740.04718018 3357552.31762695 18.63092041 171 173 170
245748.29156494 3357554.87011719 18.51959038 175 176 170
245749.43536377 3357545.34185791 18.58221626 163 165 162
245748.87475586 3357552.28277588 18.54006004 165 166 161
245743.30963135 3357552.61584473 18.59359169 173 172 168
245746.65441895 3357546.31005859 18.60617256 167 169 164
245749.23931885 3357544.97326660 18.58316612 162 166 167
245740.35864258 3357543.77514648 18.54443932 41 47 43
245747.35894775 3357555.49621582 18.52414322 174 175 170
245747.27545166 3357550.68823242 18.55967331 161 162 156
245749.91796875 3357550.13861084 18.53812218 115 115 113
245746.68499756 3357550.06579590 18.58269882 179 182 171
245742.89367676 3357558.23474121 18.53758430 106 108 107
245747.11901855 3357543.41314697 18.16551208 35 40 34
245737.63720703 3357558.35845947 18.58906174 162 168 164
245740.09478760 3357547.03601074 18.67701530 168 172 173
245738.86224365 3357547.77056885 18.67553902 157 159 158
245744.61859131 3357548.70184326 18.61133766 179 180 175
245751.08258057 3357555.52569580 18.47473335 166 165 163
245750.27874756 3357544.71923828 18.56827545 157 159 156
245735.59704590 3357549.61315918 18.42095947 79 86 68
245740.98187256 3357550.27911377 18.63068008 176 176 174
245741.44793701 3357551.01116943 18.62980270 173 175 170
245745.16448975 3357549.19598389 18.60403442 184 187 180
245748.50860596 3357554.54217529 18.52383804 178 179 165
245740.97808838 3357548.02398682 18.65369225 171 173 170
245742.49487305 3357552.38848877 18.60101891 125 126 120
245745.62365723 3357549.39166260 18.60045242 185 187 182
245740.35125732 3357550.26330566 18.63966179 181 184 177
245749.88269043 3357550.65795898 18.53084373 120 120 118
245748.60681152 3357548.67327881 18.58246803 155 160 156
245750.76892090 3357543.35424805 17.85941124 54 60 48
245739.55010986 3357545.68103027 18.68627548 181 182 184
245748.26342773 3357544.85302734 18.59587669 165 169 170
245739.23626709 3357550.27221680 18.65393639 169 171 166
245748.64489746 3357545.30499268 18.59418869 160 164 165
245743.32598877 3357552.97833252 18.58917236 174 174 172
245736.18255615 3357553.90734863 18.66459656 158 158 156
245736.63195801 3357558.17065430 18.60577011 158 160 157
245737.32702637 3357547.94726563 18.69891548 160 164 163
245744.66198730 3357545.61157227 18.63630295 170 171 166
245741.27215576 3357546.10736084 18.65695572 173 173 173
245738.64697266 3357558.38946533 18.58213425 136 139 132
245746.98675537 3357552.26422119 18.55636406 149 150 144
245740.71716309 3357553.71911621 18.61238289 159 160 154
245749.66766357 3357543.34149170 17.89859581 40 48 37
245746.07696533 3357549.44146729 18.60530663 177 179 174
245749.34033203 3357556.73614502 18.49579239 173 175 174
245745.08911133 3357555.80950928 18.54386711 85 85 83
245737.14538574 3357544.09448242 18.72742462 164 168 171
245745.66668701 3357543.60571289 18.14581871 10 14 13
245737.22033691 3357556.31365967 18.61263657 152 154 149
245738.45007324 3357550.72100830 18.66457558 181 182 176
245745.59326172 3357550.73626709 18.59543610 180 179 174
245744.08319092 3357553.10021973 18.57270813 173 175 170
245737.72485352 3357545.94470215 18.71069527 147 151 152
245741.77014160 3357557.40551758 18.55503464 173 175 172
245742.47247314 3357551.87329102 18.60149765 171 173 162
245745.72344971 3357553.22692871 18.56324005 170 171 165
245745.31982422 3357550.22802734 18.59961891 177 180 173
245739.53009033 3357551.92529297 18.63680267 149 151 148
245739.31146240 3357555.17913818 18.61393929 162 167 163
245742.62811279 3357552.99035645 18.59548950 171 174 167
245739.44769287 3357549.64093018 18.65327835 175 178 171
245746.78289795 3357549.24078369 18.58043480 172 171 166
245735.70684814 3357545.53308105 18.59866905 112 116 117
245741.11157227 3357545.52215576 18.66103745 189 190 192
245746.40447998 3357547.14642334 18.60058594 163 165 160
245737.15277100 3357555.88476563 18.62558556 156 156 154
245740.70251465 3357543.98596191 18.69709206 174 184 183
245741.80554199 3357549.11785889 18.63598442 178 180 177
245743.17498779 3357549.88873291 18.61796379 190 192 187
245737.86212158 3357549.18597412 18.67592621 137 137 135
245735.89624023 3357555.28045654 18.44859123 133 136 125
245747.27185059 3357544.23046875 18.61194992 105 107 106
245743.79644775 3357551.67639160 18.59439659 184 186 181
245742.71240234 3357558.36810303 18.54282951 118 119 121
245737.63433838 3357558.13421631 18.59342766 156 161 157
245742.00305176 3357552.48150635 18.60320854 147 149 144
245738.67669678 3357553.73522949 18.62375450 175 178 171
245745.03857422 3357548.26495361 18.60253906 177 178 173
245745.29229736 3357545.56347656 18.63189125 179 181 176
245742.37829590 3357546.48382568 18.64855194 161 163 158
245740.67968750 3357557.59576416 18.57023430 158 162 161
245750.14904785 3357554.89923096 18.49850273 150 151 146
245748.65423584 3357544.44799805 18.59652901 120 124 125
245739.82061768 3357556.53143311 18.59403229 152 153 147
245751.00292969 3357544.33489990 18.13600159 9 10 12
245744.07507324 3357548.45288086 18.61360550 180 181 175
245737.56732178 3357556.26049805 18.61801910 159 160 155
245741.45977783 3357554.20300293 18.60481071 172 169 160
245744.94940186 3357547.95471191 18.60671997 181 182 177
245741.47619629 3357544.75207520 18.67089272 154 155 157
245745.84149170 3357553.41253662 18.56013870 182 184 179
245735.61444092 3357545.59515381 18.21410561 36 40 23
245741.86462402 3357545.84356689 18.64728546 172 172 172
245747.78942871 3357543.78997803 18.62913322 163 168 171
245741.23461914 3357546.04547119 18.65559006 173 175 174
245736.92895508 3357553.47448730 18.64579582 146 147 141
245741.89447021 3357549.66943359 18.63082886 148 148 146
245736.10211182 3357550.37396240 18.69860840 157 159 156
245745.83294678 3357549.92510986 18.59057426 184 186 181
245738.13806152 3357544.74743652 18.70567513 119 119 119
245744.65350342 3357555.77716064 18.55022430 171 174 167
245746.97314453 3357558.34185791 18.50275612 130 132 131
245742.35137939 3357556.78021240 18.56243706 171 173 170
245750.29577637 3357545.13317871 18.56772423 138 139 134
245740.50268555 3357556.44830322 18.58760643 162 161 156
245741.13006592 3357555.33178711 18.59964561 175 176 171
245739.23779297 3357543.92236328 18.68116188 196 200 199
245746.02447510 3357544.69104004 18.63116264 153 153 151
245740.30096436 3357546.78381348 18.67301941 180 182 181
245750.97222900 3357552.00207520 18.52062607 152 162 164
245749.30468750 3357556.65130615 18.49636650 185 187 186
245750.21374512 3357556.30236816 18.48524475 160 162 161
245740.18243408 3357544.77093506 18.67977142 139 140 142
245742.84613037 3357557.38830566 18.55036545 164 166 165
245737.80895996 3357550.81268311 18.67295074 155 159 158
245745.04827881 3357551.08398438 18.59329796 171 172 166
245739.04742432 3357553.71099854 18.62542725 165 169 168
245736.58203125 3357558.29174805 18.60851097 153 158 154
245743.19610596 3357552.50683594 18.59564590 178 179 174
245736.86053467 3357553.66094971 18.64828682 147 148 142
245743.15594482 3357544.40661621 18.64271736 121 121 119
245742.19311523 3357555.10748291 18.57219696 167 170 163
245738.90209961 3357544.96893311 18.69308472 180 180 180
245743.15765381 3357552.07373047 18.59350014 173 175 172
245738.44390869 3357546.51202393 18.69772530 151 153 150
245744.66571045 3357546.92169189 18.62137032 168 166 167
245746.42169189 3357550.05883789 18.59158707 173 174 168
245745.35198975 3357554.04846191 18.56155396 171 172 167
245740.12420654 3357549.79864502 18.64343643 174 176 173
245745.99298096 3357543.76733398 18.63159180 219 220 222
245750.20623779 3357556.07849121 18.48867416 161 161 161
245743.26013184 3357554.65338135 18.57121086 170 171 165
245740.03765869 3357559.18164063 18.47402000 5 9 10
245737.05419922 3357543.79351807 18.33097458 64 65 60
245748.01910400 3357546.86224365 18.59557915 173 175 174
245741.57708740 3357546.44067383 18.65760994 169 170 165
245736.00219727 3357546.99963379 18.16162300 140 142 131
245743.71252441 3357549.24810791 18.60977554 153 152 147
245735.96307373 3357546.31329346 18.13813019 161 164 155
245743.91815186 3357545.37481689 18.64280510 190 194 197
245738.95446777 3357551.91333008 18.64405251 130 132 129
245749.46051025 3357548.11950684 18.56733704 169 175 171
245736.25897217 3357555.03131104 18.66014481 138 137 133
245737.21490479 3357552.08288574 18.65749168 161 163 162
245743.46716309 3357550.80987549 18.60974884 177 178 173
245749.61358643 3357543.63531494 18.33110809 83 92 89
245740.03479004 3357548.16027832 18.66200066 175 175 173
245744.27160645 3357553.27185059 18.57150269 168 171 164
245738.79058838 3357547.15759277 18.68056107 144 146 143
245736.71502686 3357557.97143555 18.60246468 139 141 138
245740.09344482 3357553.97552490 18.61298180 166 166 164
245744.58886719 3357555.71948242 18.55244255 171 172 167
245745.32464600 3357557.75878906 18.52634430 152 154 153
245740.88226318 3357550.99737549 18.63669586 177 177 175
245748.53369141 3357554.23388672 18.52855110 105 106 100
245736.31359863 3357555.95330811 18.64781570 145 147 142
245744.41497803 3357550.73980713 18.61191368 184 186 181
245746.76293945 3357554.91186523 18.53478241 166 168 165
245749.98937988 3357555.85235596 18.49567986 158 158 158
245736.76080322 3357546.24523926 18.70467758 134 135 137
245743.00128174 3357551.75781250 18.59471321 176 179 172
245747.11303711 3357558.53387451 18.50185585 179 180 184
245745.25335693 3357549.85247803 18.59808540 186 187 182
245739.50177002 3357555.45172119 18.61827087 167 169 164
245743.32153320 3357555.54760742 18.56558228 187 189 186
245750.00805664 3357554.97698975 18.50130844 156 156 156
245749.45837402 3357549.04602051 18.56422234 167 169 166
245749.72436523 3357555.42712402 18.49419975 176 178 175
245739.11614990 3357555.33532715 18.61259270 166 168 165
245748.34210205 3357556.83111572 18.50610924 147 151 150
245744.11529541 3357551.01605225 18.60193253 173 175 172
245740.42175293 3357550.51971436 18.64077950 162 165 158
245735.79125977 3357546.04516602 17.90431595 46 51 29
245742.58868408 3357549.86004639 18.61860275 159 160 154
245742.44140625 3357553.95019531 18.58999252 180 180 178
245742.76348877 3357546.62805176 18.64541626 170 172 171
245736.77844238 3357550.43005371 18.68568039 153 155 152
245744.66851807 3357548.02966309 18.60861969 180 179 175
245749.14709473 3357546.93560791 18.58265686 175 177 174
245746.51953125 3357553.41833496 18.54738235 178 175 168
245750.83990479 3357547.45953369 18.56189537 170 184 187
245741.69891357 3357551.29229736 18.62294006 172 174 171
245741.17517090 3357544.88281250 18.67059517 143 147 150
245742.56738281 3357555.57696533 18.56897545 171 174 167
245735.86798096 3357555.41094971 18.33438492 106 112 98
245737.90911865 3357547.13806152 18.69136810 176 176 174
245741.90313721 3357554.98431396 18.58314133 174 175 169
245735.62268066 3357546.31286621 17.69845963 87 95 46
245741.18627930 3357557.23736572 18.56560326 144 150 150
245745.93811035 3357550.59130859 18.59323883 159 161 156
245743.39721680 3357557.82855225 18.53859901 138 142 141
245740.72802734 3357548.41223145 18.65278053 173 175 172
245749.66784668 3357553.22796631 18.51683617 171 173 170
245736.56103516 3357555.66674805 18.63746643 128 128 126
245750.08764648 3357550.16070557 18.53339195 99 99 97
245741.74035645 3357554.31524658 18.60431862 168 169 161
245742.97015381 3357557.09454346 18.55626678 161 165 164
245742.75817871 3357550.63616943 18.61541939 167 169 164
245746.16741943 3357550.53192139 18.58952904 173 175 170
245742.74151611 3357545.98425293 18.65265656 172 174 173
245745.40295410 3357547.68475342 18.60934448 188 188 186
245740.00067139 3357550.00329590 18.64331818 198 200 197
245745.10949707 3357547.91461182 18.60620117 171 173 168
245749.57098389 3357549.65045166 18.54788589 162 164 161
245744.19525146 3357544.20355225 18.64408875 129 133 134
245736.98687744 3357559.10357666 18.24713326 20 22 19
245738.94683838 3357545.60858154 18.69662666 162 163 165
245750.22430420 3357556.84558105 18.47974777 150 150 148
245737.01293945 3357546.43469238 18.70634651 150 152 149
245748.08666992 3357551.91931152 18.54650307 166 167 162
245739.11712646 3357555.64630127 18.61039543 168 170 167
245741.05468750 3357552.53814697 18.61960793 184 186 181
245736.73156738 3357543.80651855 18.38483620 88 87 83
245750.96643066 3357551.99230957 18.52439499 152 162 164
245750.74279785 3357546.64233398 18.56560898 157 169 167
245745.61669922 3357554.69671631 18.55056763 179 178 173
245741.37628174 3357546.76416016 18.66355896 184 184 184
245736.66485596 3357553.58679199 18.65176010 146 147 142
245750.34808350 3357558.44720459 18.47389603 167 173 169
245740.98260498 3357556.70874023 18.58020592 168 170 165
245748.67706299 3357545.05462646 18.59066200 166 170 171
245746.45159912 3357554.01788330 18.54660797 175 176 170
245738.39147949 3357549.04638672 18.66357040 89 91 86
245739.11859131 3357545.09130859 18.68984032 173 174 176
245735.46051025 3357544.80731201 18.26212502 47 56 39
245736.70697021 3357557.90679932 18.60353088 137 139 136
245750.29608154 3357554.62127686 18.49683762 114 113 108
245748.02728271 3357557.17761230 18.50213432 139 144 147
245744.44287109 3357552.28784180 18.58018875 134 133 129
245743.74487305 3357546.94549561 18.63630676 180 185 181
245746.80072021 3357550.84478760 18.57088280 178 177 172
245747.43774414 3357551.72863770 18.55561066 161 160 155
245747.16589355 3357547.64819336 18.59335136 180 182 177
245739.17553711 3357544.29180908 18.70983887 141 141 143
245750.75628662 3357554.34576416 18.49680710 196 197 189
245747.75250244 3357552.49005127 18.53966331 178 179 173
245739.17169189 3357553.32525635 18.63159561 174 176 173
245745.83746338 3357551.94909668 18.57969475 182 184 181
245738.93933105 3357554.01013184 18.62117767 182 184 181
245748.04644775 3357549.91784668 18.56715775 175 176 171
245740.93493652 3357549.58422852 18.63984680 162 162 160
245738.64520264 3357548.04309082 18.66887283 172 174 169
245751.01501465 3357553.98583984 18.50051308 205 200 197
245737.17083740 3357545.93634033 18.71397781 140 144 145
245743.29864502 3357557.88299561 18.53747368 166 170 171
245750.53582764 3357557.39526367 18.46381950 128 128 126
245741.20239258 3357546.38623047 18.66388130 187 189 186
245749.81286621 3357554.80700684 18.50642967 169 173 172
245748.13519287 3357548.28771973 18.57977104 175 180 173
245740.07720947 3357548.06323242 18.66263771 175 175 175
245746.10711670 3357547.70019531 18.59833336 174 176 171
245742.76184082 3357551.17376709 18.60769081 179 180 175
245737.76306152 3357557.43328857 18.60340691 167 172 168
245749.48760986 3357552.81164551 18.52494049 171 173 170
245740.42333984 3357543.82672119 18.60892677 65 70 66
245748.61602783 3357552.26190186 18.54047203 129 130 124
245742.52459717 3357545.46038818 18.65294838 177 178 180
245746.15228271 3357555.75634766 18.53240967 140 144 143
245750.87506104 3357556.28692627 18.49316788 195 197 196
245736.81323242 3357556.73382568 18.61261177 142 147 143
245735.84820557 3357557.50329590 18.13218689 46 49 32
245751.02642822 3357552.59100342 18.49519539 165 167 166
245748.80157471 3357558.15753174 18.48399162 148 153 149
245740.98937988 3357552.98205566 18.62156487 173 174 166
245740.58868408 3357555.15142822 18.60567093 165 167 162
245747.91235352 3357557.34375000 18.50076675 146 151 154
245742.66687012 3357550.83142090 18.61386681 166 169 162
245736.36163330 3357545.95666504 18.71554375 136 137 139
245737.99078369 3357547.53613281 18.68943787 165 170 164
245736.87835693 3357553.91955566 18.64512253 127 130 123
245740.87469482 3357549.73187256 18.63849640 158 158 158
245736.52026367 3357544.95465088 18.72020721 141 145 146
245747.50231934 3357553.26416016 18.54463768 149 146 141
245749.58172607 3357554.15124512 18.51452827 187 188 183
245735.99047852 3357546.49523926 18.12824631 161 162 154
245737.66424561 3357544.69921875 18.71578026 99 100 102
245751.01934814 3357548.29821777 18.46230698 0 8 10
245746.83416748 3357550.90063477 18.56922531 174 173 168
245736.00506592 3357555.29821777 18.63800049 171 172 164
245736.48657227 3357552.10424805 18.67496490 123 123 123
245737.03143311 3357545.20190430 18.71898842 148 153 156
245738.53948975 3357545.60815430 18.70351982 170 174 175
245747.44451904 3357545.59033203 18.61434746 178 180 177
245744.93817139 3357550.46289063 18.59673309 152 155 148
245739.22119141 3357544.00915527 18.71365166 169 168 173
245742.52209473 3357559.09393311 18.40528679 12 20 23
245741.31280518 3357553.09930420 18.61922836 174 175 169
245748.58721924 3357557.50036621 18.49121857 131 135 136
245748.29748535 3357551.87780762 18.54441071 166 168 163
245739.54016113 3357547.20581055 18.67601776 181 183 182
245745.74737549 3357546.26068115 18.62467766 171 173 170
245735.69995117 3357550.00982666 18.47656631 136 139 128
245744.71081543 3357550.49285889 18.60684204 180 183 176
245736.99523926 3357555.93859863 18.62409210 137 139 136
245749.56634521 3357550.31774902 18.54450035 165 167 164
245737.02032471 3357557.01300049 18.61347389 143 145 142
245736.30950928 3357546.22045898 18.71974182 132 132 130
245751.44158936 3357557.07482910 17.99655342 10 18 20
245742.06787109 3357556.16900635 18.56973076 158 160 155
245738.95977783 3357549.14483643 18.66506386 159 161 158
245742.87322998 3357549.22167969 18.61068153 148 150 145
245741.27935791 3357546.88476563 18.66065788 158 162 163
245739.93481445 3357549.00488281 18.65394211 175 177 176
245749.40740967 3357554.23986816 18.51763344 181 186 182
245747.45965576 3357556.40783691 18.51998711 157 157 155
245735.95275879 3357546.31274414 18.16313171 161 164 155
245735.63952637 3357544.22338867 18.42033386 42 55 45
245746.24792480 3357547.03198242 18.60625839 174 179 173
245746.92340088 3357557.76971436 18.50161552 212 216 217
245746.55657959 3357552.14135742 18.55881119 168 169 163
245739.66607666 3357554.73925781 18.60443306 158 160 155
245749.14947510 3357550.61346436 18.55329514 179 181 178
245748.27966309 3357550.47210693 18.55633736 185 187 182
245751.06512451 3357547.57965088 18.42234612 21 31 30
245740.61645508 3357547.09698486 18.66557312 178 180 179
245736.68640137 3357546.65972900 18.70535278 141 143 142
245747.60559082 3357549.85870361 18.57036209 180 181 175
245745.81933594 3357555.85058594 18.53492737 169 171 168
245748.46844482 3357551.88153076 18.54713821 167 168 162
245743.29504395 3357544.37512207 18.64286995 133 133 133
245746.32171631 3357558.80645752 18.49529648 46 49 54
245746.71173096 3357558.94665527 18.42423630 13 17 20
245740.56176758 3357548.80975342 18.65118790 170 172 171
245742.01873779 3357545.05151367 18.66267967 186 187 191
245748.26708984 3357544.33337402 18.60224724 117 121 122
245747.07250977 3357553.87066650 18.53243446 134 135 129
245736.32324219 3357559.16912842 17.76602745 52 58 44
245744.88482666 3357556.26519775 18.54005432 171 172 167
245738.63757324 3357547.42974854 18.67296791 174 176 171
245735.90686035 3357555.35583496 18.41795158 148 151 140
245749.80957031 3357544.42517090 18.58088112 136 136 134
245737.18078613 3357547.93316650 18.70147514 155 157 156
245741.06976318 3357554.40374756 18.59725189 177 178 172
245743.28997803 3357549.16302490 18.60483932 152 153 145
245736.58355713 3357555.26373291 18.64278793 117 119 114
245749.34887695 3357552.14447021 18.54040909 170 175 171
245740.29272461 3357552.17309570 18.62855530 165 167 162
245736.11529541 3357551.18890381 17.85471535 58 61 42
245741.67889404 3357548.55535889 18.64229965 173 175 170
245740.91192627 3357555.75970459 18.59183693 159 161 156
245737.41625977 3357558.74487305 18.59456444 166 176 175
245747.47027588 3357545.69958496 18.60917854 169 175 175
245737.36700439 3357548.44091797 18.69301796 159 159 157
245736.95733643 3357554.86499023 18.63509369 106 112 108
245736.09393311 3357551.75109863 18.12725258 132 135 124
245748.74920654 3357557.54754639 18.48841667 150 156 156
245749.23059082 3357548.99572754 18.56241226 169 171 170
245736.97821045 3357553.40899658 18.64393425 144 145 139
245738.86853027 3357552.82843018 18.63694382 167 169 166
245750.34356689 3357553.97302246 18.50304031 99 95 92
245738.01330566 3357546.05883789 18.70078468 169 171 168
245740.71020508 3357558.34197998 18.56546021 113 115 112
245744.45477295 3357546.98828125 18.62458038 174 173 169
245748.66320801 3357555.63159180 18.50867271 172 175 168
245738.61004639 3357545.19848633 18.69944000 148 149 151
245745.58477783 3357547.62969971 18.60727310 176 177 172
245741.31781006 3357555.82000732 18.58507919 171 176 172
245751.30487061 3357555.34771729 18.11078644 21 31 32
245750.19378662 3357548.79052734 18.54846764 113 114 108
245746.22637939 3357550.08319092 18.58599472 171 172 166
245743.50750732 3357550.64660645 18.61280251 182 184 179
245742.47363281 3357547.67248535 18.63443184 179 181 180
245749.45013428 3357554.14208984 18.51750755 178 183 177
245735.78936768 3357553.58551025 18.56127739 144 147 136
245744.74645996 3357556.37512207 18.53974342 179 180 174
245745.66314697 3357551.69158936 18.58198166 178 180 177
245737.65051270 3357546.46209717 18.70450020 137 141 142
245746.42236328 3357551.85284424 18.56812286 178 178 176
245736.90502930 3357547.19989014 18.70448303 140 141 143
245745.04211426 3357548.76025391 18.60918617 167 168 163
245738.80603027 3357546.79821777 18.69535446 165 167 164
245739.69183350 3357543.93688965 18.68135834 192 196 195
245748.28131104 3357557.46966553 18.49762535 167 173 173
245747.14233398 3357546.23547363 18.59609985 167 169 168
245736.36132813 3357545.79150391 18.71744347 135 137 134
245750.94244385 3357545.82037354 18.30575752 4 8 9
245741.31982422 3357556.14196777 18.58297157 165 171 167
245738.06774902 3357552.05218506 18.65222549 168 170 167
245749.01104736 3357555.08062744 18.51336670 160 159 157
245746.01806641 3357552.95922852 18.55712128 177 179 178
245739.60992432 3357557.14379883 18.58754730 173 175 170
245740.50292969 3357553.10723877 18.62199974 131 134 127
245742.73217773 3357549.62683105 18.61772346 159 161 156
245746.57025146 3357559.01037598 18.35187912 11 15 14
245739.09411621 3357552.10925293 18.64028168 167 167 165
245747.72375488 3357557.42199707 18.50060463 155 161 161
245736.13555908 3357544.99114990 18.72836685 132 134 131
245749.13439941 3357552.91632080 18.52508163 177 177 175
245736.89434814 3357556.55566406 18.61125946 134 140 136
245737.92456055 3357551.48278809 18.66053772 156 157 152
245742.92987061 3357557.55590820 18.54627228 149 155 155
245749.57965088 3357545.07354736 18.57770348 144 144 142
245743.04150391 3357544.66986084 18.64467812 97 99 96
245744.76629639 3357548.45825195 18.60616684 173 175 170
245736.01477051 3357559.19506836 17.60616493 54 57 38
245740.97808838 3357546.14355469 18.65878105 198 198 200
245738.30389404 3357557.71649170 18.59527588 166 170 169
245739.93798828 3357548.69604492 18.65710068 174 179 175
245749.44927979 3357550.93334961 18.54667854 150 152 149
245749.33294678 3357548.80499268 18.57139015 179 183 182
245747.81060791 3357550.82885742 18.55556297 168 169 164
245748.62023926 3357554.57452393 18.52288246 169 169 161
245743.97198486 3357549.68444824 18.61203957 178 179 174
245746.74713135 3357557.25213623 18.51594734 139 148 147
245737.36907959 3357558.53564453 18.58825111 154 156 153
245746.71429443 3357543.71105957 18.57744980 152 157 160
245735.94610596 3357548.90966797 18.70879364 158 159 153
245743.17095947 3357548.87255859 18.60310555 173 176 169
245740.76257324 3357548.81414795 18.64958763 169 170 172
245740.66705322 3357556.12603760 18.59095192 168 170 165
245735.90014648 3357555.03912354 18.56793785 157 159 148
245744.72216797 3357549.64538574 18.60361671 170 169 164
245745.57714844 3357558.81689453 18.49867821 154 160 160
245736.42828369 3357558.96563721 18.05681992 71 75 74
245740.62115479 3357544.06262207 18.70032501 165 175 177
245750.47198486 3357550.87664795 18.53194237 100 102 97
245739.19860840 3357543.73138428 18.42197037 68 78 70
245747.52404785 3357543.66912842 18.52443504 60 64 65
245747.95019531 3357555.69860840 18.51268005 168 170 169
245748.35021973 3357551.76300049 18.54482460 166 167 162
245750.74914551 3357558.08282471 18.45977783 186 187 182
245739.50915527 3357554.27947998 18.61384773 159 162 155
245750.60491943 3357556.73913574 18.46937752 148 148 146
245747.02563477 3357552.34259033 18.55584526 166 167 161
245735.70996094 3357548.03607178 18.58868408 151 152 144
245741.91864014 3357546.25634766 18.64609718 158 158 158
245745.39831543 3357552.32519531 18.57803535 184 183 178
245737.38281250 3357553.58465576 18.63649178 137 140 133
245738.99011230 3357546.42974854 18.69745636 164 170 168
245743.81237793 3357549.11572266 18.61038017 151 152 146
245743.56744385 3357553.25103760 18.58105850 177 180 173
245745.01373291 3357557.08380127 18.53258133 120 122 121
245751.15307617 3357554.44055176 18.41783333 19 24 27
245740.61389160 3357558.64343262 18.56896400 168 173 176
245742.32684326 3357558.26342773 18.54905319 130 131 133
245750.06390381 3357543.54583740 17.95237541 21 26 22
245740.92706299 3357544.27984619 18.69405746 154 154 154
245737.65631104 3357543.68530273 18.28743553 12 17 13
245749.32385254 3357544.48834229 18.58826637 129 131 130
245736.61480713 3357555.25195313 18.64138794 117 119 114
245738.53942871 3357548.80163574 18.66331100 172 173 168
245745.49560547 3357552.19702148 18.58078384 178 179 173
245740.45190430 3357547.74139404 18.66276741 170 172 171
245736.23577881 3357556.60211182 17.73019409 43 46 25
245737.23956299 3357546.45544434 18.70951843 139 141 138
245747.00494385 3357553.64581299 18.54174995 157 157 155
245739.05053711 3357552.80755615 18.63614845 169 174 170
245735.92590332 3357546.17950439 17.97660828 49 53 36
245748.69085693 3357554.53948975 18.52314377 177 178 172
245746.34619141 3357543.94006348 18.65040779 161 165 168
245745.22296143 3357549.43341064 18.60059738 184 185 179
245735.87854004 3357550.86993408 18.45767593 150 156 144
245744.41796875 3357556.93939209 18.54220390 148 150 149
245738.95910645 3357550.86383057 18.65038681 176 177 179
245751.00354004 3357553.83984375 18.49965858 200 195 191
245736.03643799 3357543.74884033 18.31535530 22 27 21
245743.18164063 3357555.92730713 18.56458855 172 177 173
245736.39868164 3357556.73223877 18.62103462 146 148 143
245747.06958008 3357544.40344238 18.61530685 119 119 119
245743.76708984 3357553.04071045 18.57925034 173 174 169
245748.56414795 3357554.00677490 18.53104782 185 184 179
245740.39398193 3357548.86859131 18.65207100 173 175 172
245743.64093018 3357544.33819580 18.64333916 119 119 119
245749.60498047 3357548.07867432 18.56132889 170 175 171
245736.30737305 3357556.72265625 17.88370514 120 123 112
245746.80029297 3357545.68505859 18.62056351 179 183 182
245738.33154297 3357547.24249268 18.68861580 178 179 173
245744.37622070 3357553.89074707 18.57022858 181 182 176
245741.65942383 3357548.25299072 18.64286995 187 189 186
245748.24688721 3357548.21942139 18.58249855 175 176 170
245744.69757080 3357558.11822510 18.52518463 155 157 156
245743.67779541 3357556.23419189 18.55095100 155 149 135
245740.48059082 3357554.12872314 18.60984230 172 174 169
245749.65307617 3357552.57257080 18.52980232 170 172 169
245742.78399658 3357548.85205078 18.62653923 141 141 139
245736.09692383 3357548.79058838 18.71057701 144 145 140
245742.64355469 3357549.50183105 18.62037468 171 173 170
245744.50744629 3357546.43890381 18.62740707 173 174 169
245746.19226074 3357554.13708496 18.55029869 162 164 159
245736.35363770 3357549.64306641 18.69574547 138 138 136
245738.37719727 3357557.24847412 18.60075760 155 159 158
245742.01983643 3357547.50207520 18.64373779 179 181 178
245740.01123047 3357557.85302734 18.57216072 148 152 151
245748.91546631 3357553.59472656 18.52762604 176 175 170
245739.84930420 3357557.97125244 18.57229233 175 179 178
245741.20593262 3357552.93865967 18.61961937 169 172 165
245736.37738037 3357548.65667725 18.70360947 100 100 98
245744.99145508 3357548.21630859 18.60127258 177 179 174
245748.64727783 3357555.11291504 18.51419258 177 178 172
245738.63494873 3357559.39068604 18.29211044 9 11 8
245749.30303955 3357552.40124512 18.53556442 172 178 174
245738.49713135 3357552.35345459 18.64833450 158 159 154
245737.16656494 3357545.93200684 18.71397209 140 144 145
245745.32305908 3357554.41351318 18.55578995 171 172 166
245736.42034912 3357549.64801025 18.69417763 141 141 139
245742.38409424 3357543.88812256 18.67676735 198 204 202
245735.46679688 3357545.34179688 18.17124367 37 42 22
245747.19244385 3357554.46600342 18.52593994 169 169 167
245748.80078125 3357543.46746826 17.97614098 20 25 21
245749.10736084 3357546.31951904 18.58273125 171 173 170
245739.65496826 3357551.27630615 18.63111115 141 140 136
245736.02502441 3357544.35186768 18.73143959 156 160 159
245749.45483398 3357548.76525879 18.56752014 151 153 152
245738.04345703 3357543.69555664 18.28484726 13 18 12
245748.57031250 3357554.07391357 18.53061867 176 177 171
245740.92132568 3357556.67669678 18.58171272 163 164 159
245748.92626953 3357546.76055908 18.58594894 175 175 173
245737.45294189 3357551.69042969 18.65984535 179 183 182
245744.03302002 3357554.82977295 18.56183624 97 97 95
245746.74249268 3357549.61547852 18.59276390 170 169 165
245746.48168945 3357551.82537842 18.56720161 183 183 181
245750.98547363 3357546.20642090 18.03928566 7 7 7
245740.67810059 3357545.31988525 18.67206192 168 172 175
245746.41815186 3357557.41809082 18.51744843 151 155 154
245742.27050781 3357552.60498047 18.60047913 175 178 171
245738.69866943 3357551.57348633 18.65288925 161 161 159
245738.55755615 3357557.63250732 18.59330750 159 163 162
245743.01464844 3357549.22497559 18.60499763 170 171 166
245737.65631104 3357547.74078369 18.69383430 163 165 162
245743.31671143 3357558.98626709 18.51165009 15 19 20
245740.36053467 3357551.71545410 18.63370132 169 170 165
245738.75372314 3357544.44055176 18.69697762 115 116 118
245745.35174561 3357544.51611328 18.63492203 116 116 114
245745.96087646 3357554.33489990 18.55191803 176 175 170
245744.03747559 3357556.31622314 18.54600525 157 160 153
245746.56652832 3357549.11309814 18.58816338 171 174 167
