245740.23437500 3357456.90069580 18.60390663 171 159 137
245740.73858643 3357457.64385986 18.87744331 38 31 38
245740.07543945 3357457.57165527 18.77095604 54 46 44
245740.10827637 3357456.71563721 18.59631538 22 22 14
245740.41784668 3357457.12997437 20.22439003 104 99 95
245740.21588135 3357456.95785522 20.04911995 234 195 178
245740.09967041 3357456.97189331 20.30766296 216 178 157
245739.67016602 3357457.00097656 20.19456482 236 212 186
245739.87908936 3357456.97167969 20.03527069 237 206 185
245740.16552734 3357457.45663452 19.77868462 83 72 66
245739.73223877 3357457.37179565 20.53069496 212 184 170
245739.44512939 3357457.30017090 18.83059883 190 163 146
245739.56378174 3357456.87347412 18.68328667 171 157 144
245739.34039307 3357457.12658691 19.20379257 228 201 180
245740.21942139 3357456.96191406 20.07036781 232 193 176
245739.75762939 3357457.05130005 20.73888397 230 203 184
245740.24584961 3357456.91043091 18.73438072 218 198 171
245739.42333984 3357457.24575806 19.12114525 215 185 161
245739.97332764 3357457.45584106 20.39750481 113 97 97
245739.68218994 3357456.92733765 19.43633652 235 200 181
245739.60772705 3357457.30126953 20.26799583 215 184 164
245740.33264160 3357457.40908813 19.66170502 81 68 60
245740.57092285 3357457.76644897 18.87833023 48 36 40
245740.02923584 3357456.96820068 20.20720291 231 196 174
245739.65081787 3357457.08566284 20.76747894 236 213 199
245739.63964844 3357456.91653442 18.82307816 230 200 176
245740.03326416 3357456.97726440 20.36068916 236 201 181
245739.32647705 3357457.43542480 18.76125336 63 62 57
245740.15576172 3357456.90365601 18.90958786 220 190 166
245740.79760742 3357456.74658203 18.80431366 155 155 103
245740.10418701 3357457.15725708 21.00247192 131 111 110
245740.28143311 3357456.91760254 19.40627480 234 203 183
245739.65313721 3357457.37799072 20.22734642 214 185 169
245740.02581787 3357457.52633667 18.87889862 76 64 64
245739.69964600 3357457.01873779 20.38294601 236 209 188
245739.46655273 3357456.96514893 18.92943382 236 215 194
245740.30151367 3357457.41323853 19.93480301 88 77 71
245739.63305664 3357457.38623047 20.11450958 206 177 159
245740.17456055 3357456.95318604 20.06667328 237 199 178
245740.26403809 3357456.92868042 19.76670265 244 209 190
245740.56683350 3357457.06661987 19.17110634 86 76 75
245740.35058594 3357456.90982056 18.79889488 224 207 179
245739.44537354 3357456.91723633 18.74605942 208 194 185
245739.90173340 3357456.91137695 19.33749580 223 172 153
245739.80822754 3357457.40856934 21.10503006 157 138 132
245740.40991211 3357457.33013916 19.95632362 79 68 66
245739.72045898 3357457.00399780 20.31810570 238 212 189
245740.38354492 3357457.05725098 20.14015579 127 112 107
245739.80651855 3357456.94821167 19.75202560 236 186 175
245740.11804199 3357457.45336914 20.29249001 86 68 64
245739.87567139 3357457.14462280 21.16983986 204 175 161
245740.69226074 3357456.99902344 18.75754166 80 62 62
245740.10437012 3357456.90576172 19.40795135 237 194 175
245740.24993896 3357457.38623047 20.71910858 81 71 69
245739.73364258 3357456.91082764 19.09049225 249 207 182
245740.27502441 3357457.45733643 18.96551132 67 57 56
245739.37628174 3357457.21334839 18.97414589 212 183 165
245740.04980469 3357456.97842407 20.39194489 235 200 180
245739.84167480 3357457.47775269 19.60749245 131 110 105
245741.04370117 3357457.01065063 18.78149796 90 59 57
245739.53485107 3357457.34808350 19.10865974 211 184 155
245739.79479980 3357457.47250366 19.64355278 140 120 111
245739.66949463 3357457.12826538 21.13468552 241 219 205
245740.57434082 3357457.80191040 18.88092041 58 39 43
245740.13940430 3357456.89709473 19.16716194 242 206 180
245739.96917725 3357456.90719604 19.31843758 219 174 151
245740.16461182 3357457.46618652 19.61949158 89 76 70
245740.41870117 3357456.93197632 19.09835052 184 162 148
245740.21209717 3357457.40512085 20.53912926 85 74 70
245740.62060547 3357457.35617065 18.91741943 52 52 52
245739.93450928 3357457.49212646 19.64900017 117 99 95
245739.55108643 3357457.28808594 20.01628876 209 176 157
245740.45385742 3357457.12445068 20.10294724 113 105 103
245740.57495117 3357457.06741333 19.12577057 90 80 79
245739.51007080 3357457.29449463 19.55574036 203 173 145
245740.18548584 3357456.90328979 18.93461800 223 191 166
245740.42779541 3357457.33032227 19.67585373 83 72 70
245740.17065430 3357457.02685547 20.51527214 193 163 153
245740.51135254 3357457.09680176 19.64377594 112 98 97
245739.78967285 3357456.90255737 18.98161697 249 204 181
245739.24774170 3357457.49118042 18.80835724 85 76 71
245740.09082031 3357457.50646973 19.29158020 79 64 59
245739.52709961 3357457.13952637 20.26907539 227 204 186
245740.04138184 3357456.92150879 19.59583092 238 195 176
245739.47351074 3357457.27441406 19.35825157 213 183 159
245739.68804932 3357457.01034546 20.31332970 234 210 186
245739.57519531 3357457.33419800 19.98704147 206 173 154
245741.00701904 3357457.19461060 18.80222321 42 25 33
245740.54254150 3357456.67602539 18.72418976 142 138 101
245739.82049561 3357457.49911499 19.44322777 147 123 119
245739.95440674 3357457.21136475 21.20318222 156 137 131
245740.96655273 3357457.35012817 18.82321739 28 25 32
245740.14709473 3357457.47943115 19.27367973 82 69 63
245739.67956543 3357457.29244995 21.10563660 217 190 183
245739.96368408 3357456.99945068 20.61559105 232 201 180
245739.95373535 3357457.46389771 20.33227539 113 98 95
245740.31701660 3357457.14859009 20.56127930 124 110 110
245740.18469238 3357457.45010376 19.79616356 84 73 69
245740.03601074 3357457.02319336 20.66707993 231 199 184
245739.85162354 3357457.50799561 18.95561600 101 88 80
245740.36810303 3357457.32369995 20.14338875 91 83 80
245740.10687256 3357456.89630127 19.22714615 241 203 180
245739.69293213 3357457.35696411 20.42852402 209 184 164
245739.65618896 3357457.29010010 20.47696495 210 184 167
245739.82012939 3357457.47946167 19.73595047 130 110 101
245740.43524170 3357457.78695679 18.85923958 76 56 58
245739.75561523 3357456.78546143 18.60738754 31 26 20
245739.71472168 3357457.32510376 20.83108711 222 195 184
245740.08685303 3357456.90048218 19.31576729 240 198 176
245739.64007568 3357457.13433838 21.06854439 228 206 193
245740.44360352 3357457.29678345 19.51428795 86 75 73
245740.45721436 3357457.34710693 19.08129311 75 67 64
245740.17358398 3357457.83029175 18.81068802 130 105 101
245739.98236084 3357457.44625854 20.66967201 99 87 75
245740.13769531 3357457.48565674 18.94471359 72 61 59
245740.57214355 3357457.03890991 18.87208748 77 63 62
245740.05200195 3357456.96075439 20.12040329 237 196 174
245739.78808594 3357457.49987793 19.25104523 133 110 102
245739.47210693 3357457.13858032 19.98119736 224 199 179
245739.76727295 3357457.60986328 18.55864716 120 125 105
245739.52459717 3357457.19595337 20.14661980 222 193 175
245740.67333984 3357457.61645508 18.87919044 38 29 34
245740.33453369 3357457.38598633 19.27400208 84 71 65
245739.53308105 3357457.31182861 19.60917854 197 167 141
245739.83502197 3357457.02114868 20.58743477 232 204 183
245740.05621338 3357457.44888306 20.50796318 97 84 76
245739.65979004 3357457.44857788 19.16247559 201 175 158
245739.80755615 3357457.40750122 20.65000916 198 174 162
245740.19000244 3357457.47116089 19.04215240 75 64 62
245739.69818115 3357456.91741943 19.22194099 245 204 182
245739.91210938 3357457.06506348 20.91549683 216 184 163
245740.66589355 3357456.91357422 18.75867271 95 69 56
245740.57513428 3357457.16424561 19.16522217 74 66 63
245740.39660645 3357457.51239014 18.85669136 31 27 24
245739.56890869 3357456.87765503 18.69546700 171 157 144
245740.15545654 3357457.44918823 19.99167633 86 73 65
245740.02844238 3357457.46350098 20.31726837 96 81 78
245739.48889160 3357457.26754761 19.64772797 208 179 149
245740.80279541 3357457.44100952 18.85678673 30 27 34
245740.49731445 3357456.95693970 18.93225479 105 86 80
245739.81823730 3357456.92651367 19.51874542 225 167 155
245740.21350098 3357457.43157959 20.15955925 81 70 66
245739.72753906 3357457.48138428 19.07456207 132 110 99
245739.52423096 3357457.64486694 18.70194054 18 18 10
245740.12780762 3357457.43148804 20.71128082 80 66 63
245740.25946045 3357457.25518799 20.86187363 72 63 64
245739.73846436 3357456.91006470 19.07923317 249 209 183
245740.06848145 3357456.97055054 20.30352783 233 197 175
245739.93774414 3357457.39019775 21.16908836 86 68 64
245740.11535645 3357456.89700317 19.15241051 244 207 181
245740.31311035 3357456.74868774 18.57932854 30 34 19
245739.54754639 3357457.30102539 19.93760300 209 174 154
245740.18005371 3357457.45837402 19.33330917 83 73 63
245739.48651123 3357456.96353149 19.03474045 236 214 191
245739.90136719 3357457.47927856 20.19508171 101 84 77
245739.72314453 3357457.48190308 19.15394402 155 131 119
245739.85266113 3357457.30441284 21.23736954 207 187 180
245739.63720703 3357457.69030762 18.64697838 38 41 34
245739.59082031 3357456.93591309 19.46011925 248 222 197
245739.62432861 3357457.40625000 19.29503059 211 186 164
245740.43457031 3357457.35427856 19.10546875 75 67 64
245740.19970703 3357457.40936279 20.72432327 83 72 70
245740.73883057 3357457.62701416 18.87605286 38 31 38
245739.84637451 3357456.94338989 19.73277092 237 188 174
245740.10888672 3357457.44543457 20.55003166 83 74 65
245740.24615479 3357457.43170166 19.24453163 81 70 64
245740.38146973 3357456.91506958 19.14525223 211 188 170
245739.99029541 3357457.53311157 18.95494270 81 67 66
245739.86077881 3357457.78652954 18.64756012 135 126 119
245740.15283203 3357457.44424438 20.31158257 86 72 69
245740.11468506 3357457.31634521 21.08607101 81 71 70
245739.40136719 3357457.20730591 19.36865807 215 185 161
245740.24157715 3357456.89770508 19.21278763 238 208 184
245741.16430664 3357456.87594604 18.78083038 99 78 73
245739.99841309 3357457.19253540 21.14842606 130 111 107
245739.39715576 3357456.99243164 19.22556877 235 219 196
245739.69531250 3357456.91174316 18.94622993 243 208 180
245740.56317139 3357457.05130005 19.11930084 90 79 77
245739.60437012 3357457.36102295 19.83546257 191 160 142
245739.63281250 3357457.11816406 20.77508736 234 211 197
245740.35180664 3357457.40310669 19.79102325 76 63 57
245739.50561523 3357457.51339722 18.66373253 23 22 17
245739.89379883 3357457.50070190 19.43687057 111 92 86
245739.74511719 3357457.05444336 20.74701691 229 202 183
245739.88049316 3357456.92501831 19.53888702 233 180 166
245739.53448486 3357457.35848999 18.95642662 181 153 131
245740.13720703 3357457.08355713 20.74654579 147 122 117
245739.95727539 3357456.91287231 19.39986229 222 173 156
245739.72930908 3357457.47784424 18.88338280 112 95 88
245739.37628174 3357457.08233643 19.59151840 230 213 195
245739.49517822 3357456.95968628 18.98813438 236 216 192
245740.39337158 3357457.20687866 20.46306229 80 70 68
245739.59533691 3357457.05981445 20.36864662 226 205 188
245739.75604248 3357456.94680786 19.70489883 234 182 171
245739.48559570 3357457.16589355 19.98413277 226 197 179
245739.74383545 3357457.47235107 19.84482574 171 145 132
245740.54357910 3357457.02041626 19.05198097 93 77 77
245740.96722412 3357456.85116577 18.79414940 108 74 73
245740.08276367 3357457.46328735 20.23423195 86 69 62
245740.00622559 3357457.53024292 19.00527763 81 67 64
245740.01763916 3357456.89636230 19.11294365 233 188 165
245739.56817627 3357457.18121338 20.47438431 209 183 166
245740.17645264 3357457.00738525 20.39880180 205 172 157
245740.43255615 3357456.92422485 18.92771721 167 148 133
245740.32867432 3357457.34530640 20.60789299 91 81 79
245739.86718750 3357456.98632813 20.25545311 235 203 180
245739.74621582 3357457.45617676 20.23988152 198 169 155
245740.31964111 3357457.34729004 20.20271492 90 80 78
245739.97717285 3357457.54827881 18.83138847 84 74 72
245739.67120361 3357457.72778320 18.66018105 35 37 32
245740.24267578 3357457.12197876 20.65522385 101 81 82
245739.50469971 3357457.29660034 19.46439362 206 176 152
245740.05688477 3357457.47756958 19.95667648 91 74 66
245739.72961426 3357457.47314453 19.56181145 200 176 164
245739.50872803 3357457.22879028 19.94599152 221 188 169
245739.97857666 3357457.49078369 19.53928757 106 91 86
245739.85449219 3357456.89099121 18.77577782 185 158 141
245739.48590088 3357457.21905518 19.87749863 216 184 159
245739.51202393 3357457.10583496 20.08218765 229 207 186
245740.06866455 3357457.53604126 18.81085014 73 61 63
245739.45513916 3357457.50326538 18.70068359 16 15 10
245740.41870117 3357456.99801636 19.64528656 175 153 142
245740.14947510 3357457.42218018 20.76219177 89 78 76
245740.20330811 3357457.39047241 20.88640785 64 54 52
245740.45465088 3357457.00592041 19.49637413 134 114 105
245739.60101318 3357457.21429443 20.51041031 212 189 171
245739.49621582 3357457.35098267 18.80230522 158 132 117
245740.70867920 3357457.21401978 18.82735252 42 42 42
245740.30395508 3357457.41793823 19.75830269 86 75 71
245739.83380127 3357457.51004028 19.19684982 113 94 87
245739.94189453 3357457.49630737 19.97576904 97 82 77
245739.91326904 3357457.47485352 20.25469971 110 93 86
245740.22515869 3357457.39044189 20.35898399 87 76 72
245739.61602783 3357457.32421875 20.23418236 213 182 161
245740.10833740 3357457.43600464 20.73424149 78 64 61
245739.87432861 3357457.47949219 19.62202835 126 107 103
245739.78057861 3357457.49301147 19.37785149 155 132 126
245740.22222900 3357457.43933105 19.30373192 84 71 63
245739.84460449 3357457.48513794 19.55137634 136 112 110
245740.82427979 3357457.14916992 18.79174805 46 37 40
245740.34765625 3357457.18933105 20.54583359 118 106 106
245739.33728027 3357457.12387085 19.45218277 221 199 175
245739.88323975 3357457.21392822 21.24099541 204 180 170
245740.57635498 3357456.79635620 18.71546936 135 137 87
245740.48675537 3357457.22381592 19.59218407 85 73 73
245740.32147217 3357457.00823975 20.16657257 175 153 142
245739.73260498 3357457.00198364 20.30569839 237 211 188
245740.32446289 3357457.34738159 20.58080673 91 81 79
245740.00073242 3357457.56286621 18.77637863 75 65 64
245739.47314453 3357457.48449707 18.67973900 16 16 8
245740.97253418 3357457.13305664 18.79707146 84 62 65
245740.21746826 3357457.45812988 19.11385155 81 70 68
245740.25598145 3357456.91348267 19.57740402 240 201 184
245739.81274414 3357457.46542358 20.26392555 134 111 103
245739.61376953 3357457.34408569 20.15566063 210 179 159
245740.10955811 3357456.89947510 19.02796173 232 194 173
245740.02813721 3357456.93273926 19.75246429 241 200 180
245740.33520508 3357457.32727051 20.67173195 98 87 83
245739.73083496 3357456.90856934 18.97316933 245 208 179
245739.65740967 3357457.44052124 18.74782372 132 115 107
245740.14184570 3357456.94973755 20.06219673 242 201 181
245740.50366211 3357456.65933228 18.70278168 143 128 107
245739.67193604 3357457.26867676 20.78554535 215 191 179
245739.88537598 3357457.63739014 18.59845734 92 89 74
245739.68811035 3357457.45870972 19.37832260 207 181 168
245740.49194336 3357457.04409790 19.31696510 115 100 95
245740.67608643 3357457.15237427 18.81147575 55 54 52
