246100.72302246 3357453.80981445 14.37155437 82 85 94
246098.74450684 3357459.45898438 16.28646278 128 128 128
246100.07299805 3357454.20642090 16.44147110 159 246 255
246098.53613281 3357456.42974854 16.69907951 105 225 252
246099.80810547 3357455.23196411 15.85270214 146 158 138
246098.59436035 3357463.39926147 16.24123383 128 128 128
246100.50366211 3357458.43350220 16.61525154 37 139 211
246097.57739258 3357462.06420898 16.35373688 160 243 255
246098.50781250 3357464.08874512 14.68780231 108 100 121
246098.60888672 3357456.08010864 16.66232872 166 229 247
246099.53796387 3357459.75668335 16.30287552 174 201 196
246098.27282715 3357456.02096558 14.36808681 189 189 189
246098.35424805 3357464.50692749 16.35556984 205 213 200
246099.94665527 3357455.96102905 14.56042290 89 90 95
246098.15710449 3357458.95272827 16.25592232 128 128 128
246098.16833496 3357463.58026123 14.83475780 141 150 165
246099.61633301 3357455.82318115 17.13411522 0 139 224
246099.17492676 3357455.54571533 16.91842270 103 206 239
246097.38928223 3357464.21066284 14.84852505 209 205 222
246100.74047852 3357454.76507568 14.32692432 173 177 188
246099.63342285 3357462.85430908 16.72547913 46 167 214
246097.45397949 3357464.32785034 14.83774090 205 201 216
246098.99279785 3357462.82571411 14.69942665 137 156 173
246098.45349121 3357456.96478271 16.12886429 128 128 128
246098.35327148 3357456.38989258 16.14319420 128 128 126
246100.78149414 3357456.12091064 16.49226189 0 155 234
246100.15075684 3357456.87536621 14.61889076 92 93 98
246099.18615723 3357462.73968506 16.78083229 3 175 239
246099.20263672 3357456.05111694 16.94120598 8 134 218
246099.12780762 3357458.32156372 14.50783920 187 187 185
246099.99353027 3357464.36566162 14.31076145 51 55 64
246098.69201660 3357462.41714478 16.66687393 152 205 236
246098.28833008 3357454.97042847 14.31064796 191 189 190
246100.43530273 3357455.42459106 14.37988377 200 202 214
246100.21069336 3357458.50509644 16.73216057 170 188 228
246097.86328125 3357462.30685425 14.49975586 119 126 136
246099.54492188 3357462.05838013 14.27724552 165 158 165
246099.64868164 3357464.56381226 14.56009960 64 67 74
246097.97387695 3357464.45690918 16.29975510 220 223 212
246098.01452637 3357457.39617920 14.44749832 192 194 193
246099.37243652 3357453.63717651 14.34642887 112 100 100
246098.87646484 3357455.08319092 14.30194473 200 200 190
246099.79052734 3357454.24069214 16.48480225 52 178 228
246098.43737793 3357453.79583740 14.34760571 178 180 179
246099.99487305 3357454.24295044 16.46944618 82 174 225
246099.00012207 3357462.76269531 16.79885292 155 213 235
246099.86511230 3357457.40457153 16.04228783 128 128 128
246099.16662598 3357462.29605103 16.24773216 128 128 128
246099.63525391 3357464.42605591 16.49645233 169 198 194
246100.32885742 3357459.06994629 16.66567421 14 141 218
246098.77868652 3357458.97460938 14.44941139 208 210 209
246098.16491699 3357462.90997314 16.24234009 128 128 128
246099.82495117 3357456.79479980 16.51388931 25 190 248
246098.92968750 3357459.07196045 16.22003174 128 128 128
246098.65954590 3357462.26385498 16.60040665 116 222 246
246099.43383789 3357456.91140747 16.49774933 82 178 228
246100.66625977 3357458.72961426 16.53849792 123 192 231
246098.18432617 3357458.97631836 14.42877865 201 202 204
246097.99218750 3357455.34152222 14.31211472 201 201 201
246099.51538086 3357458.26028442 14.54383183 157 156 161
246099.56713867 3357454.19122314 16.49089241 118 206 246
246098.38879395 3357457.83026123 16.12962151 128 128 128
246100.00415039 3357456.98095703 16.03365517 128 128 128
246099.17749023 3357458.14053345 17.09108353 22 195 238
246098.54565430 3357456.24472046 16.12181473 128 128 128
246099.62463379 3357464.30450439 14.45602512 77 87 96
246100.06506348 3357458.76425171 16.17234993 128 128 128
246100.27075195 3357459.15579224 16.69187927 15 143 214
246098.61535645 3357459.66354370 16.56571388 72 197 243
246100.00036621 3357459.83758545 16.39934349 101 155 121
246098.70153809 3357459.15640259 16.77092171 15 148 225
246100.90686035 3357455.24627686 14.43225670 174 180 192
246097.97119141 3357457.23947144 14.44434452 194 196 195
246098.35961914 3357458.29537964 14.41597652 198 201 194
246098.48669434 3357455.26199341 16.11739159 125 129 130
246100.90991211 3357455.46121216 16.48631287 3 161 234
246098.32507324 3357455.92514038 16.14870834 128 128 128
246099.32556152 3357457.58325195 14.44774151 175 176 180
246098.50988770 3357458.63977051 14.45087910 206 208 205
246100.08886719 3357459.68627930 16.69421959 50 181 227
246100.52282715 3357459.52606201 16.53449440 50 149 214
246099.02648926 3357457.42623901 16.06081581 128 128 128
246098.59912109 3357462.44940186 16.67317390 15 160 217
246100.71105957 3357457.77542114 16.22769356 51 81 107
246100.06982422 3357456.61499023 16.02058220 128 128 128
246100.22167969 3357458.24282837 14.63064861 144 139 143
246099.21887207 3357454.63317871 14.29746628 180 190 181
246097.99597168 3357457.27511597 16.38017654 89 162 195
246099.45788574 3357456.80319214 14.59955025 211 206 212
246100.15539551 3357458.06491089 16.76061821 19 143 207
246100.63000488 3357459.38238525 16.45120811 60 102 140
246099.64367676 3357464.08670044 14.28301907 81 86 92
246099.77319336 3357456.23934937 15.96962547 128 128 128
246098.09362793 3357463.38049316 16.72945404 156 203 209
246099.82739258 3357458.35928345 14.60715771 122 119 126
246098.02514648 3357459.29205322 16.53719711 76 209 240
246100.44311523 3357454.59646606 14.37897015 196 196 204
246098.93249512 3357459.01477051 16.88419724 9 156 234
246099.18884277 3357462.30337524 14.59679890 180 174 176
246098.47509766 3357462.88296509 16.82568359 25 184 223
246099.37854004 3357457.37759399 16.65299034 144 224 249
246100.74951172 3357458.23016357 16.51841354 94 165 219
246100.23925781 3357459.03784180 16.70968437 21 139 213
246100.13525391 3357462.39669800 16.32687759 79 145 169
246098.18664551 3357456.58007813 14.47664070 176 178 177
246100.36511230 3357454.25497437 16.22089005 135 149 184
246098.32324219 3357458.07293701 16.65661049 85 213 240
246099.74291992 3357456.81951904 15.99796200 128 128 128
246097.91699219 3357462.39712524 16.24468994 128 128 128
246098.86254883 3357455.49191284 16.07267189 128 128 128
246097.82690430 3357459.53182983 16.47769928 96 216 243
246098.02172852 3357463.39770508 16.69610977 148 195 205
246098.34277344 3357457.85232544 16.65963936 87 215 240
246100.46838379 3357455.93542480 14.37410355 150 154 166
246099.15344238 3357463.82485962 16.23940277 128 128 128
246098.68554688 3357458.30847168 16.87683868 185 244 250
246100.31176758 3357458.58184814 16.15690994 128 128 128
246100.68664551 3357458.38232422 14.59686756 99 97 108
246099.33239746 3357462.33587646 16.25492668 129 127 128
246097.57690430 3357463.12844849 16.29513168 111 134 140
246100.52038574 3357458.46261597 14.63104916 103 98 105
246100.25085449 3357459.23306274 16.24912071 128 128 128
246100.20239258 3357458.48150635 16.73634148 203 212 251
246100.06274414 3357457.61886597 14.61281967 79 70 73
246100.09008789 3357455.92663574 15.99245262 78 107 115
246098.37597656 3357462.09423828 16.26283836 128 128 128
246098.00146484 3357463.93624878 14.94399261 95 157 196
246097.65808105 3357464.28408813 14.93369865 124 129 148
246099.89440918 3357457.20678711 14.69741344 119 113 115
246099.60339355 3357454.96710205 15.78783607 129 129 129
246100.22277832 3357457.48587036 16.09552765 128 128 128
246100.46276855 3357457.12362671 16.09324455 128 128 128
246099.23596191 3357455.83847046 16.02668571 128 128 128
246098.70385742 3357457.45986938 16.09769249 128 128 128
246100.20397949 3357455.20001221 14.44242191 191 185 185
246097.64379883 3357462.97387695 14.94575310 244 253 255
246099.02062988 3357456.74325562 14.57511139 75 77 76
246099.00402832 3357464.33920288 16.24562073 219 222 211
246098.88439941 3357458.83261108 16.95038795 20 160 193
246098.90869141 3357459.42050171 14.46338367 121 117 114
246099.97229004 3357455.74774170 17.03683853 28 122 196
246098.69873047 3357457.01620483 16.52147865 4 147 226
246099.12438965 3357462.41085815 14.82846165 137 147 138
246099.20214844 3357463.50128174 16.99794579 17 115 180
246098.13513184 3357459.23950195 16.31335640 128 128 128
246099.03100586 3357463.46005249 17.13289833 21 117 177
246097.51867676 3357463.32223511 16.30749893 128 183 204
246099.10217285 3357463.15234375 17.00691032 28 160 234
246098.32324219 3357456.38592529 14.43869400 189 189 189
246098.72485352 3357457.82833862 14.62630558 155 163 166
246100.13464355 3357454.09457397 14.55604935 132 138 152
246098.99902344 3357457.41949463 14.80807686 61 69 82
246100.03527832 3357458.68286133 16.15986061 128 128 128
246099.34411621 3357463.88565063 14.30267811 79 86 96
246099.74133301 3357463.14404297 16.68316269 120 175 205
246099.56677246 3357455.40585327 17.14071083 51 189 235
246099.08374023 3357454.16192627 16.19786263 115 137 174
246098.95812988 3357454.08856201 14.32493877 184 184 182
246097.77331543 3357462.31991577 14.66260147 49 56 66
246098.74011230 3357455.60852051 14.42817402 198 197 192
246098.47192383 3357458.82543945 14.45481110 209 211 210
246098.24902344 3357455.02093506 16.45767593 168 214 238
246098.17602539 3357456.67144775 16.52015114 106 197 226
246098.27124023 3357457.99176025 14.43049812 193 197 196
246100.21569824 3357455.30728149 16.04433823 152 165 137
246100.72473145 3357458.36068726 16.24255562 156 173 167
246098.02099609 3357459.53369141 16.37772369 128 128 128
246099.27832031 3357455.35165405 16.94312859 87 209 246
246100.08691406 3357463.36010742 14.23998260 101 108 127
246099.99926758 3357457.40106201 16.58078766 0 184 238
246097.54882813 3357462.85427856 16.37313652 136 187 204
246098.66101074 3357462.45626831 16.68037796 131 183 222
246099.68347168 3357464.54382324 14.58917046 39 44 50
246098.11425781 3357456.95571899 14.72034264 192 193 195
246099.12548828 3357463.32928467 17.06308937 13 126 192
246100.01879883 3357458.66430664 16.83559799 198 191 198
246098.27331543 3357458.94772339 14.43569851 194 198 199
246099.94543457 3357459.40216064 14.90553570 77 72 68
246099.81494141 3357459.62429810 14.87769890 67 61 65
246099.88684082 3357459.81002808 16.36387062 154 179 122
246098.15356445 3357453.92886353 14.33892345 177 181 184
246097.94506836 3357458.18908691 14.36081505 202 203 205
246099.77758789 3357456.19253540 16.81544685 69 125 200
246100.18115234 3357454.43133545 15.74885368 157 184 201
246098.08203125 3357459.21279907 14.45800495 197 198 200
246098.93298340 3357464.04214478 14.63018703 114 123 140
246097.53698730 3357462.30557251 14.78733730 175 199 227
246100.19787598 3357459.68008423 14.47070122 86 51 58
246098.46813965 3357463.35156250 16.24084473 128 128 128
246098.96154785 3357454.60656738 14.31414127 198 201 192
246098.64782715 3357459.20547485 16.25731850 128 128 128
246099.82495117 3357454.53146362 16.55714989 207 231 241
246099.28417969 3357457.37881470 16.02888489 128 128 128
246097.25524902 3357463.75454712 14.45960808 130 130 138
246099.70507813 3357454.83645630 15.73859692 180 185 153
246099.74072266 3357457.48013306 16.67044258 2 174 236
246100.05651855 3357462.66650391 14.24047279 109 117 128
246098.18005371 3357459.34893799 16.32230186 128 128 128
246099.80126953 3357458.73626709 14.72449684 54 73 88
246098.17968750 3357459.34713745 16.58798409 47 162 219
246101.10314941 3357455.02218628 16.41922379 89 149 185
246097.49792480 3357463.17752075 14.70034981 228 228 236
246098.92407227 3357453.91873169 14.29902458 176 178 175
246100.22302246 3357462.48205566 14.24122334 127 136 153
246099.85839844 3357456.82815552 14.65425587 34 35 39
246098.42858887 3357462.86709595 16.79763222 27 190 225
246097.84729004 3357463.44552612 14.88457775 100 121 140
246099.71752930 3357456.46099854 16.63318253 102 165 216
246098.25842285 3357457.56665039 14.63889599 187 191 192
246098.96594238 3357455.34759521 16.05445671 128 128 128
246098.50524902 3357453.72302246 14.30931473 172 176 175
246097.96118164 3357464.46270752 16.30149651 220 223 212
246099.95397949 3357464.14846802 16.30257416 128 128 128
246100.21069336 3357458.59671021 16.73200798 64 100 148
246098.09143066 3357463.24023438 14.83142281 132 140 143
246100.30541992 3357454.71188354 15.91574287 187 196 193
246100.26391602 3357463.45397949 16.42071724 80 158 204
246098.97888184 3357456.58160400 16.06604004 128 128 128
246100.05017090 3357457.20190430 16.05038071 128 128 128
246098.97790527 3357456.87075806 16.51858711 80 185 243
246098.24108887 3357464.49667358 16.47775078 119 179 203
246098.04809570 3357458.44229126 16.19297028 128 128 128
246099.14819336 3357459.24783325 15.07038498 214 225 247
246099.28454590 3357454.52481079 14.30756474 177 188 182
246098.71313477 3357455.18859863 16.62589264 100 220 247
246097.94946289 3357457.59957886 14.41461945 205 207 206
246099.91015625 3357458.03704834 16.88335609 22 161 228
246099.44018555 3357457.99652100 14.43847084 190 190 188
246099.30810547 3357462.95251465 16.24684525 128 128 128
246098.67187500 3357456.53912354 14.65246582 189 190 192
246098.30480957 3357453.64666748 14.31294250 177 181 182
246099.24365234 3357462.29946899 16.25159073 128 128 128
246097.29382324 3357462.72515869 14.51559544 118 127 136
246098.89233398 3357463.32992554 17.21315956 53 160 206
246098.38354492 3357462.74740601 16.24367523 128 128 128
246099.86962891 3357457.05029297 14.70291615 93 89 90
246100.43493652 3357457.72656250 16.64986610 29 147 211
246099.81542969 3357458.37908936 14.60669613 111 110 116
246098.33862305 3357458.99203491 16.24880409 128 128 128
246099.82495117 3357458.14620972 16.92578888 7 135 210
246098.22485352 3357454.39044189 14.37060833 188 189 191
246099.54602051 3357458.10922241 16.99250412 11 155 226
246098.10424805 3357454.38226318 14.33891773 194 194 194
246098.05395508 3357455.25482178 14.31607437 180 180 180
246098.71923828 3357457.44244385 16.72857094 0 173 242
246099.18481445 3357456.84939575 16.03943634 128 128 128
246098.34960938 3357456.56137085 14.51919556 175 176 178
246099.02465820 3357456.28469849 14.56361866 193 193 193
246098.32263184 3357456.36734009 16.14682198 127 129 128
246098.58435059 3357455.81295776 16.11553192 128 128 128
246100.31628418 3357459.28479004 16.26041985 128 128 128
246100.04833984 3357456.78842163 14.60597897 129 130 132
246099.00695801 3357464.18228149 16.23784637 128 128 128
246098.94604492 3357459.03836060 16.21424675 128 128 128
246099.43041992 3357457.79568481 16.87266541 196 209 217
246098.94934082 3357464.49951172 16.52985954 139 171 184
246099.10290527 3357457.31567383 16.63148117 4 176 242
246100.91662598 3357454.64761353 16.59801483 21 107 164
246099.89501953 3357456.71136475 16.00777817 128 128 128
246099.63293457 3357463.22317505 16.25355530 128 128 128
246100.01306152 3357463.41815186 14.23444939 78 85 101
246099.03588867 3357456.44326782 16.71790314 15 121 207
246098.03833008 3357463.56283569 14.86266708 157 165 176
246097.89611816 3357462.42846680 14.72250843 129 127 138
246098.57739258 3357463.95849609 14.73274136 87 114 157
246098.78857422 3357458.29409790 14.44895649 198 203 199
246100.30493164 3357459.60870361 14.46712208 66 55 59
246101.15649414 3357454.58587646 14.35477257 168 175 185
246098.66223145 3357457.77899170 16.81562042 66 211 240
246098.66369629 3357463.86380005 16.82730103 35 144 201
246100.58996582 3357455.32736206 16.17755699 147 162 143
246100.13830566 3357455.67810059 16.03457069 115 141 138
246099.82043457 3357462.70843506 16.64603806 98 175 203
246100.09045410 3357454.14486694 15.66273785 211 221 230
246098.35351563 3357462.73086548 16.24382210 128 128 128
246100.60046387 3357458.14431763 16.16912460 125 129 128
246100.66479492 3357454.89178467 14.34163570 189 191 203
246099.77026367 3357459.82739258 16.35884094 194 222 210
246099.14062500 3357455.59750366 16.90814400 90 194 231
246099.51647949 3357457.09622192 14.63874817 172 171 167
246100.02282715 3357458.20962524 16.10086632 128 128 128
246098.39562988 3357457.81713867 14.56830883 177 181 182
246100.02648926 3357463.76559448 14.22792339 88 97 112
246098.23315430 3357462.94335938 14.83746719 107 120 128
246098.57080078 3357459.05474854 14.48513985 209 210 212
246099.57006836 3357454.93731689 16.79359055 242 227 250
246098.30200195 3357464.42343140 16.52960777 76 156 191
246099.74304199 3357459.09219360 16.92515182 70 172 236
246099.21423340 3357454.16845703 16.43533897 106 174 213
246098.01330566 3357462.27462769 16.24569511 127 128 130
246100.21228027 3357456.24737549 14.47224140 117 116 121
246099.56176758 3357462.49783325 16.26121330 128 128 128
246100.08764648 3357455.79730225 16.91031456 35 123 197
246098.80468750 3357463.72772217 16.91512299 22 129 199
246099.76916504 3357457.52349854 14.58259583 111 112 114
246098.66088867 3357458.83474731 16.84708977 86 204 230
246098.26745605 3357458.23147583 14.40197372 200 202 197
246099.73767090 3357457.90481567 16.06012726 128 128 128
246098.33374023 3357456.08358765 16.52998543 242 255 255
246099.97424316 3357454.63247681 16.61971664 27 168 211
246100.00708008 3357459.65078735 14.71620178 113 97 100
246100.59924316 3357456.02267456 14.38961029 136 138 150
246099.37512207 3357458.73941040 14.66580868 131 148 158
246099.63757324 3357462.91540527 16.72441673 42 165 207
246097.44250488 3357464.20553589 14.91745567 197 212 235
246099.18005371 3357457.01351929 16.50494766 83 197 233
246098.29943848 3357458.61413574 16.65015221 116 212 234
246099.99938965 3357458.78359985 14.75061035 118 121 136
246100.85351563 3357457.06573486 16.20096016 152 160 163
246097.51586914 3357464.22656250 14.93028355 180 192 216
246099.42480469 3357454.88211060 15.81462288 128 128 128
246100.03234863 3357455.50476074 17.04094887 22 117 197
246100.34936523 3357456.64434814 14.48136425 88 93 99
246100.30017090 3357458.69604492 16.69073296 69 139 198
246100.33361816 3357459.13055420 16.23770142 128 128 128
246100.18481445 3357455.33859253 16.95203781 28 121 191
246100.24145508 3357454.56506348 16.62546158 7 175 220
246099.17358398 3357464.03073120 16.23915863 128 128 128
246099.97387695 3357455.73953247 15.97734261 96 131 135
246099.34460449 3357456.99987793 16.50360107 229 255 255
246098.07214355 3357458.25466919 16.55518150 22 193 245
246099.00390625 3357455.85397339 14.60901260 201 203 200
246098.45336914 3357455.07098389 16.54632759 5 189 241
246098.70239258 3357457.09121704 14.72561932 133 137 138
246099.27575684 3357456.90628052 16.02734756 128 128 128
246098.69250488 3357458.96838379 16.22115898 128 128 128
246098.33190918 3357457.50964355 14.77236462 189 193 192
246098.03051758 3357458.22229004 16.16524696 128 128 128
246099.83959961 3357459.17672729 16.22058487 128 128 128
246100.80627441 3357457.96554565 16.42385483 58 95 148
246099.67114258 3357464.04867554 16.26408958 128 128 128
246098.66040039 3357458.75894165 16.85094261 92 202 229
246097.70764160 3357462.33197021 16.52621269 109 192 208
246100.06286621 3357459.72985840 16.66005516 17 163 222
246099.11584473 3357458.84051514 14.59779644 190 195 198
246099.47399902 3357454.99984741 14.36410427 218 202 189
246097.32666016 3357462.33868408 14.54181004 166 176 203
246097.92932129 3357463.42849731 16.65302086 135 187 200
246100.74096680 3357455.87417603 14.44523907 150 154 166
246097.64392090 3357464.11846924 16.27265739 85 160 202
246098.92480469 3357456.01684570 16.07019234 128 128 128
246098.62133789 3357459.19293213 16.25730896 128 128 128
246097.92700195 3357457.02813721 14.46062088 189 191 190
246099.93872070 3357454.16079712 16.35712814 160 202 226
246098.03356934 3357455.91784668 14.32837582 193 193 193
246099.78051758 3357458.92654419 14.85054970 175 191 206
246099.78759766 3357458.63265991 14.65198898 63 75 89
246099.76489258 3357459.15130615 16.21405983 128 128 128
246098.30908203 3357463.24169922 16.24072456 128 128 128
246098.11889648 3357458.80462646 14.40968609 201 203 202
246100.99291992 3357455.59094238 16.29995346 146 153 137
246100.47949219 3357458.15966797 14.60902691 95 88 95
246099.30761719 3357455.47268677 16.98910522 75 208 249
246100.43188477 3357459.29104614 16.26926994 128 128 128
246098.15759277 3357454.28384399 14.35473633 183 185 184
246100.97595215 3357455.45852661 16.47827339 21 165 228
246097.68286133 3357462.55007935 14.97866821 147 162 185
246100.12915039 3357464.33856201 16.42501259 79 177 216
246098.02941895 3357459.37484741 14.44329357 187 191 192
246098.17150879 3357457.99523926 14.41167831 198 202 203
246099.00720215 3357463.31964111 16.24043846 128 128 128
246098.68054199 3357462.92037964 14.82037067 91 166 206
246099.78881836 3357458.27160645 16.94645119 26 136 213
246098.27807617 3357458.13491821 16.13847733 128 128 128
246098.08203125 3357463.49761963 14.84464073 166 170 179
246098.52917480 3357456.67681885 16.61217117 15 124 207
246100.84521484 3357454.52679443 16.52890015 98 127 109
246098.15246582 3357464.23553467 14.72504711 47 38 39
246100.44641113 3357457.17315674 16.09577751 128 128 128
246099.26306152 3357463.34933472 14.66134930 105 104 109
246100.43518066 3357459.27163696 16.61387444 18 163 230
246099.11523438 3357457.51043701 16.74469566 0 172 238
246099.73730469 3357464.25979614 16.28474617 128 128 128
246100.92089844 3357455.79605103 16.48274422 18 164 224
246098.80969238 3357456.27691650 16.81487274 29 140 195
246100.26464844 3357457.11355591 16.48551178 25 180 236
246098.25854492 3357454.81060791 14.31643581 191 189 190
246098.64208984 3357462.25219727 16.24287987 128 128 128
246098.43225098 3357459.48562622 14.48514462 187 187 185
246098.90649414 3357459.01605225 16.21372986 128 128 128
246098.71057129 3357463.03356934 16.94742012 9 181 229
246100.63269043 3357458.22421265 16.56417656 39 155 232
246098.85107422 3357454.99984741 14.30037880 203 203 195
246100.60107422 3357458.24343872 16.57662773 34 151 228
246098.23718262 3357457.86132813 16.60765839 118 229 249
246097.93872070 3357462.78942871 14.92258453 122 131 140
246100.39599609 3357456.16714478 16.07848167 63 105 121
246098.10791016 3357457.35006714 16.20630836 85 111 136
246098.26525879 3357455.47100830 16.22542953 156 191 210
246098.71252441 3357458.98645020 14.47059822 211 213 212
246100.87316895 3357456.40768433 16.28452873 13 53 89
246098.12622070 3357457.24911499 14.57380962 191 193 192
246099.33666992 3357458.67434692 14.61499691 162 167 170
246098.23327637 3357456.94323730 14.77490425 184 186 183
246100.37573242 3357455.78213501 16.69033623 153 189 237
246100.98217773 3357454.78964233 16.28812599 201 206 199
246099.18017578 3357455.31063843 14.33583450 189 187 175
246100.48376465 3357458.47024536 14.64888954 105 98 106
246098.99829102 3357459.51812744 14.79207516 117 118 113
246100.24670410 3357459.33276367 16.70008278 19 148 216
246099.26208496 3357462.84603882 16.24629211 128 128 128
246097.64697266 3357463.86117554 15.02665138 172 212 248
246100.01684570 3357456.08123779 14.55527401 44 48 49
246100.10021973 3357464.28375244 16.45056725 61 160 199
246099.19934082 3357462.25784302 16.25073433 128 128 128
246098.74694824 3357457.43984985 14.92823124 159 166 174
246099.36840820 3357456.28265381 14.60062027 149 154 157
246100.87536621 3357456.52786255 16.29101944 42 86 115
246098.07934570 3357457.07604980 16.51622200 106 207 237
246100.41503906 3357457.24127197 16.09807587 128 128 128
246099.41027832 3357462.72830200 14.39033031 131 131 133
246098.08044434 3357463.17910767 16.23984337 128 128 128
246099.18408203 3357456.19119263 16.03578186 128 128 128
246098.43127441 3357454.61007690 16.27739525 136 182 208
246100.42749023 3357457.69479370 16.65490723 20 144 204
246100.52685547 3357456.17916870 14.36465645 132 136 148
246100.08813477 3357458.17074585 16.79405212 16 133 202
246099.55468750 3357463.09356689 16.25231361 128 128 128
246099.88049316 3357464.25225830 16.57201004 85 185 217
246099.33691406 3357459.27182007 15.07753372 98 115 158
246098.83850098 3357454.58029175 14.32489872 197 198 192
246098.18176270 3357456.30709839 16.45931244 119 211 236
246099.50732422 3357456.40411377 14.60018253 115 118 125
246100.22570801 3357454.70294189 16.69487572 4 176 224
246099.78613281 3357458.70315552 14.70060825 45 64 79
246098.20068359 3357457.93096924 16.59168625 102 226 250
246098.79858398 3357463.08679199 14.80926418 66 84 94
246099.11718750 3357463.43969727 14.75767708 198 193 197
246099.18444824 3357454.38830566 14.31052589 170 175 169
246100.46667480 3357459.80163574 16.59108162 37 161 233
246099.07702637 3357456.85562134 16.52265358 25 184 240
246100.16870117 3357456.46871948 16.02285194 128 128 130
246099.29650879 3357458.95043945 14.92056274 69 169 221
246099.41101074 3357458.17828369 16.06481361 128 128 128
246100.19689941 3357462.22171021 14.26093292 120 128 141
246100.23364258 3357453.85714722 14.46167374 116 116 128
246098.40429688 3357459.01434326 16.70117188 34 183 215
246099.69946289 3357463.48281860 14.21491623 88 113 143
246099.29455566 3357463.33697510 16.24426460 128 128 128
246098.70251465 3357456.89538574 16.10061264 128 128 128
246098.74658203 3357462.46817017 14.52697182 82 82 90
246099.55908203 3357462.37219238 14.47714424 145 91 91
246099.77722168 3357454.32952881 16.50880241 7 181 241
246098.58654785 3357457.45324707 16.11119080 128 128 128
246099.36035156 3357458.90533447 16.98110390 20 124 211
246098.94152832 3357459.30453491 16.25183296 128 128 128
246098.05310059 3357463.96130371 16.65670204 104 181 201
246097.60559082 3357462.52166748 14.98939705 173 185 211
246100.46948242 3357457.53570557 16.13365555 129 127 128
246097.89282227 3357459.30865479 14.39221191 205 206 210
246098.24462891 3357463.98315430 16.23483658 128 128 128
246099.35693359 3357454.10833740 15.99487591 175 173 184
246099.16906738 3357457.83404541 16.90682602 135 233 244
246099.27014160 3357459.75885010 16.56351089 14 158 221
246098.22338867 3357458.43371582 16.17967415 128 128 128
246100.37268066 3357458.69683838 14.69430351 102 93 98
246099.70166016 3357464.42437744 16.40063477 155 174 144
246097.70275879 3357458.18511963 14.33971405 208 209 211
246100.56579590 3357454.44619751 16.48132324 106 165 179
246098.06506348 3357463.00381470 14.86879826 142 150 153
246099.91760254 3357462.11743164 14.27347279 144 147 152
246100.70141602 3357457.69091797 14.64364147 22 22 30
246098.90148926 3357454.94168091 14.30709934 198 198 190
246097.97363281 3357458.79339600 16.52640724 10 176 226
246098.70874023 3357457.43383789 16.09726334 128 128 128
246100.14208984 3357458.04446411 16.11179352 128 128 128
246099.64868164 3357463.34826660 16.25322914 128 128 128
246099.80432129 3357463.30767822 16.65199089 166 178 204
246100.85400391 3357457.03872681 16.19604683 150 160 162
246098.41174316 3357463.03570557 16.24285889 128 128 128
246098.93750000 3357462.85244751 14.74060059 147 179 202
246100.28869629 3357454.22320557 16.26231003 196 207 237
246099.20800781 3357456.60092163 16.60033989 21 131 216
246099.40954590 3357456.10455322 14.63110447 146 147 149
246099.50061035 3357464.32385254 14.40175629 139 157 169
246099.88024902 3357459.72589111 14.75626564 112 101 105
246100.30017090 3357457.82467651 16.12624931 128 128 128
246097.34741211 3357463.64190674 14.75869846 110 102 99
246098.28491211 3357462.25100708 16.56550598 6 181 246
246098.31677246 3357462.78521729 16.74627304 59 219 243
246098.41076660 3357455.98254395 16.55600929 227 255 255
246097.82495117 3357462.40728760 16.26818085 127 128 130
246098.47766113 3357463.96286011 16.78503609 54 147 204
246100.24548340 3357463.20703125 16.41365623 128 169 187
246100.62927246 3357455.55377197 16.18770599 133 151 139
246098.46765137 3357462.52474976 14.47606659 85 81 78
246099.58935547 3357454.90121460 15.76896954 128 128 128
246099.77868652 3357456.32611084 14.65576744 116 119 124
246099.38085938 3357454.43795776 15.67133045 128 127 123
246100.89978027 3357455.45455933 16.27232552 147 161 148
246099.32055664 3357464.41128540 16.31693649 192 198 188
246100.18310547 3357455.06143188 16.92752457 16 166 216
246100.02502441 3357462.75784302 16.54318237 135 184 198
246100.51525879 3357457.59942627 14.69390965 55 56 60
246099.35314941 3357457.47000122 16.70244980 212 245 250
246098.94885254 3357459.52111816 14.49310684 75 66 61
246099.16418457 3357463.11752319 16.24221802 128 128 128
246098.38903809 3357458.55499268 14.43179035 200 202 199
246099.01062012 3357457.12881470 16.06409836 128 128 128
246100.14501953 3357454.37887573 14.48321056 169 172 177
246098.55615234 3357455.54119873 16.11587334 128 128 128
246097.99792480 3357463.26843262 14.85110474 127 132 138
246099.91894531 3357457.60995483 16.06635094 128 128 128
246098.98266602 3357454.32208252 14.33848381 188 193 187
246100.33166504 3357459.71661377 14.39349270 88 78 86
246099.56335449 3357462.95657349 16.75574303 34 165 219
246100.01318359 3357454.14468384 15.56713676 192 204 216
246097.85058594 3357462.90582275 16.58934212 40 163 205
246099.13317871 3357463.65222168 16.98603058 73 149 201
246100.35815430 3357454.24234009 16.26621628 126 148 185
246100.20629883 3357463.00506592 16.45065308 105 153 175
246100.81567383 3357456.31188965 16.48430443 7 159 224
246100.13745117 3357454.95059204 14.38625336 186 174 174
246098.00415039 3357459.42752075 16.37775803 128 128 128
246099.93786621 3357454.09249878 15.93716908 185 216 234
246098.60827637 3357459.44259644 16.64011765 19 157 230
246098.96105957 3357457.24685669 14.78826618 121 125 128
246099.08886719 3357455.50939941 16.86013794 244 237 255
246099.92321777 3357464.05130005 16.56129265 87 185 224
246100.83874512 3357457.29385376 16.27652168 85 102 120
246097.86547852 3357462.44805908 16.25280952 127 128 130
246099.31311035 3357459.33978271 16.76178551 204 140 164
246100.23706055 3357455.74981689 16.06218529 104 134 134
246099.57092285 3357455.96710205 15.98165989 128 128 128
246099.40820313 3357455.36849976 15.99220753 128 128 128
246099.02380371 3357464.58099365 16.38281059 156 175 153
246098.83874512 3357455.94628906 16.79193306 48 201 235
246099.19836426 3357459.20779419 16.22134781 128 128 128
246098.66931152 3357462.95236206 14.81650829 79 158 199
246099.25622559 3357457.21817017 16.57061768 14 169 233
246098.38586426 3357462.69558716 16.24370384 128 128 128
246099.33850098 3357455.14385986 14.35219383 199 193 177
246100.30615234 3357456.01446533 14.40539169 100 100 110
246099.45703125 3357455.91696167 15.99692726 128 128 128
246099.94116211 3357457.43121338 16.60661316 0 179 237
246100.40429688 3357458.16665649 16.14593697 128 128 128
246098.55859375 3357463.03826904 16.24267006 128 128 128
246099.42163086 3357454.56729126 16.62509918 5 181 238
246099.34497070 3357459.85534668 16.40099144 177 207 209
246099.20056152 3357456.54721069 16.03557014 128 128 128
246100.14965820 3357462.65322876 16.32749557 61 144 184
246100.19543457 3357458.69866943 16.73863792 53 113 173
246098.96838379 3357456.52786255 14.61142540 188 190 187
246098.28039551 3357463.36486816 14.79675865 91 97 109
246099.79101563 3357454.28912354 14.67462730 181 180 194
246097.88684082 3357462.61288452 16.24355507 128 128 128
246099.38403320 3357454.43301392 16.58785439 11 185 238
246099.49633789 3357456.41757202 16.66641808 127 176 217
246098.41503906 3357454.51586914 16.46517754 89 197 226
246097.75097656 3357464.15817261 16.51074791 96 172 206
246100.35778809 3357455.30883789 16.10581779 152 166 140
246099.96447754 3357456.86746216 16.51083565 20 188 250
246098.68652344 3357462.07595825 14.37730408 120 119 125
246099.66918945 3357462.41213989 14.36978912 140 114 115
246098.70825195 3357463.98526001 16.78127480 40 134 188
246099.03515625 3357454.94418335 15.96076488 128 128 128
246100.63183594 3357455.12945557 16.19226837 158 168 141
246099.69360352 3357458.14205933 16.96898651 19 162 232
246098.57824707 3357454.31491089 16.41780090 146 183 192
246099.22497559 3357458.71752930 17.11850166 17 157 218
246100.41931152 3357459.00811768 16.63027573 12 148 224
246100.17761230 3357462.27691650 14.25541687 128 135 151
246098.97021484 3357457.93707275 14.50779247 207 208 212
246099.01977539 3357459.21725464 14.87185574 255 255 255
246099.29418945 3357458.37768555 17.24629211 118 212 238
246099.17114258 3357462.31311035 16.57482910 34 181 233
246098.06323242 3357462.16754150 14.34288597 115 119 131
246099.75415039 3357459.07614136 14.94515991 181 193 209
246099.37927246 3357457.95449829 16.94950676 99 193 231
246099.24536133 3357459.27313232 16.22739983 128 128 128
246100.27490234 3357456.30010986 16.02465630 127 129 128
246100.49060059 3357459.91934204 16.44668198 68 126 140
246098.33459473 3357464.49093628 16.34190750 212 220 207
246098.20251465 3357455.04345703 14.31393337 194 192 193
246099.30859375 3357456.03469849 16.94511604 16 135 219
246100.27490234 3357454.63931274 15.89587593 127 206 219
246099.72314453 3357455.28518677 14.42086220 192 181 177
246098.65954590 3357455.60485840 16.61354256 197 216 222
246098.92919922 3357463.49661255 16.24065781 128 128 128
246098.84216309 3357455.46701050 14.36467648 198 197 192
246100.12756348 3357455.67391968 16.03130722 115 141 138
246098.68322754 3357458.67059326 16.87041283 146 222 235
246098.87341309 3357455.08648682 14.30154610 198 198 188
246100.30322266 3357456.35913086 14.42185783 126 127 131
246099.65637207 3357458.71520996 17.03035355 18 105 182
246098.69396973 3357455.83383179 14.57887745 201 203 200
246099.52844238 3357458.07501221 16.05518532 128 128 128
246100.92919922 3357457.06997681 16.44740677 71 120 163
246098.97546387 3357463.90390015 16.81083298 24 128 191
246098.35327148 3357463.38067627 14.80020809 80 86 102
246099.22363281 3357462.65707397 14.75217247 198 194 195
246100.17895508 3357459.65158081 14.51681900 73 31 41
246098.27880859 3357462.17587280 16.24490547 128 128 128
246098.72326660 3357454.24896240 16.47082710 78 183 205
246100.56115723 3357454.06021118 14.37209034 148 153 159
246098.85693359 3357458.24963379 16.96836662 92 222 244
246100.00878906 3357464.12228394 16.30720711 128 128 128
246099.70788574 3357457.28161621 16.01940346 128 128 128
246100.27099609 3357455.44378662 16.07772827 143 160 141
246098.02453613 3357457.64236450 16.22398376 130 156 169
246100.68945313 3357455.90270996 16.52412033 3 148 231
246098.32189941 3357459.04006958 16.66000175 52 202 227
246099.99572754 3357454.50936890 15.70840073 87 161 208
246098.93579102 3357458.42153931 14.47705173 198 203 199
246098.15808105 3357459.35012817 14.48832035 195 196 198
246100.20605469 3357459.52175903 14.63704395 82 70 70
246098.05334473 3357464.39352417 16.28035545 215 218 207
246098.06848145 3357454.68890381 14.32980061 197 197 197
246098.92431641 3357454.52023315 14.32645607 197 200 193
246098.98522949 3357458.39779663 17.07721519 105 228 244
246100.13305664 3357459.72766113 16.31876945 124 134 109
246097.54882813 3357463.02780151 16.43115425 141 196 216
246098.45349121 3357458.65252686 14.44441795 206 208 205
246101.12548828 3357454.54541016 16.44649696 84 116 75
246098.71740723 3357458.97756958 16.84994507 14 141 194
246098.61132813 3357454.91638184 16.58118057 17 200 240
246097.72180176 3357463.20062256 16.55030632 67 156 190
246098.40246582 3357458.12805176 14.43026924 190 192 187
246100.03771973 3357454.12384033 16.02472305 195 221 236
246099.01416016 3357462.91793823 14.73658848 88 107 121
246100.39929199 3357459.38693237 16.62454033 23 160 228
246099.92492676 3357458.59725952 16.88402176 136 115 156
246097.25158691 3357463.86294556 14.42782688 117 122 128
246098.50817871 3357459.46875000 16.30341148 128 128 128
246097.53320313 3357462.32693481 16.40965652 91 182 209
246098.50842285 3357457.29541016 14.93202972 204 210 208
246100.11010742 3357458.12805176 14.59790897 163 167 168
246099.92712402 3357463.74093628 16.58449173 103 176 208
246099.53210449 3357455.97427368 14.65829182 118 122 123
246097.90344238 3357463.30569458 16.23785973 128 128 128
246099.69738770 3357464.57269287 14.64699078 57 61 70
246100.79528809 3357457.84075928 16.39365005 19 81 138
246098.46032715 3357455.47338867 14.31821156 193 191 192
246098.54040527 3357456.08428955 14.51953602 192 194 193
246099.25964355 3357457.63583374 16.03301430 128 128 128
246099.55725098 3357457.13882446 14.64435959 168 167 162
246099.20361328 3357463.14016724 14.71606922 103 108 112
246100.41235352 3357455.63363647 14.35758972 172 177 183
246098.87341309 3357462.15393066 16.51128769 21 181 233
246099.55395508 3357462.93920898 16.25319099 128 128 128
246100.31848145 3357459.74746704 16.64108849 61 155 206
246100.66247559 3357454.69815063 14.32553005 162 166 177
246099.26635742 3357462.55456543 14.92854595 183 187 188
246098.48657227 3357456.11642456 14.48980618 187 187 187
246101.00732422 3357455.46997070 14.47383881 187 191 200
246101.04992676 3357455.64324951 16.46941185 209 249 255
246098.41418457 3357463.83047485 16.82118416 51 176 208
246098.41467285 3357458.17346191 14.41684437 196 201 195
246100.92053223 3357456.52734375 16.33808136 41 90 122
246099.72546387 3357464.54971313 14.70654392 67 71 80
246099.41149902 3357458.66430664 14.62774086 135 142 148
246100.66259766 3357454.92074585 16.70515633 25 128 195
246100.86242676 3357457.22821045 16.29338837 157 166 181
246099.84130859 3357464.00488281 16.60630798 88 185 218
246100.77087402 3357455.58880615 16.52296066 13 137 209
246101.00000000 3357455.13305664 16.30622292 148 165 157
246099.91223145 3357463.88739014 14.21700859 81 88 104
246098.20446777 3357457.90277100 14.43850231 190 194 195
246100.80078125 3357457.66967773 16.41319656 40 110 161
246098.51000977 3357458.33483887 14.41891193 200 205 199
246099.70666504 3357456.23748779 16.78623390 178 153 208
246098.45983887 3357458.98736572 16.72900391 34 183 216
246099.09252930 3357453.65478516 14.29416180 163 145 131
246100.98901367 3357455.53524780 14.48860931 178 185 195
246099.83410645 3357458.07275391 16.91111565 17 164 233
246098.30603027 3357457.08233643 16.14522362 128 128 128
246098.65808105 3357462.49380493 16.24262810 128 128 128
246098.95202637 3357464.58480835 16.36828041 163 175 137
246099.92163086 3357459.71289063 16.30558014 148 165 129
246098.46569824 3357456.95864868 14.69965935 175 177 176
246100.97009277 3357455.23092651 16.48336411 7 151 222
246099.37670898 3357463.19638062 14.36969090 184 183 189
246098.12414551 3357459.59567261 16.50976372 123 202 235
246098.12744141 3357459.40179443 14.47915554 195 196 198
246097.43090820 3357461.79327393 14.37782383 117 124 143
246099.07458496 3357456.83993530 14.58579636 59 59 59
246099.58740234 3357456.86688232 16.49500847 29 168 225
246099.46093750 3357463.72723389 16.82020187 30 140 193
246097.86010742 3357464.30520630 14.82438087 38 33 39
246099.21154785 3357462.17691040 16.49124146 52 191 234
246098.99975586 3357454.68719482 14.30242920 196 199 190
246099.38403320 3357462.72692871 16.25009346 128 128 128
246098.40234375 3357462.20312500 16.24399567 128 128 128
246098.62341309 3357458.61111450 16.17653847 128 128 128
246099.87719727 3357455.32867432 14.42448139 184 173 171
246099.53271484 3357459.32003784 16.22819138 128 128 128
246098.98925781 3357456.24774170 16.83574867 15 124 219
246098.27856445 3357459.09216309 16.26677704 128 128 128
246098.25354004 3357459.12399292 16.62557411 48 195 229
246098.49316406 3357462.48742676 16.68029594 1 177 234
246099.56921387 3357456.33413696 14.62917709 119 126 132
246100.66052246 3357454.54830933 16.55208397 107 170 188
246100.28027344 3357457.36077881 16.09130859 128 128 128
246098.72949219 3357463.60806274 16.24047852 128 128 128
246100.82043457 3357456.00558472 16.49007797 0 157 238
246099.89599609 3357455.71029663 17.12181854 14 107 185
246100.83996582 3357457.35968018 16.50954056 90 175 214
246100.00085449 3357457.99768066 16.09379196 128 128 128
246098.80712891 3357462.39791870 16.65167618 202 238 255
246097.34948730 3357461.59823608 14.32123184 123 127 139
246099.83496094 3357464.10568237 14.23476028 76 83 91
246099.03234863 3357464.55844116 16.43187904 157 178 163
246098.53112793 3357454.43859863 14.39513969 196 198 193
246099.22167969 3357459.89019775 16.47676468 163 213 238
246100.05554199 3357455.35955811 14.42381001 179 175 174
246100.08898926 3357454.44265747 16.55387878 0 169 226
246098.67602539 3357462.24096680 16.24273491 128 128 128
246099.84692383 3357455.10299683 14.38153172 213 186 175
246100.03002930 3357464.12136841 16.50149155 83 184 226
246099.19189453 3357459.60546875 16.60993385 154 233 246
246099.07128906 3357459.32839966 16.74225044 139 173 198
246100.61889648 3357459.41070557 16.49204445 55 107 154
246099.80505371 3357459.31845093 16.23916817 128 128 128
246098.43078613 3357463.94625854 14.77568245 49 99 148
246098.77172852 3357458.87896729 16.20341110 128 128 128
246099.85058594 3357455.65826416 14.52764893 114 122 124
246098.16662598 3357459.61700439 16.48765373 125 203 223
246098.50903320 3357455.20870972 14.29149437 194 193 191
246100.07775879 3357455.50704956 16.01734734 142 159 143
246099.80285645 3357457.67630005 16.74261856 2 175 241
246099.05883789 3357455.96563721 16.05160522 128 128 128
246100.34448242 3357454.42465210 15.95755482 164 201 210
246100.32739258 3357454.23599243 16.22189903 148 154 188
246099.16931152 3357463.92218018 14.45246792 156 158 171
246100.50317383 3357455.36822510 16.68515587 104 147 200
246098.71569824 3357459.14337158 14.46389675 208 208 208
246098.10424805 3357458.83355713 14.40921974 201 203 202
246098.38830566 3357455.29244995 16.14914131 176 201 208
246099.65637207 3357457.63595581 16.75781250 18 147 202
246098.62915039 3357462.76559448 14.81019115 74 119 161
246100.59033203 3357456.32189941 16.13280106 60 95 114
246100.73571777 3357458.60992432 16.50502777 170 201 219
246100.27673340 3357463.47128296 16.40453720 81 165 212
246099.45263672 3357456.48388672 14.59594822 59 62 69
246099.80419922 3357462.47369385 16.27455521 128 128 128
246099.79589844 3357458.07513428 16.91629028 16 167 236
246100.26452637 3357456.66250610 16.56742859 4 147 217
246098.66491699 3357456.88476563 16.10497856 128 128 128
246098.17993164 3357455.69485474 16.30958939 220 229 234
246101.07312012 3357454.84918213 16.33571243 145 153 140
246098.97119141 3357456.98660278 16.50754738 147 188 240
246098.82421875 3357459.42965698 14.38487816 155 154 152
246098.41552734 3357458.05447388 16.12397194 128 128 128
246098.84497070 3357454.88110352 16.63404655 86 216 248
246100.33862305 3357458.82144165 16.19124031 128 128 128
246100.29223633 3357461.86865234 14.29896736 109 118 133
246097.37097168 3357462.48352051 14.76303673 58 64 80
246097.58459473 3357461.93878174 14.38831043 99 102 117
246098.04553223 3357463.62734985 16.23630714 128 128 128
246099.91210938 3357458.10247803 16.88227844 2 129 200
246098.49060059 3357463.20407104 16.92859077 130 215 220
246097.94885254 3357457.69424438 16.26947594 204 222 224
246097.96850586 3357462.30249023 14.40470791 10 16 30
246099.16760254 3357462.85671997 16.24382210 128 128 128
246098.73535156 3357458.99087524 16.22148705 128 128 128
246100.17358398 3357454.35317993 15.74510479 193 189 186
246099.74755859 3357454.54357910 16.56697273 187 197 222
246097.56042480 3357463.93481445 16.34304619 139 190 211
246100.29455566 3357458.97146606 16.21132660 128 128 128
246098.22888184 3357455.04193115 16.41365051 163 192 210
246100.06896973 3357454.36007690 14.51362610 170 169 177
246099.31347656 3357464.49169922 14.43155384 91 119 140
246098.36340332 3357455.68225098 16.52847099 131 237 250
246100.90441895 3357455.39651489 14.46914768 177 183 195
246098.90307617 3357455.48324585 14.37567139 192 191 186
246099.19702148 3357455.89532471 14.56365204 188 192 191
246098.17919922 3357454.31103516 14.36114502 184 186 185
246100.29199219 3357458.57931519 16.69864082 104 165 219
246099.58190918 3357456.49014282 15.98314285 128 128 128
246097.85510254 3357459.65634155 16.42407227 38 142 193
246098.30297852 3357462.73501587 16.73072624 14 185 228
246100.01953125 3357456.48062134 14.59280300 118 116 117
246099.00988770 3357463.24737549 17.10084915 51 162 234
246098.57556152 3357457.80725098 16.77356911 87 223 247
246098.14868164 3357464.40072632 14.59984875 77 63 60
246099.86694336 3357458.32516479 16.10346413 128 128 128
246098.66381836 3357459.19500732 16.74806595 24 149 241
246100.62939453 3357457.59155273 16.58126068 63 159 217
246099.46936035 3357458.45739746 16.10589981 128 128 128
246098.62463379 3357463.43838501 17.04397964 157 232 225
246099.38891602 3357454.09289551 16.36583328 48 123 181
246098.59924316 3357458.65728760 14.45093918 206 208 205
246098.21496582 3357455.49215698 16.48412704 186 239 247
246100.53894043 3357459.68069458 16.52230072 25 109 181
246099.76843262 3357456.45861816 14.62276268 69 72 77
246100.51477051 3357457.00949097 16.08933067 127 129 128
246097.78259277 3357457.61132813 14.37367344 199 200 202
246100.14306641 3357462.27096558 14.25293159 128 134 150
246100.83312988 3357455.78942871 16.24874687 120 141 134
246100.03991699 3357463.51220703 16.27289391 128 128 128
246100.36181641 3357458.39517212 16.67110634 41 134 201
246098.95715332 3357459.40753174 14.68190002 115 117 112
246100.09387207 3357463.81112671 16.29760742 128 128 128
246099.06713867 3357456.62908936 14.57706547 167 171 172
246100.51086426 3357454.84329224 14.37391949 190 190 198
246100.28125000 3357463.75076294 16.41792107 53 153 203
246098.90783691 3357457.58154297 16.78349686 2 177 242
246099.49304199 3357454.22552490 16.50969124 6 176 227
246101.10217285 3357455.14392090 16.37145805 142 162 163
246098.07617188 3357463.48504639 14.84455967 174 179 185
246097.55395508 3357463.43243408 16.28122711 139 181 197
246098.54150391 3357457.24542236 16.63902092 3 171 246
246099.40673828 3357462.74224854 14.37554073 129 128 133
246099.06909180 3357461.85836792 14.29623699 132 133 137
246099.55566406 3357454.50088501 16.58580399 61 178 213
246098.47656250 3357458.76992798 14.45280266 209 211 210
246099.06042480 3357458.66613770 17.09699249 95 215 232
246097.60168457 3357459.16024780 14.33379555 205 206 210
246099.17358398 3357453.49502563 14.29179287 161 143 131
246099.63903809 3357463.54614258 16.25183296 128 128 128
246100.28955078 3357459.53186035 16.66653061 28 142 215
246098.42846680 3357455.48541260 16.13169479 124 130 130
246098.56616211 3357462.09747314 14.37201309 123 124 129
246100.11816406 3357459.84686279 16.42118454 77 141 89
246100.45556641 3357458.52621460 14.66066742 109 99 108
246099.32824707 3357458.75286865 16.14905167 128 128 128
246099.68151855 3357455.34844971 17.09645081 26 182 231
246100.35803223 3357457.58642578 16.12344742 128 128 128
246098.00366211 3357456.76544189 14.51360798 177 179 178
246098.94726563 3357455.40408325 16.75518799 255 235 239
246098.74841309 3357455.27166748 16.08195496 128 128 126
246099.54016113 3357462.88815308 16.25313568 128 128 128
246098.78808594 3357463.75854492 16.89225769 25 129 200
246099.89331055 3357463.48419189 16.25867271 128 128 128
246099.08032227 3357458.09558105 14.49909019 181 182 186
246099.81201172 3357464.48046875 16.43302345 137 187 128
246098.29858398 3357463.39361572 14.79879379 92 99 115
246099.90954590 3357464.02468872 16.28981781 128 128 128
246099.25390625 3357458.67501831 14.59535503 177 181 184
246098.56018066 3357456.44445801 16.70422363 90 199 240
246099.18896484 3357456.53494263 16.64065933 24 130 218
246098.66674805 3357463.69168091 14.80586910 68 88 95
246099.13818359 3357454.34915161 14.31067276 175 178 171
246099.55505371 3357463.56713867 14.22453594 121 150 180
246100.52185059 3357458.95077515 16.58788109 19 163 234
246099.88854980 3357453.98477173 14.61641121 205 211 247
246098.14685059 3357455.80108643 16.32636642 203 218 223
246099.23303223 3357457.49972534 16.72928238 152 228 242
246098.98156738 3357459.80407715 16.38654709 187 192 172
246099.92626953 3357454.85186768 14.33291912 203 192 190
246097.61987305 3357462.67520142 16.43544388 126 183 200
246099.02612305 3357457.36981201 16.66924667 6 180 240
246099.04907227 3357464.14944458 14.49494743 140 153 169
246098.64550781 3357464.43032837 16.55803871 63 145 195
246100.32287598 3357455.03164673 16.90724564 84 197 241
246097.66772461 3357462.29910278 14.72070408 142 142 154
246100.21069336 3357453.58670044 14.42870808 130 130 138
246098.23730469 3357458.16876221 16.61915016 143 239 255
246098.65698242 3357462.21832275 16.57853317 91 206 237
