246109.26464844 3357590.79534912 14.00732040 184 177 169
246105.41101074 3357589.39929199 13.87169361 156 164 166
246102.60021973 3357591.61535645 14.94722748 240 239 237
246103.87609863 3357590.73681641 14.95703220 135 139 140
246105.03930664 3357590.33483887 13.96860886 135 136 130
246099.48669434 3357593.07409668 13.37399578 239 241 236
246104.12927246 3357591.23565674 14.94531536 176 176 176
246109.12048340 3357589.39807129 13.55718613 155 148 140
246107.64697266 3357589.73858643 14.02931499 235 234 230
246100.86755371 3357592.12249756 14.96571732 237 239 238
246106.08508301 3357591.53582764 13.59530354 159 161 160
246104.43530273 3357591.34204102 14.19596672 140 139 135
246104.17639160 3357591.12475586 14.51668358 169 170 164
246099.40417480 3357590.58428955 14.90037060 248 248 250
246100.27172852 3357593.32788086 13.90304756 148 149 153
246099.10266113 3357591.77740479 14.03530312 250 249 245
246100.46777344 3357590.32983398 14.43592358 174 173 168
246103.86047363 3357589.39105225 13.25397968 155 156 151
246099.53601074 3357591.97058105 14.92626190 248 248 246
246107.62182617 3357588.62683105 13.21155453 190 180 171
246102.32165527 3357591.20837402 13.23888111 105 107 102
246098.96484375 3357591.77935791 13.20879459 205 196 191
246106.08215332 3357589.32165527 13.82831955 171 175 176
246099.11926270 3357591.52465820 14.82123375 253 252 248
246105.70861816 3357590.54614258 14.34904671 232 236 239
246103.36279297 3357590.69909668 14.96385765 125 125 123
246103.49499512 3357590.91217041 14.96420288 136 136 134
246100.68469238 3357590.81921387 14.61873531 192 189 184
246098.48510742 3357591.26672363 13.14200687 224 211 202
246102.27282715 3357589.96264648 14.93236256 213 205 203
246108.97448730 3357588.74615479 13.59306049 194 184 182
246106.27868652 3357589.37762451 14.30675411 238 239 241
246109.14562988 3357589.28131104 13.85233593 148 139 134
246103.59179688 3357592.41125488 14.97489071 192 201 208
246101.91943359 3357591.21630859 13.13844109 170 171 166
246104.48144531 3357591.66174316 14.38904762 151 152 147
246099.00512695 3357591.30725098 13.88789082 250 249 245
246099.08361816 3357591.48297119 13.46084690 250 249 247
246104.70104980 3357591.16241455 14.13133907 130 130 128
246099.42077637 3357590.55682373 14.89337349 249 249 251
246102.61804199 3357592.47521973 14.00395584 235 236 231
246105.04821777 3357589.60626221 13.53614235 221 223 220
246105.37390137 3357591.89160156 13.21848869 123 123 123
246100.48474121 3357593.27984619 13.83552837 159 160 164
246107.59863281 3357589.28308105 13.35778522 235 224 218
246098.88122559 3357591.41040039 13.17128277 213 203 193
246101.97973633 3357592.22088623 13.16463852 146 145 141
246099.54125977 3357590.47131348 13.25541306 165 166 158
246099.28063965 3357592.13592529 13.58885002 250 249 245
246103.18115234 3357591.39074707 14.94640064 241 243 242
246103.58129883 3357592.50982666 14.60115814 159 159 159
246098.95874023 3357590.72674561 13.74792290 206 206 194
246106.26159668 3357589.31256104 13.87673950 183 187 186
246103.89416504 3357591.33935547 14.96841908 172 171 176
246103.37780762 3357590.02172852 14.98771954 120 116 113
246102.23681641 3357590.48480225 13.39874744 231 232 226
246099.53527832 3357590.49505615 13.45573902 223 226 217
246100.47546387 3357593.26824951 14.11311150 140 142 141
246099.23217773 3357592.07116699 13.39391041 231 230 228
246106.14648438 3357590.91235352 14.35771942 123 128 134
246104.71960449 3357590.69195557 13.99080753 145 145 145
246102.45251465 3357591.74847412 14.83199024 245 245 243
246099.47448730 3357590.48907471 13.22714424 111 112 104
246107.35583496 3357589.53881836 13.18024635 214 203 197
246106.68835449 3357589.32867432 13.26290131 171 168 163
246101.75561523 3357589.98175049 13.14536095 113 115 110
246102.62500000 3357592.55047607 14.64267349 246 247 242
246099.88391113 3357592.20654297 14.93858433 247 248 243
246102.61132813 3357592.57934570 14.24244404 244 245 240
246099.67456055 3357593.49951172 14.48283005 202 204 201
246101.18481445 3357593.09912109 14.05451012 132 132 130
246107.67846680 3357590.18804932 13.24532604 121 120 116
246105.35583496 3357591.62060547 13.96569443 170 170 168
246108.68823242 3357590.95208740 14.14290237 163 162 157
246101.27624512 3357592.36865234 13.16427040 150 145 139
246100.78906250 3357591.12445068 13.88809681 201 193 182
246109.29980469 3357590.44061279 14.15616608 166 157 152
246104.02416992 3357590.32507324 13.98861217 169 166 159
246102.35607910 3357591.27374268 13.29423141 116 118 115
246105.21313477 3357591.51855469 13.49805641 142 142 142
246099.07348633 3357591.48425293 14.73022556 252 253 248
246102.80810547 3357590.17840576 14.91855717 212 216 217
246104.85119629 3357590.53356934 14.03944778 130 132 129
246100.92797852 3357591.63757324 14.65987492 212 205 195
246102.31835938 3357590.95928955 13.68727112 226 225 223
246102.70373535 3357592.68231201 13.46108818 137 139 138
246102.55078125 3357592.19067383 13.91355228 228 227 222
246100.19592285 3357590.00872803 13.35765171 78 85 78
246105.96459961 3357591.58062744 14.08714962 164 166 165
246106.82482910 3357591.09606934 14.19200706 169 166 161
246101.51074219 3357589.95300293 13.16134930 110 115 109
246100.96655273 3357591.77062988 14.15207672 207 199 188
246102.35888672 3357591.16259766 13.84625530 237 236 234
246102.85070801 3357589.59313965 13.56644630 215 220 213
246102.24182129 3357590.72332764 14.55389404 239 238 236
246104.00085449 3357589.18609619 13.37073231 101 100 82
246109.12329102 3357589.27691650 14.21323109 168 164 161
246105.67382813 3357591.61492920 14.01688957 164 166 165
246101.56481934 3357592.46087646 13.16026783 155 150 147
246109.28466797 3357589.91925049 13.80017185 160 151 142
246101.34313965 3357591.04498291 13.14101315 134 130 127
246103.71997070 3357590.18963623 14.96963692 130 130 132
246106.19250488 3357589.70953369 14.35167122 116 119 126
246105.52551270 3357589.34216309 13.28030872 201 202 196
246100.66003418 3357590.71264648 13.79832458 175 168 160
246103.98706055 3357589.31079102 13.24902916 140 137 128
246101.69885254 3357591.23797607 13.13307095 128 129 123
246102.54663086 3357592.16015625 13.39890385 135 137 136
246102.31933594 3357591.05566406 14.84905243 235 235 233
246099.62500000 3357590.44354248 14.43097401 227 229 224
246106.16503906 3357589.31549072 13.36560726 193 193 185
246109.24572754 3357590.80224609 13.94838333 179 175 166
246109.23620605 3357589.61730957 13.77289581 145 142 137
246104.64208984 3357591.74731445 13.42249775 129 129 127
246102.12048340 3357590.04248047 14.27476120 236 235 233
246102.31030273 3357591.03564453 14.50676727 238 237 235
246100.52832031 3357590.42608643 14.61732197 181 181 173
246099.95776367 3357591.35827637 14.96224594 253 253 253
246101.01196289 3357593.13067627 14.02985764 150 151 153
246102.57592773 3357592.33416748 14.18582153 240 241 235
246104.22766113 3357589.98529053 13.22242165 106 101 97
246104.07006836 3357592.09313965 14.97031879 231 230 228
246101.30444336 3357592.46020508 13.16578197 153 148 142
246099.15649414 3357590.56921387 14.26642323 181 183 180
246099.55407715 3357593.17279053 13.65298176 243 242 240
246098.69836426 3357591.47808838 13.13778400 220 210 200
246102.13354492 3357590.15783691 14.70644188 238 234 233
246105.02722168 3357590.48602295 13.68401241 138 140 139
246102.10070801 3357589.81304932 13.92354202 218 220 217
246106.09680176 3357591.56719971 13.26672363 84 84 84
246106.00573730 3357589.90216064 14.35910320 89 92 97
246101.71044922 3357591.13854980 13.13269234 138 137 133
246104.69750977 3357591.68963623 13.76245022 143 143 141
246101.96484375 3357591.23394775 13.14440918 167 168 163
246105.09204102 3357590.14062500 13.43844604 183 182 178
246100.39965820 3357590.26831055 14.31260014 179 180 172
246106.74987793 3357590.11041260 14.08393860 150 148 149
246100.98937988 3357591.82281494 14.40504456 206 197 188
246098.58764648 3357591.30902100 13.14069462 212 200 188
246109.10351563 3357589.19769287 13.49954891 153 148 144
246099.21044922 3357591.10253906 14.91799259 245 246 248
246104.48278809 3357590.86151123 13.66389942 124 125 119
246105.05810547 3357590.23272705 14.15245724 197 201 202
246105.05261230 3357589.65460205 13.53105354 221 226 220
246098.74951172 3357591.75561523 13.14467144 224 214 205
246104.94750977 3357590.09783936 13.19754601 147 142 136
246105.03137207 3357590.37908936 13.93752575 133 134 128
246104.38085938 3357590.85577393 13.65193462 126 127 121
246103.99536133 3357589.94104004 14.71375942 172 172 164
246103.25610352 3357592.58251953 14.39075851 159 158 154
246103.49609375 3357592.50903320 13.47142792 149 149 147
246107.70410156 3357589.93518066 13.31590843 179 174 168
246102.58093262 3357592.34161377 14.72272491 249 250 245
246106.72241211 3357589.71838379 14.21937656 160 161 156
246102.63110352 3357589.66088867 14.00118065 128 136 138
246099.34631348 3357592.44055176 13.69993782 251 250 246
246105.69030762 3357591.42578125 14.35260773 215 216 220
246104.25415039 3357590.74798584 13.98734570 163 164 159
246107.80236816 3357590.39660645 13.60185719 253 255 254
246102.61340332 3357592.59655762 14.21783543 243 244 239
246109.27416992 3357589.24847412 13.34548950 84 79 76
246100.85156250 3357590.59564209 13.16640568 107 107 105
246101.46203613 3357591.90808105 13.15438175 152 149 144
246103.04406738 3357590.73284912 14.96270084 238 238 236
246099.31274414 3357592.40472412 13.38080311 248 247 245
246102.54443359 3357592.16839600 14.18031597 236 232 229
246103.96386719 3357592.40472412 14.78470898 163 164 166
246100.00939941 3357591.45495605 14.96303749 251 250 245
246103.66369629 3357589.32916260 13.39039230 145 147 134
246101.01379395 3357592.43316650 14.95335484 255 253 255
246107.15100098 3357591.34838867 13.23907661 134 129 125
246107.61486816 3357589.75970459 13.75108337 240 236 233
246103.29418945 3357589.56811523 14.15694332 188 194 190
246109.30761719 3357589.75311279 13.91043663 164 157 149
246109.23596191 3357588.70129395 13.24694633 210 197 181
246106.70959473 3357589.77343750 14.07223511 162 161 156
246100.60925293 3357592.75006104 14.95356750 199 202 207
246107.69543457 3357590.02453613 13.89171982 230 230 228
246098.94311523 3357590.98449707 13.69076443 248 247 243
246102.62744141 3357592.56115723 13.46117973 162 164 163
246101.87426758 3357590.46801758 13.10197258 136 132 129
246104.27990723 3357592.07867432 13.62468147 145 143 144
246109.36303711 3357590.66638184 13.93117714 190 182 179
246106.92517090 3357589.80493164 13.29774761 133 132 127
246105.45910645 3357589.94476318 14.32392216 230 231 233
246101.08874512 3357592.18634033 14.58124065 212 199 190
246102.22558594 3357591.24645996 13.17986107 113 115 110
246102.98901367 3357592.36682129 14.98394012 235 239 242
246106.79504395 3357590.90435791 13.55352592 141 136 130
246102.45422363 3357591.73284912 14.38146019 243 243 241
246098.95666504 3357591.46862793 14.35802746 253 254 249
246106.33471680 3357589.14306641 13.20272636 191 185 169
246099.19079590 3357592.02978516 13.96611977 249 248 244
246109.28735352 3357589.90032959 13.81331444 158 148 139
246105.18957520 3357589.10632324 13.24274158 151 151 143
246106.80615234 3357590.87237549 13.84694958 151 148 143
246101.15942383 3357591.71209717 13.17910576 126 126 118
246099.14538574 3357591.76184082 13.67022228 251 249 250
246103.35937500 3357590.58959961 14.96296215 121 121 121
246104.48339844 3357590.77923584 14.00408554 143 142 138
246106.45776367 3357591.47412109 13.50316811 158 157 155
246107.26733398 3357590.17022705 13.21136951 149 148 143
246102.84631348 3357590.30883789 14.95910740 238 238 236
246105.03979492 3357591.49127197 13.39160919 153 154 156
246109.29602051 3357590.42980957 14.24472332 167 162 158
246100.31726074 3357593.31768799 13.88735104 155 157 156
246103.72949219 3357591.14459229 14.96588230 166 166 168
246106.46435547 3357589.12866211 13.21301842 196 187 172
246099.25500488 3357592.26123047 13.92936230 252 251 247
246100.62414551 3357590.69134521 14.39730453 178 176 164
246107.09069824 3357588.76391602 13.18763065 178 171 165
246099.10205078 3357590.61059570 13.89046955 228 229 223
246108.03295898 3357589.80523682 14.34327030 241 240 238
246100.84765625 3357591.36853027 13.80920029 203 194 187
246102.17126465 3357590.34857178 14.28257751 219 218 214
246099.87756348 3357591.76641846 14.96832085 249 250 245
246100.61157227 3357590.58477783 13.74622631 173 168 162
246099.73498535 3357592.57385254 14.91246510 251 247 244
246106.16809082 3357591.06427002 14.35540485 136 141 145
246104.13403320 3357590.44824219 14.86793232 140 139 134
246104.15051270 3357590.60406494 14.40077877 148 148 140
246106.74841309 3357589.99102783 13.45156574 88 87 82
246102.40441895 3357591.46136475 13.93735886 243 240 235
246099.78710938 3357593.50372314 13.45656967 154 141 125
246107.65795898 3357589.71826172 14.14565182 237 233 230
246103.56213379 3357592.52038574 14.16029167 153 152 148
246107.94824219 3357589.76593018 14.34431076 229 224 228
246106.83239746 3357590.62969971 13.81918907 160 157 152
246106.89843750 3357590.82836914 13.30598068 115 110 104
246105.07849121 3357589.88684082 13.74936676 237 233 232
246103.42224121 3357589.69982910 14.93983841 223 219 218
246104.29455566 3357592.08062744 14.04660416 160 158 159
246108.95922852 3357589.48858643 14.35316372 242 241 239
246101.20300293 3357593.10241699 13.81754780 152 151 149
246098.96252441 3357591.05841064 13.68703747 251 248 241
246102.17321777 3357590.23980713 13.79575920 209 210 204
246101.81396484 3357590.03765869 13.13876057 119 121 116
246101.14025879 3357592.40356445 14.42609215 206 200 188
246102.11230469 3357589.87347412 13.34079456 224 226 223
246100.05773926 3357593.42297363 13.49377155 133 130 125
246099.07495117 3357590.63024902 13.70797062 232 235 228
246104.43920898 3357589.37518311 13.16677189 152 144 133
246107.88928223 3357590.65716553 14.31982040 239 241 240
246106.98095703 3357588.73840332 13.19351768 160 153 143
246103.26464844 3357592.57330322 14.55356026 159 158 156
246104.71520996 3357590.66680908 14.00796986 129 129 129
246099.25170898 3357592.05993652 14.79629326 245 244 240
246106.29455566 3357589.31585693 13.61369514 194 199 195
246100.94677734 3357592.33361816 14.95075893 235 233 234
246101.02893066 3357592.78302002 14.97574425 248 248 255
246107.64733887 3357588.76953125 13.24070740 216 207 200
246107.89257813 3357590.88653564 13.70673180 241 243 242
246100.08813477 3357589.91809082 13.44302559 85 93 80
246103.12329102 3357592.59057617 13.97661686 155 150 147
246104.31616211 3357592.08538818 14.21640778 163 162 160
246108.07934570 3357588.84423828 14.25032902 224 228 229
246104.19201660 3357592.27764893 14.93953228 224 224 224
246102.62927246 3357592.59851074 14.75229931 244 245 237
246106.33666992 3357589.98333740 14.34153748 101 102 106
246102.79809570 3357590.33520508 14.95928478 240 240 238
246104.16125488 3357591.19360352 14.93939877 187 185 186
246103.98181152 3357589.84741211 14.97392082 179 178 176
246099.53491211 3357593.18957520 14.63026905 245 245 247
246099.16516113 3357591.82855225 14.69581127 239 238 236
246105.39160156 3357590.04943848 14.32167053 231 232 234
246099.01916504 3357591.49340820 13.30533314 240 239 237
246100.33142090 3357593.32965088 13.69349575 150 149 145
246100.78149414 3357592.18292236 14.95930290 240 242 239
246106.73120117 3357589.90319824 14.28406334 148 148 146
246100.17834473 3357590.30664063 14.21616554 225 228 221
246100.03112793 3357591.44342041 14.96118832 250 249 245
246100.60156250 3357593.25689697 14.87382126 189 190 194
246100.39550781 3357591.93402100 14.95930576 239 239 237
246102.16284180 3357590.59991455 13.16705132 198 193 189
246108.10937500 3357588.39276123 13.24840641 163 159 150
246107.74548340 3357590.25518799 13.33392239 106 105 103
246108.30224609 3357588.78863525 13.45383739 218 220 215
246099.02343750 3357591.26251221 13.50043678 249 248 244
246100.99792480 3357591.89483643 14.61288452 202 194 183
246102.15783691 3357590.08593750 14.87488842 234 230 231
246099.48156738 3357593.03015137 14.16361237 245 244 240
246106.17102051 3357591.65557861 13.24711895 97 95 98
246099.84802246 3357590.36596680 14.49768448 220 221 216
246101.58422852 3357592.56610107 13.16749859 155 150 147
246100.87768555 3357589.95812988 13.21055603 96 101 97
246099.71520996 3357592.58227539 14.90952587 252 248 245
246106.43579102 3357591.47637939 13.37709522 151 150 148
246106.74426270 3357589.07440186 13.22231770 188 182 170
246104.31469727 3357592.00286865 13.44101906 120 120 120
246106.71948242 3357590.68450928 14.34935856 109 109 107
246103.10363770 3357590.82775879 14.96331692 238 238 236
246106.79980469 3357590.51226807 13.93631744 174 175 169
246108.25305176 3357590.98950195 13.43999577 138 135 128
246105.34082031 3357589.01745605 13.25491238 103 104 90
246100.40942383 3357593.32916260 13.40711975 146 146 144
246104.16088867 3357590.60412598 14.67782211 154 153 148
246108.25183105 3357591.01916504 13.35101891 94 93 88
246106.02563477 3357590.30120850 14.35941601 97 98 102
246105.48486328 3357589.40991211 14.19827938 218 222 225
246100.89733887 3357591.35205078 13.34136486 103 100 91
246101.15637207 3357592.36993408 13.24994373 120 110 101
246100.97546387 3357590.40008545 13.14321041 127 128 123
246102.85839844 3357590.54467773 14.96501732 240 239 235
246102.65686035 3357590.16198730 14.90853786 203 208 211
246105.93518066 3357591.58306885 14.17000675 159 164 167
246102.49084473 3357589.67626953 14.05880165 109 119 120
246102.37609863 3357589.69506836 14.26349545 167 181 181
246102.51916504 3357592.05194092 14.08492565 240 239 235
246100.92871094 3357591.62182617 14.15639496 206 197 188
246103.56188965 3357591.71105957 14.96018696 182 187 191
246100.95947266 3357590.37188721 13.14221573 118 119 114
246102.30004883 3357590.83770752 13.31890965 233 232 228
246101.30078125 3357591.25042725 13.14752579 138 137 132
246099.57971191 3357590.92602539 14.96254158 204 214 224
246099.18603516 3357592.24670410 14.19709396 245 244 239
246102.83459473 3357592.64062500 13.39074707 150 149 147
246105.47717285 3357590.41296387 14.33874226 232 233 235
246101.09094238 3357592.16906738 13.99108219 209 200 191
246102.49218750 3357589.65594482 13.70048237 236 237 229
246103.30102539 3357589.52246094 13.48966503 215 216 211
246105.54772949 3357591.61810303 14.15845966 162 168 168
246100.72155762 3357591.03289795 13.40723801 180 175 169
246102.22534180 3357591.54864502 13.17585373 112 112 112
246098.54113770 3357590.64978027 13.11323357 189 182 172
246098.84606934 3357592.88250732 13.17102337 223 214 209
246099.14855957 3357592.10577393 13.25164127 197 194 189
246103.51086426 3357592.44824219 14.96017170 210 217 227
246104.79089355 3357591.09985352 14.12731647 126 127 129
246108.31567383 3357588.75299072 14.14732838 220 225 221
246103.95593262 3357589.97991943 14.42826366 180 180 172
246101.70739746 3357591.01342773 13.13470268 136 137 132
246107.45642090 3357589.27325439 13.22019291 208 198 188
246099.80847168 3357591.04052734 14.97468472 192 207 214
246104.57861328 3357591.34405518 14.17699718 138 139 134
246100.79846191 3357589.82733154 13.35114765 80 85 79
246101.11425781 3357592.28942871 13.60415649 200 185 178
246099.10815430 3357592.79675293 13.20324898 215 207 196
246108.25769043 3357591.00732422 13.36311245 123 122 117
246100.30517578 3357590.45935059 14.90704060 237 233 232
246106.91040039 3357589.60198975 13.26779556 157 154 147
246099.36865234 3357590.51605225 13.85676289 208 212 213
246099.22998047 3357590.56610107 13.79581165 222 224 219
246105.58032227 3357591.61602783 13.86429787 167 167 165
246100.60449219 3357590.58001709 14.63264084 185 180 176
246100.76184082 3357591.01586914 14.27437878 194 187 177
246101.00830078 3357591.91119385 14.05237103 205 198 188
246106.98059082 3357589.77258301 13.27388382 184 181 176
246105.47387695 3357590.31536865 14.33135700 232 233 237
246108.90698242 3357588.69482422 13.70278549 217 209 207
246104.14477539 3357590.69299316 13.94758224 163 162 157
246105.14916992 3357591.22564697 14.28025818 164 165 167
246105.95935059 3357591.56213379 13.63766575 159 159 159
246106.34741211 3357591.50396729 13.69377232 165 161 162
246103.07116699 3357589.67169189 13.88282299 150 156 154
246108.78112793 3357589.30541992 14.37051487 239 238 234
246105.14477539 3357591.20507813 14.27822113 170 171 173
246101.83532715 3357590.46618652 13.09884548 137 133 130
246104.10656738 3357591.18621826 14.94760036 178 178 178
246101.71154785 3357592.59039307 13.16582680 161 158 153
246104.84936523 3357589.55432129 13.20059967 195 189 177
246105.83508301 3357589.17492676 13.19011307 167 165 153
246107.93017578 3357590.95782471 14.23575211 236 230 230
246103.82897949 3357589.68438721 14.52711868 181 182 177
246103.92089844 3357592.13128662 14.97380638 241 240 246
246103.03820801 3357592.09729004 14.97020054 158 161 166
246102.97924805 3357592.63043213 14.37366772 163 160 155
246103.92431641 3357589.86737061 14.63519573 172 173 167
246099.61669922 3357593.38287354 13.56495762 238 237 233
246104.70776367 3357590.32415771 13.21645164 118 119 114
246107.66796875 3357589.75616455 14.15192413 236 235 231
246102.25561523 3357590.79632568 14.63081360 237 236 234
246103.35510254 3357591.70812988 14.95833206 171 176 182
246106.70739746 3357589.87597656 13.40447998 94 91 86
246107.87231445 3357588.84521484 13.59861374 198 198 196
246098.77661133 3357590.18249512 13.18582630 84 85 77
246102.45532227 3357591.97448730 13.23592091 95 96 98
246108.12902832 3357591.02569580 13.44840813 139 141 130
246109.05590820 3357589.11749268 14.24906349 166 166 164
246109.26440430 3357590.49090576 14.33198833 217 209 207
246102.49084473 3357591.83404541 13.49052620 207 212 208
246109.24157715 3357590.69598389 14.33355427 213 196 186
246100.97119141 3357593.16650391 13.37428951 146 146 144
246108.49560547 3357588.78607178 13.43873119 223 222 217
246106.99670410 3357590.54821777 13.27847958 113 110 103
246103.27758789 3357592.32757568 14.97996426 173 186 192
246104.14624023 3357590.61236572 14.43198013 149 149 141
246108.50061035 3357590.97448730 14.25829983 185 184 180
246103.42272949 3357592.06713867 14.94443607 200 207 217
246102.45690918 3357590.36981201 14.95523167 241 242 237
246109.52453613 3357590.64471436 13.67867184 135 127 125
246108.15722656 3357590.83660889 14.34382439 207 196 192
246108.92053223 3357588.69476318 13.51713943 227 219 216
246102.42260742 3357589.61370850 13.38391685 160 162 151
246108.63256836 3357590.24523926 14.36558056 244 246 243
246103.44494629 3357592.53649902 14.04025078 154 155 149
246109.39953613 3357590.00115967 13.40363979 99 92 86
246106.58813477 3357591.52947998 13.28236771 87 85 86
246103.59765625 3357592.52410889 13.24565315 101 100 98
246102.53930664 3357592.14221191 14.21999645 244 240 237
246108.01000977 3357589.28485107 14.31816292 189 193 192
246099.90063477 3357590.30017090 13.18396950 178 179 173
246103.88061523 3357589.84454346 14.18682003 163 163 155
246106.12072754 3357589.32379150 13.42124462 206 209 202
246103.35607910 3357590.48748779 14.96711731 144 144 144
246100.71887207 3357590.96130371 13.56676865 176 172 163
246104.47668457 3357590.46478271 13.34728622 117 116 114
246100.55139160 3357590.43524170 14.11265755 181 176 172
246102.54199219 3357592.12377930 13.57929134 235 240 234
246101.96130371 3357590.03985596 13.15080643 119 119 119
246099.10620117 3357591.87622070 14.49029350 252 251 247
246104.49890137 3357589.61090088 13.16872597 196 186 176
246105.18554688 3357591.62377930 13.25213242 145 145 147
246098.87329102 3357590.72979736 14.46829891 249 250 245
246098.95788574 3357591.27252197 14.51737022 251 250 245
246106.88952637 3357590.14532471 13.34516525 121 118 113
246102.15124512 3357590.18029785 14.08245850 239 238 236
246103.52697754 3357590.66137695 14.96082687 145 147 146
246101.00976563 3357591.91577148 14.04999924 205 198 190
246104.45410156 3357590.71575928 13.52314568 128 129 124
246104.41259766 3357591.81866455 13.90674019 147 146 142
246106.01513672 3357589.32177734 13.35207367 190 193 186
246105.98828125 3357591.52374268 13.38292313 146 146 146
246102.50817871 3357591.99554443 14.02806473 240 236 233
246099.40344238 3357590.51361084 14.30025768 208 214 212
246108.17614746 3357590.11956787 14.34800720 243 244 246
246104.74096680 3357590.72271729 13.96374607 148 149 144
246103.87597656 3357589.76641846 13.73364449 172 171 167
246100.73254395 3357591.06231689 13.42615986 178 173 167
246101.74243164 3357592.40844727 13.16688728 160 156 153
246098.80932617 3357592.60949707 13.15010738 203 197 185
246102.16430664 3357590.36456299 13.22781563 113 110 105
246102.94177246 3357589.58129883 13.55272293 218 223 216
246107.80505371 3357590.42236328 14.09288597 234 234 232
246098.76013184 3357592.11730957 13.17002869 215 207 196
246105.28845215 3357589.30810547 13.21793270 180 177 168
246101.14758301 3357592.44354248 14.24133396 209 201 190
246108.44750977 3357590.98876953 13.91202164 158 153 147
246098.91479492 3357590.69305420 13.90940189 193 191 179
246101.37365723 3357590.99884033 13.13927746 141 140 136
246108.96911621 3357589.41833496 14.35232830 241 240 238
246102.12451172 3357589.83367920 14.42734051 226 227 222
246108.80468750 3357589.44824219 14.36770630 241 237 234
246103.33996582 3357589.77941895 14.94758320 223 228 231
246101.91052246 3357592.25988770 13.16380596 155 152 147
246109.26745605 3357590.49676514 14.32933807 217 209 207
246109.28100586 3357589.66186523 14.23491669 172 171 169
246107.67004395 3357590.52966309 13.24252987 157 157 155
246104.77490234 3357590.04553223 13.17185497 142 138 129
246102.62475586 3357592.12872314 14.95260239 248 248 246
246101.90502930 3357590.03057861 13.14538670 118 120 117
246107.85766602 3357590.69720459 13.61730576 251 251 251
246105.32897949 3357589.87823486 14.31810570 224 225 230
246104.20654297 3357592.32196045 13.60521889 153 151 152
246099.22155762 3357591.69946289 14.84731007 247 246 241
246104.54162598 3357591.81457520 13.40386581 113 113 113
246104.06909180 3357591.18383789 14.95611382 172 172 172
246101.29724121 3357593.10601807 13.21730804 107 106 104
246103.33337402 3357592.31573486 14.97648048 174 189 196
246108.19567871 3357588.77856445 14.11094093 219 224 220
246100.10119629 3357592.38385010 14.93089676 246 246 244
246104.13232422 3357590.44903564 13.39117146 87 86 81
246103.61950684 3357591.59448242 14.98257637 142 143 145
246102.58898926 3357592.40722656 13.85815430 235 236 231
246103.91064453 3357589.27740479 13.30752850 132 131 113
246102.15332031 3357590.07672119 13.32036018 215 214 212
246101.11950684 3357592.30163574 13.77237225 194 184 172
246105.32934570 3357589.40155029 13.29837322 180 181 176
246108.98376465 3357588.75469971 13.61593914 177 169 166
246105.64733887 3357589.37908936 13.79111671 177 183 183
246100.65905762 3357592.97607422 15.00023937 209 214 220
246103.44750977 3357589.51202393 13.59630299 223 225 220
246106.41345215 3357590.57861328 14.34825802 126 126 128
246103.49475098 3357592.51361084 13.26249790 118 117 115
246099.00793457 3357590.91772461 14.87051868 230 225 222
246106.70458984 3357591.32263184 14.03863811 168 163 157
246105.47290039 3357591.62005615 14.25793362 172 177 180
246104.33081055 3357592.05035400 14.63058949 171 171 169
246099.15185547 3357591.83270264 13.40900993 242 240 241
246098.95153809 3357590.80194092 13.38457012 255 255 255
246108.42675781 3357589.30371094 14.35485840 245 245 243
246106.06127930 3357591.68365479 13.25035763 89 89 89
246104.20397949 3357592.34411621 13.80276871 159 157 158
246108.11425781 3357591.05920410 14.01132679 152 143 136
246107.35717773 3357588.55749512 13.19822502 180 171 164
246100.09594727 3357591.96746826 14.95184612 244 244 242
246106.38793945 3357591.59411621 13.26492119 97 99 98
246099.58203125 3357593.30786133 14.44470882 248 246 251
246101.03979492 3357592.02453613 14.55690956 206 196 186
246104.03320313 3357590.80419922 14.95707798 127 127 127
246100.94421387 3357591.71173096 13.88614941 204 197 187
246107.72863770 3357589.41210938 14.31646347 244 244 246
246104.54223633 3357591.21844482 14.14241886 135 135 133
246104.22302246 3357591.31420898 14.48959446 141 142 137
246108.38464355 3357589.55541992 14.35255146 244 243 239
246102.76098633 3357589.66394043 14.11455250 151 162 158
246099.94482422 3357590.36907959 13.85033703 200 201 195
246100.51940918 3357590.46453857 14.46076202 180 177 168
246106.84179688 3357591.18798828 13.35484982 118 111 105
246100.24584961 3357593.35919189 13.59251308 154 153 149
246109.21899414 3357588.64465332 13.22783661 216 203 186
246104.66235352 3357589.50164795 13.17719555 196 184 172
246104.02099609 3357592.33416748 14.93836403 227 231 234
246099.52148438 3357590.18304443 13.21352196 135 135 123
246109.23034668 3357590.13305664 14.30146599 203 205 204
246103.81726074 3357591.88775635 14.96841717 239 242 249
246098.66906738 3357591.08886719 13.14272499 221 208 199
246104.44238281 3357590.85516357 13.65336990 121 122 116
246101.27746582 3357593.12036133 13.21890736 107 106 104
246106.55224609 3357591.24151611 14.34798527 123 123 123
246099.05297852 3357591.46936035 13.88496971 248 247 243
246104.25195313 3357592.22528076 14.61260509 168 168 166
246102.37292480 3357591.35443115 14.73764133 245 241 240
246101.04345703 3357590.19317627 13.12767601 127 129 128
246105.81457520 3357591.60137939 13.75738621 161 163 160
246100.37365723 3357590.60009766 14.91706562 251 250 248
246102.61608887 3357592.57818604 14.30994415 245 246 240
246100.08154297 3357593.61651611 13.34740925 89 78 74
246104.08728027 3357590.38684082 13.38695431 88 89 84
246099.99438477 3357590.32501221 13.24116325 104 107 100
246109.22961426 3357590.80999756 13.98436069 181 174 166
246108.98327637 3357588.73480225 13.90580082 167 163 160
246105.15466309 3357591.54632568 13.35668087 143 143 145
246105.05371094 3357589.82580566 13.99347591 225 226 221
246103.87390137 3357592.45758057 13.99988079 158 154 151
246103.22460938 3357591.23944092 14.95379448 243 244 246
246109.57556152 3357590.22711182 13.35745907 120 113 105
246105.83642578 3357591.55334473 13.43535709 145 145 145
246106.78430176 3357591.04901123 13.57083321 151 146 142
246099.54919434 3357593.23809814 14.69479465 242 246 247
246098.92553711 3357591.14367676 14.18710423 251 250 245
246100.78955078 3357591.11273193 14.32685471 199 193 181
246108.35021973 3357589.62719727 14.35110855 249 245 244
246102.54174805 3357592.13323975 13.42315197 158 163 159
246107.75024414 3357590.66265869 13.26923180 151 152 154
246100.73779297 3357592.79998779 14.97124863 185 188 193
246103.88317871 3357591.06347656 14.95845413 145 146 148
246099.98486328 3357590.34692383 14.68965626 214 216 211
246102.22424316 3357590.41418457 14.87599850 230 228 229
246103.47155762 3357592.54315186 14.36077595 160 159 154
246102.88525391 3357590.34722900 14.96311569 238 238 236
246105.15942383 3357589.32611084 13.23259068 179 176 171
246100.95410156 3357591.71862793 13.39706612 179 174 168
246106.84069824 3357590.98248291 14.33845615 139 139 137
246099.58020020 3357593.27056885 14.26453209 248 250 247
246107.34338379 3357588.59301758 13.19295692 175 168 160
246102.60668945 3357592.26745605 14.90285110 248 247 245
246103.72851563 3357589.32849121 13.35892200 120 121 107
246107.61914063 3357589.20874023 14.30742550 218 209 204
246103.53149414 3357592.51812744 14.62695885 161 161 159
246100.65283203 3357590.80267334 13.33447266 158 158 150
246103.07958984 3357589.66418457 13.86819458 157 163 161
246102.56201172 3357589.90466309 14.89511204 145 148 153
246099.80053711 3357590.94610596 14.98548889 198 211 219
246101.44238281 3357592.61566162 13.16477871 152 144 142
246100.61975098 3357590.65283203 14.22111225 183 181 169
246108.38903809 3357588.66229248 13.24614620 208 204 195
246107.50195313 3357590.18927002 13.20470715 153 153 151
246102.63891602 3357592.50683594 13.32638550 162 163 165
246103.91418457 3357592.43145752 13.79834175 157 153 150
246100.76745605 3357591.09692383 14.61534595 196 192 183
246104.39001465 3357591.90197754 14.03598785 156 156 154
246107.53649902 3357589.33563232 13.23004627 195 183 169
246103.30749512 3357591.81555176 14.94068050 176 185 192
246100.56481934 3357593.26629639 13.73800659 147 147 145
246107.65710449 3357589.56256104 13.35332298 232 223 218
246104.29272461 3357590.73718262 13.51536560 115 116 111
246108.48962402 3357590.99218750 14.18196297 169 168 164
246102.30944824 3357591.02624512 14.46755314 238 237 235
246103.61425781 3357592.29956055 14.98237228 148 161 170
246099.48681641 3357592.99230957 13.78643990 247 248 242
246107.39575195 3357591.14624023 13.22428322 145 142 135
246106.76257324 3357591.38189697 13.42901516 193 189 188
246105.03332520 3357590.42504883 13.51410770 107 109 104
246108.56469727 3357588.77923584 14.29465199 231 233 232
246100.25305176 3357590.18359375 13.22126389 88 94 90
246105.73840332 3357589.56597900 14.28582954 161 178 188
246105.47460938 3357589.38427734 13.97891045 165 175 176
246107.78735352 3357590.48486328 13.35271358 98 98 96
246106.46777344 3357591.47906494 14.26080418 190 189 194
246104.96496582 3357591.56909180 14.24662971 144 146 145
246107.90905762 3357588.83789063 14.00883102 205 205 203
246100.82287598 3357590.18194580 13.15578747 120 120 118
246103.73510742 3357592.47985840 14.60822868 160 160 160
246102.52600098 3357592.07940674 14.21450043 243 242 238
246109.13037109 3357588.72125244 13.26494026 160 144 129
246101.05749512 3357590.36651611 13.13550663 119 119 117
246102.60205078 3357589.87744141 14.88118935 143 144 148
246105.00036621 3357591.66461182 14.02299309 147 147 147
246104.60046387 3357590.85589600 13.67840958 133 134 129
246100.52233887 3357590.38836670 14.22817135 180 177 170
246108.64355469 3357588.71801758 13.86910152 203 204 198
246099.67651367 3357590.44744873 13.52629757 226 233 225
246100.16967773 3357593.06854248 14.98310566 178 187 196
246098.93066406 3357591.25207520 13.21278477 206 199 193
246104.91088867 3357591.18518066 14.18043041 128 130 129
246102.97131348 3357592.44689941 14.97340107 241 242 244
246100.87939453 3357590.05657959 13.18504143 99 101 96
246103.47985840 3357592.05572510 14.95309067 204 214 224
246107.87963867 3357590.80981445 13.94286346 236 237 232
246100.78881836 3357591.03442383 13.26593781 108 107 102
246100.20336914 3357593.36560059 13.64597416 155 154 150
246099.18872070 3357592.51965332 13.22844315 194 185 178
246098.91040039 3357590.70013428 13.94794369 203 201 189
246104.06884766 3357591.67022705 14.96449184 243 243 245
246100.76135254 3357590.33093262 13.15655994 111 113 110
246099.21289063 3357592.41778564 14.33874702 244 243 239
246101.26074219 3357592.92382813 14.18987560 203 199 190
246106.85070801 3357590.13208008 13.38530731 111 106 102
246105.51635742 3357590.91040039 14.32355690 231 241 242
246106.45092773 3357589.73956299 14.33804035 125 125 133
246107.09252930 3357590.23889160 13.24064445 139 134 128
246105.68701172 3357590.93395996 14.33112812 233 241 244
246108.49450684 3357590.96423340 13.74887466 155 150 144
246100.93090820 3357590.86114502 13.18971443 117 116 111
246099.84350586 3357593.03613281 14.95886993 180 178 179
246108.88354492 3357589.25140381 14.36077976 242 238 235
246103.73828125 3357589.51330566 13.48439789 194 199 195
246105.32678223 3357589.62536621 14.31657028 199 198 203
246102.00256348 3357593.00268555 13.18099976 149 149 147
246101.06457520 3357592.12335205 14.65152931 201 192 183
246102.06628418 3357589.94946289 13.21731281 89 88 83
246099.18249512 3357592.23864746 14.21252823 245 244 239
246106.02868652 3357589.11267090 13.19960976 184 178 164
246102.61755371 3357591.91656494 14.95622826 248 248 246
246109.10107422 3357589.18316650 14.10718727 159 154 148
246104.46276855 3357591.62457275 14.37857533 146 147 142
246104.00207520 3357590.30102539 14.52774429 178 175 170
246102.98596191 3357590.10192871 14.89178085 224 225 229
246105.15576172 3357591.60205078 14.22250175 139 140 142
246098.48620605 3357591.33666992 13.14115143 217 207 197
246104.62060547 3357589.30346680 13.18304634 149 140 133
246108.65832520 3357590.95928955 14.13446712 165 164 160
246108.08581543 3357589.99127197 14.34685230 248 247 245
246100.32275391 3357590.65869141 14.91370773 247 248 250
246100.88354492 3357591.51605225 13.60197067 199 195 184
246099.62219238 3357593.38836670 13.66679478 210 211 206
246107.83215332 3357590.55847168 14.20293140 238 238 236
246107.83337402 3357590.55780029 14.11020851 237 237 235
246099.75476074 3357593.49499512 13.85635471 165 160 154
246104.75085449 3357592.12695313 13.23965645 117 115 116
246106.78100586 3357590.40063477 14.14806080 143 143 141
246102.46777344 3357589.95275879 14.92974091 139 142 149
246102.24902344 3357589.73297119 13.78103065 217 218 210
246106.85058594 3357590.98040771 13.31944656 105 96 89
246103.30187988 3357592.54730225 13.42772770 152 148 145
246103.03784180 3357591.82635498 14.94678593 157 165 168
246104.24328613 3357591.85223389 14.89959145 172 172 172
246100.60607910 3357593.09704590 15.00934505 197 202 208
246102.51501465 3357592.01348877 14.59284973 244 245 240
246103.40197754 3357592.52850342 13.46148014 151 150 148
246106.78881836 3357590.39758301 13.95852661 189 190 184
246099.01391602 3357591.27429199 13.33437252 248 247 245
246099.68957520 3357591.20892334 14.93679905 159 172 180
246104.24475098 3357591.36572266 14.50630188 149 150 144
246102.92175293 3357590.19268799 14.92355251 235 236 238
246105.07153320 3357589.81933594 13.45916843 231 232 227
246102.77539063 3357589.60357666 13.59639072 221 224 215
246108.64965820 3357588.92498779 14.29286098 199 199 199
246109.02221680 3357588.37280273 13.22787762 211 199 185
246098.90563965 3357590.98852539 14.19915867 246 248 243
246105.65820313 3357591.53900146 14.31056976 215 220 226
246104.81518555 3357590.63775635 13.57192326 127 128 123
246102.18823242 3357592.24212646 13.18022537 161 160 158
246107.90417480 3357590.71807861 14.31524944 242 242 242
246101.29711914 3357592.15948486 13.15171146 143 140 135
246106.91809082 3357590.99768066 13.28851414 111 104 96
246103.16235352 3357590.11108398 14.96253014 234 235 237
246103.78857422 3357591.43597412 14.97658253 151 152 156
246101.02148438 3357591.95159912 14.09482765 205 196 187
246106.21069336 3357590.24560547 14.34726715 107 106 112
246102.37084961 3357591.32885742 14.41320610 240 239 237
246108.06860352 3357590.92456055 14.32860661 229 212 202
246104.45031738 3357589.12310791 13.34208679 53 55 41
246106.50244141 3357591.46893311 13.32759380 140 138 139
246105.88769531 3357591.24627686 14.35545540 206 207 211
246105.30529785 3357589.56951904 14.31473637 206 207 209
246103.05505371 3357589.85852051 14.85401917 192 195 200
246098.98632813 3357591.86071777 13.19700050 208 200 189
246103.99487305 3357590.28601074 13.63711357 171 170 165
246104.18774414 3357592.35388184 13.85147190 159 157 158
246104.36767578 3357591.89849854 13.43143082 104 104 104
246105.95581055 3357589.33166504 14.19003391 209 213 216
246109.03576660 3357589.02282715 14.01212120 155 148 140
246101.05834961 3357593.12316895 14.00227928 146 147 149
246102.91625977 3357590.86492920 14.95845127 235 234 232
246106.74743652 3357589.77111816 13.34732914 97 94 89
246106.84973145 3357590.06750488 13.37861919 111 106 102
246099.55700684 3357591.00000000 14.94328880 206 216 226
246104.17651367 3357591.10064697 14.58913612 172 173 168
246100.72436523 3357592.49035645 14.93751335 239 240 244
246107.26672363 3357589.03472900 13.19428539 194 186 175
246103.43176270 3357592.51831055 13.27227116 131 130 128
246108.23706055 3357590.39117432 14.32283783 147 148 153
246101.44885254 3357589.85980225 13.18678665 84 86 83
246103.64111328 3357592.49822998 14.60246086 158 157 155
246102.13452148 3357590.12854004 14.28287029 239 238 236
246101.50512695 3357592.95166016 13.17050457 139 135 132
246103.36926270 3357592.54803467 14.65486240 159 159 157
246099.23742676 3357591.99920654 13.50576305 252 251 249
246105.47973633 3357589.56268311 14.30765438 150 165 172
246102.75720215 3357592.67266846 14.46487141 183 180 173
246100.98437500 3357593.14837646 13.54674911 150 150 148
246099.63586426 3357592.57067871 14.89888191 253 249 246
246100.91186523 3357591.58892822 13.98539066 200 191 182
246099.15246582 3357592.15643311 14.31706142 252 251 246
246103.55920410 3357592.50292969 14.82242203 163 167 168
246102.52148438 3357592.05139160 14.37896538 245 244 240
246105.24340820 3357591.61437988 13.79384708 168 170 165
246099.50317383 3357593.05334473 14.53611279 248 248 250
246106.69116211 3357589.87231445 13.81896114 159 160 155
246101.11169434 3357590.58367920 13.14512444 113 112 108
246101.17846680 3357592.57135010 14.28488350 208 200 189
246102.32800293 3357590.99188232 13.60905552 231 230 228
246103.89538574 3357589.88781738 14.42689705 168 165 160
246099.69433594 3357592.45306396 14.91538334 250 251 246
246100.83032227 3357592.85241699 14.98469353 204 207 212
246104.28308105 3357590.84503174 13.63098907 115 116 110
246100.24645996 3357591.59075928 14.96174622 248 248 246
246108.45593262 3357588.78204346 13.28447723 232 227 221
246100.20483398 3357593.36419678 14.69159222 183 185 184
246105.12976074 3357591.55383301 13.73227119 146 148 145
246104.23132324 3357590.93267822 14.21195126 165 158 150
246106.27648926 3357591.07556152 14.35424900 116 119 124
246106.73645020 3357590.29479980 14.31687832 135 135 135
246107.69726563 3357589.89831543 14.11706638 234 233 231
246099.44250488 3357590.33538818 13.14062786 135 133 121
246102.22241211 3357590.45953369 13.56056595 199 200 194
246107.08093262 3357588.88580322 13.19742298 201 194 188
246100.71765137 3357590.88079834 13.83410835 190 183 173
246102.41186523 3357591.41668701 13.58388042 240 240 238
246105.89416504 3357589.36523438 13.64046574 184 190 188
246101.18579102 3357592.59283447 14.34485912 207 198 189
246106.70483398 3357589.51184082 13.30847931 89 90 85
246106.43176270 3357591.48181152 13.61761284 156 155 153
246100.63977051 3357590.66583252 13.67480087 173 168 162
246102.74279785 3357592.68627930 14.08254242 170 167 158
246103.80737305 3357589.41210938 13.27654839 157 157 155
246102.11022949 3357590.85736084 13.16444588 140 139 134
246106.37207031 3357591.33398438 14.35391998 152 148 149
246098.45654297 3357590.18078613 13.23179913 100 101 95
246100.56201172 3357590.41259766 13.30135250 143 145 142
246103.81958008 3357589.63238525 14.56896114 179 180 175
246104.20373535 3357591.26611328 14.48618412 147 148 143
246098.92700195 3357591.40979004 13.19813538 208 199 190
246104.73010254 3357590.62268066 14.02970409 129 129 129
246105.43688965 3357591.21362305 14.33424568 209 208 214
246106.21459961 3357589.31347656 13.78607178 179 183 182
246105.43139648 3357591.61877441 13.97632027 171 172 167
246108.99511719 3357590.79528809 14.28879547 244 239 233
246106.16101074 3357589.31097412 14.02871704 206 210 211
246099.04553223 3357590.58050537 14.69763470 218 217 212
246103.96105957 3357589.90051270 14.70005322 171 172 166
246102.55065918 3357592.20233154 14.07310581 235 231 228
246099.10656738 3357590.61846924 13.61105156 221 224 217
246099.53393555 3357593.11230469 14.75860023 233 233 235
246103.16149902 3357591.83691406 14.93805695 195 204 211
246104.02099609 3357592.39648438 13.30011272 118 106 106
246102.14099121 3357590.29803467 13.20300674 100 99 94
246104.94787598 3357589.56750488 13.23366451 194 190 181
246098.96057129 3357590.78863525 13.43778229 253 253 253
246102.16906738 3357590.16241455 13.30759811 193 193 191
246108.38732910 3357588.76159668 13.72806740 203 205 204
246100.71264648 3357590.90045166 14.48340893 189 186 177
246107.36816406 3357588.96081543 13.21116543 212 204 193
246099.52807617 3357592.37939453 14.89828110 250 250 248
246104.82312012 3357589.38220215 13.21001244 192 189 182
246107.60058594 3357589.55200195 13.55832863 253 245 242
246102.97265625 3357591.66815186 14.93817520 240 241 243
246104.34326172 3357591.89215088 13.52992916 100 100 100
246099.84228516 3357593.47729492 13.86786747 161 156 152
246102.79016113 3357591.99597168 14.96597958 244 244 242
246104.22973633 3357591.20751953 14.86021328 172 170 171
246100.81030273 3357591.20007324 14.44596386 196 192 180
246098.47729492 3357590.70080566 13.11780930 196 188 177
246099.35815430 3357592.60974121 14.63293457 248 247 243
246100.94287109 3357591.64965820 13.44672871 196 192 183
246103.92626953 3357592.43457031 14.58311558 164 164 162
246103.98571777 3357592.42980957 14.06416512 157 154 149
246100.08288574 3357593.31445313 14.97391701 184 188 191
246106.83703613 3357591.01000977 14.21517944 174 173 169
246109.07604980 3357589.21331787 13.59189129 154 144 142
246105.04211426 3357589.81030273 14.11093998 226 227 222
246103.09033203 3357590.85046387 14.96262741 228 228 226
246099.99548340 3357591.59014893 14.97345352 250 251 246
246099.61511230 3357593.35870361 14.31038189 244 244 246
246106.50976563 3357589.38861084 13.53152657 228 232 235
246099.60192871 3357593.33679199 14.35506916 245 245 247
246109.26318359 3357590.03045654 13.69630718 158 149 142
246101.07214355 3357591.66064453 13.24748421 125 122 115
246100.65686035 3357590.76019287 14.31271744 190 183 177
246099.12927246 3357591.96972656 14.16509438 249 248 244
246102.51806641 3357592.02386475 13.35824585 143 145 142
246101.50524902 3357590.52215576 13.11823940 179 170 161
246102.59924316 3357592.46722412 13.67894650 242 242 240
246106.24670410 3357589.31488037 13.58866310 186 188 183
246107.46081543 3357591.24737549 13.23099518 143 142 137
246108.04785156 3357590.31365967 14.33384609 242 242 242
246107.22961426 3357589.02539063 13.19541740 195 186 177
246101.88098145 3357592.44970703 13.17395115 158 157 153
246101.60449219 3357591.06512451 13.13822556 146 147 142
246107.59118652 3357589.67938232 13.71442890 241 236 232
246106.16003418 3357589.45532227 14.32430649 219 222 229
246099.96679688 3357590.33239746 14.14853573 194 195 189
246099.62585449 3357591.91345215 14.94212151 248 248 246
246105.69677734 3357591.61413574 13.99616146 167 167 167
246106.55017090 3357591.44244385 13.92740631 171 166 162
246100.84887695 3357591.31579590 14.32085991 204 198 186
246102.63977051 3357592.47387695 13.32365990 155 157 156
246107.28430176 3357590.72735596 13.20683670 147 147 139
246102.75622559 3357589.59136963 13.42834663 199 204 197
246101.21313477 3357593.08129883 14.00631809 142 141 139
246109.07067871 3357589.09619141 13.46163654 153 148 144
246099.51281738 3357593.12841797 14.23668003 234 233 231
246104.16931152 3357591.68005371 14.95642376 221 223 222
246106.37683105 3357591.49548340 14.13075638 171 170 168
246107.75061035 3357588.92205811 14.24828815 209 199 190
246107.75781250 3357588.87170410 13.67498493 205 204 200
246107.58349609 3357590.74768066 13.21495247 184 183 179
246105.85974121 3357589.34637451 14.20176125 213 218 222
246100.89697266 3357590.40203857 13.14841270 125 126 121
246099.54919434 3357593.81585693 13.28322983 132 103 95
246098.97167969 3357590.61352539 14.43751526 208 210 207
246108.33276367 3357588.76879883 13.83266449 195 197 194
246107.36059570 3357588.78405762 13.19466400 205 198 190
246103.38525391 3357591.42395020 14.97611237 234 234 234
246104.46862793 3357589.11175537 13.35413647 56 59 42
246099.64672852 3357593.43524170 13.90782166 241 242 244
246103.55273438 3357591.19219971 14.97662449 158 158 156
246099.74279785 3357590.79022217 14.98687649 202 214 228
246098.67089844 3357590.77044678 13.13387871 209 199 187
246104.96008301 3357591.65545654 13.22202396 132 132 134
246099.56250000 3357590.93548584 14.95614719 205 215 225
246100.25891113 3357593.32788086 14.22680569 142 144 143
246109.28527832 3357590.37567139 14.29223156 179 176 171
246107.40734863 3357589.88336182 13.19078636 166 162 159
246099.88134766 3357590.36114502 14.21610451 192 193 187
246104.03649902 3357590.44763184 14.42743015 152 149 142
246103.83203125 3357589.66217041 14.58776283 181 182 177
246101.14892578 3357591.16754150 13.16539001 115 114 109
246105.04016113 3357589.61614990 13.86123276 231 233 228
246107.66845703 3357589.72253418 13.40623188 245 238 232
246109.41064453 3357590.70458984 13.84208393 190 181 182
246102.51464844 3357592.02069092 13.95684624 237 236 232
