245941.38226318 3357342.61624146 16.77864838 38 57 53
245954.87872314 3357342.87097168 18.76517868 148 154 154
245943.19586182 3357342.37768555 16.94212723 84 109 106
245927.00799561 3357346.03527832 20.17411804 239 246 252
245950.29223633 3357344.61782837 20.15806770 228 241 249
245938.12890625 3357343.04937744 19.74387550 220 231 233
245947.95233154 3357346.19940186 19.09959221 75 92 99
245926.73284912 3357345.60830688 17.25602913 15 20 26
245950.23791504 3357342.30361938 16.70152855 64 107 97
245948.76458740 3357342.21862793 17.02814674 68 105 98
245958.33001709 3357342.28012085 19.07668877 45 51 49
245944.47143555 3357342.32156372 16.83962440 78 99 92
245935.50061035 3357345.93484497 20.08163834 234 245 249
245961.14605713 3357342.91104126 18.05716324 32 47 40
245942.46453857 3357346.31640625 16.75844765 62 77 74
245955.84539795 3357344.93005371 17.12537003 33 45 43
245934.71350098 3357342.97625732 20.06448936 39 52 35
245935.63452148 3357343.32324219 21.83626938 27 42 23
245953.01391602 3357343.61642456 17.54846764 25 31 31
245954.97094727 3357342.71783447 19.19972992 79 79 79
245957.22186279 3357342.83401489 18.48006630 23 32 29
245961.90362549 3357345.78387451 17.78497887 70 111 97
245934.84411621 3357345.27371216 17.54410934 53 57 60
245943.10894775 3357345.56985474 20.07888603 228 235 241
245949.03430176 3357345.15991211 17.83936882 107 122 125
245943.17602539 3357343.28076172 17.68317604 26 36 38
245957.85260010 3357345.03070068 17.58004379 35 38 43
245945.72930908 3357345.96035767 18.60313988 152 156 142
245924.49139404 3357345.39956665 17.56071663 61 10 19
245957.84039307 3357343.21826172 16.93225098 22 31 28
245948.38531494 3357343.30163574 18.46163559 38 50 46
245954.86248779 3357344.02041626 20.04820824 236 246 248
245955.66632080 3357344.72750854 20.30270576 247 253 253
245951.49096680 3357342.06234741 16.86919022 116 145 141
245942.05993652 3357345.90988159 19.94053841 218 235 243
245958.93945313 3357344.77011108 20.11592293 236 244 247
245950.67218018 3357342.55633545 19.00676346 42 48 48
245935.04949951 3357346.28915405 19.88195038 242 249 255
245950.51843262 3357345.70962524 18.75751305 192 201 200
245930.68536377 3357347.11175537 16.82053947 57 93 91
245949.58154297 3357345.20980835 18.26123047 144 160 160
245941.28515625 3357342.54971313 16.81702232 31 58 49
245939.76611328 3357345.18954468 17.86515045 53 61 63
245944.01513672 3357346.06753540 18.96278763 111 126 131
245944.62744141 3357343.05700684 17.71526909 38 54 53
245954.04760742 3357342.34323120 16.66314507 91 110 104
245926.82733154 3357346.30953979 20.05877113 236 245 250
245931.72833252 3357345.74121094 18.61303329 58 68 67
245937.05670166 3357346.44973755 19.43950653 137 145 148
245930.36975098 3357345.69674683 17.58083534 57 71 72
245954.53833008 3357342.73886108 19.65704155 245 251 251
245932.30462646 3357346.14254761 20.06285858 232 241 248
245951.80206299 3357346.46005249 16.66602516 55 84 79
245939.32556152 3357343.38101196 20.09377289 220 231 235
245929.97564697 3357344.92684937 18.36892891 135 143 145
245932.76501465 3357345.31793213 20.55561829 221 236 243
245933.83056641 3357345.43127441 20.26520157 216 230 243
245950.38549805 3357345.90100098 16.65587425 150 169 165
245937.50207520 3357346.49670410 19.61373520 198 213 220
245936.27087402 3357342.98580933 19.75540543 28 39 33
245923.99359131 3357345.43740845 20.41677284 231 237 237
245951.26000977 3357345.56033325 18.43520737 188 189 193
245961.02587891 3357342.49890137 18.90994263 47 73 64
245946.32855225 3357342.99807739 18.76998138 43 52 47
245948.70532227 3357343.32382202 16.87171364 34 60 57
245936.21356201 3357346.38085938 19.42329025 213 217 220
245958.72546387 3357344.11965942 20.15040779 244 248 249
245932.61639404 3357345.94897461 20.17499924 228 239 245
245925.77557373 3357344.57037354 20.55974388 204 223 230
245942.58599854 3357342.75027466 19.54524040 219 220 215
245934.09954834 3357344.13009644 20.23700905 200 220 231
245946.45013428 3357346.64801025 16.78000069 56 100 101
245942.35644531 3357346.46041870 19.58423615 235 244 251
245945.48089600 3357342.95855713 19.69645691 249 253 254
245955.56628418 3357345.46075439 19.95926476 234 243 248
245961.61791992 3357345.76702881 17.79465485 75 109 95
245956.96673584 3357343.45916748 17.57497978 30 45 42
245936.55712891 3357346.49313354 19.61915207 174 179 183
245945.18792725 3357344.89965820 20.42149353 203 232 240
245936.70294189 3357344.03695679 20.29824829 192 205 214
245960.25671387 3357342.62017822 19.31622505 212 218 218
245938.62963867 3357346.18453979 19.82495499 226 239 247
245927.46368408 3357343.50402832 20.28159332 143 140 135
245933.74279785 3357345.62066650 17.86916542 85 95 96
245933.19396973 3357345.87872314 17.62646294 31 41 40
245922.56628418 3357347.03543091 17.73987961 83 99 89
245947.11303711 3357342.52078247 16.78700447 99 102 93
245948.06915283 3357343.00680542 19.71214676 252 254 253
245960.20452881 3357345.67843628 17.60507774 15 25 26
245958.94281006 3357345.24026489 19.94869804 235 245 247
245955.34106445 3357342.36242676 16.67690659 151 162 154
245957.71453857 3357343.06860352 17.97805977 31 43 41
245959.13879395 3357342.25973511 16.70695305 114 115 107
245956.75885010 3357343.53598022 17.54679680 25 40 35
245935.60748291 3357346.19439697 16.88694572 41 61 59
245945.18145752 3357342.77523804 16.76469421 190 201 197
245953.95104980 3357342.68875122 19.55321312 254 255 255
245949.30712891 3357345.47024536 18.36699867 132 150 154
245943.15704346 3357342.73449707 18.80360794 31 40 39
245955.66217041 3357345.07965088 18.07234955 181 183 180
245943.51251221 3357343.44177246 17.61695862 25 33 35
245952.39123535 3357343.20819092 17.17803574 38 54 53
245945.36285400 3357346.74023438 16.71886635 35 74 73
245923.85577393 3357346.08721924 18.40772057 46 66 67
245933.97680664 3357343.20599365 19.89912605 188 200 196
245961.41381836 3357345.72286987 18.48406029 123 152 147
245931.73187256 3357346.03594971 20.10391617 229 240 246
245951.02307129 3357342.74758911 19.64491463 236 244 246
245954.49407959 3357342.72702026 18.74405289 32 32 32
245932.32727051 3357345.58612061 18.66351891 43 47 46
245942.80731201 3357346.42810059 16.76841927 133 152 146
245933.50085449 3357345.97509766 20.07218933 230 241 247
245928.35522461 3357345.19757080 18.32564926 11 16 10
245934.40014648 3357346.74005127 16.90307045 193 204 200
245952.84661865 3357345.83758545 17.77308273 41 57 57
245937.92700195 3357343.73464966 20.01955605 201 223 234
245955.24456787 3357344.93374634 17.59848595 96 107 111
245933.51904297 3357343.48217773 20.82998466 86 97 65
245948.53778076 3357342.80072021 16.70959663 131 157 154
245942.46502686 3357343.27246094 16.72843552 42 58 57
245954.42523193 3357343.19366455 16.65840149 46 65 63
245934.16900635 3357345.17144775 20.28305054 221 234 243
245924.15917969 3357345.41583252 20.52651787 233 239 239
245946.58923340 3357344.66030884 20.13467407 230 239 246
245957.25500488 3357345.88058472 16.96394157 62 74 72
245940.78234863 3357346.19421387 19.79313850 233 244 250
245947.55737305 3357342.81484985 17.52723312 241 251 250
245927.21160889 3357343.81048584 20.09350967 230 234 233
245944.97100830 3357345.42358398 20.20512390 226 237 241
245951.58947754 3357344.52514648 20.34795189 243 251 254
245927.68847656 3357346.32946777 19.22844315 15 30 33
245942.47875977 3357346.75677490 16.82933998 47 79 74
245932.00402832 3357346.02618408 19.04237366 58 68 69
245948.37841797 3357344.94772339 20.43726349 220 229 236
245939.77423096 3357346.74935913 16.88142586 58 93 86
245946.45245361 3357346.32534790 16.77086067 76 82 78
245923.07092285 3357346.20385742 19.75382805 92 71 76
245935.55938721 3357345.65954590 18.50814629 50 59 58
245939.23986816 3357345.64883423 17.38882446 34 40 38
245956.07183838 3357345.45379639 17.19517326 31 41 43
245953.73254395 3357345.67868042 19.78667450 218 237 244
245950.29162598 3357345.11285400 20.08799362 228 238 247
245950.89599609 3357342.62695313 18.96724129 97 99 98
245947.76025391 3357345.63705444 17.72804260 78 92 95
245955.02832031 3357344.46148682 20.12408638 236 247 251
245950.95050049 3357342.28472900 16.75547600 54 94 85
245954.45825195 3357343.57046509 19.91966629 233 242 249
245941.44403076 3357345.71649170 20.05858803 235 246 252
245928.37622070 3357345.73818970 17.16676521 28 31 36
245933.06402588 3357346.69839478 16.94660950 144 157 150
245928.30895996 3357346.14657593 20.16832542 240 243 248
245942.12255859 3357346.07537842 16.72850227 122 141 135
245937.98071289 3357343.01367188 19.74132538 130 140 139
245927.41796875 3357345.84024048 17.21292877 26 36 38
245949.01586914 3357343.91851807 20.20343590 215 229 238
245946.68072510 3357343.04180908 18.98438454 123 129 127
245950.49725342 3357345.03701782 17.29396248 25 29 28
245937.62390137 3357345.59298706 20.24589157 210 228 242
245938.88513184 3357345.98886108 17.13581848 32 36 35
245939.26031494 3357346.28500366 19.80741310 228 239 245
245948.30438232 3357345.53482056 18.00698280 109 127 129
245943.95849609 3357345.49768066 18.18887901 111 126 129
245935.42980957 3357345.13079834 20.37035942 236 246 248
245948.41943359 3357346.07589722 19.70755959 233 242 249
245950.32653809 3357345.18066406 16.84455681 29 45 44
245927.75805664 3357346.08010864 19.02573013 16 28 28
245939.20660400 3357345.78912354 18.66952324 45 59 59
245927.51831055 3357343.47521973 21.71623993 64 77 34
245946.64068604 3357343.37963867 18.47927666 159 168 165
245955.78759766 3357343.20468140 17.07712746 142 137 118
245948.03820801 3357344.32870483 20.42458534 244 254 255
245923.33502197 3357345.22131348 20.02340508 228 228 230
245956.85534668 3357343.28527832 17.95500946 72 97 91
245929.90228271 3357343.85083008 20.33154488 201 219 229
245933.54492188 3357345.80279541 17.58259392 18 27 26
245949.86547852 3357343.25564575 17.96874428 192 196 195
245926.11791992 3357346.55609131 17.27134705 29 50 53
245945.99633789 3357346.05224609 17.66159821 63 82 80
245954.46319580 3357345.73281860 17.26132393 68 79 83
245935.48999023 3357346.11239624 20.00958824 225 238 246
245942.02801514 3357346.02313232 18.93999863 39 49 51
245925.46679688 3357345.10748291 20.82245064 205 228 236
245925.01690674 3357343.51913452 21.86447144 20 32 20
245927.77404785 3357345.77380371 20.31686974 253 255 254
245932.33203125 3357344.56558228 20.65541840 229 233 234
245959.69207764 3357345.52078247 17.12211800 1 37 33
245928.99774170 3357346.62878418 19.82067490 120 121 123
245938.89685059 3357346.33215332 19.75534058 227 240 246
245955.71972656 3357343.56332397 17.27936363 40 37 32
245926.65966797 3357345.98220825 18.91222382 64 70 66
245934.79437256 3357343.17120361 21.50736618 26 50 26
245923.32672119 3357344.85287476 20.04888344 236 236 236
245959.63940430 3357343.40353394 17.02613831 25 34 33
245927.62927246 3357344.40783691 20.34892082 242 244 241
245933.79479980 3357346.15783691 17.16024780 41 53 51
245923.09796143 3357345.95108032 19.78454208 36 47 43
245940.80700684 3357345.37646484 20.36006927 229 242 248
245943.34777832 3357345.23413086 17.07522964 48 62 62
245953.63397217 3357346.01184082 18.95711136 97 115 119
245933.51031494 3357345.77752686 17.78397369 14 24 23
245933.07525635 3357346.26831055 17.15774727 42 58 57
245934.95788574 3357343.38613892 19.87075996 201 214 220
245943.64520264 3357343.17974854 19.82278824 218 233 238
245939.52160645 3357344.46160889 20.33233452 227 232 238
245947.19610596 3357342.37927246 16.89574051 87 106 100
245956.73815918 3357345.14486694 18.12073517 177 182 178
245935.08288574 3357346.07180786 18.88076782 56 66 67
245924.06121826 3357346.03228760 17.29482841 67 88 83
245932.61547852 3357346.85025024 16.89700508 158 179 174
245936.13958740 3357342.91677856 19.68396378 62 73 69
245960.48937988 3357342.47302246 19.09004593 164 168 167
245934.77313232 3357345.31030273 18.07817650 140 148 151
245945.50286865 3357342.99392700 17.30217361 51 83 78
245945.03845215 3357346.30401611 16.80948639 42 64 62
245946.57550049 3357342.72570801 19.60894012 239 245 245
245953.09967041 3357343.79818726 20.21637154 214 233 240
245956.09405518 3357344.34548950 20.66118622 248 253 249
245935.88500977 3357344.58001709 20.42652512 226 234 237
245943.16705322 3357343.30349731 19.84593010 226 241 248
245954.78125000 3357345.73278809 19.76232910 239 249 251
245950.60449219 3357345.74642944 18.79697418 201 210 209
245954.13006592 3357345.87023926 17.51959991 231 241 242
245922.44097900 3357343.73782349 19.18136787 26 42 39
245958.81213379 3357345.17770386 17.79523849 16 26 27
245943.64416504 3357342.27990723 16.89955711 208 212 213
245956.14141846 3357343.96725464 20.28272057 243 247 250
245954.15563965 3357343.49606323 16.68608856 129 143 143
245959.42987061 3357345.46392822 16.93298531 18 29 31
245939.14825439 3357343.18661499 20.12886620 104 115 98
245957.34674072 3357345.50708008 17.04987907 40 45 48
245941.80773926 3357342.87789917 19.63908005 50 62 62
245948.39752197 3357345.35430908 20.15499115 228 238 239
245931.25079346 3357343.36541748 20.43840027 40 50 42
245936.58892822 3357345.66806030 18.29596329 150 156 156
245962.18658447 3357342.39584351 17.74625015 147 163 160
245938.09576416 3357346.00900269 18.49558067 127 136 135
245930.73413086 3357343.38580322 21.79006195 110 108 93
245925.76489258 3357345.59091187 17.29045296 29 39 40
245936.84570313 3357345.82104492 18.46897888 147 156 155
245940.81750488 3357343.48309326 19.96980667 196 220 230
245937.45495605 3357346.30661011 19.07292366 110 121 123
245945.88970947 3357344.90295410 20.17293739 220 234 243
245958.11004639 3357345.46057129 17.02428055 20 28 31
245942.45916748 3357346.33889771 19.70418549 224 237 245
245949.46551514 3357345.83587646 18.75372314 122 136 139
245934.71984863 3357345.52902222 18.46381950 64 70 70
245954.56121826 3357345.31753540 17.16256714 21 31 40
245943.19586182 3357344.59832764 20.21498299 227 236 245
245938.57781982 3357345.39834595 20.21956825 226 239 247
245940.15209961 3357345.99322510 17.12538910 27 41 42
245923.25817871 3357345.84118652 19.90977669 200 216 216
245924.56170654 3357346.56567383 19.39223099 48 56 58
245961.35058594 3357342.61169434 18.43000221 36 63 54
245961.79089355 3357342.46038818 16.93324471 54 91 83
245944.94207764 3357344.83718872 20.58854294 194 224 234
245924.52758789 3357345.94320679 20.50077248 231 236 240
245929.86950684 3357346.05364990 17.34807014 22 30 32
245947.82238770 3357345.61380005 17.84266472 94 108 111
245927.64447021 3357343.40921021 20.47294807 44 46 41
245922.72528076 3357343.34707642 19.60561752 100 110 109
245940.46508789 3357345.52621460 20.24104881 231 242 248
245949.14935303 3357342.70794678 19.28890419 14 23 22
245937.57586670 3357344.73214722 20.47658348 201 221 232
245931.96026611 3357346.63024902 16.85150337 74 84 83
245936.57061768 3357343.84573364 20.18609238 196 209 217
245928.75006104 3357345.69363403 17.17398071 33 41 43
245953.18402100 3357346.09143066 19.20312500 68 76 87
245929.27673340 3357344.44091797 20.79872322 197 214 221
245952.64654541 3357345.90487671 17.54247475 33 58 54
245933.23535156 3357346.51406860 16.96508598 48 68 67
245933.62164307 3357343.43688965 19.98406601 204 216 216
245924.47680664 3357344.76574707 20.71152306 254 254 254
245952.90686035 3357342.93301392 18.85599518 66 79 72
245940.77368164 3357345.87796021 17.01317978 21 33 31
245961.75927734 3357342.78253174 17.57412720 67 90 84
245961.99865723 3357341.98153687 18.03997040 118 116 103
245954.26989746 3357344.45938110 20.07694244 231 240 247
245959.10449219 3357345.89691162 18.53404427 152 158 154
245933.91497803 3357345.51971436 17.46474266 35 40 43
245927.07324219 3357343.68298340 20.08419228 232 238 238
245948.65490723 3357343.41839600 16.94275665 34 54 52
245950.51971436 3357345.41571045 19.99073029 234 241 249
245955.09973145 3357342.76138306 19.13625526 219 220 222
245922.92553711 3357347.23031616 19.49708176 44 59 56
245948.28814697 3357343.26562500 18.55687523 35 47 43
245953.21539307 3357345.99526978 17.22607422 57 73 73
245933.88549805 3357346.14288330 19.91829300 234 245 249
245935.13330078 3357345.68304443 20.11616135 236 247 253
245954.85363770 3357345.98150635 19.15770531 118 132 132
245942.52844238 3357346.10403442 19.03136826 95 116 117
245935.54382324 3357346.41531372 19.84673309 230 241 245
245931.89831543 3357344.50762939 20.44142723 228 232 235
245960.23919678 3357343.79901123 20.33789825 248 250 249
245950.35620117 3357346.25592041 19.22226715 246 248 247
245953.02319336 3357346.43707275 16.69047546 102 121 117
245937.93273926 3357344.63775635 20.36684608 204 227 235
245923.73260498 3357344.46087646 20.29504967 234 234 236
245943.22125244 3357343.28027344 17.58592606 19 24 28
245926.60961914 3357344.72140503 20.40922165 219 227 230
245955.90631104 3357344.82965088 17.57521057 91 94 99
245940.38854980 3357345.89767456 18.80783463 56 68 66
245940.48748779 3357342.64645386 19.45386887 21 40 34
245955.41455078 3357343.19155884 19.88960266 234 240 240
245933.52642822 3357345.76791382 17.95496178 13 25 25
245926.58709717 3357346.50402832 17.03659630 49 73 77
245924.63989258 3357345.14715576 20.97072411 254 255 255
245942.00299072 3357343.05340576 17.20204735 38 60 57
245957.55645752 3357344.87387085 16.98599243 51 65 65
245942.44842529 3357342.61727905 19.44124985 136 129 123
245953.30987549 3357344.70764160 20.30548859 207 231 241
245949.50756836 3357345.70761108 18.61627388 122 133 135
245952.41546631 3357343.87561035 20.31675529 230 237 243
245943.79333496 3357343.31842041 17.92420006 54 65 67
245943.22174072 3357345.36001587 18.31707764 144 149 155
245925.82598877 3357346.71374512 16.98356247 60 74 75
245961.87469482 3357341.90844727 17.06590652 34 63 58
245936.19842529 3357345.40658569 20.43111229 231 240 247
245948.54449463 3357343.65570068 17.08373451 39 49 50
245927.87750244 3357343.40994263 20.52369881 38 41 30
245948.03955078 3357344.13409424 20.31672287 233 244 248
245942.93969727 3357345.46365356 16.80613899 154 163 160
245952.87060547 3357346.30612183 16.72682953 204 215 211
245955.44232178 3357345.56961060 19.88485718 234 242 245
245958.49890137 3357342.61938477 16.75751114 60 95 88
245942.06744385 3357346.17047119 16.76543808 42 68 65
245956.06048584 3357345.00256348 17.12086105 33 45 43
245955.51269531 3357345.46908569 16.88186836 27 37 38
245928.07110596 3357346.55508423 16.86740685 38 64 65
245941.56805420 3357342.51229858 18.09841537 49 68 64
245951.78973389 3357345.78225708 17.19069672 26 42 41
245944.89538574 3357346.03573608 16.91887856 36 71 65
245955.14593506 3357345.81927490 16.87787056 97 107 106
245930.72265625 3357343.21157837 19.85808182 215 220 216
245942.95953369 3357345.46609497 16.80411339 133 144 140
245925.81488037 3357346.71286011 16.98375511 62 76 77
245932.34600830 3357345.97186279 20.15870667 231 240 247
245956.15185547 3357344.11761475 20.41264534 251 255 255
245941.61572266 3357342.67059326 19.31236267 32 54 51
245960.65484619 3357345.40866089 19.79446220 233 242 247
245942.58233643 3357342.57485962 18.88669014 38 44 44
245934.77301025 3357346.80554199 19.52396965 215 225 227
245936.75738525 3357346.41644287 19.82476616 228 241 249
245938.71301270 3357345.47735596 20.18796730 227 240 248
245942.19836426 3357344.72247314 20.31234360 221 241 250
245941.14270020 3357344.95529175 17.82107544 117 122 126
245954.72766113 3357344.49835205 20.08003998 232 243 247
245954.11883545 3357345.60238647 18.45788193 128 140 140
245947.94335938 3357343.63491821 18.07927704 220 222 221
245949.66064453 3357343.91073608 20.10757446 227 235 248
245929.59924316 3357345.88259888 20.25139236 235 239 250
245956.43267822 3357343.23852539 18.15287590 200 215 210
245941.54663086 3357343.32913208 19.80385780 216 234 246
245953.00634766 3357343.35894775 17.90571213 60 69 66
245929.83734131 3357344.97863770 18.47010612 125 134 133
245939.24932861 3357342.74627686 19.91188622 65 73 58
245938.19482422 3357346.22442627 17.26462173 40 60 59
245934.87084961 3357346.48431396 19.27099991 177 186 185
245957.42346191 3357345.38952637 16.87747002 126 130 131
245934.32769775 3357345.31405640 17.82339096 27 37 38
245957.60284424 3357346.09259033 19.41085052 157 161 172
245957.65362549 3357345.25369263 16.90571594 52 62 63
245943.37866211 3357343.53427124 19.97956085 221 235 244
245955.04064941 3357342.26235962 16.69024467 76 100 87
245935.47381592 3357346.33074951 16.82464409 50 70 69
245931.13555908 3357343.99688721 20.31602478 222 232 233
245949.50122070 3357342.30548096 16.82243538 37 67 59
245948.88427734 3357345.23065186 17.66758347 59 75 75
245952.05932617 3357342.97070313 19.75960922 234 242 245
245948.79315186 3357343.33114624 19.89394188 234 241 247
245934.53143311 3357345.70077515 18.62445641 68 72 73
245949.71173096 3357345.47625732 17.05627251 42 54 54
245926.75195313 3357344.96838379 17.26362801 30 38 41
245946.99548340 3357342.15359497 17.13975143 177 195 197
245953.23474121 3357343.60012817 20.08823776 213 230 237
245925.03082275 3357343.77792358 20.17781639 232 234 231
245951.51989746 3357345.58203125 17.28112793 30 34 35
245941.20080566 3357342.56552124 19.07812500 15 34 40
245946.84655762 3357342.91162109 17.17827225 32 37 40
245943.93200684 3357342.83468628 19.08605766 27 28 32
245953.20837402 3357345.75177002 19.81634521 221 239 243
245949.53747559 3357345.75665283 19.87983131 227 240 248
245960.11547852 3357342.63693237 16.61723518 193 204 196
245950.95495605 3357343.41180420 17.67095184 19 21 20
245929.53857422 3357345.17239380 18.65042305 75 88 81
245927.80877686 3357343.59127808 22.37915993 109 122 76
245941.17272949 3357342.91784668 19.51144600 96 105 104
245941.08361816 3357345.51162720 18.46715355 67 75 77
245947.47991943 3357345.72882080 18.23730087 65 80 75
245959.73571777 3357345.60253906 17.21122551 83 116 109
245928.93658447 3357346.39175415 16.90390205 35 67 66
245924.52276611 3357346.70874023 19.59890366 201 210 227
245944.92224121 3357342.93972778 17.86654854 40 58 58
245930.89202881 3357346.30734253 17.40578079 177 183 179
245947.20434570 3357343.60092163 17.31384850 32 42 43
245923.42919922 3357346.37026978 18.24365425 78 94 91
245947.48260498 3357346.12960815 16.99181747 41 63 61
245955.35955811 3357345.99697876 16.77439690 36 63 58
245959.56628418 3357342.64852905 19.47054482 218 222 225
245925.44818115 3357346.23294067 17.23936462 29 40 42
245949.02056885 3357343.30755615 17.14040375 36 38 35
245954.00439453 3357344.50463867 20.10634422 222 237 244
245961.14739990 3357342.04394531 16.68429947 60 87 80
245938.45019531 3357343.08114624 19.72348785 195 215 222
245943.76104736 3357343.46865845 17.25372124 10 24 24
245952.72625732 3357345.99536133 18.89384270 80 85 88
245937.01318359 3357345.34371948 17.06640625 29 41 39
245928.00903320 3357344.65774536 20.55155182 238 242 241
245937.16046143 3357346.09420776 17.08666801 33 52 48
245948.97009277 3357342.01626587 17.03067207 51 90 89
245958.73883057 3357342.79403687 19.79824257 249 249 251
245953.40039063 3357343.17419434 18.00851822 237 237 235
245928.85113525 3357345.97152710 19.18124580 132 137 140
245959.09075928 3357345.70254517 19.70287514 228 236 239
245958.77581787 3357345.85470581 18.57853127 158 160 159
245941.94665527 3357342.96591187 17.40925026 39 68 63
245925.18383789 3357346.21502686 17.34821129 26 38 38
245942.80657959 3357343.52404785 16.70957565 115 124 121
245960.94982910 3357343.50439453 20.10638618 206 224 234
245934.65014648 3357343.13595581 21.03252029 31 45 20
245941.86145020 3357343.62652588 19.96819687 213 232 247
245955.76214600 3357343.70050049 17.45650482 66 68 65
245960.43041992 3357343.04748535 17.18660164 205 215 214
245957.32110596 3357343.14950562 17.93679047 61 67 67
245958.62860107 3357345.76727295 19.67730331 230 238 240
245930.05273438 3357346.52462769 19.82829857 242 247 250
245948.48956299 3357343.73806763 17.40766907 35 49 49
245931.26525879 3357345.34811401 20.32162285 234 245 249
245945.99737549 3357343.03668213 17.76738739 75 84 81
245929.21386719 3357346.09957886 19.26122284 127 132 135
245922.63250732 3357343.55014038 19.09356880 56 72 71
245950.34637451 3357345.09881592 16.96723175 116 124 127
245954.80352783 3357343.03546143 18.34086227 135 147 145
245943.10327148 3357343.42822266 16.95014763 76 85 84
245956.78729248 3357344.81579590 20.34407043 205 223 233
245940.33489990 3357345.97900391 18.90348434 58 70 68
245954.01629639 3357343.00381470 17.56568527 216 225 222
245923.55438232 3357346.71722412 19.92998314 223 232 239
245959.16442871 3357343.00543213 19.90064430 245 247 246
245955.52850342 3357345.70492554 19.02603912 133 148 145
245935.15716553 3357345.34109497 20.25190353 235 246 252
245961.10607910 3357345.85824585 18.89656830 72 96 82
245942.18939209 3357343.14501953 17.42153549 130 142 142
245958.28961182 3357342.10235596 16.73247910 41 84 77
245951.63446045 3357345.71118164 18.53376198 157 161 162
245958.82629395 3357343.09902954 19.88921547 248 250 249
245943.41577148 3357343.06976318 19.74656868 236 240 241
245923.41198730 3357346.33303833 18.14371681 77 93 92
245926.77386475 3357346.63879395 16.92809105 65 83 85
245934.03057861 3357346.42208862 16.87482452 47 68 69
245948.25158691 3357345.73669434 19.90079880 229 236 242
245952.72698975 3357345.97851563 17.37387276 40 60 59
245952.89331055 3357343.58163452 17.63721275 141 149 151
245956.00360107 3357344.22186279 20.44262505 250 254 253
245949.37792969 3357343.29681396 18.01108170 48 64 61
245929.30908203 3357345.22595215 18.61727142 63 74 70
245925.93316650 3357344.58132935 20.52193260 215 225 234
245924.56848145 3357343.44610596 20.26986504 72 74 61
245958.87695313 3357343.42062378 19.97928810 252 254 253
245945.02679443 3357344.15289307 20.40859222 204 232 235
245953.87988281 3357343.08071899 17.04393387 30 32 29
245953.31604004 3357345.96704102 19.60645485 223 238 245
245936.37536621 3357344.78097534 20.78802872 238 242 243
245945.77026367 3357344.10766602 20.16506958 214 235 240
245936.11419678 3357345.03045654 20.56448746 236 244 246
245949.66210938 3357344.92837524 20.16244507 222 232 244
245941.53448486 3357342.79217529 16.74730301 180 181 176
245949.46258545 3357343.30813599 17.95606232 44 63 61
245933.00744629 3357346.44976807 19.46222878 154 165 167
245948.72058105 3357343.28137207 19.87858200 232 242 244
245941.23126221 3357345.12939453 17.38484383 19 33 33
245934.71667480 3357345.73358154 20.09105492 229 242 250
245943.92785645 3357345.79266357 18.61299324 139 154 159
245955.94750977 3357345.32574463 18.51691437 141 145 144
245927.48034668 3357345.45541382 18.51273346 46 52 52
245936.58264160 3357346.02999878 18.89462662 73 75 74
245948.02862549 3357346.10476685 16.93305206 50 68 68
245958.35046387 3357346.25436401 16.56710434 96 122 123
245960.07110596 3357343.74426270 20.27216148 250 250 248
245924.54577637 3357345.48010254 17.19844246 45 40 46
245928.02264404 3357343.94476318 23.17525673 109 117 78
245940.61163330 3357344.96911621 20.76575851 219 234 241
245959.69708252 3357342.69958496 18.98207474 96 91 85
245952.64752197 3357343.62515259 20.12512016 229 240 246
245944.79595947 3357345.56893921 18.08827400 166 177 181
245927.53924561 3357345.78613281 17.20637703 12 23 25
245943.45306396 3357342.46884155 16.84881592 90 119 115
245947.88073730 3357342.49932861 16.75147247 92 102 91
245923.25543213 3357345.42919922 19.84674072 143 153 152
245951.68493652 3357345.86856079 19.83179283 234 243 248
245934.67181396 3357346.63073730 19.73422813 233 240 246
245927.21844482 3357343.45413208 21.82353783 59 74 33
245946.51922607 3357342.10882568 17.02015686 125 143 143
245946.32720947 3357343.73583984 19.98478317 222 237 244
245936.72247314 3357343.16006470 19.81550217 39 43 42
245949.26672363 3357342.67337036 19.29037666 12 21 20
245950.38214111 3357342.88427734 16.68133736 59 94 90
245931.47589111 3357344.80670166 20.41254234 233 238 242
245944.32452393 3357343.20504761 19.87431335 235 243 245
245947.77404785 3357343.06484985 19.77229118 250 251 253
245923.68194580 3357346.62356567 17.06533813 56 82 79
245938.11340332 3357346.17013550 18.16443253 75 83 86
245942.26251221 3357345.15847778 18.04331398 172 173 175
245926.58294678 3357344.97207642 17.66236115 71 82 88
245960.83538818 3357345.88378906 19.44903564 169 169 171
245941.03997803 3357342.92303467 19.53312111 68 69 71
245931.46630859 3357346.42742920 19.40007591 152 172 183
245954.69879150 3357344.03640747 20.03014374 234 245 249
245930.06848145 3357346.95043945 16.79538155 62 87 91
245954.45404053 3357343.42837524 17.32356644 86 98 98
245943.28967285 3357345.75723267 19.99965286 227 236 243
245933.92254639 3357346.85824585 16.97419739 186 200 200
245935.72802734 3357345.90740967 17.09398270 36 46 47
245929.31463623 3357345.72546387 18.98691559 162 159 154
245942.95336914 3357343.30847168 17.52289200 30 40 39
245950.69537354 3357342.44827271 19.25149918 32 42 43
245955.21539307 3357345.74462891 19.02608871 106 126 127
245962.19836426 3357344.26010132 19.40583801 37 56 50
245946.58807373 3357342.84103394 17.10400391 59 80 75
245955.52227783 3357343.23107910 19.90370941 233 237 240
245944.86340332 3357345.28436279 20.31264877 219 232 240
245946.83459473 3357346.46633911 16.74966621 201 221 222
245928.25061035 3357343.42828369 21.38256073 142 149 108
245939.20422363 3357345.16513062 20.23355293 236 247 253
245948.73107910 3357343.31619263 16.87782288 34 60 57
245926.94268799 3357345.48333740 18.57968140 45 54 49
245932.99432373 3357345.83416748 18.62672806 66 74 76
245934.43176270 3357345.36904907 18.35593987 52 56 59
245934.17840576 3357344.41027832 20.31931877 206 226 235
245958.01153564 3357341.76702881 16.79810715 41 73 70
245951.67962646 3357344.07522583 20.25318146 243 251 254
245928.30456543 3357345.48797607 20.55852127 244 249 252
245930.16339111 3357346.12139893 20.05269623 236 241 247
245946.52148438 3357346.06359863 17.05622673 207 212 208
245926.99450684 3357347.09429932 16.83902550 29 65 65
245933.35351563 3357346.02999878 18.83843994 71 82 76
245955.39624023 3357345.15921021 18.33715439 93 97 100
245924.01519775 3357346.07879639 17.30036163 66 87 82
245950.79742432 3357344.78811646 20.16901779 233 243 252
245942.06518555 3357345.44122314 20.20067596 215 233 243
245927.33160400 3357345.56649780 17.32856369 28 35 41
245941.43609619 3357346.29479980 19.72880173 240 251 255
245959.51184082 3357345.29028320 17.15290260 25 29 30
245941.56219482 3357343.19778442 19.74333954 227 240 248
245936.39038086 3357345.72836304 18.50400543 132 138 136
245959.83673096 3357345.60113525 19.75225830 240 248 250
245953.75268555 3357345.56790161 19.84129715 218 235 243
245952.92626953 3357346.06945801 19.56527710 214 231 238
245943.18890381 3357344.20315552 20.16411591 228 241 249
245956.37976074 3357344.93603516 18.00027275 196 198 197
245933.28149414 3357345.49411011 20.37357330 219 233 244
245941.68524170 3357342.94128418 16.97924805 51 80 76
245943.96472168 3357345.29782104 20.33827782 229 238 245
245951.04663086 3357343.46905518 17.62333870 31 33 32
245954.94213867 3357345.98562622 16.80978394 45 59 60
245928.56359863 3357346.17584229 16.91374016 143 153 154
245941.22418213 3357342.59027100 17.78900719 53 65 53
245941.40484619 3357342.51748657 18.89233017 30 50 48
245926.52111816 3357343.38595581 21.17374992 110 121 61
245929.70605469 3357345.31994629 17.47349358 26 37 43
245956.04455566 3357345.00820923 18.16642570 160 165 159
245961.17626953 3357346.11737061 16.97473717 40 67 62
245956.13244629 3357343.29962158 18.14268684 140 104 108
245942.04229736 3357345.55520630 17.14479828 32 36 35
245950.30535889 3357342.68984985 16.68883514 231 233 232
245956.77313232 3357345.54199219 18.51196861 119 125 125
245939.10766602 3357345.98825073 17.15115738 42 48 46
245926.72833252 3357345.58758545 17.24380875 13 16 23
245957.17602539 3357345.29647827 18.16228676 161 163 162
245943.41827393 3357342.88534546 18.63626480 30 40 41
245941.88714600 3357345.99505615 16.95212936 94 109 102
245955.82257080 3357342.67196655 16.66064072 93 112 106
245944.04553223 3357346.02935791 18.91062546 116 129 135
245951.12066650 3357343.38757324 17.99905014 72 76 75
245951.74481201 3357345.55715942 18.13213348 152 152 152
245939.56103516 3357345.01553345 20.32436562 239 248 253
245950.91430664 3357342.95114136 18.55489922 73 77 76
245946.53210449 3357346.40542603 16.77449226 145 160 157
245931.81304932 3357344.73556519 20.46647835 231 239 241
245928.07794189 3357345.12979126 20.58640289 251 255 254
245961.43273926 3357342.57937622 18.43937302 35 62 55
245941.93121338 3357342.57363892 18.78676414 39 61 58
245953.16912842 3357345.74716187 18.48478889 113 129 129
245946.62103271 3357345.96520996 17.28446198 100 98 101
245947.66278076 3357345.55572510 20.01146317 228 237 246
245959.82928467 3357342.50762939 16.69403458 113 140 133
245926.47503662 3357344.98080444 17.64809418 55 66 72
245927.94451904 3357346.77572632 16.86891556 212 213 215
245935.62792969 3357346.51284790 16.88323402 56 75 71
245947.55810547 3357346.31768799 19.57704544 209 235 248
245928.53143311 3357345.02087402 20.89485931 252 252 252
245956.29974365 3357345.86300659 16.95881653 46 51 55
245930.83276367 3357346.32916260 16.98347473 167 176 173
245938.03839111 3357346.21392822 18.12922478 231 236 239
245961.33203125 3357344.29620361 19.90014458 215 228 236
245956.38708496 3357346.22415161 16.66934967 210 228 230
245945.85839844 3357345.99468994 17.78347778 71 91 90
245940.83374023 3357342.59454346 19.23671913 26 38 36
245937.16033936 3357343.16351318 19.80145073 98 99 103
245948.57012939 3357345.76931763 18.52475739 128 143 146
245937.31060791 3357344.34381104 20.45290375 189 217 231
245950.02398682 3357342.21224976 16.80001450 82 119 112
245950.10809326 3357343.41488647 17.30696678 200 202 201
245950.46063232 3357342.50668335 16.69234276 161 171 170
245942.63696289 3357345.03149414 17.47404289 20 24 27
245959.80377197 3357342.39486694 16.69931412 223 238 235
245935.91577148 3357343.40402222 22.67985535 36 60 26
245956.28643799 3357342.77545166 16.79560280 78 89 83
245938.89465332 3357345.97219849 19.95036507 233 243 252
245949.78344727 3357342.43969727 16.69029045 39 62 56
245935.83441162 3357346.88952637 16.95831299 94 124 122
245945.91339111 3357343.00555420 17.85190392 72 84 80
245958.12817383 3357345.49038696 17.01230621 14 24 26
245924.85931396 3357344.65597534 20.77026939 224 225 227
245942.46423340 3357346.27505493 19.74430275 220 237 244
245946.94232178 3357343.98535156 20.07022858 229 239 248
245956.89916992 3357342.72305298 18.98623466 60 58 61
245945.58728027 3357345.88940430 19.85336876 229 239 241
245945.40332031 3357343.01843262 17.07455063 52 87 83
245957.53454590 3357345.53210449 16.77459526 100 109 108
245950.97271729 3357345.78015137 19.84568787 239 246 252
245957.46014404 3357342.68148804 18.56552124 62 74 72
245937.55169678 3357345.70858765 17.31655312 65 77 77
245922.63592529 3357344.09896851 19.48269844 27 46 44
245932.56146240 3357343.53506470 20.27163506 67 66 61
245936.85357666 3357346.80319214 17.03889275 156 182 173
245933.70904541 3357345.12826538 20.40234947 212 230 240
245955.77368164 3357343.00091553 19.80356407 242 244 243
245947.56994629 3357342.88409424 17.07613754 201 189 173
245953.05053711 3357345.71948242 18.00925064 40 49 56
245948.29888916 3357346.10217285 18.92127800 91 101 103
245939.16680908 3357346.48104858 16.90785789 53 72 68
245957.69519043 3357341.79058838 16.80707741 42 71 67
245954.70220947 3357343.87457275 19.99079514 234 244 246
245932.26068115 3357344.97729492 20.65918541 248 254 254
245933.68975830 3357346.99108887 16.93671417 49 80 83
245961.33184814 3357344.30322266 19.89924812 215 228 236
245949.29516602 3357345.33148193 18.24047089 119 138 142
245934.61529541 3357345.90240479 20.04003143 229 242 250
245930.97955322 3357343.77050781 20.22388268 216 230 231
245924.43359375 3357344.92898560 20.73445129 246 250 249
245953.76312256 3357345.15274048 20.02864075 217 234 242
245951.01434326 3357345.74127197 16.68311501 163 175 173
245946.80499268 3357343.16473389 18.79609108 251 255 252
245960.70849609 3357342.18606567 16.69154358 51 92 84
245932.99865723 3357343.30133057 20.56672096 47 57 33
245947.35980225 3357342.93264771 19.68738365 254 254 254
245940.76318359 3357342.40124512 16.97394943 26 51 45
245958.34228516 3357343.55221558 19.98816299 249 250 254
245960.52423096 3357343.74670410 20.33827782 242 248 248
245939.03466797 3357345.28344727 20.19350433 233 244 250
245960.56890869 3357342.53247070 19.35796928 45 56 52
245928.63330078 3357346.56317139 16.82343864 58 79 80
245948.35675049 3357345.39498901 20.13212776 227 237 238
245957.93859863 3357346.18447876 16.68675995 194 206 206
245959.24029541 3357345.13015747 20.00833702 239 250 252
245958.06610107 3357345.55810547 16.96182632 16 27 31
245943.69799805 3357342.59323120 16.78931999 54 69 66
245953.09277344 3357345.87469482 18.71529007 128 133 137
245957.15106201 3357345.83343506 16.73664093 22 36 39
245940.58465576 3357343.37905884 19.89149284 198 216 226
245953.11804199 3357343.39355469 17.07662201 34 36 33
245923.37823486 3357343.75112915 22.41585732 108 122 99
245934.92767334 3357343.15835571 21.50973129 77 94 76
245958.69042969 3357342.63125610 19.62936401 253 255 254
245930.32775879 3357346.26065063 17.01995087 49 69 67
245923.25262451 3357345.44308472 19.83850479 178 190 190
245958.29345703 3357345.41149902 18.18820381 57 58 62
245942.85351563 3357342.78320313 18.55709648 35 47 47
245946.84466553 3357344.18774414 20.12730217 230 240 250
245930.95007324 3357345.81527710 20.19338989 232 245 253
245928.45056152 3357343.60903931 20.91666222 71 79 40
245940.82470703 3357344.99090576 17.28098297 25 35 36
245941.28936768 3357342.41461182 18.06460953 24 43 41
245958.34942627 3357344.23535156 20.14657784 239 247 250
245926.48529053 3357345.16531372 18.38556480 33 35 32
245934.68475342 3357345.43615723 17.22015381 72 79 85
245929.67950439 3357346.90701294 16.79560280 99 118 122
245961.29235840 3357343.24987793 17.03298569 92 98 98
245937.76263428 3357344.63046265 20.39951706 204 227 235
245943.97558594 3357344.45544434 20.45082092 234 242 245
245925.75933838 3357343.94610596 20.25037003 216 225 224
245932.50024414 3357344.80740356 20.84773445 236 242 242
245944.14593506 3357342.40264893 16.74217796 96 116 107
245929.12701416 3357345.26684570 17.44982910 23 37 40
245951.81512451 3357345.48220825 17.75958252 64 67 72
245951.58770752 3357342.65933228 16.71697617 217 236 232
245950.53399658 3357342.15777588 16.86475945 44 83 80
245940.77703857 3357346.31155396 19.74341774 224 237 245
245935.70709229 3357346.42300415 19.37619209 94 105 107
245933.82196045 3357343.24301147 19.98234749 61 63 58
245961.21301270 3357342.64236450 18.45452309 41 68 59
245943.79937744 3357343.02111816 19.51210785 240 229 233
245952.49816895 3357346.04504395 19.21938515 126 139 147
245949.53546143 3357345.20568848 18.24682617 145 161 161
245931.50860596 3357346.21322632 17.35473824 46 56 58
245935.61804199 3357343.90155029 20.13458824 207 220 229
245951.01287842 3357343.06640625 18.43780136 105 107 104
245952.12396240 3357343.29812622 19.91657829 228 238 247
245940.54321289 3357345.34542847 17.11420631 30 42 40
245942.44848633 3357343.42309570 16.77360916 67 81 81
245954.59375000 3357342.87677002 18.55778503 226 230 229
245953.79870605 3357342.93344116 16.87871933 185 189 166
245948.12664795 3357345.97500610 17.03637314 53 72 70
245950.56420898 3357345.17123413 16.81605911 41 60 58
245949.68310547 3357342.84738159 19.60245514 238 243 246
245933.19049072 3357345.74719238 18.22157860 100 115 120
245960.17095947 3357344.66098022 20.44032860 230 238 241
245924.04412842 3357345.77011108 17.53856659 87 96 91
245932.45581055 3357343.91815186 20.40952110 195 211 210
245932.57458496 3357343.24929810 21.36550522 74 80 54
245924.30108643 3357344.83242798 20.62216187 243 245 244
245925.13873291 3357346.73614502 19.84735870 85 94 111
245926.88134766 3357345.93856812 17.26761436 34 45 51
245924.48870850 3357344.96316528 20.77847099 245 247 244
245949.95056152 3357345.12432861 20.07650185 224 232 243
245952.04608154 3357346.00048828 19.12126350 96 105 112
245940.24731445 3357344.01019287 20.26093292 203 220 228
245934.80914307 3357345.23950195 17.75619698 87 92 95
245946.83795166 3357343.56924438 17.31056976 21 26 29
245955.30621338 3357342.75625610 19.61124420 255 253 254
245932.75531006 3357346.54748535 19.80663681 238 243 249
245950.84417725 3357343.22555542 17.56972694 31 35 34
245939.35815430 3357344.24227905 20.25893593 218 227 232
245953.16632080 3357345.73049927 18.44338799 96 116 114
245950.89306641 3357343.06719971 19.84164238 236 246 247
245951.01788330 3357346.26852417 19.53780746 206 217 219
245953.12060547 3357343.72222900 20.16714668 212 231 238
245949.58123779 3357342.63354492 19.14456749 41 45 44
245946.14123535 3357344.71667480 20.14445305 227 237 246
245956.11889648 3357342.90747070 16.75488091 111 132 125
245929.38330078 3357346.38406372 19.43391418 114 119 122
245926.43908691 3357345.13046265 20.42521477 220 233 242
245935.00061035 3357344.71691895 20.29739761 221 236 243
245938.24896240 3357345.92340088 18.39268684 94 104 105
245957.76635742 3357344.94589233 17.33813095 36 37 41
245935.20391846 3357345.93426514 17.07979584 21 27 27
245952.90466309 3357345.91659546 17.57820892 43 61 61
245951.31182861 3357343.29837036 18.21441078 54 58 57
245936.36132813 3357344.82922363 20.78385544 238 243 246
245939.17633057 3357345.78421021 17.27186394 37 43 43
245951.25152588 3357345.28930664 17.36467552 37 42 45
245954.53234863 3357345.33352661 17.17999840 32 43 49
245954.27447510 3357345.40756226 17.95794487 106 116 126
245942.13598633 3357342.60046387 19.22840881 30 53 47
245960.31805420 3357345.63732910 17.55386162 42 54 54
245956.17382813 3357343.72790527 17.16645432 28 27 23
245952.01586914 3357342.83398438 19.60374451 233 237 240
245950.62347412 3357345.93963623 19.74824142 242 250 253
245936.78192139 3357343.96661377 20.25768089 190 204 215
245959.46594238 3357345.23635864 17.24212646 28 32 33
245954.76599121 3357343.54113770 19.91665649 234 243 248
245924.42993164 3357345.56384277 17.28003502 90 69 78
245947.55175781 3357343.76373291 17.76901817 27 31 32
245955.60382080 3357343.57565308 17.31303787 81 78 71
245942.99407959 3357346.22781372 16.71991920 55 71 70
245943.86895752 3357345.86624146 16.85575104 41 66 62
245926.28088379 3357346.37255859 17.22550774 32 53 54
245953.28735352 3357344.63336182 20.32958603 206 233 244
245943.49383545 3357342.94079590 18.53206253 37 47 48
245932.73516846 3357347.01705933 16.89858437 52 82 80
245924.22827148 3357347.17089844 16.91951370 44 80 80
245951.33215332 3357342.98147583 17.08602142 38 57 55
245930.71844482 3357346.00924683 17.10081673 99 109 108
245944.87756348 3357342.97149658 17.70930672 41 61 60
245946.40710449 3357342.92849731 17.19455147 30 44 45
245935.00653076 3357346.96554565 16.92472076 46 76 78
245960.73986816 3357342.61245728 18.75280380 168 170 169
245951.07153320 3357343.03979492 18.49621391 160 162 157
245949.35388184 3357344.69848633 20.28930473 218 235 243
245950.48992920 3357345.82119751 18.86396027 134 141 147
245941.12829590 3357342.34216309 16.92902184 30 56 53
245935.28771973 3357345.30792236 17.36141586 74 75 77
245961.40740967 3357342.01443481 16.73310661 41 71 63
245935.91156006 3357346.43707275 19.43695259 193 197 200
245949.66839600 3357343.01248169 18.33823204 21 32 28
245940.23797607 3357342.96936035 19.66272163 56 57 59
245928.02838135 3357344.14395142 20.38280106 217 223 219
245949.38525391 3357345.23248291 18.20428085 137 157 156
245948.84686279 3357343.49645996 17.14052582 37 47 48
245941.03204346 3357345.70809937 18.61743355 31 41 42
245958.38983154 3357342.74172974 16.88181686 131 132 124
245958.35650635 3357343.47137451 19.96258545 247 248 250
245942.98895264 3357345.95767212 19.90325356 227 238 242
245944.99456787 3357344.20068359 20.44702530 203 231 234
245947.75256348 3357343.45196533 18.37411690 147 151 150
245960.82220459 3357342.56890869 19.51107979 252 252 250
245934.19311523 3357343.21765137 21.32029915 63 77 44
245950.09796143 3357345.37292480 16.81530380 37 46 51
245957.64141846 3357342.35372925 19.07900620 55 71 70
245934.55145264 3357343.27267456 21.62431526 38 59 40
245930.32391357 3357345.95199585 18.82561874 47 56 55
245951.06427002 3357342.83743286 17.40146637 33 29 28
245944.03472900 3357345.27395630 17.36127090 36 47 51
245932.50280762 3357346.57379150 19.74167442 161 166 170
245958.92291260 3357341.83657837 16.96422577 37 72 68
245953.54797363 3357343.77093506 20.13066483 218 235 242
245926.94891357 3357345.04751587 17.71345139 133 139 151
245961.48309326 3357342.33981323 19.32922935 77 86 83
245929.57507324 3357345.36468506 20.54820824 211 228 238
245936.42254639 3357344.32894897 20.55074883 193 204 208
245956.43225098 3357342.99783325 16.92221642 157 150 140
245936.09222412 3357346.11230469 17.15292168 31 41 40
245960.81744385 3357343.33724976 17.35994720 31 48 42
245950.30963135 3357343.50970459 19.92964745 232 241 248
245951.61627197 3357343.15295410 18.54641533 72 74 73
245959.50195313 3357343.08572388 18.00025177 109 118 127
245947.61889648 3357343.90737915 20.10998344 234 245 249
245957.28057861 3357346.16400146 16.79315567 51 61 62
245949.76550293 3357342.61108398 19.39029503 45 61 60
245949.45056152 3357345.53247070 18.45481110 126 141 144
245925.99426270 3357346.69311523 19.58423233 159 168 175
245923.26464844 3357346.96322632 19.21385193 50 65 60
245928.33441162 3357345.17166138 18.12198830 153 156 163
245951.82086182 3357346.07058716 16.81323242 47 72 69
245948.79443359 3357342.91732788 19.64368057 242 243 245
245953.68865967 3357345.21450806 20.01657104 218 235 243
245936.52911377 3357345.16754150 20.70525551 220 231 235
245930.25750732 3357345.86990356 18.76370811 75 83 85
245954.84118652 3357343.41757202 17.33158875 88 96 98
245941.65045166 3357343.10232544 19.70534325 237 242 248
245928.20941162 3357346.09695435 17.01558304 86 94 96
245944.19836426 3357345.26528931 17.64422798 48 68 69
245929.37530518 3357346.89297485 16.79553604 149 169 170
245934.47430420 3357345.27511597 18.03901672 141 148 154
245942.24145508 3357344.04653931 20.14706421 219 241 254
245925.46875000 3357345.92044067 17.30960464 30 40 41
245949.11846924 3357342.76379395 19.01166725 43 53 52
245923.27349854 3357344.69345093 19.97332764 233 235 234
245958.29650879 3357343.39468384 19.93430519 246 247 249
245944.49993896 3357344.31127930 20.66076660 220 231 235
245958.65460205 3357342.71173096 18.49519539 152 144 121
245946.95660400 3357342.38363647 16.88489914 77 98 91
245932.27435303 3357343.47488403 20.73379898 80 85 65
245939.79736328 3357345.17440796 17.96798515 111 119 121
245929.69317627 3357344.95593262 20.65507889 207 224 231
245958.38806152 3357342.20501709 16.70565796 56 83 78
245953.95574951 3357346.18914795 19.13341904 81 96 99
245938.37451172 3357346.29208374 16.97569084 64 85 80
245942.67926025 3357345.80078125 16.73961067 105 114 111
245953.95300293 3357345.62246704 18.16310120 153 160 152
245951.30401611 3357346.16964722 19.47198105 150 169 176
245946.71466064 3357345.74816895 17.76779366 79 94 99
245957.51684570 3357343.29840088 16.87841797 61 70 67
245960.86175537 3357345.61038208 17.65801430 38 63 59
245931.05352783 3357343.86883545 20.27207756 216 230 233
245941.67431641 3357345.83023071 16.98538208 34 50 49
245961.53973389 3357342.65750122 18.22811127 51 77 68
245942.83178711 3357346.10855103 19.06566620 146 165 159
245951.42211914 3357342.47573853 16.69787216 134 145 137
245953.98132324 3357345.64395142 18.38163757 62 72 73
245936.11065674 3357346.70507813 16.97310829 165 180 173
245946.14813232 3357342.91531372 19.65432739 246 252 250
245954.83471680 3357345.41549683 17.14744568 24 29 33
245927.09454346 3357346.44515991 19.14178658 41 51 53
245922.56933594 3357343.55865479 19.08132172 83 99 98
245950.80871582 3357343.00112915 16.66675186 217 221 220
245952.82861328 3357345.09539795 20.26361275 217 236 243
245925.70843506 3357346.46701050 19.33940315 43 53 55
245940.70593262 3357345.05453491 17.15493965 98 112 112
245930.51458740 3357346.58029175 19.40317154 130 148 150
245935.10247803 3357343.66870117 22.68608856 108 130 66
245956.93963623 3357343.33602905 16.98538780 37 42 38
