246067.80786133 3357554.88146973 15.83401203 43 136 205
246066.42578125 3357537.97985840 13.68734360 208 62 62
246061.52648926 3357546.49322510 14.37228203 70 61 66
246064.63903809 3357544.24017334 13.55453300 195 189 191
246067.46386719 3357538.93792725 14.05275822 174 96 94
246060.37951660 3357542.77075195 13.62038994 101 108 114
246067.76245117 3357554.88104248 15.64700127 116 162 178
246066.14013672 3357540.49621582 13.54444313 210 205 209
246060.21459961 3357540.90808105 14.10705948 84 85 87
246061.63232422 3357542.80346680 13.58817673 159 160 155
246062.85473633 3357544.14770508 13.58798313 142 90 94
246063.82507324 3357545.12579346 13.54701996 145 144 142
246061.94604492 3357539.34222412 13.68871593 119 120 124
246060.35864258 3357547.20886230 14.34887886 25 29 32
246068.39782715 3357555.75878906 13.49699497 137 128 133
246060.98828125 3357536.85827637 13.71328831 56 68 82
246067.08947754 3357554.17004395 16.36977386 28 155 226
246061.99755859 3357542.75109863 13.62089252 163 159 156
246066.44750977 3357555.50695801 15.49622726 127 127 127
246067.24072266 3357538.15985107 13.60337734 130 145 150
246060.58935547 3357538.45373535 13.68630409 193 197 198
246063.95397949 3357541.92651367 13.56976891 155 160 156
246060.83081055 3357540.24291992 14.72229767 48 112 183
246064.35937500 3357544.14575195 18.46792221 68 71 76
246061.78771973 3357541.21630859 15.11501122 84 94 104
246064.84118652 3357545.87927246 13.56473541 150 138 138
246065.80700684 3357543.19354248 13.51027298 194 185 186
246067.20764160 3357547.88720703 13.64449120 97 26 40
246060.62182617 3357544.74938965 13.58056927 76 77 81
246068.17150879 3357556.88256836 13.43185711 230 239 234
246063.35473633 3357544.51104736 13.53869534 174 169 166
246068.93249512 3357554.24963379 13.67518330 132 133 135
246062.60095215 3357542.73852539 13.82637501 189 111 107
246066.23229980 3357544.66937256 13.50887680 202 193 196
246067.98815918 3357544.98254395 13.52075768 167 165 166
246067.02014160 3357555.19085693 13.71683884 50 107 176
246061.84692383 3357542.36993408 13.57944298 153 154 148
246062.41174316 3357540.35369873 13.62287617 118 120 117
246064.67395020 3357545.89575195 13.56827354 173 161 161
246066.51989746 3357547.55725098 13.60829830 93 21 35
246060.38720703 3357540.02838135 14.35152531 85 85 95
246067.43676758 3357544.01013184 13.49815750 208 193 198
246067.79174805 3357554.91021729 15.68488026 95 164 195
246061.80236816 3357546.53417969 13.72477722 95 112 119
246064.76232910 3357546.62231445 13.56393242 166 141 145
246061.18298340 3357538.59472656 13.67629528 194 204 206
246063.16992188 3357538.65191650 14.09510422 185 218 225
246063.00549316 3357542.48681641 13.69124985 179 159 160
246067.01513672 3357554.44342041 16.47687531 4 99 189
246065.50976563 3357547.27777100 13.53591919 145 87 99
246063.90600586 3357537.96258545 13.58076286 157 160 153
246065.74328613 3357546.15319824 13.55743122 193 174 178
246060.71704102 3357541.10424805 13.83019447 126 139 145
246060.66931152 3357547.38470459 13.88884830 48 55 63
246065.35998535 3357545.04504395 13.53126335 178 172 176
246068.51940918 3357543.93511963 13.50607395 163 163 173
246061.17993164 3357539.41772461 13.82166290 210 209 214
246060.58874512 3357541.76422119 13.85800934 178 178 170
246061.46325684 3357539.98809814 13.76419163 131 135 134
246067.12988281 3357555.72686768 15.73564911 49 158 217
246065.23327637 3357544.22961426 13.51667690 185 177 175
246064.91528320 3357543.28479004 13.55479240 187 183 184
246061.87805176 3357543.73864746 13.56184673 143 142 147
246061.43994141 3357546.23016357 14.31637096 156 78 94
246065.53918457 3357539.35302734 13.91489124 151 34 50
246062.56970215 3357546.81109619 13.60805416 144 152 155
246065.76818848 3357547.76184082 13.57078362 122 54 65
246060.57141113 3357542.45507813 13.61417484 182 178 175
246060.86022949 3357536.93499756 14.52754116 72 71 77
246060.25952148 3357547.54785156 14.17481899 21 26 32
246061.14916992 3357545.29406738 13.60672855 87 101 104
246066.74194336 3357541.02868652 13.56611633 176 177 179
246063.91162109 3357540.75390625 13.58469582 161 165 166
246065.57348633 3357548.28955078 13.64282131 111 32 37
246064.28942871 3357542.00036621 13.52462387 156 162 160
246068.29089355 3357541.43499756 13.68669701 78 26 38
246067.05236816 3357543.03350830 13.50600243 176 155 160
246066.49438477 3357539.88482666 13.89839172 159 96 105
246067.11584473 3357541.53692627 13.48867607 176 170 170
246066.68505859 3357553.68145752 13.49017906 165 167 162
246060.32971191 3357540.62017822 14.09828568 105 130 170
246060.49719238 3357539.28326416 13.75927544 203 204 206
246068.59460449 3357556.53668213 13.43025684 110 131 148
246060.30432129 3357543.75280762 13.65167141 91 98 104
246066.60034180 3357555.18225098 15.45307922 128 128 128
246060.88403320 3357541.05371094 13.69874763 147 152 156
246061.87072754 3357537.14294434 13.75719452 65 88 168
246062.12304688 3357545.90478516 13.62359047 153 157 156
246063.36157227 3357545.84436035 13.52975941 161 166 162
246066.71667480 3357554.10705566 16.23737907 66 221 252
246064.36108398 3357546.22863770 13.56998444 159 147 147
246063.56408691 3357542.46093750 13.57136250 196 196 198
246064.18090820 3357541.20874023 13.58477306 160 164 163
246067.96252441 3357553.87725830 15.74071693 41 146 203
246066.77050781 3357538.92785645 14.06217384 206 78 77
246060.64440918 3357540.11303711 13.94050217 72 73 75
246061.78015137 3357540.09954834 13.69327736 146 152 152
246066.33239746 3357541.68017578 13.61657047 202 204 203
246060.93615723 3357540.08166504 14.67273521 172 190 210
246064.98034668 3357542.90301514 13.53424072 195 193 194
246063.05712891 3357545.88330078 13.55807686 142 144 143
246066.62646484 3357546.95178223 13.67237663 164 135 140
246063.78527832 3357538.28125000 13.60473347 162 167 160
246066.47900391 3357546.99310303 13.72011566 178 145 152
246068.62890625 3357557.07965088 13.43629456 145 164 171
246064.08666992 3357546.72613525 13.53064728 146 142 141
246068.19787598 3357545.69873047 14.18042374 72 49 55
246061.28637695 3357541.37402344 13.60443783 144 150 146
246066.38110352 3357554.50903320 16.17933273 135 238 253
246068.02038574 3357545.82897949 13.54199600 162 160 161
246066.01965332 3357555.87518311 15.81751156 69 187 233
246068.08288574 3357545.91302490 13.54856491 133 133 133
246065.47192383 3357542.95892334 13.51932526 218 214 215
246060.50183105 3357537.23706055 13.99169731 25 26 31
246060.90820313 3357545.70703125 14.27847385 64 63 68
246067.29602051 3357542.36846924 13.56673813 165 109 122
246066.90087891 3357553.71582031 16.07580757 130 235 254
246064.72399902 3357544.59271240 13.57637024 141 140 138
246065.56164551 3357538.97558594 13.93403149 205 65 66
246063.48205566 3357540.09088135 13.57669640 152 156 157
246060.88073730 3357539.10681152 13.80042076 226 230 233
246060.30603027 3357547.43957520 14.41416931 42 46 47
246066.44665527 3357548.16241455 13.64980221 112 34 48
246067.19311523 3357553.46649170 15.98572540 68 208 241
246061.36535645 3357538.28088379 13.65972042 132 143 149
246062.20910645 3357548.14282227 13.55980873 48 56 58
246062.66699219 3357539.38537598 13.82197094 46 57 63
246068.46752930 3357540.19903564 13.59819317 73 82 89
246061.92541504 3357547.17608643 14.50129128 34 42 45
246064.22277832 3357546.06506348 13.54054165 155 151 150
246062.05261230 3357546.81109619 14.62039185 73 77 89
246066.85754395 3357544.37213135 13.52716255 218 209 212
246060.63928223 3357545.65545654 14.22833538 29 32 37
246065.11340332 3357545.03283691 13.53543949 173 167 169
246061.71289063 3357537.78094482 13.76351166 48 65 145
246060.78039551 3357540.14276123 13.73865223 141 141 141
246063.94628906 3357547.80548096 13.72151566 86 90 89
246068.05029297 3357545.79754639 14.34418011 98 94 93
246063.98718262 3357540.22772217 13.56473255 158 164 164
246068.61633301 3357555.30157471 13.50148869 93 95 108
246066.77685547 3357541.20166016 13.94722557 93 47 58
246066.74499512 3357545.01214600 13.52392292 187 182 186
246065.70922852 3357543.62176514 13.51912117 217 207 205
246065.75268555 3357547.60058594 13.58524227 98 28 39
246067.04541016 3357554.39440918 16.44503784 18 117 198
246063.11303711 3357538.74932861 14.00530720 60 85 107
246060.31774902 3357540.58337402 14.19999027 114 140 175
246061.52197266 3357544.50476074 13.57286453 152 153 147
246064.06530762 3357538.25262451 13.60384560 149 150 144
246066.22558594 3357546.24334717 13.56015110 215 216 220
246067.79040527 3357544.76483154 13.51425838 169 173 172
246060.31628418 3357537.93750000 13.67171764 145 150 154
246066.89501953 3357555.13836670 13.64083290 88 109 140
246065.86413574 3357554.76684570 13.46876431 161 163 160
246067.30090332 3357542.29351807 13.60191154 148 92 103
246063.18603516 3357546.82067871 13.54552555 157 161 162
246068.25415039 3357554.86199951 13.53891563 106 105 113
246063.00073242 3357539.92004395 13.62678719 130 140 142
246064.05969238 3357546.58068848 13.52483368 135 131 130
246062.10791016 3357545.99841309 13.61414719 152 158 158
246065.55920410 3357546.42938232 13.55179691 168 137 143
246062.69335938 3357538.84210205 13.77411747 140 144 145
246060.73291016 3357547.73071289 13.59517384 34 43 48
246067.90844727 3357540.22009277 14.35047436 170 142 138
246067.61315918 3357553.48986816 15.93903160 18 109 200
246065.50781250 3357543.96679688 13.52319336 214 205 206
246068.82958984 3357555.10742188 13.51286125 72 79 87
246064.37792969 3357544.39843750 18.45100212 124 128 129
246065.80078125 3357542.99645996 13.50850773 207 201 203
246065.59436035 3357554.90832520 13.46593094 173 176 169
246068.56640625 3357540.04742432 13.59556675 83 92 101
246066.40173340 3357543.55706787 13.52006531 204 192 192
246060.33215332 3357546.40069580 14.57374096 44 45 47
246062.45068359 3357547.83300781 13.54722214 98 97 92
246060.54675293 3357543.81256104 13.64963818 113 117 116
246061.84899902 3357542.15789795 13.54430866 171 172 167
246063.48107910 3357548.08105469 13.76832485 38 48 49
246060.36572266 3357540.22027588 14.21760845 124 134 136
246061.59484863 3357547.86175537 14.23351288 143 143 145
246067.00915527 3357544.96411133 13.51573563 175 173 176
246061.88525391 3357540.68438721 15.35730457 69 75 87
246064.08764648 3357547.52587891 13.58472729 166 168 165
246066.05651855 3357542.70434570 13.49838829 190 186 185
246060.82702637 3357540.68981934 14.45141888 170 171 165
246060.26367188 3357540.34777832 13.84220409 111 123 135
246068.17321777 3357546.22717285 14.08002758 101 34 41
246066.15051270 3357548.25823975 13.70485115 131 41 51
246066.10192871 3357544.37261963 13.50440025 189 179 180
246060.75048828 3357547.94201660 13.62462807 30 39 44
246063.69848633 3357545.52136230 13.54083443 143 143 141
246061.29663086 3357541.81201172 13.65734863 81 85 88
246063.99719238 3357537.53936768 13.58210564 145 150 146
246067.26232910 3357541.64916992 13.90800476 172 148 146
246066.75085449 3357554.96252441 13.48336601 144 149 143
246067.94653320 3357542.68920898 13.65876675 187 144 154
246060.40454102 3357542.46343994 13.61503029 163 162 158
246063.10937500 3357538.68957520 13.99009132 90 119 135
246060.67163086 3357545.61450195 14.20596981 34 38 41
246060.70751953 3357541.43835449 13.95012569 130 134 137
246067.04919434 3357540.65332031 13.90289307 155 104 109
246060.98828125 3357541.02185059 13.65515518 175 175 175
246062.04296875 3357539.32714844 13.68382359 157 158 162
246067.07824707 3357541.23150635 13.77261639 115 117 112
246069.26672363 3357556.60491943 13.43353176 128 157 171
246060.91967773 3357545.92138672 13.73271084 196 200 201
246066.68432617 3357553.54888916 15.95011616 98 181 211
246060.77526855 3357539.71484375 14.11250401 115 115 115
246061.34973145 3357542.04431152 13.63232136 85 95 97
246068.07604980 3357539.56842041 14.18636417 190 57 60
246065.65502930 3357539.69458008 13.81058407 139 59 72
246060.64013672 3357545.80957031 14.31406975 76 79 84
246061.45507813 3357548.20141602 13.68901634 54 63 70
246067.63659668 3357538.57049561 13.64373302 74 58 61
246062.14562988 3357542.91613770 13.70024395 154 150 149
246066.99536133 3357540.42034912 13.85420609 167 135 138
246066.74462891 3357539.87500000 13.66373444 171 146 150
246060.71838379 3357541.42468262 13.93550491 93 96 101
246061.10083008 3357540.23419189 14.48280239 116 134 138
246065.83020020 3357555.26159668 15.56650639 128 128 128
246067.62768555 3357541.71118164 14.03846550 135 30 45
246065.70080566 3357538.56988525 13.79289722 224 76 76
246060.37622070 3357539.78186035 14.25581837 137 140 145
246067.39746094 3357554.26684570 13.62438774 209 205 204
246060.64709473 3357536.91937256 14.94371033 103 111 124
246064.01208496 3357541.43029785 13.60122585 162 166 167
246061.88439941 3357540.46752930 15.03377628 33 52 84
246067.29345703 3357541.63787842 13.85941410 160 128 129
246060.24255371 3357547.61407471 14.05176067 29 34 40
246064.06884766 3357543.12286377 13.57264996 173 174 176
246065.46960449 3357543.33618164 13.52123070 206 197 202
246064.48974609 3357538.45513916 13.63953590 163 147 132
246064.73022461 3357540.96301270 13.57269382 178 184 184
246066.00378418 3357543.10589600 13.50383854 206 197 200
246063.54223633 3357545.04888916 13.52187157 129 129 127
246060.33911133 3357547.62249756 13.66951561 25 29 38
246065.50244141 3357544.34753418 13.51919460 190 184 188
246064.21716309 3357546.74786377 13.53543758 149 140 141
246067.09497070 3357555.44805908 13.49500179 127 129 124
246069.11560059 3357552.40795898 13.42271137 178 179 171
246063.28710938 3357539.05938721 14.32202530 150 162 186
246064.37683105 3357546.03778076 13.56314182 166 154 154
246066.12304688 3357554.96899414 15.52496624 128 128 128
246069.39062500 3357556.76367188 13.43585396 129 152 168
246066.48205566 3357554.78924561 16.20128822 70 221 252
246067.59716797 3357541.84417725 14.05440235 153 36 42
246061.81799316 3357540.73773193 15.33462048 57 65 76
246066.16320801 3357544.80694580 13.50962353 186 175 181
246061.74243164 3357541.56701660 13.62062931 101 106 109
246066.83825684 3357546.43164063 13.56310081 193 187 191
246064.38916016 3357544.49621582 18.44635582 69 70 72
246061.37377930 3357546.08300781 13.83551216 174 179 175
246065.62646484 3357543.81921387 13.52750301 210 202 200
246065.09606934 3357543.52587891 13.51516628 170 164 164
246062.17407227 3357537.45074463 13.72911930 31 53 136
246068.14916992 3357540.18359375 14.28118229 97 37 45
246068.86791992 3357556.87695313 13.43497658 132 155 171
246068.00170898 3357542.58215332 13.90424538 165 81 94
246061.29577637 3357545.98419189 13.68567085 166 172 170
246060.34655762 3357541.31494141 13.99997902 111 115 116
246062.69079590 3357539.77075195 13.66186714 74 79 82
246064.30615234 3357541.98522949 18.44581032 75 76 78
246067.30590820 3357555.48339844 13.54498672 48 49 51
246061.89221191 3357547.45019531 14.23235989 71 77 77
246065.15270996 3357538.76556396 14.00156498 185 65 66
246064.62048340 3357541.77709961 13.52004051 175 184 181
246066.93103027 3357539.89068604 14.08337402 213 98 95
246066.46386719 3357539.49725342 14.02478409 203 69 70
246067.00305176 3357554.48657227 15.52675438 128 128 128
246064.23071289 3357546.32629395 13.54422855 145 139 139
246064.28833008 3357545.38909912 13.54620647 185 180 177
246061.98034668 3357542.34857178 13.55909348 150 150 142
246064.39392090 3357547.67657471 13.58487606 187 181 181
246069.50585938 3357555.00573730 13.67685127 76 90 116
246061.11975098 3357540.29852295 14.77986717 63 123 193
246062.65515137 3357538.95678711 13.82680416 117 122 128
246063.23791504 3357543.02349854 13.59694099 178 183 186
246061.99121094 3357539.56585693 13.76869011 66 67 71
246065.68017578 3357546.65069580 13.58332157 159 119 127
246061.86328125 3357543.97552490 13.54717445 88 89 91
246067.32446289 3357555.64678955 15.66276741 152 217 221
246065.84179688 3357542.62475586 13.51031685 211 206 210
246066.83398438 3357546.92285156 13.60803795 181 150 158
246066.73364258 3357553.83569336 13.50600243 175 178 171
246067.50109863 3357554.38574219 13.62522888 123 118 122
246061.70703125 3357546.87219238 13.83495140 75 97 110
246064.96093750 3357546.98461914 13.55543613 133 102 107
246063.73645020 3357546.57464600 13.52101994 153 155 152
246062.52575684 3357541.98400879 13.59621906 102 104 103
246068.00097656 3357543.91186523 13.52458191 197 186 192
246064.54614258 3357537.63916016 13.57040882 150 155 149
246062.23840332 3357545.67004395 14.53717327 103 140 149
246065.64550781 3357545.04046631 13.52589893 175 169 173
246068.12561035 3357540.22039795 14.32446766 71 24 32
246068.32055664 3357541.74029541 13.65227890 71 39 44
246066.53308105 3357554.45074463 16.27231026 133 237 250
246067.45422363 3357554.32641602 15.57136822 128 128 128
246064.69287109 3357541.58227539 13.52780914 159 163 162
246063.73278809 3357538.58105469 13.63259125 141 143 132
246061.20092773 3357547.13769531 14.20875168 102 97 101
246061.05834961 3357539.68847656 14.00369263 24 31 41
246060.60095215 3357542.45288086 13.60944271 191 187 184
246068.49389648 3357543.14477539 13.49276352 154 149 156
246066.79968262 3357553.86737061 13.50961876 175 176 171
246065.64392090 3357547.89080811 13.56622887 86 33 39
246060.93469238 3357540.75811768 15.06352234 93 101 112
246060.12207031 3357543.47326660 13.64542770 53 58 62
246061.49084473 3357540.69000244 13.59737682 146 148 147
246068.22436523 3357555.82299805 13.48770523 226 167 149
246064.90319824 3357555.32836914 13.46225166 152 162 154
246064.90881348 3357541.47875977 13.52331066 177 179 178
246062.09631348 3357540.41107178 15.32076073 59 70 92
246060.99426270 3357545.81396484 14.30973530 12 10 15
246068.22753906 3357540.65985107 13.77614975 90 35 40
246064.42517090 3357543.94421387 18.42627144 68 74 74
246061.16345215 3357541.41870117 13.58483124 128 132 131
246061.03430176 3357537.03723145 13.68291092 64 76 90
246065.92370605 3357539.47760010 14.01330757 212 77 81
246066.50390625 3357544.16680908 13.52266312 195 186 189
246067.13073730 3357538.74633789 14.09915447 193 112 119
246065.41088867 3357545.79925537 13.54501724 180 161 165
246061.49023438 3357540.02850342 15.07221985 48 49 53
246067.95336914 3357543.01739502 13.53090954 168 141 150
246060.84118652 3357541.22637939 13.78988647 130 134 135
246061.10705566 3357542.71282959 13.58005905 173 169 166
246068.98193359 3357555.96191406 13.47826672 161 196 200
246066.14257813 3357555.54644775 15.54631042 128 128 128
246061.00451660 3357543.45428467 13.59274006 43 43 45
246061.17749023 3357539.27142334 13.76644611 251 251 251
246065.02380371 3357555.83959961 13.46511078 167 175 177
246061.16760254 3357545.69311523 14.16159439 153 145 142
246068.73107910 3357549.97991943 13.39436531 165 175 174
246066.90722656 3357553.48760986 15.62756443 101 137 151
246067.77844238 3357543.87451172 13.52760696 197 186 190
246064.00512695 3357541.90118408 13.56538200 164 169 165
246068.42407227 3357541.49975586 13.59725475 76 75 81
246068.11145020 3357540.43975830 14.40757084 39 22 28
246068.87084961 3357554.63098145 13.55589008 121 117 114
246064.00500488 3357544.07177734 13.53469181 176 174 177
246063.16894531 3357543.05261230 13.59911251 251 255 252
246062.02075195 3357537.72741699 13.82177734 87 102 143
246063.32458496 3357544.75305176 13.52706432 137 133 130
246066.67309570 3357540.04309082 13.58861256 184 158 161
246067.90869141 3357547.03894043 13.66626835 146 70 82
246065.57409668 3357546.63311768 13.55602741 158 118 127
246068.89501953 3357555.86853027 13.50268650 174 210 208
246064.36364746 3357543.12420654 13.57419491 181 181 181
246063.81372070 3357538.43615723 13.61671162 144 145 139
246066.73815918 3357537.95971680 13.67419815 217 65 60
246064.96801758 3357539.87530518 13.55276299 147 118 123
246068.82812500 3357555.62573242 13.51630211 136 152 165
246065.57910156 3357555.36901855 13.48270607 180 185 179
246060.50134277 3357543.42822266 13.69359875 75 79 82
246067.66748047 3357541.33264160 14.05727100 122 24 37
246064.70227051 3357554.37066650 13.46623993 163 173 165
246063.91711426 3357538.54138184 13.62535954 136 137 129
246061.34216309 3357540.17700195 14.81725311 93 122 156
246069.11181641 3357554.69769287 13.52691364 130 117 111
246063.33459473 3357537.50518799 13.59311962 140 149 148
246065.58276367 3357553.65008545 15.67832947 117 194 212
246067.15942383 3357554.15612793 15.56987381 128 128 128
246061.96350098 3357547.28210449 13.84650421 38 45 63
246065.28247070 3357539.03118896 13.89358425 210 190 183
246062.48547363 3357543.16192627 13.74536514 125 110 105
246063.78430176 3357537.95831299 13.57998180 170 173 166
246067.94873047 3357540.61193848 14.38847542 81 71 79
246066.61132813 3357545.30566406 13.51786613 197 195 198
246066.09912109 3357542.34271240 13.51493645 170 166 167
246066.21594238 3357538.25189209 13.79414082 210 63 56
246066.07397461 3357548.11157227 13.68379498 114 27 36
246061.27416992 3357547.42181396 14.01191711 27 30 37
246060.68334961 3357544.63970947 13.54864883 194 193 191
246061.62768555 3357544.33410645 13.55976105 198 199 194
246062.55065918 3357537.51263428 13.62498760 169 182 201
246067.15319824 3357538.31304932 13.75965595 101 88 98
246067.70983887 3357541.32226563 14.06597614 122 26 37
246066.84973145 3357543.98187256 13.50195408 210 195 202
246061.93261719 3357540.91772461 13.59761333 147 151 150
246066.14123535 3357537.85186768 13.63464546 217 83 80
246067.94091797 3357543.05804443 13.52424622 163 137 146
246062.13903809 3357546.60723877 14.51053238 82 98 113
246067.31628418 3357542.79998779 13.49768829 180 149 157
246068.24902344 3357542.41412354 13.80418491 91 31 31
246063.58251953 3357545.71966553 13.52620888 155 155 153
246066.84265137 3357555.56579590 15.82909393 24 126 210
246064.68603516 3357546.16668701 13.61009312 158 144 143
246065.13122559 3357540.67474365 13.55854225 162 163 165
246066.36083984 3357555.43731689 15.98836040 12 109 178
246060.28112793 3357542.01605225 13.75335598 74 78 81
246067.53173828 3357554.18041992 13.59145451 131 131 129
246060.88818359 3357540.14624023 14.70754242 142 179 221
246067.77429199 3357541.88183594 14.02934837 152 27 33
246062.97961426 3357540.96850586 13.58668423 138 140 137
246061.06604004 3357547.54028320 13.91895962 33 38 44
246066.62500000 3357537.95104980 13.66728401 217 72 69
246067.77209473 3357539.02600098 14.10522461 189 85 82
246069.45385742 3357554.53558350 13.47150707 70 73 80
246066.56042480 3357541.16168213 13.53803539 192 196 199
246067.16491699 3357555.33746338 13.63438416 138 141 160
246068.10778809 3357546.44866943 13.93094635 145 90 93
246067.27514648 3357542.10784912 13.63740158 141 85 94
246061.33410645 3357541.30944824 15.05194759 185 188 193
246068.07800293 3357538.50354004 13.70317554 51 42 45
246061.11206055 3357545.47033691 13.65865898 129 120 125
246066.23413086 3357553.57806396 15.63810825 128 128 130
246061.49365234 3357537.88439941 13.67636395 48 65 143
246063.53234863 3357542.51965332 13.57781029 208 208 210
246068.23535156 3357542.19799805 13.92032146 103 18 21
246068.99462891 3357554.54492188 13.58725452 130 126 125
246067.60949707 3357543.05340576 13.52507019 172 139 150
246065.95971680 3357548.06524658 13.74310780 169 113 114
246061.13073730 3357542.84350586 13.57687950 190 192 191
246067.57861328 3357546.95794678 13.54348946 138 81 90
246063.23901367 3357539.22009277 14.17484474 50 63 105
246068.18652344 3357539.74096680 14.12487602 139 43 54
246064.37377930 3357544.53680420 18.48393631 105 108 113
246063.57385254 3357538.77178955 13.92010975 219 227 214
246065.98193359 3357555.78271484 15.80385780 56 199 243
246066.91540527 3357541.82965088 13.53595257 210 211 206
246064.22473145 3357546.02606201 13.53394413 158 152 152
246060.38671875 3357546.64941406 14.35652733 36 44 46
246068.31530762 3357548.28369141 13.50831795 26 39 47
246066.81372070 3357554.40765381 13.54891777 82 82 80
246068.26354980 3357544.43505859 13.55978489 155 150 154
246060.56286621 3357537.21997070 14.48342991 44 45 50
246067.75427246 3357538.60424805 13.86006737 127 59 58
246061.25329590 3357537.15087891 13.67662716 87 99 111
246067.52453613 3357538.22650146 13.53266239 107 111 112
246069.54443359 3357555.54132080 13.50859642 82 100 114
246068.11938477 3357538.54669189 13.70670891 68 49 51
246063.35180664 3357542.04760742 13.59860229 164 160 159
246065.44421387 3357556.07537842 13.47363472 171 177 173
246061.47656250 3357546.93969727 14.34978867 70 54 55
246066.20117188 3357544.18902588 13.50929642 185 177 175
246066.14685059 3357554.33703613 15.55714130 128 128 128
246067.88671875 3357554.81597900 15.76865864 39 139 189
246062.54968262 3357539.41638184 13.73802567 55 62 70
246067.42272949 3357543.32318115 13.50802231 188 158 168
246065.67700195 3357540.33990479 13.59827042 185 160 166
246060.67761230 3357541.84216309 13.63976765 178 179 171
246067.39868164 3357538.30053711 13.55222225 155 171 170
246068.03320313 3357554.47424316 13.55873585 128 126 129
246069.70983887 3357556.14605713 13.42578697 93 122 138
246062.56555176 3357543.78210449 13.76934624 202 127 124
246065.52539063 3357554.49151611 13.46823788 154 161 154
246063.00695801 3357539.00921631 14.24709702 138 144 158
246068.21105957 3357539.44543457 13.84969616 101 34 43
246060.70104980 3357537.26275635 14.10018539 28 32 33
246062.78308105 3357542.71203613 13.81826782 185 123 124
246060.94653320 3357537.36468506 13.64526081 102 112 121
246065.52001953 3357538.94897461 13.92692661 208 65 67
246060.64111328 3357538.89758301 13.76989651 222 227 231
246067.50463867 3357542.23614502 13.98053074 182 77 82
246067.25585938 3357544.21038818 13.49247837 149 140 145
246062.03857422 3357537.57556152 13.85161400 37 56 124
246065.71801758 3357540.57775879 13.57109642 198 186 196
246065.65173340 3357554.54290771 13.46966934 177 182 175
246068.50000000 3357556.64404297 13.43070507 79 100 117
246063.76281738 3357540.77911377 13.58613682 165 169 168
246060.72937012 3357547.60766602 13.62376118 64 71 79
246067.74609375 3357541.47448730 14.06707001 127 31 45
246066.78442383 3357555.18829346 13.44281769 147 151 154
246063.15661621 3357538.42718506 13.66426754 153 156 145
246067.10485840 3357554.74688721 15.50699425 128 128 128
246060.79260254 3357541.03692627 14.64311314 179 180 174
246068.09912109 3357540.43408203 14.42071533 26 9 17
246062.10266113 3357546.39733887 14.35781670 48 47 52
246068.20275879 3357544.42218018 13.55452538 153 151 154
246061.54760742 3357539.93182373 15.33234692 199 203 206
246060.41601563 3357546.30023193 14.38474274 47 50 55
246065.87133789 3357539.57904053 14.00651455 145 19 31
246066.65234375 3357554.40600586 13.51497746 74 78 79
246065.62854004 3357547.44866943 13.56696510 132 70 81
246068.44604492 3357547.98773193 13.58761215 64 73 78
246063.64562988 3357542.19146729 13.54557705 166 170 169
246067.81555176 3357542.96954346 13.52756691 191 153 166
246067.12451172 3357555.34509277 13.61108971 127 132 154
246065.76989746 3357554.03680420 15.62126827 128 128 128
246065.37548828 3357538.62530518 13.81556892 208 70 70
246067.11462402 3357540.82751465 13.96509933 133 43 53
246061.60644531 3357539.69268799 13.78915501 79 82 87
246066.27136230 3357546.16528320 13.55536556 208 212 213
246065.05847168 3357554.64056396 13.46332932 191 196 189
246063.56628418 3357546.38415527 13.52823734 187 189 186
246060.10290527 3357544.48815918 13.74374866 68 72 75
246063.95251465 3357543.64349365 13.55046082 163 167 170
246063.21166992 3357537.88305664 13.58470821 149 155 151
246061.59960938 3357545.46313477 13.69527435 133 137 136
246060.31726074 3357540.58099365 13.88091755 69 81 103
246065.97485352 3357538.08789063 13.71070290 204 51 54
246068.55395508 3357556.30261230 13.44295311 73 104 122
246060.78479004 3357541.46020508 13.76833153 71 75 74
246064.87341309 3357539.86859131 13.54031658 153 134 138
246067.78479004 3357545.05218506 13.50910187 168 172 171
246062.70935059 3357538.90997314 13.86941242 129 131 144
246068.10400391 3357546.15588379 14.01732254 110 75 79
246067.42871094 3357544.33239746 13.49878216 149 145 144
246067.11096191 3357544.89270020 13.51118660 216 214 215
246066.58886719 3357554.01464844 16.16629791 66 211 242
246066.75109863 3357553.94244385 13.51636410 179 178 174
246061.09838867 3357547.59497070 13.81821442 58 61 66
246062.33764648 3357548.07812500 13.53859997 94 100 98
246067.61157227 3357540.49523926 14.21853638 118 48 59
246061.49157715 3357548.12548828 14.10899353 167 169 168
246064.70422363 3357540.53442383 13.58122635 169 175 175
246062.46252441 3357538.90136719 13.62171364 127 129 126
246062.40466309 3357545.45709229 13.60896301 156 158 157
246068.44360352 3357554.04309082 13.69664001 132 136 135
246066.50622559 3357546.86450195 13.68210506 188 167 174
246066.69799805 3357554.03723145 15.57190514 128 128 128
246064.36425781 3357544.13348389 13.54538059 205 199 201
246060.12768555 3357545.03771973 13.89969540 43 49 49
246066.83862305 3357553.69311523 15.60645771 128 128 130
246066.20190430 3357555.17596436 15.50254059 128 128 128
246061.38439941 3357538.00207520 13.64970207 98 115 195
246064.52917480 3357540.65777588 13.60738468 171 177 177
246067.59960938 3357543.05303955 13.52510357 177 144 155
246061.88012695 3357547.14337158 13.88095379 71 88 96
246061.59179688 3357542.83093262 13.58535194 156 157 152
246066.94152832 3357538.83819580 14.09180069 200 96 95
246061.07629395 3357540.01239014 14.60287666 89 120 151
246060.95837402 3357544.10784912 13.55491352 114 115 119
246062.58874512 3357542.64172363 13.82942200 173 122 118
246065.39697266 3357542.60162354 13.52651882 222 218 219
246061.25231934 3357542.40515137 13.57391357 144 149 145
246062.43835449 3357543.24530029 13.71359158 175 159 160
246061.56115723 3357548.17272949 13.74737263 50 55 59
246061.57739258 3357548.11083984 14.08582115 170 172 169
246067.60021973 3357553.33239746 15.64950371 129 127 128
246063.93945313 3357546.36242676 13.51949692 141 140 138
246062.44042969 3357544.01544189 13.68673801 116 120 121
246066.73779297 3357553.43829346 15.90395927 107 209 231
246065.88464355 3357539.72363281 13.89991570 134 38 52
246061.08471680 3357545.66827393 14.16399097 150 149 144
246060.88684082 3357543.98858643 13.55908489 88 89 91
246065.58923340 3357544.09368896 13.52390385 215 205 203
246065.10632324 3357555.70867920 13.46399021 165 171 167
246062.26904297 3357539.67175293 13.73880100 104 109 113
246061.71105957 3357540.42071533 15.39638233 64 74 86
246060.86242676 3357536.84387207 14.42795563 65 72 78
246062.81213379 3357540.88519287 13.58478451 127 129 126
246066.54858398 3357555.60089111 13.45928574 166 167 159
246062.09790039 3357545.69464111 14.33934021 81 133 154
246068.57934570 3357547.14532471 13.57812500 134 101 110
246063.43493652 3357540.21191406 13.58285999 132 137 133
246068.61389160 3357554.33398438 13.54066563 146 146 144
246061.31530762 3357542.51635742 13.56953239 172 171 167
246067.99023438 3357555.75457764 13.48134995 205 184 179
246060.42858887 3357547.11688232 14.29411411 19 23 26
246065.41784668 3357555.41119385 13.48821545 181 186 180
246064.60937500 3357538.95782471 13.85109234 140 43 50
246061.65991211 3357545.70098877 14.25666523 148 97 102
246067.46728516 3357542.18572998 13.84690952 141 53 67
246064.62011719 3357538.90551758 13.83977127 142 38 45
246066.27697754 3357547.04357910 13.77062416 136 86 97
246066.19189453 3357547.76702881 13.58581638 116 36 49
246062.31884766 3357543.72705078 13.66165257 157 158 160
246060.26611328 3357543.77307129 13.65503120 79 84 90
246061.32421875 3357545.66448975 14.19906139 172 143 145
246068.40588379 3357555.93048096 13.51193142 156 135 132
246060.79614258 3357541.53302002 13.68909359 134 133 131
246060.51000977 3357542.40338135 13.62056923 159 152 146
246061.51635742 3357541.26098633 13.65548992 141 151 143
246060.24243164 3357537.01611328 13.83352947 98 99 101
246064.64147949 3357542.78094482 13.55665684 211 211 209
246063.48217773 3357540.69464111 13.58206272 140 142 141
246063.04150391 3357543.93896484 13.58654213 225 210 213
246065.00402832 3357540.00024414 13.54776764 161 142 146
246066.58422852 3357544.86224365 13.52465820 207 198 199
246065.95800781 3357554.91418457 13.46592808 162 164 159
246062.86865234 3357542.76068115 13.81285286 176 127 130
246067.21313477 3357542.30474854 13.56783104 163 116 126
246063.22216797 3357538.65411377 13.81050110 75 92 100
246063.53991699 3357541.20843506 13.59626770 159 159 157
246061.35546875 3357543.20098877 13.60144234 117 118 122
246064.96362305 3357545.70068359 13.54286098 155 143 143
246061.12414551 3357541.88128662 13.58247566 113 117 118
246065.40856934 3357542.05120850 13.53454399 196 194 195
246066.18017578 3357540.96899414 13.56699753 184 182 187
246066.69177246 3357554.86138916 16.27603149 1 104 173
246066.71130371 3357554.04254150 13.52030468 170 173 166
246060.61218262 3357545.80114746 14.31526947 80 84 87
246065.96240234 3357554.40490723 15.57657337 128 128 128
246061.51293945 3357544.40588379 13.56641102 139 138 133
246068.25170898 3357541.07519531 13.68472004 81 31 40
246061.77514648 3357546.65093994 13.87700176 54 86 85
246066.52453613 3357547.11810303 13.71865940 152 102 111
246062.93261719 3357544.53088379 13.53260612 149 145 142
246067.69067383 3357544.17901611 13.50739288 176 170 174
246066.83227539 3357554.44329834 15.52187920 128 128 128
246065.09179688 3357541.44976807 13.52947807 172 174 173
246063.76074219 3357544.99645996 13.52828789 151 146 143
246068.41687012 3357542.92126465 13.52643394 157 147 155
246067.12829590 3357546.98718262 13.57075882 168 126 138
246061.48498535 3357543.65148926 13.60264683 53 54 56
246060.57128906 3357547.85577393 13.61153126 71 78 84
246060.18884277 3357547.79779053 13.84248924 22 24 36
246062.01403809 3357548.21868896 13.58959866 16 23 29
246063.54760742 3357540.10839844 13.57080269 145 149 148
246061.05493164 3357547.59893799 13.75584602 49 54 60
246063.17480469 3357547.51470947 13.74148750 126 127 129
246063.22912598 3357537.90051270 13.58492947 149 155 151
246064.44567871 3357545.64691162 13.54795742 168 160 158
246063.33728027 3357542.83557129 13.59053421 195 199 200
246061.83898926 3357546.86212158 14.57997894 125 126 131
246064.28149414 3357541.71032715 13.54352379 177 183 183
246065.54870605 3357538.65936279 13.81949615 212 63 65
246062.35327148 3357539.65704346 13.70496368 98 106 109
246065.69458008 3357554.72290039 15.59256077 128 128 128
246060.20349121 3357545.38165283 14.16185856 26 27 31
246068.07214355 3357546.71649170 13.79523849 128 38 47
246061.61926270 3357543.20092773 13.59920025 127 127 127
246060.37573242 3357547.25817871 14.30933094 23 28 31
246068.13208008 3357544.24829102 13.54206848 155 153 154
246061.60778809 3357541.91595459 13.65898132 93 101 104
246061.30847168 3357542.64648438 13.56608105 172 171 166
246061.79772949 3357538.72821045 13.79279423 144 151 177
246062.50402832 3357539.11767578 13.72398949 60 68 71
246068.13342285 3357539.68750000 14.17783356 172 53 59
246065.56433105 3357545.02093506 13.52683735 176 170 174
246067.41247559 3357539.15069580 14.08352947 180 100 99
246062.10620117 3357540.22143555 13.65601063 114 120 118
246066.14697266 3357554.61407471 16.03373718 246 225 240
246062.20275879 3357546.91595459 14.54956818 40 49 66
246063.85351563 3357544.30090332 13.54494858 176 172 173
246061.93457031 3357537.76293945 13.81251049 24 34 83
246061.26892090 3357538.68267822 13.66850662 228 239 245
246061.17395020 3357538.76281738 13.66454697 232 241 246
246068.14758301 3357542.58367920 13.70253563 144 139 143
246061.51196289 3357545.90765381 13.69524002 151 155 154
246061.21838379 3357542.09667969 13.60297298 74 79 83
246065.20190430 3357548.00347900 13.55884266 58 57 63
246067.27905273 3357553.91101074 15.60208988 128 128 128
246066.27124023 3357542.06799316 13.56825352 191 183 181
246064.71582031 3357539.47845459 13.64831066 135 98 106
246067.80249023 3357554.61950684 15.92387390 21 116 198
246062.15881348 3357539.87969971 13.73517132 76 81 84
246060.46862793 3357541.23461914 14.01915741 107 107 107
246064.38220215 3357545.49188232 13.54700279 153 148 145
246067.66711426 3357547.19085693 13.60576248 201 113 112
246061.92187500 3357547.11669922 13.90658188 47 66 81
246060.78405762 3357537.22943115 14.02306747 50 55 59
246061.87976074 3357543.18060303 13.59852886 57 56 54
246062.58642578 3357541.58117676 13.58973408 104 105 107
246068.00781250 3357545.76397705 14.10118294 68 43 47
246061.46301270 3357539.26025391 13.73042679 223 232 241
246067.61889648 3357553.49365234 15.63570786 128 128 128
246064.97070313 3357542.01354980 13.50729847 173 173 173
246065.33117676 3357555.63671875 13.48496056 179 185 181
246060.28002930 3357537.93170166 13.67704868 171 174 179
246064.25402832 3357542.48345947 18.46320534 115 82 89
246068.72607422 3357549.75939941 13.36615562 147 162 167
246064.11059570 3357546.69793701 13.52898884 144 138 138
246060.27697754 3357537.73040771 13.68054676 69 73 76
246066.34973145 3357546.30023193 13.56163692 186 190 193
246067.48852539 3357553.27813721 15.92053795 49 181 229
246062.59680176 3357546.00042725 13.61297798 149 155 153
246068.37939453 3357539.27734375 13.65372562 67 75 78
246061.75280762 3357546.32464600 13.70891094 132 142 144
246067.73913574 3357545.03234863 13.50691509 182 186 185
246066.04321289 3357555.40753174 13.49488449 193 196 189
246065.05725098 3357546.63977051 13.54644108 141 114 119
246061.70385742 3357537.84051514 13.72870731 56 75 152
246061.91369629 3357546.59625244 13.95519543 81 116 110
246066.29309082 3357544.81707764 13.51174641 201 190 194
246062.09179688 3357547.21545410 14.43451786 15 22 30
246066.39685059 3357541.29553223 14.07530022 119 69 81
246064.70031738 3357538.55133057 13.68118095 166 123 106
246061.50695801 3357546.44055176 14.34072208 79 64 71
246062.18395996 3357547.07800293 13.83648396 89 99 126
246061.75769043 3357541.45495605 13.62324715 142 148 148
246065.71984863 3357554.91088867 13.46612453 161 163 158
246062.53869629 3357539.47363281 13.71086597 65 69 80
246065.63146973 3357554.86871338 13.46665287 169 172 165
246060.29162598 3357541.20117188 13.91750431 112 116 115
246067.40332031 3357547.72875977 13.60559654 107 33 48
246062.89782715 3357543.65264893 13.74963284 98 30 31
246060.43676758 3357541.93817139 13.68747902 169 166 159
246061.08471680 3357547.01977539 14.28471565 204 186 182
246062.84008789 3357539.01837158 14.08611584 189 191 232
246066.39880371 3357555.87316895 13.47453880 184 186 181
246060.26525879 3357545.06060791 13.80309772 68 69 71
246062.49755859 3357540.26721191 13.63489151 102 106 105
246060.91271973 3357536.80706787 14.68274021 84 79 83
246065.19946289 3357545.12847900 13.53664112 173 164 167
246068.09020996 3357543.86779785 13.52898407 183 173 181
246066.52770996 3357542.16888428 13.56395817 213 203 202
246066.47998047 3357542.04931641 13.58629990 209 204 201
246063.02209473 3357538.61163330 13.84139252 116 134 136
246063.02819824 3357548.26983643 13.54057121 129 131 126
246064.57568359 3357544.20581055 13.55881119 207 201 203
246062.30505371 3357540.74096680 13.60029793 134 139 135
246063.83471680 3357539.19409180 14.00010204 106 108 120
246068.13208008 3357546.40618896 13.95959473 107 46 53
246063.85351563 3357543.00445557 13.57224941 197 201 202
246066.03430176 3357540.85040283 13.56733513 206 197 200
246063.08703613 3357543.73773193 13.63105011 179 177 178
246067.63891602 3357544.30786133 13.50597095 157 153 152
246066.60876465 3357554.40936279 15.53260994 128 128 128
246063.09252930 3357544.12268066 13.56649494 146 137 140
246068.20788574 3357539.20715332 13.77145004 94 34 44
246068.15808105 3357539.09716797 13.99461746 117 26 33
246066.48559570 3357544.05664063 13.51595211 208 197 201
246062.24291992 3357547.50982666 13.64257240 43 45 44
246069.52136230 3357555.92333984 13.43334293 115 148 163
246063.46423340 3357541.39361572 13.62284279 161 161 159
246065.66662598 3357541.97235107 13.54763985 219 218 216
246061.08068848 3357545.85229492 13.61756229 152 157 160
246064.25732422 3357538.12396240 13.59641171 157 158 152
246066.78210449 3357544.70635986 13.53319836 205 199 201
246064.63012695 3357537.77465820 13.57755947 160 160 158
246065.55480957 3357554.94677734 15.65230656 225 255 255
246067.22351074 3357541.19628906 13.97562027 118 26 39
246062.43603516 3357540.37176514 13.62180424 112 117 113
246061.56945801 3357544.32855225 13.56007957 199 199 197
246062.00744629 3357546.11755371 14.36079693 155 157 154
246060.87097168 3357537.84875488 13.66701794 182 188 184
246064.86816406 3357543.02612305 13.54940987 188 186 187
246062.88671875 3357546.87298584 13.57909775 151 160 159
246065.91662598 3357542.21759033 13.53816891 212 208 207
246066.59472656 3357539.93725586 13.89521980 158 115 122
246067.99084473 3357545.76623535 14.09731483 66 41 45
246064.40808105 3357547.78466797 13.60837936 199 185 184
246068.13342285 3357538.92779541 13.88555050 104 29 34
246068.14392090 3357540.31390381 14.32217026 69 38 46
246067.99499512 3357545.49877930 13.52901363 168 156 160
246063.23767090 3357547.61224365 13.79438400 142 146 147
246062.66064453 3357540.83996582 13.59244442 129 134 130
246060.65014648 3357546.37542725 14.31802177 28 38 50
246064.24816895 3357545.52551270 13.54704189 182 177 173
246061.29113770 3357542.22564697 13.57806778 64 69 73
246065.09985352 3357554.66967773 13.46381283 192 195 186
246062.33715820 3357537.42187500 13.66922474 59 72 150
246066.20849609 3357540.75494385 13.54955387 169 167 172
246068.79003906 3357550.19714355 13.42241573 188 194 192
246062.17126465 3357537.93927002 13.71526051 188 200 212
246065.91809082 3357538.25262451 13.76920033 217 64 67
246062.30163574 3357543.66699219 13.66040897 45 45 45
246061.39611816 3357540.80120850 13.60499573 168 172 171
246066.95690918 3357545.22027588 13.50801086 219 219 221
246064.13122559 3357543.80426025 13.53176975 175 176 178
246061.78503418 3357542.40869141 13.58361340 169 168 163
246063.09643555 3357547.38604736 13.70233917 131 135 136
246063.33215332 3357538.95227051 14.19244289 205 205 233
246066.41223145 3357542.02734375 13.59707451 201 196 193
246063.20947266 3357538.95605469 14.25153637 118 126 145
246067.18298340 3357540.58697510 13.99845695 133 51 65
246067.04833984 3357538.41973877 13.97900105 114 27 35
246061.46557617 3357544.57092285 13.57499695 133 134 126
246068.47094727 3357543.13031006 13.49441051 153 146 153
246066.28369141 3357545.09704590 13.51378727 207 202 206
246066.33154297 3357544.12567139 13.51550484 205 195 196
246061.92993164 3357538.90997314 13.75536823 229 239 248
246065.47949219 3357540.79321289 13.57034206 187 183 184
246067.81848145 3357548.32641602 13.55268955 58 73 76
246066.33251953 3357541.84210205 13.63232994 210 210 208
246066.27172852 3357539.59307861 14.05483150 212 77 74
246067.40429688 3357555.32055664 13.69040966 40 46 46
246062.06958008 3357540.14141846 13.68386745 107 111 112
246064.35583496 3357544.10388184 18.39699364 55 58 63
246067.29321289 3357555.64447021 15.65583992 160 220 221
246062.31469727 3357537.80517578 13.71326828 82 106 176
246060.51220703 3357540.80462646 14.03582287 104 128 172
246066.13464355 3357539.32226563 13.99876976 208 65 67
246062.08715820 3357543.59539795 13.58341503 65 65 65
246067.36230469 3357542.45532227 13.55699348 155 101 114
246067.46008301 3357548.33251953 13.63359642 75 7 22
246060.23669434 3357540.97637939 14.16850662 47 45 46
246067.04125977 3357555.29174805 15.93084145 141 174 207
246063.66528320 3357542.27252197 13.55071163 156 161 157
246067.44433594 3357539.12139893 14.08304310 181 100 99
246065.71984863 3357544.40087891 13.52142811 186 181 185
246067.50402832 3357554.79199219 15.59542656 128 128 128
246068.54895020 3357556.56726074 13.43032837 109 130 147
246061.08972168 3357539.43066406 13.87876511 187 187 189
246067.82226563 3357538.36358643 13.66560936 51 49 52
246068.67309570 3357549.59869385 13.39892578 100 118 128
246062.79077148 3357543.00573730 13.78981113 209 117 118
246065.87023926 3357554.25823975 13.47905731 250 250 250
246063.35437012 3357542.69775391 13.58905506 196 194 197
246066.98303223 3357547.63952637 13.58542824 109 39 47
246060.69091797 3357539.53118896 13.87954807 89 83 85
246066.02246094 3357544.64599609 13.51279736 189 183 187
246063.84033203 3357548.00378418 13.80053997 115 120 123
246063.37512207 3357547.46887207 13.69836903 147 151 150
246063.23864746 3357540.83703613 13.58426952 156 158 157
246061.05480957 3357540.28942871 14.44059181 110 126 126
246060.98132324 3357539.69464111 14.03620625 29 34 40
246067.51245117 3357556.03985596 13.44438171 192 200 185
246061.32580566 3357541.42370605 13.62728405 129 140 136
246061.33569336 3357548.04187012 14.24223423 154 156 155
246060.30114746 3357540.64453125 14.23423576 121 138 168
246065.61401367 3357538.49298096 13.72986889 197 47 48
246063.88891602 3357547.76269531 13.77881622 182 186 185
246068.33374023 3357544.04278564 13.52530479 161 158 165
246064.00842285 3357547.11712646 13.55961609 177 171 171
246060.48937988 3357547.82647705 13.59074497 59 67 69
246063.35192871 3357541.48107910 13.61596298 164 162 163
246064.93908691 3357541.90808105 13.50947189 175 179 178
246064.12084961 3357542.13104248 13.53881741 161 163 162
246064.25573730 3357544.23364258 13.52686119 190 186 187
246061.40136719 3357537.31274414 13.66180420 77 89 115
246063.29223633 3357537.46356201 13.59256935 133 142 141
246063.90014648 3357544.76287842 13.53043079 133 132 130
246061.21630859 3357539.76892090 13.88186073 36 47 49
246060.70239258 3357545.54559326 14.01531792 70 68 69
246063.71801758 3357539.50701904 13.70202637 79 85 83
246061.35363770 3357545.70538330 13.66671276 132 132 134
246066.67297363 3357541.48144531 13.53178787 194 194 194
246069.23352051 3357554.73913574 13.47736740 132 119 111
246064.16662598 3357542.76995850 13.56626034 214 216 215
246063.38464355 3357546.59033203 13.52693844 157 159 158
246068.43664551 3357538.72613525 13.50545216 86 93 99
246068.55493164 3357556.51837158 13.43001366 117 136 151
246067.44433594 3357541.83605957 14.04602909 200 87 89
246062.22668457 3357542.31500244 13.57342625 164 168 169
246068.78881836 3357557.06970215 13.43684578 120 139 153
246060.07653809 3357543.56060791 13.66283321 73 78 84
246061.79333496 3357538.44519043 13.73847103 124 125 153
246066.48620605 3357546.82226563 14.08378792 226 179 137
246060.51977539 3357547.26995850 14.14806747 20 25 31
246060.75915527 3357541.10247803 14.78419590 180 181 176
246064.02941895 3357543.08978271 13.57295513 177 177 179
246061.91809082 3357546.02636719 13.63331127 165 171 171
246067.99658203 3357541.45574951 14.11451244 126 15 24
246067.57067871 3357555.54785156 13.54967880 70 39 44
246062.70104980 3357538.84350586 13.78472519 143 144 149
246066.60131836 3357542.18676758 13.55444145 206 196 197
246061.85778809 3357546.67895508 14.57166862 152 153 158
246060.66906738 3357537.24011230 14.65612698 62 63 68
246066.58801270 3357553.70343018 15.61302471 128 128 128
246067.45495605 3357545.44879150 13.48678780 180 184 185
246062.79248047 3357546.64971924 13.54913044 157 166 165
246063.36596680 3357542.65258789 13.58829975 196 194 197
246066.40161133 3357547.45465088 13.66882896 127 55 75
246061.87255859 3357537.71630859 13.83066368 97 117 180
246066.93994141 3357540.21142578 13.98223400 156 83 94
246063.91516113 3357539.73742676 13.56215096 124 128 129
246063.91076660 3357540.28479004 13.56648922 152 158 158
246065.90808105 3357542.12969971 13.54796028 222 218 217
246068.26989746 3357554.88543701 13.53849125 101 101 109
246068.00939941 3357547.76708984 13.68884945 32 28 29
246064.41748047 3357539.53326416 13.62561607 154 155 159
246065.53479004 3357556.05822754 13.47964573 177 184 176
246064.79614258 3357538.07940674 13.62712193 183 167 152
246067.86962891 3357541.76672363 14.05613136 134 18 37
246064.81665039 3357538.75231934 13.76000309 181 51 53
246067.54846191 3357555.02343750 15.62187481 129 129 129
246066.36218262 3357555.07885742 16.10431671 72 226 252
246069.33142090 3357555.52313232 13.50345325 73 87 100
246063.22216797 3357544.87878418 13.51889706 147 143 140
246068.50268555 3357548.22845459 13.50134754 34 44 53
246062.89086914 3357537.50085449 13.61611176 130 142 142
246060.75964355 3357536.85729980 14.94260979 92 96 107
246061.91760254 3357539.58306885 13.77204990 89 90 95
246060.33752441 3357536.95874023 14.31500244 92 92 100
