246105.00122070 3357369.83013916 16.18951797 18 17 15
246105.39880371 3357370.75137329 16.07165146 180 136 135
246105.70056152 3357371.47616577 15.18941689 64 130 162
246108.27795410 3357367.02963257 16.01149940 145 116 112
246105.48413086 3357363.65869141 17.10995674 75 160 241
246106.36254883 3357361.63241577 16.21305847 120 140 151
246105.46044922 3357362.04086304 17.06117249 47 120 215
246108.77661133 3357365.79669189 15.45569992 86 76 66
246105.98449707 3357361.22991943 16.68848610 106 133 176
246105.88134766 3357365.20684814 17.25974464 133 184 250
246108.26416016 3357367.04330444 15.75730133 134 97 91
246105.58374023 3357365.84298706 16.28370285 64 65 57
246105.49060059 3357372.10537720 15.03627491 78 77 73
246108.31701660 3357361.23226929 16.28721619 45 47 46
246106.85156250 3357361.47463989 15.45744419 44 49 43
246105.39135742 3357365.56881714 17.00953484 105 154 233
246103.94885254 3357369.76278687 16.01699829 94 103 98
246107.22656250 3357366.66146851 15.47536564 42 42 40
246108.29785156 3357366.72903442 16.68137169 90 81 74
246105.36730957 3357363.31735229 17.03439140 85 153 236
246105.63269043 3357370.81542969 15.19814682 73 49 49
246108.58215332 3357366.12722778 15.67659855 89 76 67
246104.71423340 3357371.53033447 15.01154232 155 137 127
246105.36315918 3357370.65585327 15.77012444 127 74 70
246105.93359375 3357364.50640869 17.17468834 91 142 221
246105.99914551 3357361.98553467 17.27989960 78 165 244
246104.66784668 3357371.32913208 17.22025490 51 110 200
246105.33447266 3357365.49270630 16.92948532 115 159 232
246105.52160645 3357370.37435913 16.47099495 54 53 51
246107.81323242 3357361.16510010 16.96935463 46 96 169
246104.70129395 3357371.44998169 17.15461540 40 96 191
246108.68762207 3357365.67019653 15.75697613 72 63 54
246105.42236328 3357371.52920532 17.00220108 53 100 180
246105.09069824 3357371.62542725 15.14876175 163 144 137
246105.97692871 3357364.95956421 17.26754761 141 185 248
246103.94763184 3357370.22406006 16.91871452 110 160 213
246104.34289551 3357371.52297974 15.97969437 65 75 85
246103.59338379 3357370.85580444 16.68218422 118 148 184
246103.86230469 3357370.66854858 16.88509560 107 142 162
246105.30773926 3357362.74267578 16.86565399 60 108 182
246105.39282227 3357371.47998047 15.30960274 133 144 150
246104.28320313 3357371.93768311 16.50641823 105 132 187
246108.18432617 3357367.17944336 15.10739613 121 100 81
246105.65600586 3357362.59240723 17.14766693 50 134 220
246104.64843750 3357369.87869263 16.02702332 58 70 112
246103.97692871 3357371.04257202 16.98500633 104 157 233
246105.85668945 3357371.36309814 15.15436172 77 90 99
246108.31359863 3357367.00408936 15.77924442 130 105 101
246107.30786133 3357362.35348511 17.54175377 19 67 133
246107.01965332 3357366.41320801 16.35114479 8 22 35
246106.95764160 3357366.22253418 17.33415604 99 147 232
246107.33178711 3357363.66961670 17.14277267 60 119 211
246107.48474121 3357366.96542358 15.05292320 169 148 131
246104.67053223 3357371.11529541 15.20255089 144 117 108
246106.46691895 3357362.02563477 17.43866730 69 166 245
246103.73889160 3357371.58612061 16.56155777 80 113 166
246104.56079102 3357370.00549316 17.12302399 42 93 185
246105.45617676 3357364.03253174 17.04101944 4 66 151
246107.54357910 3357362.54956055 17.49228477 24 64 134
246107.29565430 3357363.99612427 17.04124451 65 115 204
246107.83691406 3357364.99270630 17.16475677 64 114 201
246106.55224609 3357361.68258667 15.71953297 254 255 250
246106.69604492 3357363.66870117 17.17763329 56 120 210
246107.46752930 3357365.37057495 17.36263084 47 94 176
246106.80456543 3357365.97430420 15.86367416 53 63 65
246107.76428223 3357361.81329346 17.60565186 95 120 65
246107.00830078 3357366.46615601 15.49314976 33 33 35
246108.38940430 3357361.30990601 16.18362045 46 45 43
246106.76977539 3357363.74838257 17.13854790 50 109 201
246105.76855469 3357365.10140991 17.21085548 128 179 245
246106.43481445 3357361.51684570 16.33654022 145 163 177
246105.97875977 3357366.36987305 17.13344383 100 151 234
246105.76208496 3357365.82583618 17.13047981 85 142 223
246106.04101563 3357361.99508667 15.75960541 78 84 96
246108.80200195 3357367.26766968 15.04842377 113 97 84
246105.29602051 3357363.81567383 16.91959763 63 112 188
246106.17309570 3357361.50976563 15.16374683 44 46 43
246107.53979492 3357366.80065918 15.09344006 99 89 77
246107.16516113 3357361.32702637 17.12996483 63 139 223
246105.52050781 3357370.47427368 16.45042610 59 54 60
246106.18627930 3357361.35467529 16.52329445 72 95 127
246106.49792480 3357366.40722656 15.37647915 54 54 54
246105.34191895 3357370.98977661 15.40046310 151 82 67
246104.19665527 3357371.42266846 15.06131840 126 121 117
246105.57006836 3357371.09320068 15.32860470 95 67 66
246107.94873047 3357366.20162964 17.15469170 58 107 186
246108.80212402 3357367.33377075 15.07291412 117 101 88
246105.39453125 3357369.86227417 16.55804825 69 55 54
246106.10412598 3357361.53335571 16.28846169 86 98 112
246106.20410156 3357366.71890259 17.11003876 108 161 241
246108.03234863 3357365.38800049 17.13152122 64 112 196
246103.83984375 3357370.91845703 16.89082909 139 160 191
246106.59802246 3357361.88702393 17.37625313 67 162 244
246105.34765625 3357371.11175537 17.36013222 23 71 153
246105.36511230 3357370.69686890 17.19161606 25 70 153
246105.86181641 3357363.56793213 17.20690727 47 109 194
246106.40710449 3357372.15469360 14.97467232 85 85 83
246105.01123047 3357370.64636230 17.52034569 65 124 200
246107.16088867 3357361.80209351 17.32921219 60 130 218
246105.72888184 3357361.19555664 16.78962326 62 102 154
246108.52502441 3357366.29046631 15.64903259 91 79 67
246105.04516602 3357371.46340942 15.57921028 199 155 152
246108.58312988 3357361.15136719 15.22415352 183 178 172
246105.04101563 3357371.75320435 16.93965530 64 101 181
246106.14526367 3357365.56597900 17.35242462 93 150 239
246106.32238770 3357361.69287109 15.65977573 233 234 229
246104.26489258 3357371.42037964 15.69134998 50 51 56
246106.32177734 3357365.39392090 17.48147774 98 155 236
246107.13452148 3357365.21408081 17.48331070 47 85 170
246107.27685547 3357361.76550293 15.86062527 76 73 66
246107.79602051 3357362.40805054 17.70116234 112 131 101
246104.07812500 3357370.53356934 17.05532074 138 194 243
246103.74645996 3357371.43807983 16.77267075 169 186 214
246108.46398926 3357366.61132813 15.18841171 99 85 72
246105.46936035 3357365.98287964 17.06925392 105 152 234
246104.13183594 3357371.47784424 17.09833717 54 122 223
246106.02844238 3357361.27963257 16.61178970 102 125 166
246105.76257324 3357371.18704224 15.33345890 146 135 139
246105.65161133 3357371.45614624 15.35179138 53 141 187
246103.94433594 3357370.06695557 16.89765358 89 141 214
246107.14001465 3357366.83190918 15.02521324 107 91 78
246106.05346680 3357363.76995850 17.11537170 54 122 203
246105.77624512 3357366.22528076 17.12372398 122 168 245
246105.63793945 3357371.60928345 16.67508698 97 104 122
246103.98303223 3357371.66284180 16.14465141 136 147 177
246106.16223145 3357361.83850098 17.28193092 76 169 247
246104.77404785 3357371.18756104 15.32098770 170 136 127
246106.33300781 3357363.96694946 17.03104210 50 121 209
246106.89099121 3357365.00799561 17.44080162 52 103 194
246107.62927246 3357362.21963501 17.58950806 105 132 123
246105.32543945 3357362.99606323 16.91503906 74 131 198
246106.92468262 3357361.15618896 16.97352982 56 113 192
246107.17443848 3357366.36856079 16.20726013 14 20 32
246105.76538086 3357366.81420898 16.67438698 156 164 175
246104.57080078 3357370.88412476 17.34801865 153 190 245
246108.42492676 3357366.32366943 16.29791832 89 76 67
246107.13769531 3357366.95126343 15.01014233 163 144 129
246107.85473633 3357367.20892334 15.11139488 115 97 77
246104.81420898 3357371.25018311 15.37063122 163 119 110
246107.56262207 3357366.00122070 17.34584999 52 98 176
246106.88964844 3357366.18191528 15.38453102 47 47 49
246107.10961914 3357362.40557861 17.62778091 16 63 135
246107.51232910 3357366.67605591 15.96002293 5 4 12
246106.03588867 3357368.47967529 14.96116829 95 90 84
246106.71838379 3357363.60107422 17.21129990 41 104 197
246105.88745117 3357371.40893555 16.94590187 34 46 68
246104.62841797 3357369.70025635 16.78806305 44 94 189
246106.47998047 3357366.22598267 15.36415386 53 53 55
246107.19079590 3357361.95956421 17.37652016 53 119 205
246104.16503906 3357370.14916992 17.13765526 109 160 225
246105.87463379 3357366.63653564 17.09552574 108 155 237
246105.62609863 3357370.81237793 16.49939346 71 63 74
246103.78100586 3357371.27905273 16.38267326 110 154 217
246105.71264648 3357371.43032837 15.72940254 43 52 67
246104.08227539 3357371.91409302 16.55199432 121 157 209
246104.08447266 3357369.67916870 16.08775330 80 104 138
246105.58435059 3357365.75869751 16.28421211 68 71 60
246106.94177246 3357362.84658813 17.63768387 15 69 155
246106.44982910 3357366.23217773 16.33963013 52 65 82
246105.82727051 3357364.85614014 17.20520973 135 186 252
246107.24365234 3357362.77200317 17.51512527 19 60 139
246108.42395020 3357361.34957886 15.45187283 170 163 157
246107.71887207 3357361.11691284 15.01707840 120 113 107
246104.06994629 3357371.45910645 15.77464008 225 221 220
246106.27490234 3357366.54815674 16.63747025 59 73 108
246106.05102539 3357364.41506958 17.11798668 91 141 228
246103.91357422 3357371.75802612 16.95141411 86 119 164
246104.58227539 3357372.20571899 14.96280766 55 54 50
246107.19958496 3357366.82495117 16.79649162 22 53 107
246107.03466797 3357366.23764038 15.57675171 32 32 34
246104.77270508 3357369.72119141 16.34511375 102 111 144
246107.49157715 3357361.51486206 15.32372189 97 94 89
246106.84790039 3357361.47445679 15.41770649 39 44 40
246106.06774902 3357362.07885742 17.33222198 93 175 248
246106.93811035 3357364.28979492 17.08946037 56 115 207
246104.28808594 3357370.38690186 17.19692993 130 180 239
246106.49462891 3357361.48648071 15.62651348 248 250 247
246105.32580566 3357370.77999878 17.23898315 22 68 153
246107.59130859 3357362.89163208 17.41815948 17 66 135
246105.64855957 3357371.04666138 15.23961544 114 100 100
246105.18286133 3357370.25738525 17.16910553 60 99 174
246105.43640137 3357370.69488525 15.41804504 62 34 23
246105.46069336 3357361.13851929 16.52412033 67 66 64
246104.96313477 3357371.44229126 15.37748814 110 73 64
246107.62121582 3357361.68237305 15.73580551 57 56 51
246104.82177734 3357371.44732666 15.84952831 71 67 68
246106.48620605 3357361.23007202 15.04486370 100 99 95
246106.21911621 3357365.95806885 15.87298107 14 17 22
246106.01684570 3357361.60757446 17.17274284 61 158 239
246106.69567871 3357365.32458496 17.77079391 77 129 215
246105.09985352 3357371.82098389 16.37847519 97 96 104
246106.25012207 3357364.85491943 17.37739182 84 141 230
246108.02294922 3357367.08697510 16.52372169 164 137 142
246105.37963867 3357371.86245728 15.03266621 84 80 79
246105.37902832 3357364.30566406 16.99920654 110 158 232
246108.11145020 3357366.98681641 16.98759079 107 113 135
246106.35766602 3357366.10632324 17.32993698 87 143 238
246106.01501465 3357366.21218872 15.74198627 78 82 85
246105.29907227 3357371.05792236 15.65486050 168 102 90
246107.28393555 3357361.77224731 15.65781307 63 56 50
246106.19641113 3357366.89401245 16.92016792 43 79 141
246105.32434082 3357363.71112061 16.97044945 121 180 255
246105.71008301 3357370.41091919 16.66470718 78 78 86
246107.16467285 3357365.58041382 17.55569458 71 108 188
246105.37194824 3357364.74148560 17.03173447 113 163 236
246107.84826660 3357365.06283569 17.17267799 60 110 197
246107.07409668 3357365.00375366 17.41175842 63 113 202
246108.88598633 3357366.99932861 14.99292564 176 158 144
246105.60742188 3357363.31265259 17.15673447 85 164 241
246108.77075195 3357366.41976929 15.13229465 91 77 68
246107.67749023 3357363.35556030 17.31337738 22 68 130
246105.85827637 3357371.54428101 14.99850273 88 97 106
246105.90734863 3357363.94866943 17.03904343 38 102 192
246108.49218750 3357366.36175537 15.64204311 86 74 62
246106.28247070 3357371.67504883 14.94862461 64 63 61
246107.64477539 3357366.45159912 17.28018761 120 162 236
246105.53576660 3357370.08166504 15.39388752 55 47 45
246105.86511230 3357371.19863892 15.54744148 81 71 72
246106.32690430 3357361.80654907 15.71895599 180 178 179
246108.17443848 3357361.38858032 15.61138248 73 70 65
246107.81127930 3357366.97326660 16.41010284 156 137 139
246104.96789551 3357370.74978638 17.57353592 63 110 190
246106.51525879 3357371.70489502 14.95909691 70 69 65
246105.39270020 3357369.82684326 16.79424858 60 26 25
246106.66467285 3357364.56390381 17.18543816 61 117 210
246106.02624512 3357361.73855591 15.48670101 53 45 42
246107.97204590 3357364.71133423 17.10273361 84 136 220
246105.30749512 3357369.96166992 16.14610100 34 28 32
246105.45703125 3357370.68542480 17.12909698 20 72 155
246105.54223633 3357365.67739868 17.07601166 109 154 239
246107.79479980 3357361.67645264 17.54013062 81 114 107
246107.24963379 3357363.82095337 17.09439468 69 128 222
246106.03784180 3357361.71957397 16.10096169 151 162 168
246105.29736328 3357371.53991699 15.36181831 153 139 139
246105.84411621 3357370.99765015 15.07223797 74 62 62
246106.06335449 3357371.97232056 14.99058247 76 75 73
246104.70898438 3357369.88464355 16.13390160 57 61 86
246108.53894043 3357366.13769531 16.01684380 87 74 66
246104.43188477 3357371.38558960 15.00659752 84 83 81
246107.83337402 3357364.31347656 17.10098267 66 118 202
246108.15295410 3357361.40896606 15.69902802 45 46 41
246103.80541992 3357369.98361206 15.93661118 115 87 73
246104.51623535 3357369.84243774 15.56870651 97 98 146
246106.72778320 3357362.98608398 17.58822823 36 94 193
246105.56042480 3357365.90655518 16.32007790 66 68 57
246106.31530762 3357366.20965576 16.35814285 66 79 98
246105.73999023 3357365.51690674 17.16569138 98 160 235
246107.05346680 3357361.19729614 17.01433754 81 146 226
246106.45007324 3357366.30444336 17.27243996 89 143 233
246107.19323730 3357367.03579712 15.01944637 167 148 134
246106.58471680 3357365.84463501 17.51799393 75 122 212
246104.62573242 3357369.73718262 16.20978355 83 105 144
246105.99926758 3357366.54589844 16.59095383 107 111 136
246105.33178711 3357371.49954224 15.47352791 93 87 89
246108.33520508 3357366.62554932 15.41382408 67 55 41
246108.72192383 3357365.76284790 15.52162647 79 71 60
246107.39697266 3357361.66497803 16.02754021 55 55 57
246105.99987793 3357366.25979614 16.28011703 92 94 93
246106.29394531 3357366.28765869 15.42603111 51 51 49
246106.43701172 3357371.59152222 14.94682884 71 70 68
246103.80383301 3357371.14166260 16.09615707 121 141 176
246106.27917480 3357361.80187988 15.65985012 182 181 179
246105.84729004 3357363.26641846 17.28452301 90 170 239
246107.10876465 3357364.60650635 17.21648026 67 120 212
246105.43518066 3357371.64929199 16.45378685 67 63 64
246106.78979492 3357365.48910522 17.85360718 59 109 194
246107.02966309 3357361.47222900 16.40291405 52 73 104
246107.33544922 3357367.24221802 15.02041340 109 93 78
246105.75598145 3357366.56954956 15.98307323 74 78 79
246106.91284180 3357366.40206909 17.25408363 105 153 235
246103.58117676 3357370.82495117 16.65133667 128 157 191
246103.64367676 3357371.03417969 16.68279839 83 131 180
246107.44921875 3357363.62493896 17.14695358 61 120 210
246105.81152344 3357370.01037598 15.12920761 63 53 52
246105.77282715 3357361.26339722 16.56970024 131 139 162
246106.44421387 3357361.23184204 17.00117874 78 152 239
246105.72277832 3357372.10366821 15.01871014 88 88 86
246106.19165039 3357366.74002075 16.78969955 46 67 114
246106.02172852 3357366.53546143 16.59552956 107 111 136
246108.95983887 3357367.12158203 15.00609112 114 98 83
246105.86938477 3357371.35763550 16.89142227 47 54 72
246106.07250977 3357362.91641235 17.41339874 99 177 243
246105.15771484 3357370.97265625 17.48614120 24 69 154
246106.29174805 3357364.41983032 17.11052895 81 135 221
246104.58801270 3357371.30175781 15.01381016 90 75 70
246106.60205078 3357361.46994019 15.61645889 134 136 131
246106.76538086 3357366.67114258 16.68580818 22 45 95
246105.82458496 3357365.10656738 17.23100090 128 177 243
246105.95629883 3357362.06195068 17.26102638 80 173 250
246105.97668457 3357366.41931152 15.75164509 95 96 98
246105.61816406 3357363.80737305 17.11083031 34 111 201
246108.00329590 3357367.10000610 15.16831493 173 146 129
246106.23022461 3357366.55865479 15.35772991 62 60 61
246105.37536621 3357370.12936401 16.00490379 60 53 61
246107.68347168 3357362.21139526 17.68138695 86 104 64
246106.25500488 3357366.81491089 17.05964851 109 158 235
246105.89147949 3357365.70712280 17.19112778 82 145 224
246105.83691406 3357370.04464722 15.11938190 65 57 55
246104.99719238 3357371.80883789 16.32959938 94 96 108
246105.58496094 3357370.22686768 15.37164974 51 40 38
246105.16076660 3357371.80218506 16.37313461 92 91 99
246106.36145020 3357361.64889526 16.19631767 120 140 151
246105.44470215 3357362.86407471 17.07187271 71 143 225
246106.65429688 3357361.31082153 16.57632828 92 107 136
246105.56420898 3357371.11657715 17.18855858 21 72 155
246105.72436523 3357364.91336060 17.17526245 124 175 241
246103.91113281 3357370.38641357 16.91535378 164 202 223
246108.52514648 3357361.53503418 15.42598152 122 117 113
246106.60278320 3357365.44277954 17.77195358 150 195 254
246105.31982422 3357365.38723755 16.90975380 138 175 246
246104.55126953 3357371.12173462 17.31307602 70 127 214
246108.87634277 3357361.14443970 15.10803890 176 173 168
246107.14697266 3357363.38265991 17.25825310 23 89 183
246105.39599609 3357370.90606689 15.93268204 199 136 127
246105.54455566 3357363.25314331 17.12165070 76 159 237
246107.02429199 3357366.21896362 17.33452415 102 153 236
246106.98840332 3357361.49353027 15.36212063 45 47 42
246105.54455566 3357365.87304688 17.08411407 109 154 239
246107.61657715 3357366.78994751 15.12027264 91 83 72
246106.15588379 3357366.00836182 15.78343391 74 75 80
246105.98266602 3357366.57409668 15.54279041 87 85 86
246107.28515625 3357361.30548096 16.57930374 43 63 96
246108.06811523 3357366.95266724 17.04285049 89 111 150
246104.09631348 3357371.50109863 16.00922966 63 72 101
246107.85986328 3357367.02206421 15.49578571 144 95 90
246104.63586426 3357369.87210083 15.38218498 36 28 43
246108.56823730 3357367.06579590 15.04891586 182 163 148
246103.65905762 3357370.47979736 15.98680305 168 162 176
246106.36206055 3357362.01531982 17.41603470 66 167 245
246106.73034668 3357361.45010376 16.43194008 55 75 102
246105.48425293 3357370.85284424 17.15575790 26 70 157
246104.00683594 3357370.60845947 17.00001144 150 202 250
246106.06298828 3357366.74026489 17.09364319 111 159 243
246108.57287598 3357366.03335571 16.01518059 82 72 63
246107.78564453 3357362.51522827 17.60111618 70 94 78
246105.14025879 3357370.20932007 17.12209702 48 89 168
246106.96972656 3357361.83230591 15.76661110 148 143 137
246104.23388672 3357371.20803833 15.32700443 83 85 82
246107.05786133 3357361.38565063 17.19314194 56 138 222
246105.84313965 3357371.23355103 16.94700050 34 60 97
246108.63269043 3357361.03472900 14.91597652 105 101 92
246106.02246094 3357362.20343018 17.30669403 103 183 252
246106.67565918 3357365.86663818 15.59298038 69 69 71
246106.20166016 3357364.87695313 17.38345909 82 137 220
246106.72302246 3357364.26257324 17.08222580 60 116 209
246105.46398926 3357364.21057129 17.01681519 96 144 226
246104.79150391 3357369.72317505 16.35894012 100 105 135
246107.68408203 3357366.90805054 16.67849350 65 56 77
246108.32373047 3357361.71975708 15.66850471 59 54 48
246105.64208984 3357370.46801758 15.42244720 134 89 84
246105.99279785 3357366.19271851 15.84853554 67 68 72
246105.37744141 3357362.07101440 16.99066162 47 118 210
246107.62536621 3357366.77862549 15.75319099 42 17 23
246105.92736816 3357366.27267456 16.14649963 60 61 66
246107.29858398 3357362.93899536 17.42925835 21 62 142
246106.76464844 3357361.32186890 16.56547737 105 123 159
246105.28625488 3357370.83557129 15.59732246 113 54 38
246105.78100586 3357371.37478638 16.63963890 67 73 89
246106.10998535 3357366.60867310 17.12270355 110 158 242
246107.98229980 3357361.20935059 15.24050236 111 103 100
246106.48535156 3357366.03372192 16.11773300 43 50 58
246107.85144043 3357365.25332642 17.20172310 56 104 189
246105.42382813 3357370.13949585 16.36415863 41 43 38
246104.48791504 3357371.78085327 16.20052910 39 60 89
246105.18481445 3357371.76580811 15.10152721 80 76 75
246107.06005859 3357366.34039307 17.28730583 108 155 235
246108.28942871 3357367.13223267 15.13475132 168 136 121
246106.62377930 3357361.70275879 15.73816776 239 237 240
246105.39843750 3357370.40686035 16.26730156 44 40 39
246106.64770508 3357361.79333496 15.78859711 102 140 177
246103.89392090 3357370.29913330 16.87795830 146 177 206
246106.32580566 3357364.64404297 17.23879242 79 133 221
246105.00000000 3357372.19134521 15.00574112 81 78 73
246106.47753906 3357366.88827515 16.97398376 68 112 185
246104.51977539 3357371.68023682 17.00828934 32 92 188
246108.21777344 3357361.16705322 15.29657459 170 166 163
246105.96179199 3357365.00408936 17.26784515 141 185 246
246105.37487793 3357365.96179199 16.97782326 125 167 241
246108.00439453 3357367.00292969 15.38512611 216 152 142
246106.43347168 3357366.27386475 16.38629150 49 61 83
246105.51428223 3357366.49679565 17.10055542 123 165 241
246105.79846191 3357370.83535767 16.71575546 86 84 95
246106.95666504 3357361.39721680 16.50525475 51 75 109
246106.07714844 3357364.02621460 17.02099609 20 85 177
246107.20544434 3357366.44390869 15.81383514 27 32 28
246108.29846191 3357367.02197266 15.57715225 104 75 67
246106.74084473 3357365.33087158 17.76884270 73 122 214
246108.34912109 3357366.65341187 15.32251930 57 45 31
246103.75000000 3357371.55166626 16.79673195 157 169 191
246105.41333008 3357361.19335938 16.87951088 41 86 154
246106.44238281 3357361.87603760 17.35894012 64 160 237
246107.52368164 3357364.12564087 17.04602051 89 136 228
246107.83190918 3357367.03207397 15.98475456 147 109 98
246105.59533691 3357371.44802856 15.88487244 64 58 62
246106.41479492 3357366.89422607 16.92641830 32 75 144
246106.91235352 3357364.28408813 17.08790970 59 115 208
246104.09558105 3357371.60641479 15.15979767 166 165 163
246105.77282715 3357362.66815186 17.19880104 66 148 230
246107.48254395 3357366.04037476 17.39247322 54 97 176
246105.32385254 3357363.64273071 16.97411537 125 183 255
246107.44262695 3357367.21627808 15.03032970 101 85 69
246107.57482910 3357361.42916870 16.32992744 91 94 101
246107.77917480 3357361.31454468 17.10114288 72 128 211
246105.51831055 3357365.63357544 17.06911659 110 154 241
246107.47705078 3357363.69018555 17.12315559 65 121 214
246104.51721191 3357369.69818115 16.79029274 48 95 185
246105.70593262 3357366.62396240 16.47152901 146 157 161
246107.15209961 3357366.08715820 17.39615822 87 133 218
246108.62182617 3357361.62988281 15.40590954 183 187 188
246104.79504395 3357369.92111206 15.46097183 49 44 50
246106.96777344 3357365.41412354 17.68606567 75 113 194
246106.17749023 3357367.03012085 15.00164700 169 151 139
246107.42700195 3357361.80889893 17.27789307 82 136 222
246105.40319824 3357366.83615112 16.96488571 104 133 199
246105.57214355 3357361.17736816 16.86100960 42 86 151
246106.21716309 3357366.58590698 16.67927170 57 71 110
246108.22277832 3357367.06127930 16.13212776 193 158 156
246106.92456055 3357364.05279541 17.03664398 50 104 194
246104.90722656 3357370.94485474 17.55316734 42 90 175
246105.37414551 3357370.09225464 15.85629940 90 90 92
246106.48632813 3357363.77859497 17.12896538 72 127 220
246105.65942383 3357370.02359009 15.24347973 57 47 46
246105.92602539 3357363.64257813 17.17318535 62 123 204
246103.99731445 3357371.17608643 17.00122833 64 122 204
246105.64660645 3357361.46038818 17.11801529 61 138 226
246105.74096680 3357361.39428711 16.30661964 137 146 153
246108.22937012 3357367.02597046 16.71972275 105 93 81
246104.33666992 3357369.65371704 16.64524651 41 82 148
246106.67199707 3357366.88360596 16.97772217 55 99 172
246104.27587891 3357371.74624634 16.91581345 13 69 180
246106.40429688 3357362.49917603 17.61145973 120 187 240
246106.77111816 3357361.54592896 16.33271027 62 83 104
246106.06323242 3357361.24533081 14.99080563 64 63 59
246108.23291016 3357361.13504028 15.08024502 188 187 185
246103.69750977 3357370.62664795 15.97794914 168 156 170
246107.63903809 3357363.73672485 17.09267616 69 129 225
246105.19055176 3357372.12466431 15.02635193 87 86 82
246107.73034668 3357361.76626587 17.50241280 88 122 121
246107.96948242 3357361.44665527 17.21136093 44 97 141
246104.13586426 3357371.72396851 16.12490845 98 105 134
246107.27624512 3357366.41525269 15.94147396 24 22 25
246107.79504395 3357361.68524170 17.46444702 60 96 108
246105.45715332 3357361.16192627 16.87433243 43 86 155
246106.83068848 3357361.15298462 16.85716820 60 94 166
246103.89599609 3357371.70239258 15.71028805 232 230 231
246105.75439453 3357364.17047119 17.00533867 102 143 231
246106.99682617 3357365.19134521 17.54813385 62 104 188
246105.66101074 3357370.41427612 16.61207008 75 74 80
246106.67065430 3357361.48526001 16.39079285 59 80 101
246106.14538574 3357361.24380493 16.71475983 76 115 170
246105.66284180 3357365.95968628 17.10573769 111 162 241
246107.74658203 3357363.16033936 17.37512779 117 142 136
246104.05664063 3357371.78668213 16.92560959 20 60 171
246104.81262207 3357372.25588989 14.98015594 174 165 160
246106.83044434 3357366.06051636 15.45800400 74 72 75
246107.82653809 3357365.20614624 17.20117569 56 104 189
246106.94848633 3357366.66305542 16.66683006 15 37 84
246107.78857422 3357363.35705566 17.36581802 118 140 119
246104.90344238 3357371.49777222 15.13419628 167 142 135
246108.38671875 3357366.56072998 15.43847942 95 83 69
246105.81433105 3357372.03125000 15.01467896 84 82 83
246105.50305176 3357370.55056763 16.41710281 61 55 57
246107.03344727 3357366.51580811 16.48825455 4 19 42
246106.87365723 3357365.29342651 17.67443657 71 117 205
246107.84008789 3357361.46783447 17.15278053 33 90 169
246105.74487305 3357362.35375977 17.16862679 48 144 228
246105.69079590 3357371.54537964 17.09491348 44 78 142
246107.86083984 3357364.53906250 17.10162163 77 125 207
246106.40124512 3357367.13406372 15.00608063 160 146 135
246107.37573242 3357362.36611938 17.52972031 24 69 136
246105.54077148 3357365.82272339 16.34001923 69 72 61
246108.70227051 3357361.69680786 15.39072990 156 165 170
246106.19885254 3357365.96109009 15.92683029 17 20 29
246107.48278809 3357366.74710083 16.63591003 9 13 48
246108.28930664 3357367.03042603 15.71810341 105 80 73
246106.25817871 3357362.34701538 17.46605682 122 193 249
246105.32080078 3357365.15744019 16.95546150 134 173 252
246108.52270508 3357367.30075073 15.08573055 116 98 84
246106.58532715 3357361.84112549 15.92610264 74 86 98
246105.85571289 3357363.42147827 17.25016022 74 153 230
246107.06079102 3357365.64810181 17.61861610 81 118 198
246106.03527832 3357362.67309570 17.35662842 110 184 249
246105.28552246 3357369.75262451 16.58302498 84 82 83
246107.30920410 3357366.94293213 15.03082275 167 148 131
246103.66711426 3357370.96942139 16.73223686 102 139 168
246106.51562500 3357365.85498047 15.62642860 38 39 41
246107.01538086 3357362.41683960 17.68051910 19 78 146
246104.93334961 3357369.68399048 16.77366447 66 88 161
246104.80627441 3357371.31665039 15.57610607 125 94 91
246103.74694824 3357371.36117554 16.79143524 163 187 215
246106.66259766 3357362.62142944 17.80959702 109 172 241
246105.39416504 3357370.12145996 16.30039787 43 49 45
246104.64392090 3357371.28292847 15.65898418 110 104 106
246106.44787598 3357365.62521362 17.60249329 158 199 255
246103.99658203 3357371.72546387 16.18553734 121 135 172
246105.93811035 3357364.91946411 17.25076294 138 186 250
246106.99133301 3357366.86254883 16.89648438 18 56 127
246106.97827148 3357361.40020752 16.50053978 51 75 109
246105.52819824 3357361.16815186 16.73847389 84 100 133
246104.88879395 3357371.79461670 15.00945759 180 166 157
246105.45703125 3357365.49761963 17.05949974 102 155 235
246106.74401855 3357365.55895996 17.78839874 58 108 193
246104.05517578 3357370.26382446 17.02792931 135 193 241
246107.66076660 3357365.36569214 17.25110626 52 97 182
246106.96228027 3357362.45272827 17.71978188 17 70 136
246106.29138184 3357361.51300049 15.38351345 38 40 37
246105.63195801 3357371.44671631 15.45848942 105 200 230
246108.67175293 3357361.90151978 15.45141315 157 163 163
246105.98059082 3357361.99276733 15.64574528 88 97 114
246108.33349609 3357366.94223022 16.21543694 222 198 196
246106.46044922 3357366.80615234 17.07078934 121 170 247
246107.29895020 3357361.43041992 16.39501762 36 47 69
246104.67163086 3357371.49435425 15.00309658 148 130 120
246107.59313965 3357366.09020996 17.33705902 59 107 183
246105.95593262 3357366.58419800 17.10300446 110 158 243
246106.61010742 3357365.10531616 17.56839561 62 121 215
246107.18884277 3357366.68072510 17.21628380 105 160 240
246103.90893555 3357371.21817017 15.91718102 160 167 186
246105.47094727 3357364.45709229 17.04274940 106 160 234
246105.78967285 3357370.06500244 15.15899467 55 45 44
246108.74975586 3357367.31188965 15.06654739 117 101 86
246108.35437012 3357361.02331543 14.91629124 123 118 114
246108.21679688 3357367.03527832 16.77302742 134 120 117
246105.70837402 3357371.32183838 17.11782837 26 68 126
246108.33117676 3357366.74682617 16.03197289 109 90 83
246107.11352539 3357366.36413574 16.28615379 12 22 34
246105.36987305 3357370.23522949 16.07553482 40 36 35
246106.17004395 3357361.95202637 15.86455059 72 83 89
246106.14770508 3357370.37377930 15.00804615 77 66 64
246107.37707520 3357361.79400635 15.77079391 78 75 68
246106.87097168 3357364.19329834 17.05603218 61 116 207
246106.49035645 3357371.88574219 14.98196983 81 81 79
246106.91186523 3357362.36181641 17.69756699 40 108 183
246105.85412598 3357366.15109253 17.13974953 122 166 241
246104.46020508 3357370.39642334 17.30490112 131 176 241
246107.50024414 3357364.98501587 17.23735809 44 94 179
246105.71386719 3357371.20016479 17.09231186 22 67 134
246104.91516113 3357371.87393188 15.01072025 173 160 154
246106.11743164 3357366.03561401 15.74750042 102 103 108
246107.06762695 3357366.19454956 15.80983829 15 19 20
246106.24438477 3357363.12695313 17.45256233 34 109 190
246107.79125977 3357361.20816040 17.06489754 82 135 215
246103.74536133 3357370.27487183 16.07356262 196 159 167
246103.77209473 3357370.30239868 16.30218697 98 84 83
246107.90771484 3357363.48849487 17.43439102 108 129 54
246105.54077148 3357366.59466553 17.10596848 123 164 243
246103.70117188 3357370.97009277 16.17572975 126 131 150
246106.18994141 3357364.29681396 17.05478859 79 130 219
246104.21289063 3357371.61297607 17.11078453 20 82 195
246106.34704590 3357364.81549072 17.34680748 70 130 226
246107.91772461 3357364.07028198 17.13570213 70 121 213
246105.90283203 3357372.05755615 15.00162029 71 71 69
246106.83862305 3357361.53710938 15.63217354 246 248 245
246106.84741211 3357364.67141724 17.24257660 60 115 205
246104.75964355 3357370.54034424 17.38247490 48 105 194
246107.56274414 3357366.77853394 17.16223717 107 155 229
246107.98876953 3357367.07894897 16.43198586 179 133 135
246105.59082031 3357371.49649048 16.41604233 151 139 141
246103.69775391 3357370.56863403 16.73874855 128 134 134
246103.79223633 3357370.20779419 16.49052429 72 69 62
246105.90576172 3357370.46038818 15.08995533 70 52 50
246105.55224609 3357370.82290649 17.10379219 20 66 152
246105.64501953 3357362.50772095 17.13064957 56 137 228
246105.76123047 3357371.05972290 16.63541031 64 63 77
246107.18029785 3357366.64297485 15.52983761 39 39 39
246106.40539551 3357365.98782349 17.39134216 77 133 226
246104.74633789 3357369.75970459 16.29001808 73 82 113
246107.46313477 3357367.16857910 15.03529835 119 102 86
246105.96411133 3357363.88269043 17.06719780 55 119 207
246104.68566895 3357371.27841187 17.24070168 59 116 206
246104.64709473 3357372.28787231 14.96504784 151 150 146
246106.16198730 3357361.97897339 15.76806641 87 86 94
246104.44946289 3357371.88699341 14.98644829 67 66 64
246106.54455566 3357361.47982788 15.32271481 39 44 40
246105.41528320 3357365.23864746 17.08376312 107 161 235
246106.09375000 3357361.21041870 14.98346806 62 58 55
246107.78015137 3357361.23980713 15.22848320 115 108 100
246103.77136230 3357370.29165649 16.12662697 189 159 161
246105.23718262 3357370.26840210 17.18369102 88 123 189
246105.67578125 3357361.77423096 15.94255066 54 58 67
246106.73620605 3357366.10516357 17.38695717 100 149 241
246104.98925781 3357370.53652954 17.40581131 41 97 180
246107.84582520 3357361.27163696 16.48190880 73 68 64
246104.65417480 3357371.73181152 16.16376877 71 84 101
246106.44946289 3357361.62771606 15.67899132 252 254 249
246107.49023438 3357366.64697266 15.62279797 31 29 30
246107.87280273 3357361.58221436 17.21218872 34 94 148
246105.63281250 3357362.60287476 17.14153671 55 135 224
246104.07360840 3357370.90283203 17.05255508 127 184 253
246107.81103516 3357366.97583008 16.10173035 124 103 98
246103.65380859 3357369.78067017 15.75211620 100 127 138
246105.65368652 3357370.07623291 16.66873169 43 38 42
246105.36669922 3357370.40539551 15.87771225 117 88 92
246107.50915527 3357366.74969482 17.19132423 105 155 226
246106.03564453 3357366.11096191 15.84342194 88 89 93
246107.21215820 3357361.66909790 15.59538078 83 73 74
246107.28540039 3357363.21026611 17.30635643 17 76 168
246107.51184082 3357366.62936401 17.25330544 120 164 235
246105.75488281 3357366.62609863 15.92334175 82 84 83
246105.88354492 3357372.02166748 15.00733757 73 73 71
246107.94763184 3357367.08218384 15.96562195 207 170 154
246107.51818848 3357361.76776123 15.76064777 63 59 56
246105.70886230 3357361.80752563 15.91991711 73 77 86
246107.65930176 3357361.83050537 17.35745239 20 73 125
246107.36572266 3357361.43811035 17.17853355 69 136 227
246106.32116699 3357361.67346191 16.16771317 120 138 148
246105.73486328 3357362.51580811 17.16208458 49 144 228
246107.52416992 3357366.38439941 17.31611252 112 155 233
246103.86791992 3357369.86645508 16.60985756 79 79 77
246104.38952637 3357371.73574829 16.93095589 24 86 195
246104.62268066 3357371.19601440 15.09568119 114 89 84
246107.29382324 3357361.15881348 16.90945244 43 87 162
246108.60681152 3357365.97549438 15.90396595 76 68 57
246103.98205566 3357369.70837402 15.90349579 117 136 143
246107.36279297 3357363.25610352 17.28721428 20 76 171
246106.93640137 3357361.17282104 16.77362442 60 86 137
246104.09863281 3357369.74404907 16.64590836 143 176 221
246106.16748047 3357366.57669067 16.66192627 70 83 117
246107.71582031 3357361.53506470 15.60112095 91 87 78
246103.89916992 3357371.59094238 16.95252228 88 109 152
246107.56701660 3357361.92413330 17.37889671 23 72 128
246106.71752930 3357366.39572144 16.39593315 14 26 42
246104.33850098 3357372.05700684 15.02608490 58 60 59
246105.90197754 3357361.21008301 16.70559883 109 133 179
246106.60437012 3357364.79061890 17.32222176 56 113 203
246107.00842285 3357361.31564331 17.14633560 59 141 225
246106.18945313 3357365.97311401 15.95369625 17 20 29
246105.84179688 3357371.97253418 15.01140404 79 79 79
246105.33264160 3357370.78662109 15.72741508 145 83 70
246105.37048340 3357366.55621338 16.92864418 137 165 238
246104.04357910 3357370.48477173 17.02734184 139 193 239
246105.24206543 3357371.13424683 17.40091515 68 113 198
246106.15136719 3357366.65493774 17.12529373 113 161 245
246105.87365723 3357366.81289673 17.07357788 111 157 235
246105.88842773 3357371.25439453 15.49815941 126 120 122
246106.09277344 3357365.37023926 17.34457397 127 178 241
246105.85571289 3357365.44314575 17.21672058 97 165 240
246107.27087402 3357362.82754517 17.47674370 22 60 141
246105.32971191 3357362.38858032 16.79482269 65 119 191
246107.95312500 3357366.49444580 17.17773628 59 98 177
246105.18664551 3357371.90124512 15.04957581 80 79 75
246107.07580566 3357361.47546387 15.16631699 71 66 60
246104.09802246 3357371.48947144 16.00349426 69 78 107
246107.31018066 3357366.82189941 17.15433884 103 161 235
246104.10449219 3357371.54254150 17.08536911 49 116 220
246108.59826660 3357366.30206299 15.40069485 90 78 66
246105.34216309 3357370.80105591 15.76476097 153 87 75
246104.14538574 3357371.39816284 15.38036251 102 101 99
246104.11132813 3357371.59509277 15.32908630 221 211 202
246104.93798828 3357369.81964111 16.29544449 62 59 68
246106.83325195 3357367.14739990 15.01292515 157 139 127
246108.23742676 3357361.22018433 15.50713348 162 157 153
246103.76892090 3357371.75149536 16.78478241 162 174 198
246106.28210449 3357361.25799561 15.01276588 65 62 57
246105.87377930 3357364.82098389 17.21772003 135 186 252
246106.00048828 3357361.64523315 15.32059193 84 85 87
246105.81469727 3357371.25036621 15.82926083 49 48 46
246105.99621582 3357364.88882446 17.27089500 143 188 255
246107.07202148 3357365.11071777 17.45957756 65 109 198
246105.78186035 3357365.27523804 17.21518517 124 181 250
246107.55224609 3357366.66567993 15.34628201 54 46 44
246104.42285156 3357371.18228149 17.23260498 143 187 250
246105.74401855 3357366.51358032 16.40096474 99 109 118
246107.80554199 3357361.53683472 15.90020180 141 137 126
246106.74890137 3357361.98760986 17.43610191 66 143 235
246104.89941406 3357370.83047485 17.57585716 101 145 210
246107.54260254 3357363.73275757 17.10216522 60 119 211
246107.62341309 3357363.55014038 17.17782974 66 124 221
246105.72180176 3357361.58639526 16.16082382 69 75 87
246104.59289551 3357370.63623047 17.40225220 174 202 249
246105.07641602 3357371.52310181 15.29033947 174 147 136
246105.36962891 3357361.17025757 16.79879761 43 67 115
246105.97216797 3357363.01196289 17.35726166 103 178 245
246106.41235352 3357362.88510132 17.59872055 78 155 237
246103.68994141 3357371.13946533 16.51492500 100 149 218
246105.60412598 3357370.47564697 16.53942108 72 70 75
246108.20056152 3357367.06127930 16.61399841 126 115 111
246106.09460449 3357363.32550049 17.32995796 38 103 185
246105.59863281 3357370.69027710 15.25998116 86 39 31
246105.62231445 3357361.76385498 17.13145065 49 134 224
246105.14343262 3357370.77716064 17.41256332 20 70 157
246107.72351074 3357366.81597900 16.16137886 3 4 8
246103.61621094 3357370.66201782 16.47279930 18 28 53
246104.99096680 3357371.42300415 17.11703110 39 90 179
246106.63220215 3357365.95864868 15.96291256 36 39 46
246104.50683594 3357369.83517456 15.80752563 55 75 138
246105.93603516 3357371.72027588 14.97432899 51 49 50
246105.43835449 3357370.07476807 15.53797054 39 39 37
246105.69287109 3357371.46453857 15.27582836 22 77 118
246104.95776367 3357371.79232788 16.29916191 89 95 107
246104.47216797 3357371.49371338 14.98643398 139 130 123
246104.50744629 3357369.61874390 16.65327454 50 95 176
246104.17224121 3357371.51055908 15.47955608 103 98 94
246105.59680176 3357363.91036987 17.06631470 38 114 202
246104.93713379 3357371.00051880 17.50652695 43 90 180
246107.68933105 3357366.98733521 16.90925789 22 31 72
246105.59448242 3357366.61560059 16.34759140 150 154 163
246108.32055664 3357361.76174927 15.60284519 58 51 45
246107.12695313 3357364.01324463 17.03365326 43 94 183
246108.60144043 3357365.99435425 15.89802361 77 69 58
246105.33044434 3357371.60961914 15.09032154 122 120 121
246107.70642090 3357362.47732544 17.56339073 47 82 104
246104.22167969 3357370.69744873 17.15886307 140 193 247
246105.84155273 3357361.89419556 15.52842426 55 57 46
246107.98461914 3357363.99639893 17.20313263 76 126 211
246106.49621582 3357371.47216797 14.95217896 137 133 130
246104.80786133 3357371.47286987 17.12745476 54 109 202
246105.84179688 3357370.37564087 15.11535263 71 53 51
246107.87780762 3357367.02014160 16.30471992 200 167 162
246108.02062988 3357361.21441650 16.53112030 41 53 49
246108.33129883 3357366.73379517 16.24819756 106 89 79
246104.85205078 3357371.48376465 15.09589481 162 139 133
246103.91748047 3357369.96203613 16.83670425 112 149 219
246106.98718262 3357366.20791626 16.06555557 5 14 23
246108.95861816 3357367.01232910 14.98740864 184 166 152
246104.88317871 3357371.36740112 15.31740570 154 99 92
246108.08435059 3357361.10049438 14.99025726 107 102 99
246106.28552246 3357366.02456665 17.33090973 77 142 234
246108.48742676 3357361.06127930 14.92145634 115 110 106
246103.82360840 3357371.75128174 16.46058655 100 136 196
246106.78161621 3357365.99755859 17.45888901 79 124 215
246104.33459473 3357370.54647827 17.22502899 137 194 247
246107.19555664 3357363.40469360 17.23848915 30 95 189
246107.44604492 3357361.44857788 17.17124748 75 141 228
246106.03271484 3357366.22518921 16.26288605 101 106 102
246107.65063477 3357363.19436646 17.35099792 51 82 136
246104.98925781 3357371.89782715 16.47052193 93 104 124
246104.35754395 3357370.59405518 17.24395943 141 196 250
246105.36682129 3357361.40084839 17.03549004 61 132 212
246107.59887695 3357366.94284058 16.87494850 18 36 98
246105.59558105 3357371.65701294 16.70796013 79 91 115
246105.77160645 3357361.98074341 15.70982170 116 127 147
246105.45605469 3357365.53326416 17.05179405 101 156 239
246107.75646973 3357361.57995605 15.90426731 107 107 97
246105.66857910 3357371.10678101 17.10801697 28 74 152
246106.67932129 3357361.67025757 16.18525314 70 88 100
246104.33886719 3357372.10275269 15.02875996 58 60 59
246107.83911133 3357366.99926758 15.46543121 139 98 94
246107.91650391 3357361.21899414 17.09565544 71 126 208
246105.01000977 3357371.65954590 16.13597870 75 76 80
246109.03417969 3357367.06549072 14.99687481 131 113 99
246106.74499512 3357366.26577759 16.27559471 13 25 37
246106.81042480 3357361.23583984 17.09117508 74 150 234
246105.34252930 3357369.82516479 16.50044823 62 56 56
246105.30358887 3357364.22509766 16.91996193 137 176 253
246106.65771484 3357366.02227783 16.04844666 20 25 31
246105.52575684 3357362.61892700 17.10909271 61 136 227
246106.59375000 3357361.17462158 16.98011971 82 143 226
246107.28491211 3357363.25518799 17.28359032 18 79 172
246105.59094238 3357365.82336426 16.26846695 63 65 54
246105.23474121 3357369.83267212 16.25514984 49 45 44
246104.31445313 3357371.87548828 16.68023682 143 177 225
246106.46203613 3357366.69766235 15.18174839 80 72 69
246105.21240234 3357371.81872559 16.48252487 120 116 130
246108.46093750 3357361.59384155 15.94914341 65 61 52
246104.77770996 3357369.67321777 16.77567673 39 88 181
246105.40612793 3357369.82888794 15.43857002 43 39 38
246105.86218262 3357366.57247925 17.09920311 110 157 239
246105.75549316 3357364.04193115 17.00221443 26 79 171
246105.50390625 3357371.01257324 16.23424721 66 53 63
246106.38989258 3357370.73562622 14.96462345 72 62 60
246105.62280273 3357363.87451172 17.07894135 37 112 203
246104.78002930 3357371.62310791 16.06003761 76 79 88
246107.00939941 3357363.32669067 17.31175232 18 87 182
246104.62341309 3357369.89950562 15.90630054 50 58 105
246108.62463379 3357365.92007446 15.90438747 77 69 58
246107.99694824 3357361.42199707 15.89179993 130 127 120
246107.42004395 3357361.60925293 17.21036720 60 130 215
246107.15722656 3357361.77984619 17.32473755 60 130 218
246107.27770996 3357361.77914429 15.68208027 67 60 52
246106.42346191 3357371.69384766 14.95506191 69 68 66
246106.47253418 3357361.78103638 16.06013107 65 84 91
246106.41821289 3357366.48583984 16.55604553 51 62 92
246106.94555664 3357366.16653442 16.03529930 5 14 21
246106.30895996 3357364.15704346 17.03238869 67 121 211
246105.89013672 3357366.33541870 16.02438736 71 72 74
246105.88464355 3357361.93240356 15.56749439 49 55 53
246106.06823730 3357364.96807861 17.32628059 151 189 251
246108.09472656 3357361.20227051 16.48031235 60 71 65
246106.05078125 3357366.04534912 17.21611595 104 159 241
246106.22656250 3357361.90093994 15.65072727 126 118 116
246105.55883789 3357365.73361206 17.08775139 106 152 237
246107.56530762 3357366.87405396 16.74782181 10 22 62
246107.04016113 3357361.82766724 15.76385689 133 123 114
246103.92980957 3357371.65866089 16.97834778 92 131 188
246106.64514160 3357366.14331055 16.18418884 12 18 30
246105.58996582 3357370.88241577 17.09514427 22 68 156
246105.59069824 3357362.02304077 17.11877632 49 130 222
246107.92968750 3357361.44396973 15.93637657 134 130 119
246105.93945313 3357371.57406616 14.97341156 61 60 58
246107.56176758 3357361.55450439 15.43198967 67 64 57
246105.98974609 3357362.40359497 17.29108238 91 178 245
246104.51733398 3357371.74963379 16.16990471 38 58 82
246106.89489746 3357361.49377441 17.23720551 61 143 227
246105.79296875 3357371.50283813 17.06977272 36 68 119
246107.86315918 3357363.81597900 17.13173103 78 134 221
246108.51989746 3357366.65213013 15.11365891 97 83 70
246106.44140625 3357371.98452759 14.99053764 85 85 83
246108.30944824 3357366.92810059 15.70895863 193 169 165
246106.83020020 3357366.80471802 16.83317184 19 53 117
246106.34423828 3357362.63442993 17.58871460 137 200 253
246105.85363770 3357361.72595215 17.21136284 47 131 219
246108.92956543 3357361.06991577 14.92710018 108 101 95
246107.24206543 3357361.60083008 16.15810013 41 43 58
246105.58825684 3357371.22415161 16.31080055 78 66 76
246108.60241699 3357366.74514771 15.02827168 97 79 65
246104.14770508 3357371.65933228 15.70908737 222 221 217
246108.63464355 3357366.19058228 15.44308472 85 72 63
246104.31799316 3357371.41049194 15.87244987 57 62 65
246106.37976074 3357365.96441650 15.99844646 45 48 55
246103.99340820 3357371.26632690 15.82866096 148 142 144
246107.09960938 3357366.68325806 15.28200817 60 59 55
246105.09826660 3357369.70086670 16.65671349 64 67 76
246107.30419922 3357363.10455322 17.36417770 13 60 148
246106.32592773 3357366.79074097 15.08455086 89 75 66
246108.35205078 3357361.64904785 15.82292175 75 71 62
246108.06994629 3357365.02294922 17.11168671 101 141 229
246104.36718750 3357371.36956787 15.83231354 66 70 73
246106.06579590 3357366.97647095 14.99191475 171 152 138
246105.84326172 3357361.26620483 17.03830528 70 150 237
246105.09069824 3357369.77569580 16.27249336 38 38 36
246106.04638672 3357365.51190186 17.29169083 95 156 239
246106.19494629 3357361.23480225 16.72433662 83 123 175
246105.56774902 3357371.46963501 16.05566216 90 75 78
246105.16564941 3357371.38616943 17.14049530 35 86 175
246103.57690430 3357370.77719116 16.62102699 138 165 195
246106.84912109 3357364.43304443 17.14276505 56 111 202
246106.46423340 3357365.09597778 17.52532005 68 128 224
246105.22607422 3357371.48672485 15.51265812 111 96 91
246104.53918457 3357371.59613037 16.04774475 54 66 80
246107.82275391 3357363.86474609 17.11216545 69 128 220
246105.66320801 3357371.16854858 16.47577667 58 55 66
246106.20861816 3357370.41519165 14.98829174 72 61 59
246105.42187500 3357370.76669312 16.15172005 56 35 42
246106.32714844 3357370.75189209 14.96765995 75 67 65
246104.45959473 3357370.57730103 17.30972672 154 194 246
246105.98242188 3357366.26586914 16.26711655 92 94 93
246106.61706543 3357365.87136841 17.50695038 75 124 216
246104.76281738 3357371.20901489 15.22696304 167 134 127
246106.70788574 3357364.07681274 17.04049492 68 125 215
246105.97485352 3357366.27053833 16.26528358 88 89 91
246105.51074219 3357363.65191650 17.12298012 72 159 239
246108.47619629 3357367.05572510 15.08886051 174 155 141
246107.58618164 3357366.08929443 17.34073067 59 107 183
246105.69177246 3357370.87060547 15.15727520 153 143 141
246106.23840332 3357361.55776978 16.27659798 142 159 167
246105.54382324 3357365.47766113 17.10459328 104 160 234
246105.63659668 3357371.42883301 15.81652641 49 48 53
246104.32116699 3357371.62121582 16.04574776 66 80 93
246106.81140137 3357361.49429321 15.23132420 51 52 47
246106.98876953 3357361.75457764 16.02845764 63 65 77
246105.99633789 3357361.68145752 17.19984627 69 164 246
246106.66479492 3357364.96234131 17.43917084 54 108 198
246104.95349121 3357371.44207764 15.46903038 155 106 102
246106.79492188 3357366.67361450 17.14987946 88 136 220
246106.77612305 3357365.38836670 17.79511452 70 117 207
246108.04492188 3357361.29513550 16.26146317 56 65 60
246105.39282227 3357362.05804443 17.01243019 47 118 210
246104.88659668 3357369.66271973 16.51070213 89 88 122
246106.13342285 3357361.38632202 15.04752445 46 48 45
246105.34423828 3357370.00878906 16.04814720 36 29 37
246106.79968262 3357361.29351807 16.60383797 83 102 145
246107.34545898 3357361.14556885 15.04563141 109 102 96
246105.68237305 3357361.60006714 16.13782692 66 75 84
