245788.19952393 3357497.07830811 21.25674820 167 183 180
245788.06793213 3357501.09823608 18.82627296 175 190 195
245784.02746582 3357497.11434937 20.54157639 252 255 255
245786.49212646 3357497.05828857 19.59476662 159 176 183
245789.23498535 3357497.45718384 22.54715538 121 136 129
245786.49365234 3357497.15313721 21.00819778 148 175 168
245787.35443115 3357501.45861816 24.02235413 129 150 151
245787.69201660 3357502.62393188 18.95858383 128 148 149
245784.13323975 3357501.70538330 23.85561752 235 242 224
245784.40057373 3357498.73220825 19.32036781 189 201 197
245786.06329346 3357501.32519531 20.32301521 119 141 120
245789.88006592 3357496.68011475 22.23688698 224 241 225
245789.91326904 3357497.25183105 23.72297859 130 158 144
245789.58801270 3357501.90673828 21.11672211 137 164 147
245787.35815430 3357501.33843994 20.10422897 137 149 149
245786.46618652 3357502.43902588 24.23388100 138 147 144
245787.85662842 3357502.82788086 22.24957848 105 126 119
245785.72808838 3357502.70532227 21.57254219 84 104 92
245787.34844971 3357497.20822144 19.63370323 135 147 143
245784.34277344 3357496.99545288 22.31275177 155 177 164
245786.22320557 3357502.14926147 18.86405373 166 188 186
245784.30725098 3357500.02401733 23.24565697 61 91 67
245784.21795654 3357499.91647339 19.29191017 242 251 246
245788.08197021 3357502.45233154 22.63684082 82 106 93
245785.23968506 3357500.29443359 24.11620903 175 186 178
245789.75177002 3357498.49078369 21.93652725 177 186 185
245788.57122803 3357498.51626587 24.02174950 177 194 184
245787.39721680 3357502.19873047 20.90820885 116 139 129
245787.31732178 3357499.98794556 24.15794754 159 174 167
245788.55102539 3357503.33291626 23.94531059 145 169 169
245787.49859619 3357503.38619995 23.98726463 149 167 171
245788.65014648 3357501.43655396 20.63433647 115 142 127
245790.22235107 3357500.79144287 18.66081238 72 77 71
245784.42260742 3357503.17098999 19.68643570 182 195 188
245784.44506836 3357501.23364258 22.91797447 136 153 134
245789.51660156 3357497.07855225 21.95746231 203 224 209
245783.75158691 3357497.19747925 18.70955467 241 229 215
245784.51013184 3357498.84042358 22.12106133 185 204 184
245788.14306641 3357496.78997803 23.67974663 157 179 166
245789.84594727 3357497.47729492 23.65374565 129 160 145
245786.43029785 3357503.12481689 24.18560982 167 178 174
245787.16345215 3357498.66354370 24.15372086 172 188 177
245784.54089355 3357503.31118774 21.80581665 98 108 100
245789.34326172 3357503.36856079 18.58905220 71 76 79
245785.28759766 3357497.15975952 23.43164825 159 176 160
245789.94439697 3357497.25659180 23.92308807 173 185 175
245786.14031982 3357496.99325562 23.19834137 208 240 219
245789.51147461 3357497.11160278 19.48093987 168 183 178
245784.86358643 3357500.68618774 19.63484383 219 228 207
245786.61169434 3357502.01724243 18.81477928 177 197 185
245789.43524170 3357499.46923828 23.98252487 115 133 135
245786.38732910 3357496.72491455 23.77345467 154 173 154
245790.02160645 3357500.99505615 21.32147217 109 126 110
245789.84912109 3357502.13342285 21.27379608 123 151 129
245784.60253906 3357498.73913574 22.35734940 173 190 171
245784.29132080 3357496.83395386 21.81768417 212 228 217
245788.93237305 3357500.95458984 20.72748375 110 135 116
245786.82635498 3357497.74951172 20.44743919 95 114 108
245789.48406982 3357500.27996826 22.93520355 158 185 144
245784.28173828 3357499.83950806 21.38297272 189 204 175
245787.65362549 3357502.75238037 19.01222992 123 142 140
245785.58404541 3357497.86605835 19.61094856 114 127 120
245784.51782227 3357503.33270264 22.24939728 152 175 167
245789.94793701 3357503.18151855 22.88214493 146 178 163
245786.98547363 3357497.69522095 20.55507660 129 147 151
245788.79602051 3357500.86492920 18.66346741 168 184 181
245789.14514160 3357497.34899902 22.20970535 132 153 138
245789.54101563 3357499.29983521 19.14634323 146 166 155
245785.01873779 3357499.33090210 22.53865051 69 80 66
245789.65307617 3357499.72772217 21.17488480 142 165 139
245787.41912842 3357497.53488159 20.25533485 67 82 85
245787.63452148 3357501.62106323 18.82586288 169 191 188
245784.52520752 3357498.36166382 24.01297188 159 177 165
245787.58288574 3357502.00271606 24.11713791 143 159 156
245788.96343994 3357501.85012817 22.19887352 158 174 147
245789.24969482 3357501.07788086 24.11240196 185 195 194
245784.52679443 3357501.13809204 23.05056190 133 152 130
245786.85528564 3357497.07763672 21.33067513 155 177 175
245790.06811523 3357501.15612793 21.36059952 99 117 103
245784.72058105 3357503.57357788 18.54488373 42 47 50
245789.63452148 3357496.92758179 20.01253891 211 232 223
245788.84301758 3357502.10424805 20.89059639 143 163 138
245788.07037354 3357503.16094971 19.28588867 149 175 176
245786.35046387 3357496.90432739 20.78598976 174 195 188
245788.59411621 3357500.66394043 20.43815613 128 152 130
245789.56024170 3357500.29348755 21.11213493 159 177 151
245783.73034668 3357498.92733765 18.61282921 241 228 222
245789.44610596 3357499.55587769 23.06228447 114 149 107
245785.93847656 3357502.97964478 21.37690735 148 169 152
245790.11315918 3357496.86871338 24.01343155 189 206 198
245788.71539307 3357499.85794067 19.32047462 85 97 93
245786.15789795 3357497.57083130 20.36928940 228 251 241
245784.01403809 3357502.75714111 18.93119812 185 185 177
245784.97027588 3357500.32751465 20.55273056 126 150 126
245786.15118408 3357497.42236328 19.98353577 98 111 104
245790.30731201 3357496.97866821 18.54767227 142 147 143
245790.13031006 3357501.18292236 19.13314247 71 82 78
245790.24914551 3357499.78097534 18.54776955 120 125 118
245786.33056641 3357496.72167969 20.09700584 177 190 196
245785.56298828 3357496.45962524 18.60263634 225 218 200
245786.21234131 3357498.19140625 24.27749825 200 204 190
245789.60638428 3357501.78836060 21.10889053 131 155 139
245789.44671631 3357503.01397705 19.32392311 218 242 228
245785.10302734 3357497.16259766 23.45857430 147 163 152
245786.38958740 3357497.10391235 19.61532593 176 193 200
245790.18432617 3357500.81173706 18.92634010 69 71 66
245787.76776123 3357496.81152344 23.73844719 162 189 172
245784.68621826 3357497.43322754 20.50713921 163 175 163
245787.65771484 3357496.89538574 21.79051781 152 172 170
245786.06079102 3357496.89276123 23.74815369 183 200 181
245789.70794678 3357502.83276367 22.06080246 125 148 128
245786.95709229 3357497.72610474 20.16440964 118 137 143
245787.98229980 3357501.19030762 20.29201889 119 143 130
245784.49047852 3357497.44845581 20.15683365 175 179 178
245786.68408203 3357500.04168701 24.20914268 156 173 165
245784.77148438 3357499.28945923 22.13553429 171 191 166
245784.03479004 3357496.91622925 23.36845589 236 241 234
245788.02233887 3357501.25405884 20.39636993 114 136 124
245784.11700439 3357501.47637939 21.20335579 187 197 186
245788.29388428 3357500.21795654 19.91022873 101 122 107
245786.46130371 3357502.78881836 24.10131454 140 156 156
245788.79284668 3357496.99267578 23.94835091 169 189 180
245788.48358154 3357497.18209839 21.91166687 92 108 95
245784.74371338 3357503.03710938 23.34490395 107 139 118
245786.46356201 3357496.72863770 23.30485344 113 129 119
245788.80279541 3357499.08874512 20.34845161 108 134 105
245788.23181152 3357497.69110107 20.12147141 49 63 66
245789.83593750 3357499.03085327 21.82825089 102 107 103
245783.99835205 3357497.10760498 21.65039825 231 238 231
245785.66711426 3357498.06011963 24.28928375 159 167 154
245786.17468262 3357500.23461914 24.20448685 167 173 169
245788.68371582 3357502.41833496 22.23438072 77 99 86
245783.83703613 3357499.35943604 18.79196930 254 241 235
245789.91528320 3357500.48275757 19.35489845 189 208 188
245785.44110107 3357498.14550781 24.28789520 168 178 167
245789.79827881 3357499.55642700 23.88912773 191 197 193
245788.25646973 3357498.42034912 24.09068108 181 201 189
245784.42089844 3357497.33569336 22.25266647 169 186 167
245784.26940918 3357500.51428223 21.43298721 200 207 191
245784.20458984 3357503.37112427 23.48777580 161 186 182
245790.12500000 3357499.16592407 23.90985489 143 168 146
245789.72680664 3357500.71075439 19.20102119 191 205 188
245789.30072021 3357497.07421875 20.91562462 81 106 100
245789.09405518 3357502.10867310 20.96096802 126 148 127
245789.66265869 3357501.77206421 23.18355751 98 123 91
245789.75482178 3357500.79626465 21.86496162 115 127 123
245789.80468750 3357503.28802490 23.89900780 133 153 152
245789.32281494 3357500.83743286 22.98990631 123 151 110
245789.05548096 3357500.26144409 20.58780670 121 143 122
245785.03356934 3357497.54885864 22.95374107 165 183 169
245789.70385742 3357497.40093994 23.84813690 190 201 193
245788.00683594 3357501.00503540 19.24652481 97 112 107
245789.20812988 3357502.49456787 21.83916283 163 185 164
245789.98748779 3357502.79235840 19.60042953 171 196 190
245786.33160400 3357496.66622925 19.16753960 202 206 189
245785.17114258 3357502.75909424 23.97945213 168 184 181
245784.09710693 3357501.45889282 21.28732491 201 209 198
245788.60522461 3357501.29513550 24.11049271 137 155 155
245784.62420654 3357500.38858032 22.77693367 97 119 98
245789.23364258 3357501.60440063 21.74463272 189 203 203
245789.68725586 3357499.10610962 21.17304611 130 155 126
245789.88934326 3357497.13375854 23.56619835 107 135 121
245784.55889893 3357501.35879517 20.04210091 158 188 162
245790.07238770 3357498.18249512 23.89579201 145 172 157
245788.62634277 3357503.22531128 23.83954620 153 181 182
245786.25531006 3357502.86816406 19.09307671 204 207 198
245790.22906494 3357503.07534790 18.95557022 57 60 65
245786.22607422 3357499.20401001 24.26011086 189 205 195
245789.27709961 3357497.43002319 23.99261284 129 146 153
245785.26580811 3357501.41619873 24.22915840 187 208 213
245789.04962158 3357497.39492798 22.80144882 121 137 124
245789.24420166 3357498.33773804 20.70253754 110 134 112
245788.88134766 3357496.76550293 23.83746147 215 241 230
245790.26800537 3357502.18490601 18.53434944 55 61 61
245783.76470947 3357497.23556519 18.73381615 240 228 214
245789.42779541 3357502.61102295 22.74198341 72 109 66
245787.07623291 3357502.77087402 21.21640968 124 147 131
245786.16412354 3357496.91888428 23.41085052 214 237 217
245785.88562012 3357497.37274170 24.19076729 171 177 163
245784.00250244 3357498.60192871 23.73231697 61 80 61
245789.98767090 3357498.57766724 19.19421959 106 127 122
245789.39074707 3357497.13336182 20.08182144 222 226 209
245784.16906738 3357501.07632446 19.32625771 247 253 243
245784.95239258 3357499.11538696 22.39079285 247 249 228
245788.24792480 3357502.29568481 24.15507126 159 173 182
245788.22290039 3357502.63842773 23.10522461 68 99 83
245784.47229004 3357502.74902344 21.10688210 127 143 130
245788.44915771 3357500.55255127 18.55157089 195 216 211
245788.65472412 3357500.96228027 20.59081459 123 147 125
245789.87701416 3357497.03448486 23.92261124 182 199 180
245784.64025879 3357499.56884766 20.96868515 125 147 124
245784.10229492 3357502.89163208 19.00260544 146 148 137
245785.66448975 3357497.60046387 19.35607529 136 152 142
245784.18322754 3357496.86544800 21.83543015 215 231 220
245784.53509521 3357501.72583008 18.95645523 101 108 101
245784.84930420 3357502.04614258 18.92322540 213 221 223
245789.25817871 3357496.82989502 23.43917465 97 120 102
245784.49230957 3357502.80722046 21.04116631 112 133 118
245784.61871338 3357499.67416382 22.92368317 81 106 84
245785.00219727 3357501.35778809 20.44470596 140 163 145
245789.40679932 3357498.97628784 23.96132469 116 131 134
245789.85229492 3357497.78866577 23.65262794 133 162 142
245786.34930420 3357496.78668213 20.20982361 175 189 192
245788.03906250 3357500.06469727 19.02474022 92 113 106
245787.31072998 3357502.18759155 20.90296745 125 148 140
245789.27111816 3357497.27896118 23.05556679 93 119 108
245784.69879150 3357499.16894531 20.68846703 140 154 129
245786.29876709 3357503.05453491 19.29049110 221 228 210
245788.82464600 3357497.36773682 19.89753723 213 217 216
245789.75549316 3357497.80163574 23.99582863 219 227 229
245784.45300293 3357498.88467407 24.06630707 158 171 161
245786.29602051 3357501.07995605 24.25662231 193 201 203
245785.07183838 3357497.43634033 19.61592484 150 161 153
245787.47662354 3357503.03906250 23.40639687 82 110 96
245790.14819336 3357500.39163208 18.95161438 90 95 89
245789.77355957 3357500.52597046 21.23435783 146 164 140
245788.89825439 3357501.15759277 20.73180771 119 142 124
245788.03588867 3357497.11520386 21.85906792 52 69 61
245785.14721680 3357497.59936523 22.46425819 190 204 191
245789.71752930 3357496.67776489 21.33063126 215 232 224
245786.44708252 3357501.61721802 18.75609779 178 191 184
245784.46801758 3357501.54415894 24.10830688 145 166 169
245788.51782227 3357502.35409546 22.63194084 83 112 94
245784.14404297 3357498.04232788 19.34545326 238 251 242
245784.40252686 3357498.07171631 22.17970276 126 151 130
245789.09796143 3357501.55755615 22.11366272 205 214 187
245785.43859863 3357501.95043945 22.35817528 106 137 119
245789.51525879 3357496.61630249 19.07220840 137 135 123
245789.48797607 3357497.91076660 22.02350426 115 131 128
245790.22314453 3357503.13134766 18.92884636 54 62 64
245788.05957031 3357499.01132202 24.19921303 162 175 166
245789.82165527 3357503.09649658 22.90175629 163 196 177
245787.00360107 3357496.79629517 23.95591164 227 249 237
245784.68902588 3357499.24728394 20.48296547 127 145 121
245784.35729980 3357496.79782104 19.21084595 164 179 174
245789.91516113 3357498.90609741 23.47247124 82 105 85
245789.72106934 3357496.94879150 20.25504494 127 148 143
245785.34716797 3357497.10873413 21.79692268 155 174 168
245790.09210205 3357501.15710449 23.73263359 123 151 126
245788.92706299 3357501.77874756 18.81634331 183 204 199
245789.51403809 3357497.44137573 23.25935936 86 116 92
245789.99243164 3357500.12738037 23.64808273 120 153 126
245784.80181885 3357501.07455444 20.30405235 148 175 160
245789.06848145 3357497.37481689 19.92125130 142 167 145
245789.46093750 3357502.27664185 22.73397636 97 125 87
245789.10388184 3357499.66381836 24.10177803 125 142 136
245790.13171387 3357497.75588989 18.79823303 97 96 94
245787.66375732 3357501.74334717 20.69822121 114 135 126
245786.21374512 3357500.42358398 24.20869827 156 161 157
245788.29028320 3357496.90969849 19.24302483 201 225 212
245785.80316162 3357496.88314819 24.12096596 187 198 184
245789.86022949 3357497.87994385 24.06219292 161 168 174
245785.12579346 3357501.16641235 19.38616753 156 169 160
245789.56811523 3357500.30300903 23.12322807 126 153 118
245784.59216309 3357501.83535767 18.92933083 188 194 194
245786.66107178 3357502.98074341 23.50606728 128 156 141
245785.24798584 3357502.79528809 21.53145981 78 101 91
245788.50732422 3357497.55844116 22.52048683 92 110 98
245786.95617676 3357501.11975098 24.09238052 145 164 162
245787.43823242 3357498.38696289 24.19825554 155 168 158
245784.10614014 3357496.84786987 21.29647255 206 225 219
245784.70239258 3357497.56744385 22.65064621 139 152 142
245784.43731689 3357501.23782349 22.45012665 169 180 172
245784.61730957 3357500.53152466 19.30047226 125 134 129
245784.71350098 3357503.02536011 19.25664711 179 190 182
245790.03247070 3357496.53860474 18.77667046 165 149 136
245789.47381592 3357498.07949829 22.62063980 114 139 117
245785.74316406 3357503.14978027 23.66196251 132 159 150
245784.85247803 3357500.81011963 23.92227936 184 199 192
245784.47235107 3357502.34930420 23.10019493 105 132 97
245789.55462646 3357497.92361450 21.11966705 107 132 111
245790.50463867 3357503.07473755 18.43428230 40 53 59
245787.73638916 3357497.56784058 20.70963669 93 113 114
245784.32470703 3357498.61291504 22.34768677 149 174 152
245789.33325195 3357497.68188477 24.05058098 153 167 170
245784.31372070 3357502.59475708 23.66853333 147 154 136
245786.27337646 3357496.43304443 18.53890991 233 226 210
245789.90423584 3357497.10827637 19.32519150 142 167 163
245785.26184082 3357502.16668701 21.01382256 150 172 149
245784.31719971 3357502.11801147 21.34877968 165 188 172
245784.45947266 3357502.97326660 22.18287086 135 169 142
245784.50244141 3357502.97976685 22.31321907 149 181 158
245785.45184326 3357501.16976929 20.01087189 136 154 142
245787.09277344 3357497.04141235 22.07497787 82 102 100
245786.06475830 3357503.26535034 19.15537262 106 120 121
245785.83892822 3357503.43835449 18.85483551 52 53 57
245784.49035645 3357502.91763306 21.08278084 173 194 175
245788.01348877 3357501.47259521 20.54773712 117 137 126
245789.62103271 3357502.79263306 22.30130577 63 88 67
245784.96051025 3357498.04333496 20.37942886 79 96 86
245784.19384766 3357502.35122681 18.92163658 233 232 230
245789.82116699 3357499.51773071 23.39523506 104 135 104
245789.93524170 3357496.67163086 19.45802116 195 221 208
245784.76440430 3357499.18206787 22.09023285 192 206 183
245787.32708740 3357502.38845825 24.13305473 153 165 163
245786.74798584 3357498.17456055 24.24481773 147 157 148
245790.31518555 3357502.30224609 18.49069405 70 76 76
245789.26763916 3357498.85134888 19.20149040 109 130 123
245784.31604004 3357496.88293457 20.51019859 180 202 199
245789.58624268 3357496.67636108 19.25317955 166 186 174
245784.21600342 3357496.84228516 24.03171539 231 234 223
245786.16894531 3357497.62100220 19.80709648 210 226 225
245787.66345215 3357501.10314941 19.10755730 101 113 109
245788.07574463 3357499.76202393 18.89970398 94 115 110
245789.34387207 3357499.14288330 20.93565559 125 155 119
245786.52844238 3357501.07992554 19.39320755 142 157 150
245786.97509766 3357501.34576416 18.80464363 175 191 181
245784.28161621 3357497.13504028 19.77219200 165 186 181
245789.59637451 3357500.48193359 23.19950104 113 143 107
245784.84814453 3357498.57647705 24.16764641 150 168 156
245789.89801025 3357497.33578491 23.69903564 136 164 150
245784.36828613 3357501.70031738 21.14437485 165 186 167
245788.09362793 3357497.10812378 21.79038811 45 60 53
245785.77105713 3357497.63864136 19.30275345 157 175 161
245784.96856689 3357503.28140259 23.89219666 142 165 157
245784.93054199 3357496.58181763 18.61694908 212 200 176
245786.00433350 3357496.61199951 18.77814102 218 198 174
245788.83630371 3357498.69201660 20.05422211 104 124 113
245785.74432373 3357502.74346924 21.27407074 153 174 155
245786.75750732 3357501.37393188 18.82550812 159 176 166
245789.40069580 3357499.62170410 22.47399521 83 106 88
245790.16894531 3357496.69168091 18.57465744 119 119 111
245788.56390381 3357503.05932617 21.62274551 165 191 180
245787.41094971 3357497.25085449 24.07971954 165 181 168
245788.63507080 3357496.76907349 23.60659981 101 118 110
245789.13208008 3357496.82879639 23.32426071 110 128 116
245788.85784912 3357500.92633057 18.70211983 154 170 169
245788.41345215 3357500.57473755 20.24311447 128 152 130
245786.62438965 3357497.27993774 19.55280876 158 176 180
245784.07171631 3357497.17596436 23.63164520 240 255 243
245787.64105225 3357502.96624756 19.21364403 157 179 177
245787.36474609 3357503.05380249 23.44296455 94 122 108
245784.14807129 3357498.35116577 21.68759727 248 251 232
245789.94744873 3357499.11819458 23.58965874 113 139 110
245785.38122559 3357502.63388062 23.25229836 120 146 133
245784.34838867 3357499.93658447 23.20941544 56 86 62
245784.95062256 3357499.24960327 22.82034683 91 110 90
245786.54650879 3357502.26443481 21.00946045 144 166 153
245784.10101318 3357499.34860229 23.68860054 116 130 113
245789.60729980 3357496.98013306 22.67381477 222 245 227
245784.73388672 3357502.27026367 21.77820015 137 166 148
245789.75531006 3357500.18048096 23.96969414 147 156 151
245790.21618652 3357500.85256958 18.82531357 64 66 63
245784.53710938 3357497.49368286 22.44897270 180 190 181
245789.66876221 3357497.07409668 20.69024467 177 196 176
245784.60504150 3357503.36764526 24.00955200 158 177 181
245784.60931396 3357498.24383545 24.06276894 158 174 161
245789.67565918 3357497.67526245 23.92041397 194 203 200
245788.42016602 3357497.64105225 19.91691017 137 148 150
245784.70794678 3357496.90127563 23.82421112 179 205 196
245786.21710205 3357501.23751831 19.70260620 168 183 176
245789.86279297 3357502.84329224 22.46331978 153 179 150
245788.18341064 3357497.14794922 21.79762459 59 75 65
245786.78088379 3357497.19161987 22.92064857 126 160 146
245788.46350098 3357499.49771118 19.32539177 99 116 110
245784.05609131 3357497.05804443 19.36540413 238 240 239
245784.81024170 3357499.35140991 19.87281036 237 245 224
245788.89703369 3357499.81991577 19.25695038 89 106 100
245784.92034912 3357503.44772339 18.71255875 73 72 77
245790.06683350 3357502.13500977 23.94435501 112 128 128
245784.42474365 3357497.70245361 22.51280022 130 147 129
245789.72058105 3357496.75643921 23.23696327 220 245 226
245785.35607910 3357497.84252930 20.46013451 135 152 146
245788.69531250 3357499.26391602 24.06214714 128 151 141
245789.75598145 3357496.72293091 20.18004417 217 234 224
245784.15063477 3357499.35250854 23.85922241 232 236 221
245788.23822021 3357502.41964722 22.76480484 72 100 85
245784.58959961 3357503.46447754 18.74928856 78 79 83
245787.35650635 3357501.75927734 20.67951775 115 138 132
245789.29919434 3357497.13995361 19.53160477 136 156 147
245784.17816162 3357503.33233643 21.39225578 223 236 216
245787.32012939 3357502.22171021 24.16031075 138 153 150
245789.12023926 3357497.01477051 23.06058311 113 130 120
245787.08361816 3357497.15011597 22.76421738 100 129 111
245784.50805664 3357499.36138916 24.03100967 162 180 166
245787.61114502 3357500.26583862 24.17734718 154 171 165
245784.09838867 3357501.31173706 23.68899155 233 240 224
245788.42492676 3357502.60766602 21.86002350 162 179 173
245789.12725830 3357498.69808960 20.60886765 104 130 103
245786.87243652 3357497.72738647 20.06207085 108 128 129
245784.81396484 3357498.45715332 20.02757835 219 230 216
245788.36077881 3357503.12832642 19.17138481 116 150 149
245785.06732178 3357503.33660889 18.97747040 53 57 60
245786.71722412 3357497.13076782 23.02516174 120 151 136
245785.18133545 3357498.25338745 24.24729729 169 183 170
245787.45318604 3357501.76013184 24.06570625 145 169 169
245784.45983887 3357500.85049438 21.17085838 122 137 116
245787.32739258 3357502.78936768 21.22012901 111 134 118
245789.74621582 3357500.45446777 23.36948395 122 158 120
245789.89965820 3357501.27246094 21.25988388 116 140 124
245786.24017334 3357503.85446167 18.47132874 75 86 88
245789.79730225 3357497.00476074 23.20316315 139 167 155
245784.50665283 3357501.06341553 21.06397057 113 134 115
245784.77612305 3357497.24743652 23.26201439 111 145 110
245788.86767578 3357499.09423828 20.43943596 107 136 105
245785.66497803 3357497.88980103 19.72187805 109 118 113
245787.87268066 3357496.84622192 23.53548431 140 168 154
245789.31622314 3357497.13330078 19.52991104 145 162 154
245785.88226318 3357503.30596924 19.03630257 52 60 63
245784.80969238 3357503.10052490 21.67799187 180 193 183
245784.83392334 3357497.58776855 20.60920334 171 181 156
245784.69433594 3357498.47338867 19.44693756 200 212 198
245784.26794434 3357501.54592896 22.03089905 173 187 174
245784.20916748 3357502.51434326 23.90392303 231 233 230
245789.79357910 3357502.33306885 21.19715118 142 167 145
245784.20684814 3357498.10598755 24.06104660 197 209 187
245785.04669189 3357501.27731323 19.19037437 181 195 196
245787.44732666 3357502.88714600 23.85398865 151 170 166
245789.14398193 3357496.74856567 23.69857979 130 152 140
245786.14788818 3357502.76824951 23.20602226 91 119 105
245789.80108643 3357503.04455566 20.20500374 171 197 186
245788.40582275 3357499.47750854 19.77630043 100 123 103
245789.38208008 3357497.11331177 20.59879875 92 113 106
245784.52136230 3357499.51306152 23.11654282 108 128 103
245790.04046631 3357502.71136475 21.45045090 96 113 105
245790.21148682 3357501.31097412 19.02423096 76 81 77
245789.51074219 3357498.94741821 21.04830742 131 156 126
245787.52008057 3357496.96829224 21.97917747 79 100 95
245787.55377197 3357501.47021484 20.41747856 113 129 128
245786.02050781 3357501.61816406 24.09385681 152 178 177
245786.09320068 3357502.27981567 24.13782501 191 201 190
245784.38110352 3357502.17916870 23.24852562 69 91 68
245787.04162598 3357497.21850586 21.13164902 134 151 141
245789.59423828 3357503.37097168 18.58065796 52 57 61
245789.53015137 3357498.81881714 22.04410362 107 123 110
245788.70794678 3357499.77496338 18.65688133 97 113 102
245783.85949707 3357499.59527588 18.79941177 239 221 211
245789.28088379 3357497.15213013 20.70061874 66 87 82
245789.84069824 3357503.31893921 18.75540733 74 75 79
245784.50842285 3357497.28811646 20.62628555 190 200 201
245784.13739014 3357497.41046143 23.94900322 246 251 244
245786.22686768 3357502.93820190 24.16010284 161 172 164
245784.90191650 3357497.43014526 22.03998184 179 196 186
245786.53143311 3357502.71380615 24.07260704 160 179 177
245788.48822021 3357497.99481201 24.18169022 171 182 176
245789.15454102 3357503.09664917 19.24497414 197 229 224
245784.38897705 3357500.94647217 23.92159653 183 192 191
245784.74139404 3357503.36788940 18.94754219 51 56 59
245787.25158691 3357499.22073364 24.09385490 160 181 172
245789.29010010 3357497.08822632 19.74056435 178 195 187
245784.22998047 3357499.68737793 21.58411789 248 253 249
245784.57049561 3357497.55752563 19.99428749 107 120 113
245787.27264404 3357496.90896606 23.50808334 98 137 108
245789.10253906 3357496.52767944 18.79682350 188 177 159
245785.46618652 3357497.40704346 22.88364220 204 221 211
245786.69726563 3357496.76644897 23.89247513 156 181 177
245784.00280762 3357497.00881958 19.25065613 209 208 203
245786.16650391 3357497.59396362 20.01294136 188 210 198
245786.69158936 3357502.99362183 21.98770714 75 93 81
245788.02630615 3357503.01480103 23.48654175 107 137 125
245786.67352295 3357498.08273315 24.25179482 153 163 152
245784.41143799 3357498.64279175 23.98698425 139 156 146
245787.00354004 3357501.51657104 20.35770226 104 120 117
245789.77154541 3357500.21453857 21.25975227 125 144 124
245784.95239258 3357497.56307983 20.64349937 136 166 164
245784.46447754 3357501.64025879 20.60458565 146 171 152
245784.03997803 3357498.57907104 23.84106636 188 204 175
245787.87347412 3357497.00646973 22.30125618 114 134 132
245789.65350342 3357501.00701904 24.01013374 184 187 180
245783.81622314 3357497.55581665 18.72177315 252 239 230
245786.33221436 3357501.25936890 20.05486298 120 140 129
245784.64727783 3357499.65542603 22.01212311 167 191 157
245789.21166992 3357497.34729004 22.71157074 85 103 89
245786.26654053 3357497.57696533 19.88886642 174 195 198
245789.79376221 3357500.25119019 19.29996872 189 206 187
245784.57147217 3357503.11566162 22.85987854 103 137 112
245785.86993408 3357502.46606445 21.71782303 76 91 84
245790.04290771 3357501.43725586 21.52389908 102 122 120
245784.07720947 3357498.35931396 23.85491753 231 248 212
245786.79998779 3357501.29547119 24.17482758 175 195 196
245789.17510986 3357502.14059448 22.50596046 131 160 114
245789.58489990 3357496.83749390 21.23747444 208 229 220
245788.21221924 3357503.16540527 24.10276604 130 148 150
245784.44763184 3357502.34890747 23.22280884 92 122 84
245784.11523438 3357501.22943115 23.77326584 199 205 191
245786.07458496 3357503.14047241 19.35061455 224 234 226
245788.28961182 3357499.60113525 18.91858673 98 115 109
245788.61016846 3357502.58206177 23.96379089 160 180 187
245788.31445313 3357496.91098022 23.96186829 190 208 194
245786.38757324 3357496.83541870 21.37614250 173 192 196
245784.14984131 3357502.81607056 18.96324158 109 117 106
245784.23571777 3357499.38388062 21.44067764 193 197 182
245788.26300049 3357503.69546509 18.45875931 46 56 58
245786.72967529 3357496.67413330 19.08045197 144 136 123
245789.77526855 3357496.66430664 20.76482391 215 238 232
245789.14404297 3357497.41311646 22.96759605 107 138 107
245787.44097900 3357497.00222778 21.98340607 84 103 101
245789.11254883 3357499.23941040 20.75929832 120 150 116
245788.55377197 3357502.99032593 23.55111694 113 145 134
245784.10241699 3357497.02435303 24.15981483 214 222 207
245785.84869385 3357503.10687256 21.41696548 127 151 137
245784.43615723 3357501.01101685 23.16347885 85 104 84
245784.85040283 3357498.55117798 24.16878891 153 171 159
245787.31201172 3357500.38265991 24.14905167 139 154 149
245784.10083008 3357499.52993774 19.22765923 248 248 238
245789.50207520 3357496.82284546 23.70678329 171 192 177
245789.31536865 3357497.41836548 23.13908195 89 118 96
245787.84210205 3357501.23480225 24.19488144 171 176 179
245785.93371582 3357497.05535889 23.25987053 110 156 130
245788.15814209 3357497.72787476 24.12173843 175 192 182
245787.19799805 3357501.29016113 18.83182526 187 202 195
245788.35449219 3357503.13046265 23.92640686 158 176 180
245784.63256836 3357501.02618408 20.81222153 110 131 114
245790.03143311 3357499.31900024 19.02210045 79 93 93
245784.19903564 3357503.23199463 19.26409531 198 207 204
245789.72485352 3357503.25878906 23.84708595 130 155 152
245785.93646240 3357502.79232788 19.09646034 230 230 218
245789.57196045 3357499.99478149 22.00794792 129 146 130
245788.17034912 3357502.21502686 24.18867683 140 151 155
245784.26928711 3357499.37258911 19.34296036 214 231 223
245784.37030029 3357497.14233398 22.35994530 146 170 156
245784.14721680 3357498.41937256 21.66813850 254 255 239
245788.03289795 3357501.05377197 19.78050995 127 140 131
245787.25170898 3357502.69293213 18.92798805 189 213 200
245784.47686768 3357501.16491699 19.37075615 166 178 174
245789.09539795 3357497.48965454 22.31775665 132 149 139
245786.48046875 3357496.87860107 21.42305756 166 190 194
245785.74023438 3357502.90725708 23.40594673 135 166 158
245784.12817383 3357501.71420288 23.78711510 227 234 218
245786.35540771 3357497.53439331 19.69513702 180 197 204
245785.78552246 3357497.02053833 22.70279884 120 145 126
245785.03509521 3357501.12734985 19.48753166 167 189 177
245785.84460449 3357497.00387573 24.16839027 163 174 160
245789.95336914 3357503.26510620 23.75130272 147 177 169
245784.79321289 3357500.09530640 24.10719299 193 209 199
245788.43017578 3357500.59255981 20.26327705 127 151 129
245786.05615234 3357497.08480835 22.49057198 205 223 211
245784.24969482 3357500.48715210 21.51610947 224 230 216
245786.32171631 3357502.61447144 18.94712830 157 169 165
245789.73529053 3357501.84228516 21.61817932 204 217 200
245789.90155029 3357502.75085449 21.70717049 157 175 159
245788.92700195 3357503.30850220 23.96562386 148 169 170
245789.62854004 3357497.70953369 23.44897652 118 148 120
245784.55963135 3357502.78942871 22.98159409 86 119 76
245790.27258301 3357499.23376465 18.48106384 120 129 124
245784.43487549 3357497.32223511 22.27069092 166 180 163
245784.76293945 3357498.40673828 19.66892624 222 230 215
245789.10943604 3357502.57327271 22.33197212 155 187 166
245786.17199707 3357497.09411621 19.72963142 228 234 222
245788.62884521 3357496.90048218 21.47105980 177 196 190
245788.60864258 3357502.37042236 22.64856148 93 122 102
245784.69726563 3357499.22640991 24.10875130 175 191 178
245784.22528076 3357503.12982178 19.42495728 234 241 234
245786.25305176 3357497.43630981 19.74633408 140 158 160
245786.77172852 3357502.98687744 23.49550247 127 157 145
245787.17938232 3357499.57922363 24.11589813 165 182 172
245785.75360107 3357503.37200928 24.13227272 196 210 197
245784.61950684 3357500.08966064 22.83790207 58 77 57
245789.37750244 3357501.69268799 21.60659981 164 181 175
245789.05334473 3357498.62069702 19.77004623 90 104 104
245784.66204834 3357497.66223145 19.92063522 104 120 109
245784.75988770 3357499.56497192 22.83378410 82 104 83
245790.17883301 3357500.90115356 18.97269249 74 79 73
245789.09118652 3357500.92562866 24.01385689 163 179 176
245788.64178467 3357497.03576660 23.96692085 184 203 197
245785.08233643 3357502.88125610 21.57303619 118 139 130
245789.34008789 3357497.16342163 19.49206161 137 154 146
245789.38421631 3357498.73446655 19.19523430 108 129 122
245787.92608643 3357497.53771973 19.86488724 77 89 87
245789.22363281 3357503.36273193 23.99814034 116 135 133
245789.23510742 3357498.03839111 20.52566719 127 150 134
245787.13244629 3357502.24084473 18.85873222 174 198 184
245784.60498047 3357498.82015991 20.99783897 140 160 123
245784.71887207 3357500.53015137 19.51030731 183 194 178
245784.67419434 3357499.43212891 24.09641647 177 190 180
245784.91564941 3357501.43164063 20.45830727 152 177 156
245789.39263916 3357499.64395142 18.98921013 138 156 142
245789.69799805 3357503.59774780 18.43715668 52 55 60
245784.12225342 3357499.10083008 23.65016747 81 94 76
245785.37500000 3357499.25253296 24.24601746 170 181 167
245789.40570068 3357496.95684814 21.29260254 122 144 132
245789.92620850 3357496.67971802 22.28935623 224 238 225
245786.51245117 3357501.22982788 19.99428940 145 164 158
245789.59759521 3357499.47637939 23.16394424 110 144 107
245789.97338867 3357501.12420654 24.13859558 196 208 208
245789.20172119 3357499.79360962 18.90699959 137 158 139
245789.24829102 3357501.81457520 20.98712540 110 133 115
245784.49371338 3357502.88922119 22.31332588 162 197 167
245787.99487305 3357503.13391113 21.48552513 104 121 111
245789.19708252 3357503.65927124 18.44630623 38 45 53
245789.80145264 3357500.42047119 19.30396652 193 206 186
245788.54431152 3357500.36468506 24.08695984 145 161 160
245786.95147705 3357502.54962158 21.11573219 121 145 132
245785.43499756 3357502.45886230 24.14945221 157 173 170
245784.34680176 3357502.98565674 19.72159767 217 233 233
245786.18701172 3357501.20773315 19.45258713 166 181 174
245789.40380859 3357502.48382568 22.46310234 119 139 102
245789.54876709 3357496.93731689 19.45517349 189 207 193
245789.36450195 3357502.29663086 24.02520752 163 177 178
245785.93060303 3357497.17089844 21.75553322 131 142 134
245787.05700684 3357502.85327148 21.26433754 123 146 128
245784.11639404 3357497.40145874 23.84683418 193 203 192
245790.34472656 3357501.45193481 18.48998642 70 76 74
245787.36083984 3357496.92694092 21.58211708 225 244 251
245789.52416992 3357503.12933350 23.92339897 144 158 159
245789.56909180 3357500.39437866 23.97878647 121 131 132
245789.35272217 3357499.83303833 22.85991287 152 178 141
245788.39733887 3357497.33654785 24.06695557 172 197 193
245784.75769043 3357502.16693115 22.30468369 133 168 138
245789.75378418 3357498.19021606 21.83143806 155 166 172
245783.88079834 3357499.10653687 19.05046082 205 194 188
245789.92565918 3357500.22793579 21.36086655 114 131 115
245789.94580078 3357500.37713623 21.56960869 139 155 144
245787.83679199 3357501.26040649 18.84428406 174 192 194
245788.31103516 3357500.12942505 19.89015388 101 122 107
245786.89929199 3357496.92144775 21.82110596 88 112 112
245786.98071289 3357502.89367676 22.29235077 135 161 148
245784.90502930 3357501.19567871 24.00890350 174 186 184
245786.44073486 3357497.33245850 20.71762657 130 157 150
245788.84362793 3357502.63107300 21.87059975 75 101 88
245788.64501953 3357496.95059204 19.29577255 204 222 208
245784.54235840 3357496.91955566 23.25210190 111 137 126
245785.17095947 3357503.72024536 18.49389076 61 70 69
245788.02966309 3357497.70190430 20.19213867 75 89 90
245784.50311279 3357501.19726563 19.43333817 172 185 178
245784.32507324 3357503.40185547 21.71792984 178 198 186
245789.12261963 3357497.26809692 20.00790024 81 93 89
245784.02734375 3357499.81466675 23.74750710 122 125 116
245784.44238281 3357497.25701904 22.83750153 161 174 157
245787.62200928 3357501.25131226 20.02820778 158 170 170
245783.85168457 3357498.85873413 19.00582695 246 232 229
245787.53106689 3357501.96078491 18.82130432 168 193 189
245785.03875732 3357502.81640625 21.55393028 99 119 110
245784.83306885 3357498.69458008 20.81139946 118 137 105
245789.74047852 3357501.86199951 23.89889717 151 163 161
245789.16015625 3357497.48651123 22.99139786 99 131 94
245789.86859131 3357498.51528931 19.36719513 204 235 219
245784.48522949 3357501.87130737 18.94556046 216 220 221
245784.31176758 3357501.59606934 21.13135529 163 190 173
245787.31323242 3357497.15856934 24.05822182 158 176 162
245789.50720215 3357498.29537964 22.12747383 85 105 93
245785.54931641 3357498.31286621 24.27461433 167 175 162
245785.76513672 3357503.16986084 23.68343163 128 158 148
245788.51367188 3357502.04644775 24.15595818 155 165 167
245786.61175537 3357502.80520630 23.11631966 126 150 136
245789.34930420 3357497.84814453 22.79115295 158 184 159
245789.05279541 3357497.59417725 19.43997383 133 149 148
245784.97967529 3357499.46313477 22.41222572 176 184 161
245785.29925537 3357502.15429688 22.71232033 109 140 122
245788.84039307 3357499.82781982 19.40841103 131 146 141
245789.26678467 3357502.36877441 20.98579025 105 127 104
245788.61285400 3357502.71554565 21.79822731 200 212 202
245789.62036133 3357503.21514893 23.69314957 121 151 141
245784.23773193 3357500.09207153 21.79325867 187 200 180
245785.85748291 3357501.38647461 24.21623802 185 208 214
245785.63824463 3357503.39605713 23.95471954 139 165 156
245789.73083496 3357502.95883179 22.32090569 129 163 139
245785.30145264 3357501.89529419 22.24118996 100 133 116
245785.47387695 3357496.97598267 23.65220451 109 130 115
245785.90106201 3357502.54995728 21.74239540 73 95 83
245787.50396729 3357502.57659912 21.10666275 123 145 133
245784.38385010 3357497.23541260 20.36814117 188 205 199
245784.63531494 3357502.19293213 20.97777748 117 145 130
245784.69049072 3357498.99310303 22.09476662 192 204 182
245788.02990723 3357497.03967285 23.15680885 65 91 78
245785.48736572 3357496.96771240 23.68592262 123 145 132
245784.41510010 3357499.76446533 23.13161278 69 97 75
245784.29205322 3357503.39657593 21.39552689 190 207 191
245788.13726807 3357500.35952759 19.56161308 128 154 141
245784.81597900 3357501.12689209 23.91825104 176 188 186
245783.92333984 3357498.77264404 19.17486000 193 189 178
245788.69799805 3357502.56146240 23.97286606 158 177 181
245788.61212158 3357500.08795166 20.12742424 107 130 112
245789.42095947 3357497.96691895 22.13528061 116 137 130
245789.06097412 3357501.59454346 22.29121208 159 173 147
245787.84936523 3357496.53979492 18.65108299 162 155 139
245785.97723389 3357502.16702271 22.28802299 134 158 144
245789.47589111 3357503.10791016 23.46965218 70 101 85
245784.18066406 3357499.28784180 21.54773331 226 225 220
245787.91455078 3357496.74981689 23.77774620 158 179 160
245789.26434326 3357497.72412109 20.72638512 164 182 160
245788.55584717 3357499.00897217 24.07900620 129 155 144
245789.89349365 3357498.95956421 23.44014931 85 109 87
245788.83209229 3357497.16830444 23.05050468 145 161 150
245789.45697021 3357499.87271118 23.06724739 123 154 113
245788.61364746 3357501.17520142 20.59903908 126 151 132
245785.88830566 3357497.55834961 24.21504211 174 180 166
245784.47344971 3357497.35604858 20.42784691 190 202 198
245788.94018555 3357497.50598145 22.75119781 151 172 157
245785.50274658 3357503.45761108 18.81725311 40 44 47
245784.59552002 3357499.30206299 21.85544205 143 167 143
245790.12524414 3357503.16262817 22.12160492 137 163 152
245785.05590820 3357499.41320801 24.18002892 184 196 186
245789.65747070 3357502.54104614 23.89694977 173 185 181
245785.57629395 3357497.88989258 20.20148277 147 159 149
245786.24005127 3357497.62768555 20.30153656 145 170 166
245789.20294189 3357497.10397339 20.88636398 74 96 93
245789.75305176 3357497.18466187 23.87546730 220 233 223
245787.69104004 3357501.17321777 19.51910782 105 120 117
245790.32482910 3357501.31631470 24.06956100 168 185 179
245784.41668701 3357499.10528564 24.07286644 145 161 151
245789.20996094 3357498.49868774 19.71648598 106 120 121
245789.70684814 3357503.25823975 23.84033775 130 155 152
245784.13879395 3357500.34747314 23.50587845 64 78 65
245784.62597656 3357496.89562988 23.83315659 166 194 182
245788.03479004 3357502.26052856 18.85168076 132 162 162
245786.70843506 3357497.14733887 22.81206131 118 152 138
245786.65643311 3357502.89639282 22.52413940 89 111 98
245789.96704102 3357498.75817871 21.51811028 120 133 126
245787.37078857 3357503.29962158 19.02183342 61 73 71
245784.13867188 3357501.47277832 19.37798309 170 196 193
245789.12377930 3357500.10052490 20.71867180 121 146 116
245789.67639160 3357502.12048340 21.66030693 119 136 126
245788.47027588 3357503.02914429 23.56661415 108 141 132
245789.08892822 3357500.82455444 20.77771378 128 151 131
245787.21002197 3357500.99960327 24.00472641 158 175 169
245786.85119629 3357497.75466919 20.41059113 79 99 98
245789.80883789 3357497.44137573 23.58119202 122 153 137
245784.80010986 3357498.51843262 19.94350243 181 195 180
245789.11639404 3357501.62158203 21.90082550 186 199 182
245789.04937744 3357502.46221924 18.83982658 183 205 193
245784.37371826 3357496.62918091 18.76565170 213 198 175
245790.04010010 3357501.00988770 21.61839104 85 100 97
245789.16424561 3357502.61791992 21.06224251 120 140 115
245786.78070068 3357497.23245239 21.11922646 134 159 156
245784.07653809 3357500.67248535 23.88749504 242 251 234
245789.83398438 3357502.12631226 21.25767136 123 151 128
245788.09240723 3357499.89233398 24.18005371 129 139 130
245789.86682129 3357503.19689941 20.42502403 124 157 150
245785.61352539 3357503.82449341 18.48390579 60 71 73
245786.06304932 3357503.03384399 24.05616951 188 201 194
245787.27459717 3357496.79528809 23.89491653 199 216 200
245786.46704102 3357500.88702393 24.22464943 190 208 208
245790.18054199 3357498.54486084 18.67383003 80 82 79
245790.06750488 3357498.86822510 19.22250748 143 154 150
245787.08410645 3357501.64538574 18.79025459 133 150 144
245788.98205566 3357500.73034668 20.69520378 126 149 129
245789.15734863 3357501.24325562 22.32497025 168 183 152
245784.52056885 3357499.26019287 21.07588005 115 134 112
245784.85180664 3357500.23529053 20.84207344 142 158 111
245784.25970459 3357503.39093018 22.93356323 157 181 181
245789.78814697 3357496.68142700 20.39893150 219 238 232
245787.03320313 3357501.30035400 19.99039078 173 187 187
245787.69696045 3357502.72235107 19.01420021 128 148 149
245789.88635254 3357501.15985107 19.32556534 205 226 207
245784.37664795 3357497.92471313 21.24471283 149 160 126
245784.48773193 3357500.50900269 21.14851570 151 166 135
245788.13836670 3357497.17501831 21.14999962 154 173 167
245785.20355225 3357500.84054565 23.99751472 171 184 177
245788.02252197 3357500.95932007 24.15257645 153 169 166
245784.96417236 3357500.94839478 19.39459610 213 225 211
245790.13934326 3357497.99459839 18.74633408 101 101 99
245789.73278809 3357503.16867065 19.35029221 149 172 166
245787.29516602 3357497.09994507 22.22567177 75 95 94
245790.08770752 3357502.85549927 23.48496246 121 142 123
245784.15759277 3357499.14575195 23.59117889 77 90 73
245788.05383301 3357499.99731445 19.10426903 94 115 110
245787.07293701 3357501.18432617 19.63326645 124 138 138
245789.27740479 3357497.14495850 20.73191643 68 89 82
245787.96472168 3357501.46258545 24.19497681 189 197 200
245787.94049072 3357503.23510742 24.18650818 182 195 203
245784.77935791 3357502.37625122 21.64433479 134 158 144
245785.71337891 3357496.97940063 21.55877495 215 235 223
245784.21588135 3357501.38256836 20.45789528 230 237 229
245785.05725098 3357500.22662354 24.10467529 181 192 184
245789.27990723 3357502.05688477 21.02664185 113 137 115
245789.37799072 3357502.10739136 22.70140457 119 155 109
245789.41864014 3357502.79113770 22.09301758 140 163 135
245784.78399658 3357498.66528320 19.56934929 163 175 163
245787.48236084 3357497.64334106 24.14301491 169 186 168
245786.39111328 3357498.48950195 24.23665237 173 191 179
245788.56750488 3357499.52929688 19.17759132 111 127 126
245789.92407227 3357502.48486328 21.72449303 134 155 140
245785.63867188 3357502.36508179 22.72174263 114 143 123
245790.00067139 3357497.66036987 24.03098488 160 172 170
245787.43450928 3357496.86715698 23.64247513 125 165 141
245785.65118408 3357498.94927979 24.24065971 199 207 194
245785.28149414 3357497.06573486 21.74809265 163 179 176
245786.17742920 3357500.44738770 24.17935944 154 161 154
245790.12652588 3357498.20263672 24.03817558 129 147 147
245784.70172119 3357500.12387085 24.07425117 186 199 190
245784.45935059 3357498.02536011 23.16167259 148 176 151
245784.74456787 3357501.95092773 20.74862480 153 177 161
245789.60046387 3357499.29544067 21.12676620 126 153 122
245785.88110352 3357497.03726196 22.68895912 146 171 152
245789.50915527 3357496.88806152 23.23704720 151 176 157
245788.25903320 3357497.00527954 23.99625397 182 202 191
245789.58416748 3357499.53741455 23.17557716 111 145 108
245789.66943359 3357503.19616699 21.42426300 107 125 113
245789.28942871 3357500.54312134 18.70494652 176 192 179
245784.08221436 3357496.92446899 19.69875336 235 244 243
245788.98681641 3357500.49652100 24.06971550 118 136 136
245788.87774658 3357499.07525635 19.32323837 77 96 94
245784.62609863 3357502.95391846 23.85299301 156 172 171
245788.16448975 3357500.90612793 20.22125626 130 153 133
245787.62884521 3357502.78173828 23.14079666 102 130 115
245784.38549805 3357502.00256348 21.94155312 88 100 86
245790.00225830 3357502.00094604 23.94468498 134 149 146
245789.79241943 3357502.03594971 21.22738647 126 151 129
245784.30670166 3357501.34915161 22.40358734 254 255 247
245784.37341309 3357501.00073242 19.35114288 202 218 208
245785.03057861 3357497.22378540 21.15386772 235 250 255
245788.06762695 3357497.73126221 20.23441315 75 90 93
245784.62145996 3357502.85949707 21.18645287 100 127 112
245784.99536133 3357497.39144897 20.89639282 190 216 217
245784.55773926 3357502.46374512 22.29515648 122 162 109
245789.67010498 3357499.34143066 21.17505264 126 151 121
245784.04309082 3357497.07302856 22.41661072 255 255 255
245788.67498779 3357496.54638672 18.80455017 190 177 158
245784.27740479 3357499.07104492 23.44487953 99 119 94
245786.11193848 3357503.44479370 18.71992302 41 46 50
245784.52502441 3357497.38540649 22.49963379 187 195 180
245786.64270020 3357500.72647095 24.18052292 168 190 187
245789.42578125 3357497.03201294 22.93289566 89 110 93
245784.30529785 3357502.07006836 23.36649895 35 51 40
245784.43969727 3357500.66976929 21.17274094 129 141 121
245784.08966064 3357497.25915527 24.02576065 199 202 191
245784.25128174 3357498.11776733 24.03754234 201 214 194
245789.43884277 3357502.64349365 22.42486191 66 91 59
245784.33880615 3357501.22491455 20.14872169 230 246 235
245789.25347900 3357500.04968262 19.10274506 133 156 138
245789.70440674 3357499.88217163 21.80416489 110 127 119
245790.25927734 3357498.27438354 18.51744843 104 108 109
245784.91613770 3357501.26644897 20.35632133 148 171 153
245790.00958252 3357500.56225586 21.43012810 132 144 132
245788.45068359 3357503.14450073 23.75556946 146 177 172
245790.26263428 3357502.93997192 18.92503929 47 51 54
245786.22674561 3357502.71783447 22.67100334 91 109 93
245784.01788330 3357501.41311646 19.21218109 212 224 224
245788.53814697 3357502.64083862 21.83564568 192 209 201
245789.30609131 3357502.76608276 22.04925537 140 163 134
245790.10015869 3357497.96057129 18.93526077 83 83 83
245789.69732666 3357500.85388184 23.93704796 157 160 153
245788.76458740 3357498.53366089 23.99798965 172 189 181
245790.13751221 3357497.67071533 18.64541054 98 100 99
245784.04968262 3357496.97448730 20.90388870 229 240 234
245789.07104492 3357497.18237305 22.10510063 111 134 118
245785.99346924 3357501.54641724 20.59234047 125 149 127
245784.84875488 3357502.21719360 21.69470787 132 159 144
245789.93865967 3357496.78384399 22.90549850 158 178 169
245788.51617432 3357501.34542847 20.56497192 110 137 122
245789.29388428 3357502.57067871 22.57460213 66 93 62
245790.07556152 3357501.29470825 21.37495995 107 130 114
245788.76684570 3357502.54150391 18.80551147 193 215 202
245790.25701904 3357502.78631592 23.94119453 153 171 147
245784.53533936 3357502.72146606 20.92337418 149 168 138
245788.03869629 3357499.18923950 24.15052414 158 178 167
245784.35028076 3357498.63610840 19.34537888 173 188 185
245786.24639893 3357496.90502930 22.36574936 237 253 242
245784.68475342 3357499.76287842 20.31331825 88 101 83
245786.14068604 3357496.97183228 21.12642288 219 237 223
245788.84075928 3357498.06436157 24.17216682 168 183 178
245785.24249268 3357497.56488037 22.16444588 165 188 178
245790.07061768 3357503.20611572 21.19323349 149 172 166
245788.18524170 3357497.06796265 23.26064873 147 159 145
245787.79357910 3357496.65286255 24.14351273 204 218 205
245786.97100830 3357497.68115234 20.04839325 118 135 142
