245665.92742920 3357700.83319092 16.58555794 69 69 69
245658.89166260 3357699.47570801 18.28110123 200 201 195
245660.55157471 3357701.31640625 16.72875595 60 62 59
245667.37829590 3357699.79742432 19.63344002 255 255 255
245665.66735840 3357700.80242920 20.45603371 220 223 228
245658.63116455 3357702.10418701 18.41736412 173 175 172
245664.78283691 3357702.41577148 19.14756584 219 227 229
245657.86608887 3357700.26312256 19.97789574 251 253 252
245657.92895508 3357699.82733154 18.33677292 116 119 112
245660.17382813 3357702.19647217 16.52379990 151 142 135
245669.42340088 3357699.76031494 19.66163826 252 253 248
245661.27972412 3357699.64001465 17.26439667 48 50 49
245666.55609131 3357698.89746094 18.86923409 162 142 133
245664.62927246 3357699.73022461 19.60638237 254 254 254
245667.58477783 3357702.05273438 19.33867073 250 251 253
245659.90820313 3357701.99493408 19.73566246 245 243 246
245666.73663330 3357699.81512451 16.95853996 146 153 159
245659.25610352 3357699.84838867 19.76651955 254 254 254
245666.27410889 3357701.51434326 19.69851112 236 244 247
245657.77935791 3357700.51263428 18.06516266 97 97 95
245671.27569580 3357698.89788818 16.34293938 159 167 170
245665.05126953 3357701.60864258 19.68282127 238 241 246
245665.89019775 3357699.42028809 18.19143486 92 92 92
245665.59191895 3357700.84979248 20.37089920 250 251 255
245661.36419678 3357701.82897949 19.64840698 240 244 247
245659.55413818 3357699.18768311 17.11271858 43 47 50
245667.24645996 3357698.91351318 19.17489243 253 255 252
245657.32135010 3357699.41461182 16.61116409 168 168 160
245659.71929932 3357700.43823242 19.98010063 250 251 253
245661.30670166 3357701.54418945 17.40937614 50 54 55
245664.67779541 3357700.56195068 19.91910553 255 255 255
245663.28375244 3357702.35961914 18.73000145 72 80 82
245657.60729980 3357700.57873535 18.16559219 134 135 130
245665.61584473 3357702.29730225 17.02735138 175 178 183
245666.24963379 3357701.20178223 17.44387054 28 28 28
245666.88067627 3357701.64215088 17.77374458 90 95 91
245667.93835449 3357700.26245117 19.81543541 255 255 255
245660.81457520 3357702.54907227 19.27020264 226 231 234
245669.67047119 3357701.41290283 16.43367004 73 79 79
245661.46234131 3357699.12597656 16.54354668 102 111 118
245662.68280029 3357700.56982422 20.15472984 234 239 243
245663.95135498 3357701.39080811 19.72087860 249 250 252
245668.76477051 3357700.88214111 19.99943733 254 255 255
245669.67620850 3357700.63793945 18.24446106 145 151 137
245664.65979004 3357700.67144775 19.92244148 255 255 255
245670.61828613 3357701.90948486 18.74783707 78 89 85
245666.38500977 3357701.87554932 18.52907372 171 179 181
245669.47857666 3357701.10070801 20.01874352 224 231 237
245667.14709473 3357702.22045898 18.36514473 70 75 78
245665.41528320 3357702.15557861 16.65554047 20 25 28
245664.22698975 3357701.53857422 17.17932510 44 48 49
245662.57641602 3357699.20166016 16.63518333 75 79 80
245657.78955078 3357702.39025879 18.76739311 125 122 115
245658.10119629 3357700.91345215 17.71291733 34 36 33
245668.82275391 3357702.02459717 19.36170578 240 244 245
245658.81048584 3357700.04882813 16.90662384 255 255 253
245665.55883789 3357701.21887207 17.32974243 120 111 114
245658.97845459 3357701.58563232 16.96406364 70 63 55
245663.37268066 3357702.09399414 19.46758270 244 250 250
245669.26556396 3357701.67877197 19.60463142 236 241 244
245667.24890137 3357701.52856445 19.60225868 251 252 254
245656.88562012 3357699.71185303 19.14129448 220 220 220
245669.15484619 3357700.95495605 20.13520050 237 238 240
245669.18908691 3357700.43634033 17.07210732 67 61 61
245657.22326660 3357699.84191895 18.72215271 83 83 81
245662.38006592 3357700.37298584 20.17976379 237 236 241
245669.62139893 3357699.50048828 16.37757301 128 120 117
245657.73760986 3357700.92187500 17.96749306 68 70 67
245658.87011719 3357702.52325439 19.28699493 181 189 191
245669.53002930 3357699.79803467 16.33990860 110 107 100
245657.72033691 3357701.87585449 18.21796799 132 132 124
245659.47424316 3357701.83526611 19.72174263 222 226 229
245668.82086182 3357700.12561035 16.40284920 127 123 112
245670.33526611 3357700.99987793 19.54765701 233 239 239
245661.48272705 3357698.94653320 16.53422356 121 130 139
245668.51818848 3357702.10327148 16.93362617 38 40 39
245663.76898193 3357698.33587646 16.51809883 77 81 92
245658.71038818 3357701.81719971 16.75305557 161 153 134
245657.97631836 3357701.28302002 20.26881599 231 235 234
245659.63629150 3357701.79748535 19.75994873 239 240 244
245664.45794678 3357699.56451416 17.82706642 45 50 54
245657.58404541 3357701.04626465 19.99748611 245 249 252
245666.34704590 3357698.99951172 18.82203674 127 127 125
245665.65185547 3357698.30364990 16.46793175 69 72 79
245662.15100098 3357699.44311523 18.09323502 97 97 99
245658.37438965 3357702.06597900 18.35460281 169 169 167
245659.77612305 3357702.55023193 19.39739037 219 229 231
245665.41412354 3357699.18988037 16.88639069 88 83 89
245660.79339600 3357700.49737549 19.92976952 255 255 255
245665.88244629 3357699.13079834 18.76329231 96 97 99
245656.69726563 3357699.28887939 16.65987206 57 57 59
245662.28784180 3357699.34936523 18.26604080 89 89 89
245668.19885254 3357699.01770020 19.21826172 255 255 255
245668.04449463 3357702.39379883 18.61616707 44 48 49
245661.41839600 3357699.59338379 19.63727188 251 252 247
245670.57043457 3357701.84051514 19.35229874 238 242 241
245669.85595703 3357700.14691162 18.46278000 95 95 87
245658.33502197 3357701.65283203 18.01161575 156 158 155
245659.43658447 3357701.25964355 17.42967987 150 152 149
245669.88574219 3357702.21313477 16.38392448 134 142 144
245670.25811768 3357699.83270264 19.52018166 240 244 243
245659.65148926 3357702.00781250 16.56922150 174 157 139
245656.93572998 3357700.43634033 16.55889511 161 153 140
245667.48889160 3357701.92517090 17.50189018 35 35 35
245656.99914551 3357699.88916016 19.38751030 255 255 253
245658.86651611 3357701.77191162 19.86547279 233 237 240
245665.55987549 3357700.90930176 16.64106560 31 22 25
245662.87109375 3357702.20501709 18.77437401 132 136 137
245663.22497559 3357701.45410156 17.20416451 73 81 84
245658.06353760 3357701.82672119 19.74530792 227 231 234
245669.15765381 3357700.18255615 16.40555954 143 137 123
245668.99334717 3357700.38012695 20.11207199 255 255 255
245660.26562500 3357702.17913818 16.52259827 233 228 222
245669.64404297 3357700.69250488 20.15827370 187 201 204
245665.49102783 3357699.30987549 16.82968140 22 25 32
245662.63323975 3357699.64660645 17.60735130 208 208 196
245660.63964844 3357701.49871826 17.46055603 46 48 47
245665.03491211 3357699.54302979 18.17765808 65 81 80
245662.82531738 3357699.55786133 17.78932953 199 200 192
245665.80047607 3357699.00787354 19.24032402 251 255 255
245660.07794189 3357701.70520020 16.56233025 63 64 59
245669.49682617 3357700.71374512 16.61622047 81 34 42
245665.74884033 3357701.98431396 17.10944176 56 57 61
245665.66113281 3357700.87115479 16.49633789 106 106 108
245664.51788330 3357701.73651123 17.83036613 14 23 22
245668.31225586 3357701.87542725 17.48494720 29 30 32
245669.90972900 3357699.57971191 16.39983749 113 114 109
245656.71813965 3357699.03277588 19.23935699 255 254 252
245659.18572998 3357699.63983154 17.82913780 100 95 91
245670.03216553 3357700.46820068 16.40376472 227 227 219
245658.73663330 3357700.51104736 16.73080444 64 69 63
245663.22314453 3357702.17382813 19.44519997 244 248 249
245665.65704346 3357702.28216553 19.27068520 236 240 241
245661.07623291 3357701.84326172 17.75077248 20 21 23
245668.29736328 3357699.75878906 17.48081017 121 122 126
245669.29675293 3357699.42041016 16.37522888 184 171 154
245665.83111572 3357701.55950928 19.79346085 237 242 245
245665.07592773 3357700.42620850 20.00386429 254 254 252
245663.34729004 3357702.27410889 18.50779152 142 151 150
245661.84143066 3357702.33074951 16.53421021 95 104 111
245657.93676758 3357702.31481934 19.43322182 233 237 238
245669.89941406 3357698.10095215 16.37101173 112 121 128
245658.17425537 3357701.02746582 20.56764030 241 243 242
245661.50305176 3357699.01617432 19.10303688 178 185 177
245663.50048828 3357701.13104248 19.82656479 246 247 249
245666.56848145 3357699.63073730 16.71501350 40 40 40
245659.40789795 3357699.62377930 17.67809868 186 178 176
245670.30932617 3357698.98834229 18.78729820 108 112 115
245665.01263428 3357700.05090332 19.82772064 255 255 253
245666.69635010 3357699.53546143 17.46162605 106 115 112
245665.44018555 3357702.22937012 17.19478798 207 212 215
245665.02478027 3357701.39776611 16.70729065 70 70 72
245666.70501709 3357702.17065430 16.69201469 131 138 131
245668.14770508 3357701.70690918 17.16372490 33 37 38
245662.39276123 3357701.62060547 17.69911957 30 31 36
245663.41485596 3357699.26306152 16.51678848 146 139 129
245661.72735596 3357701.57836914 16.93006706 34 35 37
245659.14129639 3357701.97882080 18.22067833 76 78 77
245658.49542236 3357701.17010498 20.38187790 174 196 210
245666.66656494 3357702.12023926 16.98828506 128 141 134
245658.66033936 3357701.35571289 17.65429878 120 122 119
245670.48571777 3357699.25695801 18.76677895 130 133 124
245658.69982910 3357702.46374512 19.36502838 229 237 240
245660.08917236 3357698.89678955 19.14719200 246 252 252
245664.95593262 3357699.26837158 16.49681854 138 133 127
245658.26300049 3357699.20123291 19.00723267 179 181 178
245665.11999512 3357699.35528564 17.16729927 121 143 167
245664.11419678 3357702.56005859 19.02442741 189 198 197
245667.84320068 3357700.90167236 19.84718704 255 255 255
245657.90893555 3357699.59436035 18.58308983 156 156 154
245666.32421875 3357702.39965820 19.06799698 166 172 172
245660.35498047 3357699.37426758 16.56851387 131 139 141
245659.80285645 3357699.95989990 19.78242111 251 251 251
245665.95690918 3357699.18115234 19.37614632 254 255 255
245660.52752686 3357698.95422363 18.92565727 66 75 74
245669.78472900 3357701.86682129 18.29422951 76 87 89
245665.55230713 3357699.85168457 17.26584625 84 85 90
245669.18914795 3357700.74188232 20.30881119 240 241 243
245658.49047852 3357701.11968994 17.24809837 96 95 100
245659.61968994 3357701.29681396 19.96366692 241 245 248
245671.43389893 3357698.71649170 16.32638550 172 180 183
245668.22674561 3357701.83648682 16.42391396 67 71 72
245661.02752686 3357699.13250732 18.51963806 67 72 68
245665.91137695 3357701.43365479 17.69278908 56 56 56
245664.59393311 3357700.17346191 19.80919075 255 255 255
245663.66613770 3357702.35345459 19.31488991 245 249 250
245669.18585205 3357699.52966309 18.19605446 81 82 76
245668.70068359 3357699.85290527 19.72854614 255 255 251
245662.94390869 3357702.08190918 18.51841927 123 131 134
245663.33581543 3357702.18786621 16.90739822 41 50 49
245664.30120850 3357701.77435303 17.84220314 86 96 98
245658.70581055 3357699.59704590 16.74120140 15 18 23
245660.15710449 3357698.96685791 18.87317467 121 141 140
245662.62414551 3357698.65997314 16.55223083 177 179 191
245665.54119873 3357699.69934082 17.02356720 79 82 91
245657.63421631 3357700.45098877 19.92500305 251 253 250
245659.58117676 3357702.46942139 18.71608162 147 151 150
245658.67974854 3357700.18762207 17.22581673 40 41 36
245657.93255615 3357700.07135010 16.55092812 186 187 181
245671.43133545 3357702.36651611 16.32430077 114 123 128
245658.08825684 3357702.33105469 18.70383453 157 157 155
245665.02484131 3357701.10668945 16.91705513 14 18 21
245664.67370605 3357698.62652588 16.50055313 170 178 181
245669.65496826 3357701.58013916 18.09343147 52 62 63
245669.38201904 3357699.97314453 16.35420418 161 160 155
245662.96508789 3357699.03021240 19.29005241 252 253 255
245665.91998291 3357699.51141357 19.58133507 254 254 254
245664.00762939 3357702.49737549 19.21384811 236 240 241
245665.36083984 3357699.23193359 17.16152191 80 90 117
245662.06225586 3357701.68316650 17.76705742 16 22 22
245660.10223389 3357699.61566162 16.85066414 52 53 55
245661.06732178 3357701.89990234 17.81506729 24 24 26
245667.60668945 3357699.19360352 18.18022537 22 27 30
245666.23504639 3357702.23724365 19.30076218 232 236 237
245657.80566406 3357699.87298584 18.37559509 79 81 76
245670.17169189 3357698.82165527 19.00332451 91 101 103
245657.53802490 3357700.30340576 19.82464981 252 251 249
245669.57098389 3357699.85211182 16.34296417 99 98 93
245670.03527832 3357701.63775635 18.34260750 56 68 66
245666.90942383 3357699.24719238 16.48517990 190 181 172
245664.41979980 3357702.20013428 16.66995430 48 50 49
245671.12963867 3357698.70843506 16.33813477 177 185 188
245668.86627197 3357700.17095947 17.56717491 48 47 42
245670.93182373 3357701.73693848 16.34341431 111 116 122
245660.73986816 3357701.68743896 16.87196922 30 32 29
245658.99169922 3357698.44598389 16.64665604 50 59 68
245668.62048340 3357698.95184326 19.12347984 246 248 245
245660.84698486 3357698.95367432 19.05864906 55 65 64
245668.40258789 3357700.96258545 19.87936211 255 255 255
245669.53869629 3357699.70550537 16.35505867 136 129 121
245670.48675537 3357700.45880127 18.76938820 142 149 131
245667.64453125 3357700.27178955 19.80807114 255 255 255
245664.44555664 3357699.71862793 17.27041435 24 25 29
245669.75634766 3357699.00183105 19.15583420 247 252 248
245670.84991455 3357701.82629395 19.20479393 239 243 242
245662.75402832 3357701.66650391 19.70866585 241 241 249
245667.94903564 3357701.70288086 16.58207130 36 36 38
245668.17645264 3357698.84143066 16.37143517 111 117 117
245666.32440186 3357701.93023682 19.54089355 241 245 248
245662.43597412 3357699.67749023 16.76734543 97 97 95
245668.77935791 3357698.81072998 16.35036278 121 123 122
245658.87939453 3357701.70349121 17.94642067 101 101 101
245669.72558594 3357699.25164795 18.56007195 105 113 116
245665.51147461 3357700.95849609 16.75819778 37 22 27
245668.47650146 3357701.80371094 17.15032387 15 19 22
245669.13739014 3357702.05426025 19.34713554 236 240 241
245665.33392334 3357699.11285400 19.26128006 246 247 249
245659.40777588 3357701.35192871 17.52581787 163 165 164
245662.65325928 3357699.69531250 17.49341393 204 206 193
245669.65905762 3357702.23419189 18.67368126 96 108 104
245661.83770752 3357701.75762939 17.83786964 82 82 84
245662.70343018 3357699.71520996 19.69145584 254 254 252
245659.43365479 3357699.59790039 17.71716881 181 176 172
245664.56365967 3357700.31658936 19.83958435 255 255 255
245670.45068359 3357701.65618896 19.43724251 237 242 245
245663.06396484 3357702.34838867 18.87563515 152 156 159
245666.33306885 3357699.95068359 19.81476593 252 252 252
245669.68841553 3357699.05108643 19.17799950 250 250 248
245665.60845947 3357699.52929688 18.08984947 57 62 66
245657.45654297 3357700.08215332 18.52042198 31 33 32
245660.74023438 3357700.79675293 19.96841049 254 255 255
245667.33544922 3357699.42376709 16.77845383 27 25 28
245663.39715576 3357700.10333252 19.77203369 254 254 254
245661.67059326 3357700.51525879 20.24016571 250 251 253
245665.55139160 3357702.14483643 16.58021927 45 54 53
245656.86401367 3357699.60797119 19.30376434 248 248 246
245665.94720459 3357699.34216309 18.31995392 113 111 112
245657.96850586 3357702.35168457 19.40970421 238 242 245
245658.01318359 3357701.38024902 16.56432915 219 206 190
245666.48095703 3357701.46154785 17.74523354 103 103 103
245662.45739746 3357700.96160889 20.19946289 202 220 232
245660.39752197 3357699.68347168 19.65367317 255 255 255
245662.20965576 3357699.37750244 16.58335304 91 96 99
245659.61926270 3357702.56097412 19.31920624 213 223 225
245669.69189453 3357699.36834717 16.38240623 126 125 121
245666.28894043 3357701.18621826 17.42659569 26 26 26
245663.75708008 3357701.42425537 19.73053169 247 248 252
245660.73638916 3357699.54943848 17.70033646 57 60 65
245668.49987793 3357698.92681885 16.36070442 107 108 110
245663.65533447 3357699.24383545 17.35907745 129 130 132
245667.67944336 3357702.58074951 18.79266357 40 41 43
245666.58911133 3357699.70172119 17.18891525 135 140 136
245663.86798096 3357699.22698975 17.35660362 55 59 60
245665.58905029 3357699.55090332 18.05177498 61 64 69
245667.81817627 3357701.64642334 19.54585457 251 252 254
245667.76202393 3357699.29241943 18.03771210 71 72 74
245662.55413818 3357701.63513184 17.00790787 20 25 28
245661.44610596 3357701.36560059 19.97009277 250 252 251
245658.06939697 3357702.34033203 18.72488403 157 157 155
245668.32714844 3357699.03045654 18.45308685 55 57 54
245669.42004395 3357700.91339111 16.46166420 68 64 65
245666.26062012 3357699.64434814 19.64650726 254 254 254
245658.63690186 3357700.02221680 19.95477867 245 245 247
245662.19952393 3357702.14410400 19.44824600 245 246 250
245658.01367188 3357700.40429688 20.13991547 252 250 255
245658.20568848 3357701.89184570 19.69965935 231 232 234
245670.74517822 3357700.46484375 19.25650597 234 234 234
245659.77893066 3357700.85858154 16.96964645 68 68 66
245667.31085205 3357701.96862793 17.87294006 51 57 57
245665.98992920 3357700.22717285 20.05797386 255 254 255
245664.73059082 3357699.07189941 16.43010712 81 81 79
245667.29357910 3357702.54638672 18.76036835 51 60 59
245668.05310059 3357700.03228760 19.73832321 255 255 255
245664.37878418 3357699.63525391 17.01280975 58 62 65
245669.49920654 3357700.22277832 16.35383224 231 222 207
245669.53320313 3357700.55200195 17.91113663 156 157 152
245658.94842529 3357701.99285889 19.74680710 233 239 239
245666.49920654 3357700.13696289 19.88614655 249 249 251
245661.93139648 3357699.27478027 18.40731430 171 173 168
245663.55200195 3357702.19158936 18.34588051 69 74 77
245667.74432373 3357698.52221680 16.38236618 153 157 160
245666.57910156 3357699.56628418 19.55825996 253 253 253
245669.56439209 3357699.07434082 16.37195015 189 181 178
245660.59295654 3357699.24798584 19.43108368 254 255 250
245661.72454834 3357699.55987549 16.75689507 81 86 92
245670.48040771 3357701.58532715 19.42675591 232 236 237
245666.45989990 3357699.63629150 17.02863503 134 136 135
245659.32238770 3357702.56213379 19.26441383 187 192 196
245669.12347412 3357700.70666504 17.22654533 80 79 74
245659.45538330 3357701.61328125 17.78142738 126 128 127
245669.15216064 3357700.70080566 17.13457680 83 75 72
245663.77862549 3357699.33740234 18.10101509 82 89 95
245658.24816895 3357699.83563232 18.14365196 133 134 129
245669.96130371 3357701.47814941 19.71654892 238 243 247
245666.08898926 3357701.05706787 17.22269821 63 67 66
245662.68798828 3357699.56378174 16.91833305 63 65 64
245659.84814453 3357702.42614746 19.53224373 224 234 236
245659.70465088 3357701.26855469 16.52282906 155 154 152
245668.26879883 3357700.17492676 16.74696350 56 55 53
245666.19134521 3357699.09881592 19.30779839 254 254 254
245661.87023926 3357699.68371582 17.14595985 92 94 93
245669.88061523 3357701.44183350 18.24858284 47 59 59
245669.56158447 3357700.93115234 18.03946686 66 68 65
245662.15887451 3357700.27075195 20.14393997 251 251 251
245668.13244629 3357702.37817383 18.65829849 74 78 79
245659.61059570 3357699.20861816 17.00452232 50 54 55
245657.63580322 3357699.96685791 18.43796158 72 74 71
245666.96191406 3357701.92822266 17.11840820 34 36 35
245668.98577881 3357701.50091553 17.04967690 27 31 34
245660.43743896 3357701.76763916 17.77108955 68 70 67
245663.25042725 3357702.17047119 19.44398308 244 248 249
245662.59344482 3357699.08020020 18.89608955 125 135 127
245659.48675537 3357698.90893555 16.64395905 107 116 125
245657.51397705 3357699.16674805 19.09822464 143 151 153
245661.14483643 3357699.48809814 16.54008675 119 124 127
245658.31304932 3357700.36224365 16.49774742 249 251 248
245664.17016602 3357702.35400391 16.53952599 57 60 65
245667.81103516 3357702.38159180 18.30670929 33 34 36
245670.15844727 3357700.05493164 18.60633469 109 111 100
245664.32037354 3357700.34820557 19.79948616 255 255 255
245669.67523193 3357698.43029785 16.37548065 124 128 131
245660.46105957 3357699.47882080 16.56764603 76 79 84
245667.88189697 3357698.64752197 16.36276054 205 207 206
245660.22497559 3357702.29351807 18.29956245 111 112 116
245664.22045898 3357702.30889893 18.44498634 49 55 53
245662.63659668 3357702.35937500 16.49112129 83 90 98
245665.82312012 3357701.43615723 19.86179543 234 239 243
245658.71081543 3357700.16076660 17.16492271 74 71 64
245660.22949219 3357701.93933105 16.54467964 102 102 100
245658.00805664 3357700.60003662 16.59730339 179 172 162
245662.20605469 3357699.69879150 19.73917961 241 242 234
245657.09338379 3357700.63409424 19.50657463 250 252 249
245658.65930176 3357702.01550293 16.71730614 191 179 157
245664.02539063 3357699.07891846 16.51720047 101 100 98
245666.50848389 3357701.92565918 16.66238785 57 69 65
245660.12261963 3357699.24835205 19.44727516 255 255 253
245670.20996094 3357701.49255371 18.46432495 56 66 67
245665.03466797 3357702.17987061 19.31880951 238 243 247
245660.95104980 3357699.15374756 16.54209900 54 62 65
245658.16375732 3357702.24176025 18.55018234 149 151 148
245669.88885498 3357701.05352783 16.47257805 26 26 26
245666.11413574 3357701.51995850 17.79264069 42 44 41
245670.67486572 3357701.73693848 19.29945183 242 243 245
245663.88269043 3357700.24597168 19.77346611 254 254 254
245662.52050781 3357699.20501709 18.63670921 89 96 89
245657.50561523 3357702.36273193 18.68905640 131 128 123
245664.29388428 3357702.38403320 16.54119873 55 60 63
245668.50653076 3357700.89471436 19.90253258 254 255 255
245664.73242188 3357698.66314697 16.47357559 181 186 189
245664.43359375 3357701.12207031 19.82468033 252 254 253
245669.92901611 3357700.21270752 19.81377029 231 237 235
245662.17956543 3357700.30902100 20.17383575 250 252 251
245669.24145508 3357701.40325928 19.79631615 235 240 244
245658.11273193 3357702.40344238 16.52507591 216 207 198
245667.89691162 3357701.28857422 19.72727776 254 254 252
245657.42681885 3357702.48474121 18.81870079 128 127 123
245669.79144287 3357700.85760498 19.96023941 187 202 207
245669.12243652 3357701.58886719 17.61958694 48 52 53
245662.48602295 3357699.75860596 19.76135635 253 253 251
245662.29119873 3357700.94549561 20.30688477 194 212 224
245658.61865234 3357699.46545410 18.38285446 234 235 230
245667.02795410 3357701.69976807 17.05826378 36 37 39
245662.38500977 3357699.70538330 16.79205704 96 98 97
245665.98657227 3357699.61975098 17.15259552 194 196 195
245661.63891602 3357702.39251709 19.00515747 173 181 183
245669.41333008 3357700.30029297 20.15127182 252 253 248
245667.23028564 3357701.23126221 19.72652435 251 252 254
245665.64349365 3357701.50091553 17.76879883 92 90 91
245667.27862549 3357701.14501953 19.76829338 250 252 251
245660.79949951 3357698.95892334 18.98121071 54 60 60
245665.05743408 3357699.05511475 18.96226311 104 123 121
245656.89459229 3357699.78997803 19.28507423 245 245 243
245664.25701904 3357702.37280273 16.54121780 52 55 60
245658.19165039 3357701.47906494 20.08547211 209 217 220
245665.86437988 3357701.74633789 18.43084335 146 152 152
245661.33886719 3357702.06640625 19.49579430 239 244 248
245670.24786377 3357700.78759766 19.61716652 233 237 238
245660.77770996 3357698.55413818 16.58034325 49 53 64
245669.87237549 3357702.34887695 18.77867508 99 95 96
245667.76654053 3357699.75305176 17.30001450 133 134 136
245661.48718262 3357699.52709961 19.59852219 252 251 247
245665.34497070 3357699.43682861 19.50475883 254 254 254
245669.48345947 3357701.13238525 16.40454292 146 145 150
245657.42327881 3357702.13446045 16.61810112 203 189 163
245668.86077881 3357701.01715088 17.12012100 35 35 35
245663.78564453 3357700.38128662 19.81500816 254 254 254
245658.22991943 3357699.17730713 19.09047699 181 182 177
245665.49645996 3357702.24792480 19.28150940 237 243 243
245663.89288330 3357699.00469971 19.24665451 254 254 252
245663.32104492 3357698.88690186 19.20081711 243 245 244
245659.95562744 3357698.72967529 16.60100365 169 179 188
245661.92785645 3357702.21649170 18.81841087 167 172 175
245670.73016357 3357700.83856201 19.27509308 241 243 242
245659.18212891 3357701.03613281 17.06204796 45 46 48
245658.73083496 3357699.78112793 19.78025627 241 240 245
245671.26239014 3357701.49035645 16.32555008 110 117 123
245664.22979736 3357701.63189697 17.59175301 9 14 18
245663.16088867 3357701.38867188 16.97923660 160 161 165
245668.40173340 3357700.11285400 19.82764626 255 255 253
245668.40093994 3357702.23358154 16.36230087 110 119 124
245668.33007813 3357698.48455811 16.45450783 92 97 101
245668.86877441 3357701.15490723 17.19889641 47 49 48
245663.57092285 3357699.35754395 17.43114281 182 186 185
245669.61596680 3357698.69012451 16.36562347 188 189 191
245664.51422119 3357699.88720703 19.67947197 254 254 254
245668.84893799 3357701.72442627 17.35031319 49 51 50
245664.22778320 3357699.30426025 19.39880562 251 251 251
245667.92504883 3357699.67974854 17.49605560 148 149 151
245669.74560547 3357699.44238281 16.38685608 124 125 120
245662.24310303 3357701.96624756 18.53280640 117 123 123
245668.65234375 3357699.94354248 17.45550156 77 78 73
245660.45446777 3357699.65637207 17.08379173 54 55 59
245669.26428223 3357701.76947021 19.54107666 236 240 243
245662.55761719 3357701.60205078 19.79436684 236 241 245
245667.54315186 3357702.41979980 19.14992523 251 252 254
245667.68609619 3357701.79663086 19.47258949 251 252 254
245663.30017090 3357698.89245605 18.98410416 183 185 180
245662.77551270 3357701.43811035 16.89915848 38 43 46
245657.12896729 3357698.64831543 16.74496460 112 114 113
245665.19445801 3357701.35443115 16.86370277 23 24 26
245666.90954590 3357698.83825684 16.70681381 73 68 65
245660.79595947 3357701.32543945 16.89743423 18 22 25
245670.38708496 3357698.78076172 19.00731468 131 141 140
245666.59893799 3357699.66625977 16.72385025 41 42 46
245660.96289063 3357698.91534424 16.54987335 122 133 139
245668.04364014 3357698.65393066 16.36143112 200 204 203
245665.83087158 3357702.15570068 16.79528236 73 74 76
245669.17694092 3357701.34649658 17.72635078 50 59 58
245669.01025391 3357702.03668213 18.46318817 83 85 84
245661.79364014 3357698.52307129 16.53195381 78 81 86
245658.36791992 3357698.96539307 16.61731529 110 123 129
245658.51947021 3357700.27844238 17.48098183 101 110 105
245662.59484863 3357699.16235352 19.36624908 246 248 243
245663.78552246 3357702.45050049 19.25725555 244 245 247
245660.80279541 3357702.54138184 19.27886581 228 233 236
245663.90289307 3357699.36816406 17.88686562 84 88 91
245669.57727051 3357698.73620605 16.37333488 197 198 200
245659.06854248 3357702.10211182 17.11013603 120 106 97
245667.38348389 3357701.10479736 19.79506874 250 250 250
245660.35906982 3357701.06433105 19.93010902 253 255 254
245662.12365723 3357702.20898438 19.39888000 244 245 249
245667.52301025 3357699.82995605 19.65219307 255 255 255
245668.37231445 3357699.00024414 18.49023819 56 57 52
245670.85211182 3357700.19830322 19.20057297 222 224 221
245667.81640625 3357699.56793213 19.52148438 255 255 255
245657.65435791 3357700.08813477 16.56760979 202 199 194
245664.80316162 3357700.87945557 19.96039963 253 254 255
245665.48999023 3357701.58923340 17.82712555 70 70 70
245658.29486084 3357701.47149658 17.87641716 149 151 148
245668.15667725 3357701.74316406 16.43871689 60 61 63
245658.81286621 3357699.74096680 17.38572884 184 189 183
245660.11602783 3357699.05987549 18.70148277 87 107 105
245667.75048828 3357702.03607178 17.25867844 24 24 24
245658.25463867 3357700.39721680 16.49398994 242 241 237
245664.17236328 3357699.10400391 16.54413223 64 65 67
245658.69787598 3357699.67395020 16.69685745 27 30 35
245667.04943848 3357699.90411377 19.69125938 254 254 254
245659.47357178 3357699.34661865 17.65681839 67 66 71
245657.02703857 3357699.59020996 16.60403442 89 91 90
245665.24206543 3357701.19927979 17.27383995 63 63 63
245667.54272461 3357701.43200684 19.65902901 251 252 254
245664.71179199 3357699.35406494 16.68281937 57 56 52
245658.86810303 3357702.42327881 16.68325996 90 90 82
245669.61853027 3357700.91131592 18.08488274 64 68 67
245657.64831543 3357701.92877197 19.67124748 233 238 241
245664.71020508 3357699.68365479 17.03191566 37 41 40
245670.89849854 3357698.88714600 19.09419060 249 249 251
245661.69244385 3357702.14050293 19.46231461 240 244 247
245669.11718750 3357699.39056396 16.39200974 171 158 139
245666.89660645 3357698.61676025 16.72803497 149 147 158
245662.46588135 3357702.03326416 16.68371773 39 44 48
245660.36584473 3357699.13592529 16.56808853 60 65 69
245661.52270508 3357699.98937988 19.86535454 251 252 254
245660.80102539 3357701.93347168 17.85935020 69 70 75
245669.27038574 3357701.67767334 19.60559845 236 241 244
245668.17095947 3357699.38262939 17.96056938 96 97 99
245669.66778564 3357701.57458496 18.10211563 53 63 64
245665.10754395 3357702.43737793 16.42415047 100 108 111
245667.57781982 3357700.44842529 19.84671783 255 255 255
245657.82147217 3357700.57049561 16.62685966 178 175 160
245667.46990967 3357698.72589111 19.07446480 254 253 251
245666.30072021 3357699.02014160 16.42884636 80 84 87
245666.17999268 3357702.39080811 16.41792679 152 157 160
245668.94421387 3357700.30786133 17.38039970 69 68 64
245661.24200439 3357702.12994385 19.46761513 238 243 246
245658.73248291 3357702.17199707 18.53069115 181 183 182
245668.55310059 3357701.83813477 19.46500015 241 245 246
245659.18756104 3357698.87591553 16.64128304 134 144 153
245664.06018066 3357699.33013916 18.30968094 72 81 86
245657.73175049 3357702.39996338 19.39919090 225 233 236
245667.84124756 3357702.28009033 17.98589516 45 49 48
245658.59222412 3357699.43939209 18.43154907 227 228 223
245666.35314941 3357699.27496338 18.13884354 87 87 87
245671.28302002 3357699.11285400 16.33932304 91 99 102
245658.17700195 3357699.70373535 18.32056808 168 168 166
245666.92169189 3357701.30993652 16.99762726 130 132 131
245665.12945557 3357699.71734619 17.84454727 84 89 92
245657.66467285 3357699.92663574 19.72495461 252 252 252
245659.48736572 3357701.27136230 19.99126434 244 245 249
245667.07525635 3357702.50689697 19.10554504 255 255 255
245668.06658936 3357702.28588867 18.05184364 11 12 14
245666.75366211 3357702.16845703 18.75489807 80 91 87
245659.38085938 3357699.42968750 19.52647781 255 255 255
245660.59887695 3357699.31140137 18.17516899 79 81 76
245670.83709717 3357700.31964111 19.21153450 226 228 227
245659.26519775 3357702.38006592 16.75069046 43 49 49
245666.91943359 3357701.96936035 18.38502884 127 138 134
245660.72290039 3357699.23681641 18.28476143 131 133 130
245666.90820313 3357701.01708984 19.81537819 252 254 253
245662.28265381 3357700.48254395 20.27080154 236 235 240
245661.45324707 3357699.52984619 17.67748642 56 56 56
245666.51483154 3357701.37585449 19.67695236 206 211 215
245658.47119141 3357700.61267090 16.53693008 208 207 202
245668.04815674 3357700.01574707 16.63918114 70 70 68
245660.96954346 3357702.31188965 18.41003799 59 62 67
245657.95208740 3357699.59033203 18.56376839 167 167 165
245666.62097168 3357702.38616943 19.17657852 243 247 248
245667.62121582 3357699.56634521 17.57583046 80 80 80
245671.41223145 3357702.45001221 16.32258797 107 120 126
245669.10620117 3357699.74719238 19.66937447 252 253 248
245664.95983887 3357699.96740723 19.78158379 255 255 253
245667.66052246 3357699.03430176 18.45159340 31 41 42
245669.96600342 3357701.36914063 18.30815887 53 65 65
245670.40783691 3357700.26782227 18.73730469 135 139 122
245662.41467285 3357701.71252441 18.17248917 82 93 95
245659.02832031 3357699.29736328 19.44242668 248 248 248
245658.22216797 3357700.88354492 20.72666168 251 253 252
245661.28765869 3357699.92895508 19.81060982 254 254 254
245669.19653320 3357701.03808594 17.73993492 59 65 61
245670.66320801 3357701.44421387 19.32459259 239 243 242
245664.92279053 3357702.40570068 16.47224045 61 65 68
245669.38690186 3357700.95446777 17.88897896 73 78 72
245669.22235107 3357700.25701904 16.42746544 156 150 134
245666.86145020 3357699.75708008 16.87018776 45 55 57
245662.33789063 3357702.42254639 19.20699883 249 250 252
245667.25170898 3357702.26855469 16.44523430 153 157 160
245667.79553223 3357701.90130615 16.77888489 25 25 25
245666.99798584 3357702.44372559 19.14902115 253 254 255
245667.08013916 3357702.31585693 18.78555679 138 148 147
245668.17553711 3357701.95269775 17.55615425 21 22 24
245657.65692139 3357700.87414551 20.03890610 253 255 254
245659.16949463 3357699.06347656 19.05328751 193 190 185
245667.65289307 3357699.73645020 19.60608482 255 255 255
245670.81469727 3357702.43927002 16.33057785 116 123 129
245664.11279297 3357702.49487305 18.83864594 118 124 124
245657.64147949 3357700.17700195 18.33253288 29 33 34
245665.73358154 3357700.74218750 16.79349899 75 76 78
245657.98339844 3357700.01647949 18.18099213 47 49 46
245666.04766846 3357701.80145264 16.46536255 85 89 90
245657.56451416 3357699.98956299 18.48180008 57 59 56
245658.94146729 3357699.27990723 18.62147522 128 127 123
245667.47814941 3357699.45281982 17.72128296 53 55 54
245669.94036865 3357699.91607666 16.39490700 169 166 157
245667.66284180 3357702.41357422 18.33850288 29 30 32
245665.73522949 3357698.63079834 16.46445847 210 214 217
245658.21685791 3357702.22656250 16.52665901 219 215 206
245670.79296875 3357701.47943115 19.24633789 241 247 245
245668.97338867 3357702.02008057 18.42724991 63 65 64
245663.48382568 3357701.03656006 19.84404945 246 247 249
245659.25225830 3357700.99786377 17.17993355 39 39 37
245665.49237061 3357701.39752197 17.59985542 63 61 62
245669.96643066 3357700.28173828 16.38019180 192 185 177
245665.14398193 3357701.75146484 18.08783150 77 81 82
245665.74456787 3357699.56701660 16.85408020 65 65 65
245661.56817627 3357701.05853271 20.21359253 254 254 254
245668.32617188 3357699.14361572 18.30842972 38 40 39
245662.50994873 3357699.67437744 19.70858955 251 251 249
245659.83374023 3357701.85821533 19.76657295 242 247 250
245661.02978516 3357701.44586182 17.27952194 36 37 39
245662.83184814 3357699.72320557 17.13315392 76 80 79
245659.71801758 3357699.23553467 17.24211121 45 49 52
245669.71551514 3357700.32415771 16.41600800 215 183 168
245660.87097168 3357699.55645752 16.53380966 117 121 124
245667.22821045 3357699.14526367 18.24653244 78 85 91
245665.90832520 3357702.15344238 18.79548073 141 149 151
245666.22802734 3357701.08612061 17.17993736 58 60 59
245664.14093018 3357702.26757813 16.56928444 56 61 64
245665.45275879 3357700.98565674 20.18618202 215 221 221
245667.70770264 3357701.99523926 16.99643326 29 31 30
245661.17706299 3357702.08221436 18.07161331 38 33 37
245665.15008545 3357699.12084961 18.87057495 87 106 104
245659.24450684 3357701.95062256 19.74211311 236 239 244
245656.71655273 3357699.22937012 16.66346741 92 90 91
245660.23303223 3357702.37579346 16.53642082 207 202 199
245665.58056641 3357699.09558105 19.29679298 252 254 253
245662.37548828 3357701.74304199 17.00717354 80 85 88
245665.00396729 3357698.51708984 16.48572731 60 63 70
245669.19683838 3357701.91644287 16.62364769 31 31 31
245657.98937988 3357699.38171387 19.44153023 251 251 251
245664.99822998 3357701.90875244 18.35407639 37 45 48
245664.49078369 3357700.48730469 19.86231804 255 255 255
245664.23571777 3357701.56561279 17.46273232 10 15 19
245659.81494141 3357699.32867432 18.12724495 50 70 71
245668.30072021 3357702.11413574 16.36905479 102 110 113
245666.23236084 3357699.46752930 17.58150673 50 50 50
245667.71289063 3357699.66351318 19.56955719 255 255 255
245659.50726318 3357699.18188477 16.92380333 40 44 47
245667.00939941 3357699.60784912 19.53099823 254 254 254
245665.02917480 3357701.71655273 16.72795868 38 42 45
245668.73217773 3357700.32006836 16.77034378 55 54 52
245670.08526611 3357701.90393066 18.50090790 73 87 87
245662.91705322 3357702.19409180 16.70483398 120 122 121
245670.81628418 3357701.36614990 19.23110962 246 250 249
245666.80035400 3357699.75378418 16.82401657 46 51 55
245659.33270264 3357701.49975586 16.62681961 72 71 67
245664.31134033 3357701.41638184 17.24181938 24 25 29
245667.62786865 3357700.07879639 19.75707436 255 255 255
245665.07507324 3357700.19848633 19.88298035 255 255 255
245664.30291748 3357699.00781250 18.85595894 81 92 98
245667.77862549 3357700.26763916 19.80494690 255 255 255
245668.60369873 3357700.58123779 20.01425552 254 255 255
245661.26354980 3357701.46289063 17.11438751 41 42 46
245662.90124512 3357698.64068604 16.53536987 200 201 203
245657.29705811 3357700.06585693 19.59456062 255 255 253
245668.83239746 3357702.11181641 16.71638489 38 39 41
245657.04125977 3357700.81726074 18.49643898 19 19 17
245668.91070557 3357700.33154297 20.05697060 255 255 253
245669.86395264 3357699.57214355 19.48756790 254 255 250
245661.73004150 3357699.66070557 17.52752304 72 74 73
245665.07641602 3357701.33215332 17.45372391 52 54 53
245669.80102539 3357701.30297852 16.45640182 37 38 40
245668.85876465 3357701.68994141 17.32624054 73 75 74
245664.44403076 3357702.10125732 16.86034584 26 27 21
245659.26513672 3357702.18231201 18.51722908 138 142 141
245665.18725586 3357701.73266602 18.25063896 96 102 102
245666.35925293 3357701.57159424 19.65272903 241 244 249
245663.16741943 3357699.68774414 17.19219017 174 176 175
245665.50329590 3357701.62268066 17.93683624 46 46 46
245662.41735840 3357701.51818848 17.48611259 26 27 31
245660.66510010 3357701.37353516 16.83963776 42 46 47
245668.59948730 3357700.29840088 16.68545151 91 95 94
245661.06970215 3357701.40075684 17.20071983 30 30 30
245657.21136475 3357699.67626953 19.47060394 253 253 253
245658.54248047 3357699.96368408 17.69209862 102 103 98
245668.97149658 3357699.72296143 19.65711021 254 253 249
245665.64892578 3357698.85339355 16.43915367 173 170 161
245668.90802002 3357702.05938721 16.95195770 98 100 99
245667.74627686 3357699.57080078 19.52242851 255 255 255
245662.38494873 3357701.41271973 17.13081932 14 17 22
245670.95391846 3357699.18188477 19.12646294 230 232 229
245670.55645752 3357701.58282471 19.37885094 237 241 242
245657.97668457 3357701.05358887 16.59572220 206 195 175
245665.31744385 3357699.20733643 17.17426872 90 104 130
245669.62615967 3357698.70617676 16.36613464 191 192 194
245664.10455322 3357700.48132324 19.82016754 255 255 255
245670.08319092 3357702.24163818 19.23190498 251 252 254
245663.58959961 3357700.79516602 19.87107468 252 253 255
245669.01739502 3357701.22198486 19.91344261 236 242 242
245666.89318848 3357699.36798096 17.82637787 123 135 135
245657.37188721 3357702.40002441 16.61025429 138 125 109
245670.47381592 3357698.85107422 16.36147308 165 175 177
245658.96246338 3357699.05377197 19.21425438 169 171 168
245658.52447510 3357699.40155029 18.51202583 225 226 220
245669.34246826 3357701.39813232 17.84994698 49 57 59
245666.56787109 3357701.60388184 16.81318665 139 145 143
245662.90069580 3357702.13336182 18.63988495 124 132 135
245662.51361084 3357701.29608154 17.26186371 16 19 24
245657.92669678 3357700.81506348 16.62006569 207 203 192
245668.05194092 3357700.70568848 19.88443375 255 255 255
245668.22009277 3357698.17382813 16.50770950 70 71 76
245665.62817383 3357702.01031494 19.45708656 236 242 242
245666.26947021 3357699.17596436 19.35297394 254 254 254
245665.43829346 3357702.17272949 17.18898582 205 210 214
245660.22192383 3357701.36669922 17.43138504 60 60 60
245663.82208252 3357702.31695557 16.47943878 64 67 72
245663.37243652 3357701.87170410 17.72338676 106 115 120
245662.67840576 3357699.28344727 18.43030548 133 132 127
245668.80126953 3357700.28967285 17.10704231 100 99 97
245666.98602295 3357702.36706543 16.40604973 115 118 123
245669.76672363 3357702.08319092 16.41167259 92 101 100
245670.84368896 3357699.18237305 18.90523720 162 169 161
245664.66595459 3357702.23577881 18.53087234 73 83 84
245662.93682861 3357699.36004639 16.76846886 70 69 67
245665.32507324 3357702.19317627 16.44647217 40 48 50
245661.68029785 3357699.07470703 16.51187706 124 131 141
245667.93377686 3357699.83630371 16.77205849 34 37 42
245669.68328857 3357701.35699463 16.42435265 55 61 59
245669.27160645 3357700.07739258 19.93450356 253 252 247
245669.87640381 3357700.23913574 18.47358131 90 92 81
245669.82873535 3357699.70898438 19.59206581 252 253 247
245659.51306152 3357702.54235840 18.98161697 128 133 136
245663.46746826 3357699.54797363 19.53358650 254 254 254
245663.34906006 3357700.00988770 19.73760223 254 254 254
245659.86120605 3357702.18292236 16.55436707 172 159 143
245658.92407227 3357699.69732666 17.39562607 131 132 124
245665.95837402 3357701.70709229 18.39871979 52 56 57
245666.44024658 3357699.55688477 16.97607231 86 84 89
245670.95300293 3357702.22729492 16.33337402 117 122 128
245660.72595215 3357702.13439941 18.10413361 42 43 45
245658.24353027 3357699.35321045 18.67533684 235 235 233
245669.56201172 3357699.90972900 16.33291245 101 100 95
245670.19305420 3357698.70098877 16.34601784 172 183 187
245665.16101074 3357701.65618896 17.83406258 43 44 46
245665.30950928 3357701.34643555 17.49225235 96 97 99
245665.14569092 3357701.72283936 19.61176682 239 242 247
245668.38610840 3357699.38043213 19.43062592 255 254 252
245657.14135742 3357700.09246826 18.70157433 82 82 82
245662.36865234 3357702.22839355 18.82576752 132 138 138
245666.27886963 3357701.61950684 18.09985924 121 120 118
245667.10430908 3357701.25750732 19.71010971 251 253 252
245661.88311768 3357702.16357422 16.60401344 63 68 72
245657.82025146 3357702.40850830 16.54990005 203 195 182
245664.66992188 3357702.37384033 16.53557587 54 59 62
245667.44488525 3357702.34143066 18.23727417 44 44 46
245657.65771484 3357699.60925293 18.68171692 136 138 135
245668.66595459 3357699.50665283 19.50035667 255 254 250
245667.36022949 3357701.81817627 17.60890770 32 38 36
245667.71179199 3357701.66497803 19.54068947 252 254 253
245668.28546143 3357699.13433838 19.29079819 255 255 253
245662.24291992 3357702.30731201 19.33012009 243 244 246
245664.92132568 3357701.17590332 17.24145317 41 43 42
245657.87786865 3357698.90637207 16.63892555 193 195 192
245658.96722412 3357702.14898682 18.52424622 199 203 202
245669.05450439 3357701.77471924 16.86574364 64 72 74
245665.17596436 3357702.30511475 19.23124695 241 245 248
245670.06097412 3357698.39709473 16.38649368 165 174 183
245671.17443848 3357701.71026611 16.33219528 103 110 118
245666.44403076 3357699.22467041 16.49993896 77 77 79
245660.12957764 3357701.76715088 17.83070946 52 54 53
245667.19628906 3357699.04016113 18.40555000 49 60 62
245659.47161865 3357702.34576416 18.61459160 124 128 127
245666.97003174 3357701.78747559 17.91189957 63 72 69
245658.80090332 3357701.74877930 18.00194168 105 105 103
245662.57214355 3357699.55706787 19.63254547 253 254 249
245670.58758545 3357700.94415283 18.79010963 91 97 93
245660.22644043 3357701.68322754 17.73187447 86 87 89
245659.70251465 3357701.55847168 17.69433594 48 50 49
245665.29290771 3357701.48132324 17.04324722 56 57 59
245660.33776855 3357702.44635010 18.52516174 82 86 89
245666.50628662 3357698.94732666 19.19982147 252 254 253
245665.87274170 3357699.60827637 17.56203651 89 90 94
245660.35583496 3357700.80328369 16.79219437 102 106 107
245668.98419189 3357701.20599365 19.91491508 237 241 242
245667.18341064 3357701.26263428 19.71133614 249 253 254
245661.58612061 3357701.78576660 16.86078262 29 32 37
245657.89776611 3357699.19519043 19.02499390 152 152 150
245663.63085938 3357699.30316162 17.05332375 136 137 141
245660.57012939 3357701.23638916 17.21599007 47 47 47
245670.49859619 3357702.17431641 19.22700691 248 250 247
245658.54943848 3357701.78424072 16.66776276 188 172 149
245669.08502197 3357700.13891602 17.94610977 112 113 107
245661.95892334 3357699.02520752 19.22856331 183 196 187
245661.02008057 3357699.70880127 17.10337257 43 44 46
245661.21374512 3357699.89581299 19.78885651 254 254 254
245662.63800049 3357698.63824463 16.55268097 164 164 176
245659.48895264 3357700.32434082 19.98363113 247 247 249
245666.90136719 3357698.90539551 19.16789246 254 255 255
245663.69555664 3357698.81787109 18.99876976 229 237 239
245667.18688965 3357699.18951416 19.31867981 255 255 255
245658.02679443 3357699.59533691 16.59108162 87 92 95
245664.41870117 3357701.23962402 19.78386688 251 252 254
245658.00390625 3357700.99462891 20.41657639 252 254 251
245665.18273926 3357700.31091309 19.97551727 254 255 250
245666.26361084 3357701.61779785 18.11048698 113 112 110
245661.11779785 3357699.77642822 19.73088455 255 255 255
245662.91394043 3357699.42034912 18.08332443 173 173 165
245657.34564209 3357702.11383057 18.31423950 127 127 119
245665.00708008 3357699.89697266 17.16713905 217 228 232
245657.79754639 3357701.19073486 17.98912811 86 86 84
245665.98162842 3357700.78228760 20.25374413 189 202 210
245657.20513916 3357700.86907959 19.64156723 249 248 246
245659.39489746 3357698.59051514 16.63201904 54 61 71
245657.78564453 3357701.37683105 20.11313820 245 249 248
245666.95379639 3357701.26068115 17.02595329 181 185 184
245665.05926514 3357701.22418213 19.90225983 251 252 254
245662.69396973 3357701.61676025 16.92537880 40 45 48
245658.52819824 3357701.03979492 16.89202309 63 65 64
245657.53131104 3357701.55743408 19.89786530 218 226 228
245663.71124268 3357702.36639404 16.48097038 62 67 70
245666.86822510 3357699.54144287 16.59505463 69 68 66
245661.01873779 3357698.94183350 16.54774284 135 142 148
245669.90289307 3357701.99212646 18.44343567 76 70 74
245665.23529053 3357702.27215576 18.91322327 161 172 174
245665.25183105 3357698.83312988 16.43152046 159 158 154
245665.29559326 3357701.68298340 18.29057503 148 154 154
245661.42224121 3357700.32458496 20.03260612 251 252 254
245660.03063965 3357698.60540771 16.60161591 58 62 74
245657.02178955 3357698.58685303 16.72877312 81 85 86
245660.90802002 3357702.59197998 19.08754730 179 184 187
245658.40563965 3357700.07324219 17.77916527 40 42 41
245663.42297363 3357699.53356934 16.71502686 91 95 98
245658.36267090 3357699.80651855 18.09403038 152 152 152
245657.70367432 3357699.33032227 18.87625885 138 144 140
245657.33978271 3357700.01629639 18.62583160 56 56 56
245658.11340332 3357702.27203369 18.58994484 147 147 145
245666.61138916 3357701.69812012 18.06042671 87 91 94
245657.93103027 3357700.65039063 17.88250732 123 123 121
245669.09368896 3357700.74401855 17.43097687 125 126 120
245661.99859619 3357699.09350586 16.51488304 105 115 124
245660.54718018 3357699.54846191 19.59087944 255 255 253
245667.11248779 3357701.78057861 17.07799530 24 28 29
245663.96173096 3357702.60955811 18.97509956 196 200 203
245659.14514160 3357699.67462158 17.44686699 77 78 73
245658.26098633 3357701.36022949 16.56477356 247 244 235
245671.14044189 3357699.21215820 16.35505867 97 102 106
245667.31054688 3357699.42926025 17.72306442 76 80 81
245659.44171143 3357702.51385498 18.94811630 166 174 176
245669.99267578 3357701.42138672 16.44525719 50 53 58
245664.19451904 3357701.86737061 17.04902649 42 43 45
245670.50555420 3357702.33154297 19.13698769 246 246 246
245665.89904785 3357702.31909180 18.95787430 149 157 159
245668.67852783 3357702.30090332 19.01546860 132 132 132
245664.66467285 3357702.16864014 18.33773994 37 47 46
245658.81622314 3357699.12670898 17.22295380 35 52 59
245668.53259277 3357698.94146729 19.09749222 210 216 216
245670.16430664 3357701.69927979 16.39921951 137 142 146
245667.09039307 3357701.44628906 17.51947975 49 55 53
245668.25756836 3357700.04589844 19.76490211 255 255 255
245660.84167480 3357701.68420410 19.72353935 249 250 252
245667.68066406 3357699.59002686 16.70696068 39 40 45
245665.07806396 3357700.01519775 19.82350731 255 255 253
245663.31628418 3357699.45605469 17.67760468 190 194 195
245660.88311768 3357700.87664795 19.99944687 255 255 255
245660.16278076 3357701.91912842 19.72149849 237 242 246
245660.72326660 3357698.54962158 16.58758354 51 58 68
245660.23992920 3357701.26293945 19.91795921 246 247 251
245656.96514893 3357699.87017822 18.86667824 60 62 61
245662.63568115 3357700.14819336 19.96379471 245 247 246
245662.20153809 3357701.59808350 19.85657883 231 236 240
245669.02191162 3357700.81646729 17.35303307 103 104 98
245669.69226074 3357698.80322266 16.36628723 182 186 187
245670.37353516 3357699.02117920 19.22006989 253 255 254
245664.96124268 3357698.93090820 16.40133667 164 165 159
245670.50701904 3357699.09576416 18.77306366 111 118 111
245658.69964600 3357699.16491699 18.94648743 83 83 83
245666.17498779 3357701.69244385 18.38697815 72 78 78
245668.06469727 3357699.41302490 17.90270233 61 63 60
245666.69903564 3357701.86407471 19.51462936 244 248 249
245662.04589844 3357698.54656982 16.51866722 93 103 112
