246105.59448242 3357541.04211426 12.99216747 116 109 103
246105.63708496 3357539.86505127 15.62996769 7 89 175
246106.67150879 3357540.50494385 13.21348381 81 85 94
246106.66064453 3357541.16442871 13.21236324 42 49 59
246107.65173340 3357540.33782959 13.03995609 10 17 25
246105.40112305 3357540.64166260 15.31801033 135 196 243
246105.88049316 3357540.07623291 15.05617142 128 128 128
246104.73571777 3357538.67028809 15.09686184 128 128 128
246103.91406250 3357540.99078369 12.98085594 195 194 189
246105.94287109 3357540.35369873 15.40237808 37 161 221
246105.40270996 3357539.17541504 15.06646824 128 128 128
246107.20019531 3357541.97814941 12.94368744 112 118 130
246104.97949219 3357540.24133301 14.96612263 128 128 128
246104.55554199 3357539.93688965 14.94780922 128 128 128
246105.73010254 3357538.97302246 15.10458279 128 128 128
246103.99414063 3357540.36437988 14.88018799 128 128 128
246105.51501465 3357538.61682129 15.31168652 70 170 229
246105.03857422 3357540.37249756 15.48251724 8 142 213
246107.09289551 3357540.82952881 12.99122429 80 83 92
246107.48193359 3357541.18756104 12.94814396 85 92 102
246104.17724609 3357539.35711670 15.39832878 20 200 249
246107.21142578 3357541.53906250 13.02131176 92 101 110
246104.81542969 3357541.07525635 15.14141846 52 192 243
246106.77929688 3357540.68585205 13.13318825 28 29 34
246106.50964355 3357540.21826172 13.12014484 55 58 67
246107.39587402 3357541.47082520 12.98503304 104 113 120
246104.43359375 3357538.94946289 15.08300781 128 128 128
246105.14135742 3357540.68359375 15.02861404 128 128 130
246105.85693359 3357538.83880615 15.10768890 128 128 128
246104.47070313 3357541.04443359 14.99480534 128 128 128
246104.77416992 3357540.81677246 15.25047779 7 159 222
246104.58569336 3357540.47625732 14.94047928 128 128 128
246103.66589355 3357540.10180664 12.98136806 204 203 198
246104.34753418 3357539.75836182 15.38820744 134 172 195
246104.24633789 3357541.30114746 15.18438244 15 91 167
246105.81347656 3357538.55102539 15.14582920 128 128 126
246104.11181641 3357540.16802979 12.99245644 214 214 206
246104.81701660 3357540.56939697 14.97797298 128 128 128
246106.98925781 3357541.29016113 12.99196911 63 72 81
246104.73828125 3357540.88824463 15.22150326 8 160 225
246105.52233887 3357540.01226807 15.01128578 128 128 128
246104.22363281 3357540.74578857 15.24155331 8 176 247
246104.72546387 3357538.70776367 15.09135056 128 128 128
246103.71374512 3357539.57324219 15.03951931 190 214 240
246105.03527832 3357539.17492676 13.04988861 151 155 154
246104.57214355 3357540.92535400 14.99226379 128 128 128
246104.25415039 3357539.12060547 15.39371300 62 213 244
246105.45898438 3357540.03344727 13.02053642 194 196 193
246103.90148926 3357538.98400879 12.98486137 159 163 166
246106.97412109 3357540.26873779 13.03876400 36 37 42
246103.80151367 3357539.98406982 15.08464146 242 252 251
246105.41491699 3357540.68524170 15.06007767 128 128 128
246104.29357910 3357540.21343994 12.98634052 204 201 196
246104.02880859 3357540.96557617 15.17272186 20 153 228
246104.47106934 3357540.30999756 15.34317780 1 184 244
246105.20617676 3357539.27764893 13.00343704 206 207 202
246104.08874512 3357538.72528076 15.15037823 152 199 209
246103.79760742 3357540.58245850 12.98048592 177 176 171
246104.19494629 3357540.17547607 15.28587437 3 183 246
246104.22875977 3357539.68127441 12.97724438 192 193 188
246105.17150879 3357540.18164063 13.02184391 198 199 194
246105.93225098 3357539.87445068 15.48908043 17 94 184
246104.11499023 3357539.29064941 15.37708664 22 198 245
246106.01513672 3357540.54272461 13.02179050 116 121 127
246104.48754883 3357541.23529053 15.14543438 36 171 229
246105.85449219 3357539.78948975 13.03321075 169 170 172
246107.09228516 3357539.89337158 13.12719250 98 97 102
246107.20593262 3357542.09582520 12.94280148 113 121 132
246105.34729004 3357538.96148682 15.45778465 13 154 225
246104.94421387 3357540.48864746 13.00761700 209 210 204
246103.97631836 3357540.10449219 14.91753674 128 128 128
246105.42285156 3357539.33691406 15.64840603 59 156 237
246104.23852539 3357540.03515625 15.30283928 138 235 254
246104.24975586 3357540.74163818 15.24610043 7 180 248
246105.84521484 3357540.76391602 12.98433304 161 157 154
246106.98681641 3357540.20965576 13.02310753 34 34 42
246106.12426758 3357542.12615967 12.91922188 124 128 131
246104.69067383 3357538.64758301 15.26207542 35 142 198
246105.55346680 3357540.09527588 13.01896000 188 190 187
246107.11499023 3357540.71099854 13.02636719 78 81 90
246105.23034668 3357540.06542969 15.67188644 8 124 207
246107.99426270 3357540.23492432 13.05334187 50 59 68
246103.75720215 3357540.60491943 12.98027325 205 204 199
246107.40991211 3357541.91979980 12.97482109 118 128 137
246104.64587402 3357538.56481934 15.23543167 33 152 220
246104.46166992 3357539.59576416 14.97569275 128 128 128
246104.55139160 3357539.17694092 15.48199177 71 237 255
246104.10864258 3357538.97869873 15.08334064 128 128 128
246106.80139160 3357541.18341064 13.11816216 130 137 147
246105.45288086 3357540.42199707 15.43381310 137 71 109
246107.51098633 3357540.29406738 13.11353111 21 28 36
246107.22155762 3357541.77661133 12.98636723 108 114 126
246107.60437012 3357541.29974365 12.94077396 88 95 105
246104.45263672 3357541.27288818 15.12502384 59 155 213
246104.32910156 3357540.79388428 15.25375175 16 200 254
246103.72961426 3357538.85455322 12.99662971 184 190 188
246105.93591309 3357539.79101563 13.05898476 157 158 160
246104.06823730 3357539.33251953 12.98848248 139 149 148
246105.05114746 3357538.84307861 15.37711239 114 153 160
246105.02868652 3357539.57379150 15.80841160 10 202 241
246106.12109375 3357539.74340820 15.36670780 43 122 201
246106.07165527 3357539.45800781 15.07492924 128 128 128
246104.95556641 3357539.59167480 15.76185703 38 214 255
246105.24926758 3357539.71240234 15.91403198 65 138 181
246104.15673828 3357539.92596436 14.94056320 128 128 128
246104.03442383 3357539.88922119 12.98987961 209 208 203
246105.26989746 3357539.56219482 15.02207756 128 128 128
246104.25878906 3357541.33422852 15.11490440 32 94 155
246105.30664063 3357541.08581543 12.98633003 175 166 159
246105.73718262 3357540.32000732 15.05709743 128 128 128
246105.47302246 3357540.27185059 15.02393150 128 128 128
246105.16357422 3357540.17285156 15.59350491 4 130 214
246105.53710938 3357539.38983154 15.05296707 128 128 128
246105.71203613 3357541.93920898 12.93123055 220 220 208
246105.31555176 3357540.82073975 15.22987175 84 203 243
246106.55346680 3357541.40753174 12.94082546 90 99 106
246104.76770020 3357539.56854248 14.99465752 128 128 128
246104.52331543 3357540.69616699 14.95947361 128 128 128
246104.71191406 3357540.60815430 12.97546959 214 215 210
246105.46545410 3357539.77990723 15.76940918 4 78 165
246106.61828613 3357540.65747070 13.18026066 7 6 20
246104.74279785 3357538.79449463 13.16398811 143 155 155
246106.72949219 3357539.74084473 13.03654480 95 96 101
246105.81494141 3357540.19372559 12.98303986 155 159 160
246105.00952148 3357539.05560303 15.49217892 208 97 114
246104.38818359 3357540.57916260 14.93012714 128 128 128
246104.05493164 3357541.29956055 15.01380539 244 226 240
246105.11132813 3357538.87231445 15.40366459 128 178 179
246107.18920898 3357540.73461914 13.01471710 87 91 100
246105.56445313 3357539.05175781 15.08702755 128 128 128
246106.33435059 3357540.73449707 13.14988327 71 78 86
246104.53247070 3357540.22576904 15.39134693 3 183 246
246106.05688477 3357540.16790771 15.08249187 128 128 128
246106.90051270 3357540.22521973 13.03070450 53 54 59
246104.11767578 3357540.51947021 12.98777008 203 202 197
246104.37536621 3357540.51159668 15.29588795 0 187 243
246105.64013672 3357539.40142822 15.57402515 14 108 195
246103.75415039 3357541.27105713 12.98257160 205 200 196
246105.10742188 3357538.51776123 15.22045135 88 174 223
246104.20458984 3357538.92169189 13.03261662 137 146 145
246104.48535156 3357539.51617432 14.98463535 128 128 128
246104.81701660 3357541.10498047 15.12364292 112 189 217
246107.18188477 3357539.54730225 13.19446087 160 177 171
246104.61621094 3357538.89025879 15.07167149 128 128 128
246107.39599609 3357541.87701416 12.98270130 118 128 137
246105.28100586 3357538.59814453 13.18661022 153 163 164
246104.43701172 3357539.96545410 15.39487839 210 145 177
246107.41503906 3357540.10400391 13.09945107 76 79 86
246105.48840332 3357540.29083252 15.50228119 118 131 199
246105.09851074 3357540.18603516 13.00821781 200 201 196
246107.32128906 3357539.56329346 13.22424889 81 101 100
246105.92932129 3357539.76977539 15.47502041 87 132 200
246103.91821289 3357540.31805420 12.98168373 196 197 191
246104.52929688 3357540.45959473 14.93205547 128 128 128
246104.86572266 3357540.80694580 15.01175022 129 127 130
246105.70837402 3357538.70703125 13.05622768 148 157 156
246105.67370605 3357540.92132568 15.14566135 82 180 217
246107.25927734 3357540.14892578 13.08698273 82 87 93
246103.88659668 3357540.38708496 15.18058777 23 115 180
246106.21557617 3357540.17132568 15.24906158 16 133 212
246105.50549316 3357540.76293945 15.23597240 148 221 253
246104.84838867 3357540.63885498 15.34532261 14 152 225
246104.19494629 3357538.69970703 13.04676819 164 174 176
246107.41699219 3357540.61700439 13.06992340 57 64 72
246105.13757324 3357540.13513184 15.62635899 4 129 209
246104.60876465 3357540.11297607 12.98096752 200 199 195
246105.43786621 3357540.51672363 13.11225033 187 188 183
246105.03540039 3357540.08660889 15.66809940 29 164 230
246104.30749512 3357539.65222168 14.97169113 128 128 128
246107.12695313 3357539.47521973 13.15767002 159 160 162
246105.01818848 3357538.72387695 13.20689392 155 167 167
246104.88891602 3357540.29302979 15.52740383 23 142 224
246105.31945801 3357538.89544678 13.11431503 151 156 160
246105.23608398 3357540.34533691 13.06111622 204 205 200
246104.13073730 3357539.80377197 12.98436356 206 205 200
246105.95861816 3357539.10382080 15.37100410 12 117 200
246105.99267578 3357539.80798340 15.05001831 128 128 128
246104.28576660 3357538.95428467 15.36026287 17 179 243
246104.46313477 3357538.64233398 15.13475609 128 128 128
246104.25866699 3357540.49035645 15.27910709 2 187 251
246104.59606934 3357540.34820557 14.93035221 128 128 128
246105.67626953 3357540.74798584 15.22773933 41 164 208
246105.72937012 3357540.84466553 12.98308849 160 155 149
246105.92468262 3357540.22131348 15.07132626 128 128 128
246106.51306152 3357541.54180908 12.91777420 94 99 105
246104.60607910 3357539.45501709 14.99697208 128 128 128
246105.46105957 3357540.41772461 13.07566643 179 179 177
246104.93408203 3357539.23101807 15.03608894 128 128 128
246105.80090332 3357539.57794189 15.51398087 111 110 167
246105.58312988 3357540.56433105 15.33501911 115 175 227
246105.23388672 3357539.85150146 14.99225903 128 128 128
246105.68811035 3357539.82342529 15.01921177 128 128 128
246105.11755371 3357540.12530518 13.00958443 201 202 197
246104.25231934 3357539.12908936 15.06427097 128 128 128
246106.08032227 3357540.30261230 15.09458637 128 128 128
246104.86132813 3357540.99359131 15.17217064 22 179 234
246107.53930664 3357540.81695557 12.94089317 75 82 90
246104.88281250 3357539.72015381 14.98618317 128 128 128
246105.04699707 3357539.53131104 12.99078274 198 199 194
246106.41271973 3357539.98406982 13.05175400 128 127 132
246107.37927246 3357539.77703857 13.25604630 133 148 153
246105.01391602 3357540.10552979 14.96047115 128 128 128
246104.26147461 3357539.59460449 14.98759651 128 128 128
246105.92944336 3357540.28857422 15.07659054 128 128 128
246105.55358887 3357539.15527344 15.07647324 128 128 128
246107.20678711 3357539.48059082 13.19912815 118 128 130
246105.33776855 3357539.25952148 15.60097504 12 136 226
246106.88330078 3357540.45733643 13.15155888 4 7 14
246105.94250488 3357540.25469971 15.46637058 27 145 219
246106.07531738 3357540.85058594 13.07936668 85 86 90
246104.27062988 3357540.72644043 14.93417740 128 128 128
246104.55090332 3357540.26049805 12.97864532 213 212 208
246104.86132813 3357539.33251953 15.63386726 48 208 244
246103.91174316 3357540.09088135 14.91827297 128 128 130
246107.77587891 3357540.62805176 12.97229099 53 62 71
246105.38830566 3357540.92474365 15.08797741 113 133 140
246105.09167480 3357539.44415283 15.02395153 128 128 128
246104.82739258 3357538.89056396 15.36438656 251 255 255
246105.68725586 3357540.34967041 15.05355358 128 128 128
246107.13928223 3357540.08172607 13.07445621 82 84 96
246106.91491699 3357541.25073242 13.01086521 52 61 70
246106.05920410 3357540.12609863 15.07982635 128 128 128
246105.13134766 3357539.06439209 15.51065350 239 255 255
246104.71667480 3357540.58868408 12.97426987 217 216 212
246103.97094727 3357539.16522217 15.32678986 17 186 243
246104.72106934 3357539.68103027 12.98920536 197 198 192
246103.94042969 3357538.75561523 15.12917995 128 128 128
246104.86901855 3357540.14288330 12.97876740 200 201 195
246105.85949707 3357539.75067139 15.51009941 107 138 205
246103.77270508 3357538.97100830 15.25788593 11 157 232
246107.63183594 3357540.68719482 12.96139050 73 80 88
246107.22192383 3357540.32489014 13.10404491 41 43 55
246106.35266113 3357541.72583008 12.89996243 199 191 180
246105.31994629 3357538.65093994 15.30999851 68 164 214
246105.13916016 3357538.66204834 15.28516102 68 165 200
246104.83166504 3357540.29650879 15.50340080 1 133 207
246107.33154297 3357540.82324219 12.98129272 59 64 70
246106.82141113 3357541.54986572 12.97671700 94 103 108
246106.52160645 3357541.82946777 12.90161991 198 195 190
246105.03601074 3357540.78912354 13.00989819 200 199 194
246104.90527344 3357541.45208740 12.96902657 203 196 188
246106.14208984 3357539.80450439 15.06662750 128 128 128
246107.03161621 3357541.76666260 12.96865845 102 106 117
246105.46020508 3357538.94146729 15.09209728 128 128 128
246104.27978516 3357540.00323486 15.31568050 94 184 208
246104.06774902 3357540.27545166 15.25036716 0 161 241
246104.60021973 3357540.15454102 15.44751930 7 169 233
246106.18505859 3357541.11523438 13.17913342 75 82 90
246104.70483398 3357541.44146729 12.97566223 184 181 174
246104.41052246 3357539.88922119 14.94466305 128 128 128
246107.63012695 3357540.21942139 13.03711128 11 14 21
246103.81689453 3357539.39233398 15.23700809 5 121 208
246105.29980469 3357540.62194824 13.10938549 191 190 185
246104.12878418 3357541.18676758 14.93484879 128 128 128
246106.16320801 3357539.89556885 15.07538986 128 128 128
246105.97937012 3357541.00231934 13.05953884 176 169 163
246104.54724121 3357538.85772705 15.08583546 128 128 128
246103.97094727 3357540.94702148 15.08481216 182 235 255
246104.44372559 3357540.80773926 14.96362114 128 128 128
246104.49511719 3357540.93975830 14.98516369 128 128 128
246107.24121094 3357539.96984863 13.12469864 89 93 104
246104.75366211 3357539.41424561 12.98296261 194 196 195
246105.60070801 3357540.52764893 13.03293037 162 162 160
246105.82470703 3357541.95849609 12.92606068 140 142 139
246107.54443359 3357539.58459473 13.17480946 102 114 112
246105.19995117 3357539.77716064 14.99761486 128 128 128
246105.84313965 3357538.77752686 15.10683823 128 128 128
246104.87670898 3357538.76409912 13.18843937 155 165 167
246104.97167969 3357538.62329102 15.09670639 128 128 128
246107.05822754 3357540.15057373 13.03957844 67 70 77
246104.61889648 3357539.67065430 12.99204731 195 196 191
246105.76245117 3357540.49279785 15.34918022 35 149 220
246107.62207031 3357540.42895508 13.07341957 11 20 27
246103.98461914 3357539.22576904 15.04513836 128 128 128
246104.75891113 3357539.58227539 14.99286747 128 128 128
246106.12548828 3357539.70178223 15.35755634 68 134 208
246105.86889648 3357539.59460449 15.47972202 84 57 100
246103.87426758 3357539.92944336 15.21131611 2 132 216
246106.06079102 3357540.04467773 15.42582130 14 112 201
246105.67590332 3357539.47094727 15.05255890 128 128 128
246105.70849609 3357539.38757324 12.99617290 220 219 214
246104.51342773 3357540.13745117 12.98274517 204 203 198
246106.71862793 3357542.22906494 12.91842747 123 132 139
246103.78906250 3357539.75988770 12.98279476 199 200 195
246106.00817871 3357540.40399170 15.33568287 46 177 231
246105.53405762 3357539.36022949 15.61638927 20 115 199
246105.22265625 3357539.55419922 15.02032566 128 128 128
246106.40930176 3357541.43212891 12.94563675 105 109 112
246107.45227051 3357540.07580566 13.07882595 80 83 90
246105.71032715 3357540.64056396 15.27612209 32 157 211
246103.82373047 3357539.87902832 15.17867374 32 129 180
246105.75769043 3357539.79760742 15.02542019 128 128 128
246105.48535156 3357538.66668701 13.09409237 138 148 149
246104.85888672 3357540.47851563 14.97197628 128 128 128
246104.41918945 3357539.85638428 15.40698528 255 245 255
246104.20007324 3357541.51995850 12.99396515 211 211 203
246103.91040039 3357539.04449463 12.98488522 158 163 166
246104.71533203 3357540.24621582 15.46784782 1 173 239
246104.42919922 3357539.65893555 14.96786976 128 128 128
246105.90795898 3357541.00030518 13.00620651 182 175 167
246104.08813477 3357539.40936279 15.35513973 13 188 243
246106.03479004 3357540.89813232 13.07725430 102 101 99
246103.79675293 3357539.90777588 12.98240280 214 213 208
246107.22167969 3357541.58666992 13.01887035 99 108 115
246105.58471680 3357539.39831543 15.05469227 128 128 128
246105.35791016 3357539.58660889 15.81543636 9 80 160
246103.84301758 3357539.16717529 12.98415565 147 156 155
246104.30444336 3357539.85479736 15.34603977 175 211 233
246104.50964355 3357541.04809570 12.99597836 187 187 179
246105.50549316 3357540.20440674 15.54832840 31 96 178
246105.82507324 3357541.72076416 12.95159721 153 149 146
246103.96386719 3357540.29510498 12.98349285 193 192 187
246105.46166992 3357540.58026123 15.34368992 124 136 186
246104.72631836 3357539.11169434 15.03650570 128 128 128
246104.51647949 3357540.07049561 12.98438549 205 204 199
246104.56713867 3357540.96850586 14.99681091 128 128 128
246104.07922363 3357539.34216309 15.35762978 13 190 244
246106.77075195 3357540.48681641 13.18597698 3 6 11
246105.75524902 3357538.93890381 15.11057758 128 128 128
246103.88391113 3357540.45300293 15.16082573 157 196 225
246105.06018066 3357540.34216309 13.01530266 205 206 200
246104.48461914 3357540.06665039 15.40023804 216 237 255
246104.60217285 3357541.20214844 15.02290630 115 172 199
246104.79577637 3357538.67059326 15.08958054 128 128 128
246103.79150391 3357539.69500732 15.18934250 126 188 227
246105.74914551 3357539.37579346 15.06564236 128 128 128
246106.94458008 3357540.42022705 13.10808754 15 18 27
246105.42749023 3357538.73541260 15.11147308 128 128 128
246107.48840332 3357541.48767090 12.96999264 102 111 118
246106.08996582 3357540.30548096 15.38599205 12 139 208
246105.04797363 3357540.98687744 12.99718571 175 175 167
246103.97192383 3357540.28967285 12.98551846 195 194 189
246106.49328613 3357539.99096680 13.03833389 121 125 128
246105.05371094 3357540.66949463 15.01692486 129 127 128
246105.80834961 3357538.52429199 15.15226460 128 128 126
246103.68041992 3357539.59686279 15.09776497 155 197 235
246104.84411621 3357538.90698242 15.37792683 255 250 250
246104.83422852 3357539.74450684 14.98123932 128 128 128
246103.70361328 3357539.51818848 15.04560947 174 208 243
246104.05212402 3357540.79809570 15.20928001 1 153 237
246104.21850586 3357541.25158691 13.01455116 225 222 215
246104.94140625 3357539.08349609 15.49707985 210 82 105
246105.87036133 3357539.31475830 15.43485641 70 122 197
246106.12780762 3357539.78356934 15.36929417 24 110 193
246103.86694336 3357539.37194824 12.98418045 143 152 149
246104.37023926 3357541.20935059 15.19147205 36 168 233
246107.79260254 3357540.60455322 12.98088741 67 76 85
246106.20153809 3357542.13568115 12.91836357 109 113 116
246105.40173340 3357540.57775879 15.04580688 128 128 128
246105.02087402 3357541.15386963 12.98833179 180 175 169
246104.70031738 3357538.64770508 15.26155472 44 144 193
246107.36682129 3357539.97509766 13.13156509 84 86 98
246105.42919922 3357538.54034424 15.26252937 120 179 213
246107.51489258 3357540.38354492 13.12996387 24 33 40
246106.96850586 3357539.70074463 13.11162853 89 88 94
246105.56420898 3357540.15026855 13.01727009 179 181 178
246106.89123535 3357541.02569580 13.09731960 86 90 99
246106.12890625 3357540.26159668 15.10521698 72 169 222
246105.17028809 3357540.22479248 15.55525589 8 131 209
246105.03186035 3357540.74456787 15.29423714 5 164 230
246104.73254395 3357540.13214111 14.93842697 128 128 128
246105.32861328 3357540.71075439 15.28973770 81 169 209
246105.57934570 3357538.75018311 13.06659794 142 152 153
246106.16894531 3357542.15631104 12.91968727 122 126 129
246104.98950195 3357538.49371338 15.20081615 82 165 215
246103.95214844 3357539.44836426 15.01223373 129 129 129
246104.92724609 3357540.94421387 13.00347137 171 170 165
246107.29870605 3357541.63085938 13.00576687 98 107 114
246105.26281738 3357540.99810791 15.09565258 118 189 211
246104.21191406 3357539.15716553 15.39441776 85 235 255
246104.86645508 3357539.65655518 12.98616695 201 204 197
246106.47180176 3357541.42407227 12.93861580 91 96 100
246107.06066895 3357540.67553711 13.04517269 44 47 54
246104.84484863 3357540.80102539 15.00867271 129 127 130
246106.25488281 3357542.24841309 12.92202377 129 134 138
246107.22851563 3357541.15808105 12.97967052 71 82 86
246105.54040527 3357539.65344238 12.99719620 194 195 190
246105.82739258 3357539.39831543 13.01193047 208 207 202
246106.01721191 3357540.08850098 13.02926731 127 130 135
246104.34985352 3357540.39276123 15.30969906 0 188 244
246106.66247559 3357542.50305176 12.91177940 118 121 128
246105.35510254 3357540.18572998 13.02546692 182 182 180
246105.60400391 3357539.61132813 15.62871647 9 93 183
246104.50488281 3357539.87078857 12.98979473 206 205 201
246106.42565918 3357542.29620361 12.92331123 127 134 140
246103.71105957 3357539.18414307 15.20103550 8 132 228
246103.75793457 3357539.90460205 12.98226833 191 190 185
246104.27404785 3357539.91046143 14.93532848 128 128 128
246104.12719727 3357540.12976074 15.26993465 2 168 230
246105.04394531 3357540.03112793 15.69155693 33 171 233
246104.76672363 3357539.03973389 15.44351101 255 231 240
246105.32153320 3357540.12231445 15.61667347 7 111 198
246104.39990234 3357540.80792236 12.97610378 191 191 183
246106.42138672 3357540.87908936 13.20053959 29 36 46
246106.27478027 3357540.92523193 13.21320152 38 48 57
246105.84899902 3357539.34307861 15.07412720 128 128 128
246105.84191895 3357541.17663574 13.00887203 216 206 197
246105.37219238 3357539.33593750 15.04935741 128 128 128
246105.23193359 3357539.73162842 12.99511242 193 194 189
246104.70288086 3357539.31817627 12.99349308 158 164 164
246105.16137695 3357540.30029297 13.03073978 207 208 203
246107.37585449 3357540.13330078 13.09912968 92 95 104
246103.85949707 3357540.10034180 15.17538166 97 166 207
246105.76257324 3357539.17742920 13.01752567 206 205 200
246105.37756348 3357539.48297119 15.72310257 81 153 229
246104.22473145 3357540.17437744 14.90724850 128 128 128
246105.91162109 3357541.91558838 12.91643238 129 137 139
246105.64331055 3357540.31182861 13.00352859 177 179 176
246105.75329590 3357540.47521973 15.07380009 128 128 128
246104.59594727 3357541.19000244 15.13317966 28 172 225
246107.67211914 3357540.67340088 12.95710182 62 69 77
246105.71594238 3357540.78137207 15.20888615 45 173 220
246105.33312988 3357540.68225098 15.05035973 128 128 128
246104.50927734 3357540.35369873 12.97730827 212 213 207
246104.69445801 3357539.98547363 15.53378677 41 141 201
246105.98193359 3357540.35498047 15.39063454 39 165 224
246106.23754883 3357541.21551514 13.15014458 67 71 82
246104.91589355 3357540.18902588 14.95528030 128 128 128
246106.04650879 3357540.03625488 15.43697834 13 111 198
246107.51721191 3357541.72521973 12.96910763 109 123 126
246105.21411133 3357539.31744385 12.98997593 208 209 204
246105.67810059 3357540.16204834 13.00085068 176 178 177
246105.49023438 3357539.26306152 15.59334087 52 154 236
246104.41723633 3357538.71606445 15.12701511 128 128 128
246105.49536133 3357538.80218506 15.39283085 27 157 232
246107.14062500 3357539.58374023 13.17934132 126 148 136
246106.16870117 3357539.73162842 15.34008694 45 121 199
246104.20898438 3357540.72412109 12.98218632 201 201 193
246106.70837402 3357541.16992188 13.18321323 122 131 138
246104.22900391 3357538.74432373 13.04825211 165 173 175
246105.00012207 3357540.70086670 15.01451683 128 128 128
246106.21557617 3357542.04949951 12.91477680 107 111 112
246104.20483398 3357539.25610352 12.99135399 146 156 158
246104.28076172 3357538.96258545 15.08896637 128 128 128
246105.34631348 3357538.71960449 15.34231853 53 164 220
246103.72607422 3357538.92675781 12.98797512 180 186 182
246103.69335938 3357540.68713379 12.97980404 177 176 171
246103.74206543 3357539.19085693 15.21838188 4 131 224
246107.05310059 3357541.14398193 12.98573971 60 67 75
246107.01171875 3357540.79748535 13.01379204 67 68 73
246104.30883789 3357540.75024414 14.94137573 128 128 128
246106.78247070 3357540.65008545 13.14443016 40 43 48
246104.34338379 3357540.36553955 12.98241806 206 205 200
246104.50378418 3357541.32580566 12.99324703 197 194 187
246104.88061523 3357541.10394287 15.10341167 117 192 221
246105.55017090 3357539.13970947 15.54168892 57 162 245
246106.69042969 3357540.32958984 13.17057705 95 99 110
246104.22644043 3357539.24652100 12.99182129 143 154 156
246105.64501953 3357542.12969971 12.93177986 196 189 179
246104.61291504 3357540.75604248 14.97681522 128 128 128
246107.46166992 3357540.58776855 13.06764126 31 38 48
246105.73413086 3357540.42877197 15.06609344 128 128 128
246103.93945313 3357539.42413330 15.01550007 129 129 129
246105.10400391 3357540.87872314 15.04751205 127 129 128
246107.17004395 3357540.12139893 13.06908321 81 83 95
246105.50866699 3357539.41772461 12.98569775 207 206 201
246105.18811035 3357540.66479492 15.33222389 13 146 213
246105.80541992 3357540.04687500 15.55476379 4 106 190
246104.50659180 3357539.67388916 15.48989296 245 255 255
246105.07055664 3357540.73205566 15.29998970 4 158 228
246105.99096680 3357540.13647461 15.07285500 128 128 128
246104.30957031 3357539.67901611 12.97554779 194 193 188
246104.84802246 3357538.52105713 15.20131016 55 163 225
246104.30908203 3357539.61767578 14.97771454 128 128 128
246105.06665039 3357539.00463867 15.47227478 255 248 248
246107.37353516 3357539.91058350 13.17897320 74 81 91
246105.44995117 3357540.97076416 13.00761318 148 143 137
246104.08154297 3357539.63110352 12.97803783 193 192 188
246105.17675781 3357540.79272461 13.04508686 188 187 182
246103.94592285 3357540.64630127 12.98085213 213 214 208
246104.81579590 3357540.08795166 12.97638893 201 202 196
246103.72094727 3357538.94287109 15.22762489 28 150 223
246106.69653320 3357541.40112305 12.96294594 85 92 102
246106.03784180 3357540.52716064 13.02788544 116 121 127
246105.78735352 3357540.96026611 12.99211979 205 198 190
246104.25903320 3357540.34979248 15.29662704 0 187 251
246104.12561035 3357538.79193115 15.27178192 45 184 223
246105.91613770 3357539.69311523 13.07353497 159 161 160
246105.76257324 3357539.93267822 15.03279972 128 128 128
246103.77941895 3357539.83868408 15.01671791 249 250 254
246106.26098633 3357541.27313232 13.10449791 44 49 55
246105.24108887 3357540.50549316 15.41207027 186 215 245
246104.55346680 3357539.93334961 14.94803810 128 128 128
246107.44335938 3357540.34863281 13.14783478 19 28 37
246105.30285645 3357539.63732910 15.87660694 59 135 211
246104.55114746 3357539.40429688 12.97837543 153 159 159
246105.55871582 3357540.65734863 15.07319927 128 128 128
246104.41967773 3357539.97521973 12.98926640 213 212 207
246104.17919922 3357540.08544922 15.28453827 65 198 233
246104.64001465 3357540.06945801 15.48803616 20 137 191
246107.92749023 3357539.90893555 13.10166454 60 64 73
246104.33935547 3357539.13861084 15.06031799 128 128 128
246107.32568359 3357540.93695068 12.96323109 71 75 86
246106.15576172 3357540.31365967 15.29434490 4 130 206
246104.92224121 3357540.66180420 12.99598598 200 199 194
246103.65246582 3357539.09210205 15.08095932 42 151 233
246107.04162598 3357540.27716064 13.03195286 36 37 42
246104.89416504 3357539.95587158 14.96405315 128 128 128
246105.32495117 3357539.93945313 13.00841618 195 196 191
246104.04736328 3357539.53521729 15.00145626 129 127 128
246105.33081055 3357540.11938477 14.99719048 128 128 128
246106.00952148 3357540.00128174 13.03729248 131 135 138
246106.93725586 3357542.24359131 12.91986370 121 129 140
246104.45458984 3357539.17950439 13.00241470 164 175 177
246104.53466797 3357539.24761963 15.52489948 108 220 240
246103.92919922 3357540.54992676 14.96573067 220 224 233
246104.89294434 3357540.16955566 12.98221684 201 202 196
246106.17114258 3357542.08599854 12.91690922 119 123 124
246105.37695313 3357539.72552490 15.01204300 128 128 128
246107.97009277 3357540.02008057 13.07740307 35 38 47
246104.69335938 3357541.17443848 15.05902958 87 166 196
246103.97570801 3357541.33496094 13.01816177 204 203 198
246107.27282715 3357541.03192139 12.96513367 68 74 86
246106.83813477 3357541.41192627 12.98435974 91 101 110
246104.87133789 3357540.61816406 15.35685444 9 150 222
246106.47253418 3357540.37683105 13.18032551 69 78 87
246103.44238281 3357538.90850830 12.99426365 196 201 195
246104.86071777 3357539.06549072 15.04813766 128 128 128
246105.28112793 3357539.74890137 15.91422939 12 78 156
246106.79174805 3357540.04925537 13.00824356 54 53 59
246105.01354980 3357540.25396729 12.99871826 204 205 199
246104.50244141 3357539.90472412 12.98898792 208 207 203
246105.23730469 3357538.85949707 15.41098976 39 149 210
246105.87048340 3357539.69287109 15.04154015 128 128 128
246103.80920410 3357539.99731445 15.12674618 202 248 255
246106.93078613 3357542.24420166 12.91959381 121 129 140
246105.17712402 3357540.97558594 13.00185585 182 179 172
246106.23657227 3357541.45794678 12.93320656 108 112 111
246103.83605957 3357539.19970703 15.26390839 10 157 234
246104.06945801 3357541.29138184 15.08105183 231 238 254
246106.62512207 3357541.04290771 13.21963310 31 38 48
246104.63305664 3357539.11322021 15.46351719 18 170 219
246103.38916016 3357538.88934326 12.98812389 197 199 196
246107.58166504 3357539.89849854 13.23623371 53 61 72
246106.73107910 3357541.86010742 12.91681290 102 107 111
246104.75024414 3357540.41278076 15.43942165 0 123 193
246105.60510254 3357540.16827393 13.01364899 178 180 177
246105.80932617 3357539.21069336 13.01868248 209 208 203
246105.39855957 3357539.18261719 13.00366116 187 188 182
246106.92761230 3357541.73089600 12.96558857 99 108 117
246104.21569824 3357539.90991211 15.30333233 184 232 242
246104.73779297 3357538.52563477 15.20822906 39 151 214
246106.60314941 3357540.05493164 13.02215862 122 123 127
246103.92102051 3357540.63244629 14.99478626 145 173 197
246105.21386719 3357541.34954834 12.98077393 215 205 193
246104.14355469 3357540.55792236 12.98643780 207 204 197
246105.70458984 3357540.96032715 15.11875343 141 170 184
246104.23730469 3357539.43737793 12.98127460 150 154 155
246105.05053711 3357538.98828125 15.06571484 128 128 128
246103.92675781 3357540.57550049 15.15119076 67 128 191
246104.72607422 3357540.26171875 12.97419739 208 207 202
246104.17602539 3357540.53082275 14.90014076 128 128 128
246105.32763672 3357538.49029541 15.20928860 111 162 193
246104.36364746 3357541.11444092 15.22605896 20 115 183
246103.79211426 3357538.78607178 13.00475311 175 181 179
246105.45544434 3357538.67852783 15.32983494 60 166 224
246105.65954590 3357539.36535645 12.99473858 218 217 212
246106.77905273 3357542.55914307 12.90743160 120 123 128
246103.67700195 3357539.95758057 12.98181915 191 192 187
246104.63208008 3357538.75671387 15.31848717 25 157 206
246107.88500977 3357540.43603516 13.01909065 84 97 116
246104.35473633 3357541.23236084 15.18767834 56 179 239
246106.10559082 3357540.38677979 15.19363689 12 131 197
246104.35253906 3357540.89569092 14.96364880 128 128 128
246104.29162598 3357539.91180420 12.99411964 212 211 207
246104.75646973 3357541.13006592 15.02419758 150 174 184
246104.00610352 3357539.53411865 12.98175526 150 154 155
246103.68469238 3357539.55334473 12.98260880 163 165 164
246105.31921387 3357538.93115234 15.44376659 20 154 225
246103.74304199 3357538.90411377 15.09978485 128 128 128
246103.91662598 3357540.00268555 15.21994972 4 134 218
246106.96411133 3357539.70562744 13.10971069 105 100 107
246106.97412109 3357540.35174561 13.05452728 23 26 31
246107.53320313 3357541.41113281 12.95594883 98 105 113
246105.58300781 3357539.47778320 15.62192822 12 106 196
246104.96850586 3357540.60449219 14.99946022 128 128 128
246103.74560547 3357539.60766602 15.00765133 211 216 238
246106.13659668 3357540.38201904 15.26263809 5 130 197
246105.08593750 3357538.84820557 15.38572788 125 175 176
246103.91455078 3357540.58062744 15.13807583 107 149 199
246104.97680664 3357539.37023926 12.99175358 200 200 198
246106.10266113 3357540.68847656 13.04082584 112 119 125
246105.48742676 3357540.37322998 15.03266335 128 128 128
246104.08544922 3357541.11694336 14.96128082 232 220 222
246104.07727051 3357541.22326660 13.01797390 207 206 201
246104.67175293 3357540.46228027 14.94865322 128 128 128
246106.99792480 3357540.64471436 13.05803108 14 17 22
246105.57666016 3357538.98107910 15.48747349 34 168 241
246105.92285156 3357538.88623047 15.36443901 12 113 193
246105.58422852 3357538.61724854 15.32339287 66 174 236
246104.02221680 3357539.17370605 15.05340576 128 128 126
246104.96557617 3357540.86145020 15.23406219 7 166 234
246105.15295410 3357540.03594971 13.01160717 204 205 200
246105.45190430 3357538.49298096 13.10877132 159 168 167
246104.69641113 3357538.61846924 15.24943256 35 145 208
246104.29833984 3357541.18383789 12.99434090 198 195 188
246104.04089355 3357539.56378174 12.97854900 171 173 172
246105.60388184 3357541.12634277 13.00022221 232 225 217
246105.78710938 3357539.16668701 15.45792961 7 111 200
246105.94348145 3357541.26000977 12.99189472 215 206 191
246104.12927246 3357539.02465820 15.34758472 44 182 218
246104.82775879 3357540.69207764 14.99376774 128 128 128
246105.10034180 3357538.78527832 15.35197639 127 208 235
246105.72924805 3357539.27191162 13.00233269 216 216 206
246103.76733398 3357539.28253174 15.22289658 5 132 225
246104.43652344 3357541.05700684 14.99240017 128 128 128
246106.38806152 3357540.62042236 13.14927578 79 83 95
246104.19653320 3357540.51116943 14.90015316 128 128 128
246105.53112793 3357540.63983154 15.30017281 75 145 196
246105.96997070 3357539.93762207 15.47800446 8 102 189
246105.37023926 3357538.93927002 13.08198929 159 164 167
246105.80102539 3357538.98638916 15.10811806 128 128 128
246103.79479980 3357539.16320801 12.98371887 141 150 147
246103.84106445 3357541.54138184 12.97926235 189 184 178
246106.05749512 3357540.93920898 13.10791683 105 105 105
246106.30371094 3357540.80175781 13.17430019 51 60 69
246107.77673340 3357539.88720703 13.14949608 25 26 31
246105.96606445 3357540.30249023 15.08168507 128 128 128
246105.95397949 3357540.53063965 13.00301838 129 132 137
246107.54833984 3357541.55590820 12.96686840 101 108 116
246104.21984863 3357539.69451904 12.97797966 186 185 180
246103.85485840 3357538.74609375 15.20483971 66 163 198
246104.50842285 3357539.39373779 12.97768593 149 155 155
246105.67541504 3357538.83502197 13.05302048 162 168 168
246107.20593262 3357540.52105713 13.12040901 36 40 49
246105.68139648 3357539.88787842 15.60671902 7 91 179
246105.10131836 3357538.44122314 15.13287449 206 204 205
246104.73864746 3357538.99084473 15.40877056 250 255 255
246106.94458008 3357541.14666748 13.06060219 93 100 110
246105.41772461 3357539.68420410 15.80093861 7 78 170
246104.32617188 3357539.98956299 15.33087730 191 236 255
246103.79577637 3357538.76617432 13.00713921 172 178 176
246104.67529297 3357541.46087646 12.97513199 190 187 180
246105.69372559 3357539.64160156 15.58254910 38 95 182
246103.92272949 3357539.80749512 14.95958424 128 128 130
246103.89660645 3357539.76098633 14.96583271 127 127 127
246104.78149414 3357539.50823975 15.67401314 20 193 227
246104.65551758 3357539.15673828 15.02838230 128 128 128
246105.82568359 3357539.66369629 15.51438618 118 119 183
246105.35632324 3357539.02935791 15.49000835 10 151 223
246105.98254395 3357540.50598145 15.24029922 80 204 242
246105.30688477 3357540.97204590 15.12396336 12 175 230
246105.50195313 3357538.97076416 15.09150410 128 128 128
246105.10742188 3357538.64312744 15.10203648 127 127 127
246107.13537598 3357540.09649658 13.06822205 81 83 95
246107.59350586 3357541.28375244 12.94105721 88 95 105
246104.43066406 3357539.80822754 12.99327087 203 202 198
246105.61840820 3357539.18139648 15.54031944 13 94 186
246105.32690430 3357539.24121094 12.99574661 191 193 190
246104.76928711 3357538.64520264 15.09734821 127 129 128
246105.22912598 3357540.72277832 15.29741192 26 149 206
246105.92004395 3357540.06909180 15.06012535 128 128 128
246104.18298340 3357540.70721436 12.98324680 202 202 194
246104.60974121 3357539.53851318 15.57866669 9 192 249
246107.32421875 3357541.52349854 13.00346565 94 103 110
246105.13574219 3357539.24005127 13.02779102 183 183 181
246105.02282715 3357539.43780518 15.02088451 128 128 128
246105.93139648 3357541.92517090 12.91564846 129 137 139
246105.85986328 3357540.07342529 15.05365372 128 128 128
246103.76477051 3357539.55761719 12.98307323 156 158 157
246107.26452637 3357540.00305176 13.11948395 91 95 104
246104.76196289 3357538.84875488 15.06376266 128 128 128
246103.66369629 3357538.77557373 15.17959213 97 170 203
246106.13012695 3357541.03637695 13.17570782 86 89 96
246104.03039551 3357540.52935791 15.23188782 0 127 213
246104.69970703 3357538.74615479 15.30312920 83 192 223
246106.61474609 3357542.23809814 12.92058849 117 126 131
246103.64843750 3357539.00201416 15.08303642 84 162 226
246104.00573730 3357538.73120117 13.00302410 182 191 186
246105.92041016 3357542.22070313 12.92786312 129 130 125
246105.11755371 3357540.11688232 13.00943756 201 202 197
246105.66943359 3357540.19311523 12.99896431 178 180 179
246105.68798828 3357539.63806152 15.58508778 38 95 182
246104.79614258 3357538.63586426 15.25071430 46 138 177
246104.67651367 3357539.80010986 15.55555630 91 174 208
246106.70227051 3357541.97442627 12.90956497 107 110 115
246103.97656250 3357540.10198975 14.91789913 128 128 128
246107.03405762 3357541.70660400 12.98203182 100 107 117
246107.15136719 3357539.61889648 13.18772697 68 110 86
246103.95593262 3357539.33538818 12.98578262 139 148 147
246104.02111816 3357539.33959961 15.33221531 13 188 245
246104.76062012 3357541.12756348 15.04164982 118 179 200
246106.11218262 3357540.32635498 15.35070419 12 139 208
246106.21386719 3357539.94915771 15.31006336 14 123 206
246105.28479004 3357539.67346191 12.99044418 192 193 187
246107.50048828 3357540.12182617 13.05836296 34 34 42
246107.51843262 3357541.10681152 12.94252682 84 91 99
246105.98254395 3357541.70758057 12.92365932 220 222 209
246106.20703125 3357540.07763672 15.09311104 128 128 128
246105.15502930 3357541.02856445 15.11028862 114 194 219
246104.51965332 3357538.65606689 15.29368877 19 152 231
246105.27661133 3357539.54345703 15.82377243 43 143 229
246103.66186523 3357539.35009766 15.13077927 180 239 255
246106.33007813 3357541.18646240 13.17884541 33 43 52
246104.55651855 3357539.80773926 15.48997593 198 92 128
246106.58312988 3357541.86193848 12.90206242 186 186 184
246105.18139648 3357539.71917725 15.00221729 128 128 128
246105.68310547 3357538.80084229 15.12214947 128 128 128
246105.98742676 3357540.83001709 13.02155781 144 143 141
246103.90722656 3357540.62988281 15.05300713 180 217 244
246105.02136230 3357538.83282471 15.36636448 146 188 200
246103.82604980 3357541.23437500 12.98431206 214 211 206
246107.10253906 3357542.68200684 12.91956139 127 132 135
246104.06091309 3357541.17340088 15.14932728 73 155 205
246105.79089355 3357542.17901611 12.92976665 138 135 128
246104.59533691 3357540.32910156 15.39110184 0 185 239
246107.03356934 3357540.76849365 13.01991653 51 54 61
246104.47851563 3357541.23034668 15.01777458 128 128 128
246107.19946289 3357539.88146973 13.13686085 106 116 118
246105.50012207 3357539.65557861 12.99266529 193 194 189
246104.25048828 3357539.05450439 15.37735558 1 155 209
246107.27832031 3357540.06921387 13.11182594 82 89 97
246104.65832520 3357541.31005859 12.98855305 184 181 174
246104.92968750 3357541.22589111 12.98542213 203 198 192
246105.43432617 3357540.63067627 15.31935978 113 158 213
246104.93310547 3357539.21240234 13.03405476 150 154 153
246105.06335449 3357539.65655518 12.99493027 195 196 190
246105.57775879 3357538.75335693 15.12025642 128 128 128
246105.08972168 3357540.56976318 15.00919247 128 128 128
246104.34008789 3357541.47265625 12.98770332 202 203 197
246107.64562988 3357539.75817871 13.27909660 244 249 255
246104.60742188 3357538.99493408 15.05387115 128 128 128
246105.74304199 3357541.91497803 12.93628597 189 191 180
246105.89184570 3357540.31970215 12.98421001 139 144 147
246106.85534668 3357541.14562988 13.11785984 118 125 135
246104.59216309 3357539.32855225 15.00842667 128 128 128
246104.84399414 3357539.24981689 15.02946758 128 128 128
246106.20410156 3357540.86816406 13.17524052 39 47 58
246104.40429688 3357540.04254150 12.98793030 211 210 205
246104.97009277 3357539.08880615 13.10744190 149 155 153
246107.27294922 3357539.51190186 13.20932865 84 102 104
246104.93884277 3357540.13751221 12.98741722 205 206 200
246106.30725098 3357541.16979980 13.18081570 40 50 60
246105.71362305 3357539.31286621 15.51848602 13 103 191
246105.84423828 3357539.79180908 15.52453041 65 111 186
246105.59643555 3357539.56127930 15.03960419 128 128 128
246105.94689941 3357541.65570068 12.93807507 215 212 197
246104.84179688 3357538.83862305 15.06900883 128 128 128
246105.33349609 3357539.17413330 15.06289577 128 128 128
246104.23754883 3357540.68902588 14.92596054 128 128 128
246107.75573730 3357540.10894775 13.04593945 84 83 91
246104.35083008 3357539.38897705 12.98110390 154 158 159
246105.74743652 3357538.75610352 15.11563206 128 128 128
246105.94201660 3357539.76470947 13.06740570 155 156 158
246103.94519043 3357540.45989990 14.92356014 244 244 246
246103.82006836 3357539.93127441 14.98212051 248 249 251
246105.12316895 3357539.09973145 15.52764702 241 245 255
246106.29382324 3357541.34851074 13.01769352 87 86 91
246105.99279785 3357540.55560303 15.16119957 108 206 235
246104.11499023 3357539.37872314 15.02544785 128 128 126
246104.36267090 3357540.67797852 12.97779560 205 204 199
246103.66784668 3357538.81451416 15.19924736 35 146 201
246105.21716309 3357540.90533447 15.05634117 129 129 129
246107.05798340 3357540.54241943 13.06892490 12 15 24
246105.87304688 3357538.99810791 15.11194801 128 128 128
246104.73352051 3357539.46649170 15.00267887 128 128 128
246103.88134766 3357538.99395752 15.29491138 35 179 232
246107.89514160 3357540.03833008 13.08516979 120 124 133
246104.15563965 3357539.83728027 15.29096889 180 250 255
246107.15576172 3357541.00439453 12.98379707 68 72 83
246104.20971680 3357541.08843994 12.98619270 194 193 188
246105.20751953 3357539.10827637 13.05839729 152 156 157
246104.10473633 3357540.54370117 12.98787689 203 202 197
246104.49865723 3357540.00354004 12.98654938 205 204 200
246106.97265625 3357540.09649658 13.02362442 52 53 58
246106.63586426 3357541.64459229 12.93029976 116 123 129
246106.17431641 3357540.97406006 13.21546173 82 89 97
246104.45190430 3357538.86401367 13.11539459 141 157 157
246104.02246094 3357540.47833252 14.87635326 128 128 128
246104.31750488 3357540.17150879 14.91247749 128 128 128
246105.78857422 3357540.52795410 15.08409500 128 128 128
246107.58666992 3357540.54522705 13.03691864 16 23 31
246105.76037598 3357540.03381348 15.03964996 128 128 128
246104.04418945 3357539.62768555 12.97863102 192 191 189
246104.55322266 3357540.65039063 15.30517387 62 199 254
246105.63012695 3357540.08062744 13.01887798 183 185 182
246104.95849609 3357538.63354492 15.09501553 128 128 128
246106.33923340 3357541.03125000 13.23843098 55 65 74
246105.22778320 3357540.10626221 13.01734543 202 202 200
246104.47619629 3357539.86206055 12.99073982 207 206 202
246105.74182129 3357539.10247803 13.02566051 193 194 189
246104.40051270 3357539.97467041 15.37356853 239 214 236
246105.30358887 3357540.92657471 15.17456245 10 171 226
246104.12072754 3357539.14135742 12.98866653 155 164 169
246105.12609863 3357540.28295898 13.02206230 206 207 202
246105.28271484 3357539.88769531 12.99991417 196 197 192
246105.70568848 3357538.73992920 15.38539505 23 162 227
246103.94018555 3357540.40704346 12.98151207 199 198 193
246106.22131348 3357541.16949463 13.17148018 71 78 86
246104.58898926 3357539.82763672 15.50340080 227 142 181
246105.89160156 3357538.98309326 15.11338806 128 128 128
246105.44555664 3357540.31640625 15.02394581 128 128 128
246106.58422852 3357541.77929688 12.90402126 142 144 143
246105.07958984 3357540.27777100 14.97995949 128 128 128
246107.65258789 3357539.93798828 13.14644909 82 86 97
246104.66833496 3357539.29034424 15.01618004 128 128 128
246104.40014648 3357541.28369141 15.01395512 120 139 169
246106.05261230 3357541.67816162 12.91096020 215 211 199
246106.00231934 3357539.41625977 15.07525635 128 128 128
246104.06042480 3357539.12951660 15.35774326 32 199 244
246104.04870605 3357540.07830811 15.25140667 2 164 245
246104.38122559 3357539.93249512 14.93892574 128 128 128
246104.14929199 3357538.87268066 15.09949207 128 128 128
246104.16967773 3357539.18261719 12.99008465 152 163 165
246107.64404297 3357540.78784180 12.92909908 92 96 107
246105.49279785 3357540.17456055 13.01994514 182 182 180
246104.29370117 3357538.84124756 15.10680962 128 128 128
246104.34899902 3357540.14501953 15.32682419 11 182 234
246105.15930176 3357540.39862061 14.99742126 128 128 128
246107.28625488 3357540.71472168 13.03949642 83 87 96
246106.04382324 3357539.50598145 15.37429047 136 153 199
246106.08544922 3357542.29473877 12.92657089 125 124 120
246104.99414063 3357540.82806396 15.25238800 4 167 234
246103.98571777 3357539.88793945 14.94912624 128 128 128
246103.64453125 3357538.85821533 15.11744976 69 143 214
246106.82446289 3357541.05163574 13.14990807 96 103 109
246106.49023438 3357540.75927734 13.16802692 98 103 109
246105.43664551 3357539.55969238 15.74559689 11 85 172
246106.02185059 3357539.29522705 15.08796501 128 128 128
246105.13684082 3357540.34942627 14.99144268 128 128 128
246103.90686035 3357539.05645752 15.30599880 24 185 239
246103.79614258 3357540.76409912 12.97996426 205 204 199
246104.87084961 3357538.58776855 15.22747326 54 155 211
246103.47253418 3357539.33551025 12.98128223 165 169 168
246104.48217773 3357539.11358643 15.04760170 128 128 128
246105.01928711 3357538.94653320 13.17961407 151 159 161
246103.83801270 3357539.98785400 15.16187191 80 162 202
246105.30334473 3357539.15704346 15.55190468 8 148 233
246104.02709961 3357539.49157715 12.98410034 154 160 158
246103.82104492 3357539.53796387 15.22485161 10 124 220
246103.92346191 3357539.54547119 14.99759769 128 128 126
246105.82897949 3357539.89807129 13.01715183 164 168 169
246106.88024902 3357540.16644287 13.01992989 42 43 48
246104.26306152 3357539.80700684 15.33343601 191 234 253
246104.60412598 3357541.20300293 15.11000156 54 167 211
246104.58117676 3357538.63061523 15.27601337 23 153 231
246105.19104004 3357540.53283691 15.39898205 109 170 214
246103.88867188 3357539.81811523 15.22789764 9 139 225
246104.61279297 3357538.86511230 15.07659912 128 128 128
246106.97778320 3357540.75634766 13.02606297 50 51 56
246104.23876953 3357539.45520020 15.41264725 11 202 244
246105.93383789 3357539.95703125 15.05383396 128 128 128
246104.01342773 3357539.16973877 15.34234142 24 196 242
246105.73217773 3357539.50616455 13.00769901 200 201 196
246107.22412109 3357541.38195801 13.00631142 88 97 106
246105.13781738 3357540.71228027 13.04998398 193 192 187
246105.85729980 3357541.50286865 12.97266102 225 213 199
246105.19396973 3357539.38629150 15.03499413 128 128 128
246105.12878418 3357540.65338135 15.33891296 8 155 225
246104.98742676 3357539.20977783 15.04099083 128 128 128
246104.45703125 3357538.72528076 13.09565544 155 165 166
246106.65136719 3357541.98986816 12.90980434 128 132 135
