245864.71398926 3357515.83544922 14.79251766 168 188 179
245864.67694092 3357516.02661133 14.83731174 63 78 71
245864.67089844 3357515.88250732 14.79712963 176 194 182
245864.27697754 3357515.73315430 14.79944897 232 238 228
245864.51525879 3357514.91815186 14.94257259 71 88 70
245864.26416016 3357515.25732422 14.99514484 146 167 162
245864.32489014 3357515.40173340 14.97449207 45 59 59
245864.74389648 3357514.95947266 14.94481659 49 65 55
245864.11499023 3357515.22369385 15.04508209 210 226 223
245863.98175049 3357514.34454346 14.94993401 84 90 86
245864.13812256 3357513.79290771 14.72149181 54 68 53
245864.80084229 3357515.27844238 14.90514851 118 134 124
245864.26599121 3357514.28186035 14.81677341 88 103 100
245864.77520752 3357515.63739014 14.82680988 169 183 170
245864.61016846 3357515.06176758 14.91563797 137 153 140
245864.85839844 3357515.49426270 14.86423779 69 81 71
245864.44915771 3357515.93664551 14.78275967 159 169 158
245864.10449219 3357514.71423340 15.04943085 38 58 47
245864.08740234 3357513.94329834 14.76099491 51 65 52
245864.09490967 3357515.14013672 15.02769375 177 187 176
245864.46606445 3357515.56933594 14.82921410 74 85 81
245864.65039063 3357515.11541748 14.91967201 200 214 197
245864.28570557 3357515.00573730 14.92919636 26 42 29
245864.81280518 3357515.54010010 14.85334778 99 109 98
245864.63165283 3357516.09106445 14.84623909 59 72 63
245864.22930908 3357515.12854004 14.97398186 217 234 218
245864.09991455 3357514.26031494 14.86241627 255 255 247
245864.82788086 3357515.50903320 14.85981464 73 85 75
245864.10357666 3357514.68292236 15.05452538 69 85 75
245864.22613525 3357513.95458984 14.73954582 53 67 52
245864.29400635 3357515.26153564 14.98236847 87 109 107
245864.33587646 3357515.68487549 14.80864620 234 241 233
245864.75567627 3357514.97485352 14.94268036 53 66 56
245864.70880127 3357515.99365234 14.83440495 78 93 88
245864.60760498 3357515.48028564 14.87028885 45 60 55
245864.01843262 3357514.19854736 14.86499596 186 183 174
245864.70623779 3357515.60998535 14.81836319 150 162 150
245863.95123291 3357515.27386475 15.04632759 111 122 114
245864.06744385 3357514.33312988 14.92182064 255 255 250
245864.24261475 3357514.16339111 14.78400230 44 60 47
245863.84643555 3357514.99005127 14.99127388 98 106 93
245864.37750244 3357515.09136963 14.91278172 55 71 61
245863.97131348 3357514.68933105 15.01501179 43 57 44
245864.29339600 3357515.64013672 14.85814285 242 247 240
245864.36895752 3357514.09063721 14.73766327 58 72 57
245864.00805664 3357515.21264648 15.03677177 202 213 207
245864.27069092 3357514.81365967 14.98369980 23 44 25
245864.14147949 3357514.14099121 14.80445385 117 125 114
245864.61242676 3357515.01312256 14.91958714 80 96 83
245864.09497070 3357515.65429688 14.93861389 56 68 58
245863.97540283 3357515.54638672 15.01113415 47 63 52
245864.92681885 3357515.73516846 14.82499218 64 80 70
245863.93969727 3357514.57543945 14.99968147 222 226 209
245864.54193115 3357515.11450195 14.89844131 131 143 131
245864.31036377 3357515.29553223 14.97698116 38 58 57
245864.22918701 3357515.39733887 15.01533985 58 79 80
245863.87475586 3357515.02148438 15.00038147 106 114 101
245864.20526123 3357515.54431152 14.96258354 103 112 107
