246088.05078125 3357510.55035400 15.73138809 155 158 141
246089.15856934 3357510.02743530 15.28865433 144 144 144
246088.21728516 3357511.60556030 14.25094509 108 132 160
246086.81494141 3357497.34017944 16.25300407 77 183 225
246089.09570313 3357510.06143188 15.24726677 142 140 141
246088.70617676 3357506.20071411 15.23868752 106 112 126
246087.99035645 3357496.25262451 14.12518311 196 195 193
246089.78332520 3357511.45462036 15.82725620 110 164 190
246089.10180664 3357509.98486328 16.84160805 9 100 183
246089.39013672 3357504.85632324 16.66988754 8 139 217
246086.86267090 3357497.78598022 15.43927574 136 139 132
246087.45947266 3357506.41287231 15.65545464 155 166 160
246088.77246094 3357497.31179810 15.24743748 114 117 126
246088.03222656 3357498.56961060 14.26755333 75 74 88
246088.16430664 3357510.46170044 15.49839020 139 141 138
246088.79577637 3357509.73416138 16.72737694 21 117 201
246088.56591797 3357497.93896484 14.33319855 71 80 87
246090.22705078 3357504.77911377 16.28467751 49 149 224
246088.36047363 3357497.37875366 14.12868595 93 95 94
246089.16833496 3357496.70556641 14.02778530 102 110 112
246088.40722656 3357498.29092407 14.25742817 53 57 66
246090.31469727 3357505.82894897 16.01377487 152 165 181
246089.59692383 3357496.98806763 16.18027878 119 160 214
246086.77722168 3357498.25283813 16.29042244 89 129 165
246088.03613281 3357506.12710571 15.74063396 145 146 140
246087.86242676 3357509.30548096 16.23705482 148 196 210
246087.27307129 3357506.30502319 14.16186905 109 116 135
246087.76489258 3357505.29513550 14.24247169 160 163 168
246088.22875977 3357497.09085083 16.81896782 8 134 210
246086.68981934 3357497.66839600 14.09001923 142 142 142
246089.23742676 3357509.98696899 16.76246643 7 95 185
246088.07885742 3357504.14682007 16.08312416 122 153 171
246088.47509766 3357495.63439941 16.28267097 17 173 224
246086.82958984 3357497.34970093 14.11938667 123 124 119
246088.68139648 3357509.51669312 15.72673988 176 180 181
246088.68542480 3357505.95935059 14.46467590 166 171 174
246087.53906250 3357497.02566528 14.20941830 159 161 160
246090.22253418 3357505.43432617 16.34073257 30 131 209
246088.38793945 3357496.45755005 14.04337025 106 105 101
246088.70605469 3357506.35391235 16.50938606 15 125 214
246089.10559082 3357506.58261108 14.90111351 120 124 135
246088.53332520 3357510.81811523 15.31030750 143 149 149
246090.04907227 3357506.73013306 16.10284424 11 76 156
246087.78857422 3357504.36703491 16.34354782 37 162 190
246087.36596680 3357509.95535278 16.37809944 60 156 214
246089.05236816 3357497.86212158 16.41633415 29 170 226
246089.88452148 3357508.80374146 16.29398918 50 157 227
246087.42333984 3357496.99838257 14.17589283 165 166 168
246088.64855957 3357505.89666748 15.29620171 145 149 150
246088.29260254 3357498.47192383 15.09392166 121 107 133
246088.20141602 3357497.41699219 14.45566082 94 93 98
246087.42224121 3357498.22277832 14.43683338 166 168 167
246087.82495117 3357495.58932495 16.17398643 66 165 222
246087.82910156 3357505.68081665 14.26945686 157 161 162
246089.42687988 3357508.87423706 16.18445206 39 133 194
246087.60913086 3357496.95397949 14.99708652 149 151 150
246087.25854492 3357496.67144775 15.32654381 138 141 124
246088.64477539 3357510.12210083 16.98551750 6 133 202
246088.54284668 3357504.32232666 16.44751930 13 159 234
246087.14843750 3357505.76437378 14.20772076 224 222 235
246089.12341309 3357511.19418335 14.39295006 147 148 152
246087.89025879 3357496.06484985 15.62942314 106 108 103
246088.95690918 3357505.51513672 15.44524479 142 145 138
246089.06225586 3357496.51126099 16.46501923 26 117 198
246088.52221680 3357512.15899658 14.19659424 163 131 118
246089.23364258 3357505.99880981 14.52433968 58 71 90
246087.01831055 3357498.27264404 14.15307426 83 83 91
246088.78540039 3357495.67791748 16.27812767 12 177 225
246089.16186523 3357510.95254517 14.40683937 187 186 182
246090.05273438 3357506.17477417 15.83152294 89 109 120
246087.62976074 3357506.63589478 14.19457436 161 164 169
246087.24121094 3357497.01480103 16.46445465 197 213 238
246089.17175293 3357496.60345459 14.03188705 109 113 114
246089.44836426 3357506.32141113 14.56912708 120 129 144
246089.04040527 3357510.33511353 15.10459995 146 148 147
246088.76098633 3357498.18368530 16.32110214 61 216 236
246088.14135742 3357506.52658081 16.18239594 129 175 199
246089.33007813 3357497.59197998 15.39630699 90 96 108
246090.20959473 3357510.87915039 16.34703064 21 108 188
246089.07751465 3357505.09350586 16.84743881 10 133 213
246089.39453125 3357505.17691040 15.59235191 161 165 164
246090.35925293 3357505.87158203 16.21657372 61 117 178
246087.36669922 3357496.98910522 14.99185848 159 161 160
246088.90417480 3357510.16690063 15.14599609 159 161 160
246089.15856934 3357496.26916504 14.03497124 144 146 145
246087.31433105 3357506.93188477 14.18554878 104 102 107
246086.64819336 3357496.88931274 15.07710266 134 129 87
246087.77221680 3357511.52734375 16.44246864 38 146 193
246087.54943848 3357510.54315186 16.54524994 55 76 107
246088.76489258 3357497.00061035 16.62261009 65 121 198
246089.69604492 3357506.43905640 16.42427635 17 127 214
246087.75317383 3357497.60006714 16.58514214 12 189 243
246089.94787598 3357508.84658813 16.17978096 153 186 205
246087.64453125 3357511.16024780 16.01356316 171 188 178
246089.83093262 3357508.82345581 16.29134750 62 167 235
246087.51086426 3357506.40026855 14.18508816 116 126 135
246088.20251465 3357510.09509277 14.21392822 167 172 176
246087.71020508 3357510.33328247 15.75437546 137 147 139
246087.60241699 3357496.49246216 15.40393543 119 124 117
246089.02172852 3357511.50714111 14.46720028 93 102 111
246088.16223145 3357495.85284424 14.09830093 171 167 164
246089.18566895 3357498.19570923 15.89210320 52 122 173
246087.94482422 3357511.04489136 14.21127796 179 179 179
246087.47863770 3357510.29141235 15.81360626 115 124 119
246088.50268555 3357510.94116211 15.46316433 159 163 162
246089.55261230 3357498.31176758 16.01243210 65 95 131
246087.40368652 3357510.82736206 14.26181698 164 156 154
246088.65466309 3357509.06472778 16.08630180 177 197 206
246089.92724609 3357510.61212158 14.17580509 166 167 169
246089.48120117 3357506.47161865 16.43105507 18 122 209
246087.45898438 3357505.19454956 15.39932251 121 146 140
246087.89196777 3357496.22354126 15.53683186 106 108 103
246088.44763184 3357509.83462524 16.74519539 11 144 219
246089.22570801 3357505.98379517 16.67337990 32 108 194
246086.91333008 3357496.94061279 15.10659313 153 152 122
246088.22888184 3357505.72183228 14.38322163 169 174 177
246089.37390137 3357510.20834351 15.30650806 144 140 141
246086.46057129 3357497.83752441 14.12613869 62 62 60
246088.84765625 3357496.70993042 15.29032135 150 151 153
246088.36547852 3357506.55859375 15.99318504 133 179 203
246087.79675293 3357506.70275879 14.15784931 162 166 169
246090.25927734 3357511.05352783 16.28627205 4 66 139
246089.21899414 3357511.58746338 14.37888622 145 167 181
246087.52502441 3357506.53619385 15.77884769 123 150 157
246089.34558105 3357510.17056274 14.31440639 161 162 164
246087.29602051 3357504.52151489 16.16537476 12 78 128
246087.31103516 3357507.24575806 14.25290489 97 59 46
246087.80859375 3357504.98217773 14.21731091 140 144 143
246088.49682617 3357496.45989990 15.35723686 135 139 140
246089.82031250 3357505.74713135 16.53459167 18 130 206
246087.06311035 3357497.47250366 14.20581341 146 148 145
246089.18310547 3357506.74923706 15.06334114 103 107 119
246088.12304688 3357497.94430542 15.15995789 108 109 111
246087.97058105 3357505.50439453 15.45935440 90 99 94
246088.02832031 3357504.28344727 16.32844543 19 152 217
246089.41992188 3357497.10696411 14.01711750 133 142 147
246086.77978516 3357497.91622925 15.15957165 150 149 131
246088.93859863 3357496.56655884 14.01904583 129 130 132
246087.80041504 3357504.67617798 15.80954552 160 171 177
246088.53747559 3357495.70468140 16.31517601 26 177 230
246087.28527832 3357497.45831299 16.51286507 53 197 247
246087.01489258 3357498.13211060 14.15040112 108 107 112
246088.64782715 3357506.51437378 14.48585892 62 84 98
246089.61706543 3357498.31256104 15.68065453 121 125 137
246087.87695313 3357505.87918091 16.46587181 7 211 244
246089.23303223 3357505.97225952 15.27868176 187 191 192
246087.61572266 3357506.69393921 15.96048832 59 113 151
246087.37023926 3357497.15313721 14.21525574 158 159 161
246087.80065918 3357511.15652466 16.53669930 17 150 225
246089.02490234 3357504.07025146 16.31530380 23 158 222
246089.00488281 3357510.61776733 16.82288742 5 61 146
246088.71899414 3357497.42608643 14.03761196 89 89 91
246088.03833008 3357512.02355957 14.17706108 117 111 111
246090.17590332 3357511.24206543 16.38728333 54 149 229
246087.80737305 3357510.52865601 14.19958687 128 132 143
246087.43151855 3357496.04315186 15.70329857 123 124 108
246088.07543945 3357511.50866699 14.25122261 153 165 177
246087.55078125 3357506.79409790 14.21385860 140 143 150
246090.29736328 3357505.78976440 16.29883766 40 128 192
246087.49597168 3357511.10494995 14.22451019 176 173 164
246088.14416504 3357510.60665894 15.78577995 166 168 154
246087.16113281 3357495.96163940 16.38461304 96 155 153
246089.96228027 3357506.56805420 15.13213062 145 150 153
246089.26867676 3357506.80145264 14.88399601 135 135 137
246086.78369141 3357498.56710815 15.87919998 171 173 159
246090.15588379 3357503.98037720 16.06060982 102 154 204
246088.61389160 3357496.58789063 14.02436447 144 144 142
246090.35253906 3357505.53042603 16.21343803 96 145 188
246087.85327148 3357496.49151611 15.36708546 133 135 130
246086.82202148 3357498.23501587 14.12307835 154 154 152
246089.41259766 3357506.27902222 15.13375759 194 198 199
246088.86364746 3357506.69638062 14.80899334 103 98 95
246089.19775391 3357509.86584473 14.45984459 87 94 110
246089.31774902 3357505.32128906 15.53599739 161 163 160
246089.84484863 3357504.45211792 15.87875557 109 139 167
246088.97497559 3357495.51303101 16.09270859 47 166 206
246088.97290039 3357511.27774048 15.60108852 178 184 184
246089.67687988 3357506.58209229 15.06866169 183 192 187
246087.43786621 3357505.09558105 16.26721001 73 148 188
246089.32958984 3357496.86630249 14.02192402 115 122 128
246089.21850586 3357512.10760498 14.24770832 50 53 62
246090.04492188 3357504.04040527 16.03802299 88 134 183
246089.12902832 3357506.91787720 14.89191723 114 113 129
246089.00598145 3357510.12091064 16.92160797 0 67 152
246086.62805176 3357497.24435425 14.84605122 141 140 112
246087.77880859 3357498.18896484 16.27702904 58 217 246
246087.77014160 3357509.79837036 15.81881332 141 149 151
246087.09521484 3357497.96728516 14.25956535 156 156 154
246089.12170410 3357506.86328125 14.90542316 137 139 152
246088.32910156 3357498.01104736 15.52585983 148 154 152
246089.13037109 3357505.17681885 15.58442307 144 147 140
246089.41015625 3357504.38537598 15.88839340 147 159 171
246089.88854980 3357504.28851318 14.12682343 180 184 185
246087.53942871 3357506.48309326 16.29153633 52 174 221
246088.92834473 3357509.79684448 14.58713055 164 172 191
246088.05493164 3357506.55844116 16.33375549 100 173 216
246087.47583008 3357504.80413818 14.30165863 155 154 160
246089.54248047 3357505.04370117 16.64765930 28 125 196
246089.78308105 3357505.55834961 14.19275951 212 203 206
246087.66833496 3357510.23901367 16.72981262 122 193 221
246087.40856934 3357495.91659546 15.81787872 121 130 125
246087.07751465 3357497.95806885 15.65645981 200 201 193
246087.01342773 3357496.84970093 14.12188911 153 155 152
246087.00183105 3357497.19461060 16.34877396 72 203 245
246089.21655273 3357506.80020142 16.20031738 73 146 201
246088.74658203 3357511.25646973 15.91017628 166 176 175
246087.40319824 3357510.84741211 16.49267006 31 99 164
246089.75329590 3357506.42813110 14.45206070 33 23 34
246088.85583496 3357496.01580811 15.63155556 152 154 153
246088.42736816 3357504.92675781 15.67062950 160 165 159
246088.14916992 3357509.46514893 16.57288361 13 159 218
246087.52172852 3357506.33044434 16.27780151 115 222 255
246088.17602539 3357505.48590088 15.45817375 131 136 132
246089.04589844 3357506.79739380 16.05288506 42 105 158
246088.37268066 3357510.11907959 16.86648369 41 203 242
246088.09631348 3357496.33959961 15.43076706 145 151 149
246086.52795410 3357495.97628784 14.07131481 166 167 162
246088.81127930 3357510.47735596 14.30117893 160 164 167
246088.79980469 3357498.10345459 14.12115192 132 136 135
246089.80187988 3357509.55892944 14.22260666 147 158 164
246088.29260254 3357505.27395630 16.68596458 214 255 255
246088.05285645 3357509.58078003 15.85044956 183 187 188
246089.14782715 3357495.63839722 16.26919746 5 172 225
246088.24890137 3357497.91336060 14.57399940 35 36 40
246087.61071777 3357495.96121216 16.40862274 19 169 222
246087.02941895 3357498.70135498 14.19724369 52 53 57
246089.52062988 3357506.08557129 15.24587727 191 195 198
246090.31738281 3357511.18002319 16.03136253 177 174 183
246087.89978027 3357505.25009155 16.50090981 24 145 174
246087.55529785 3357497.10595703 16.62420845 72 192 227
246086.86914063 3357497.21286011 14.11787605 145 145 143
246088.39660645 3357505.67764282 16.71712112 10 214 249
246089.63403320 3357496.24627686 15.98616600 177 184 192
246089.89477539 3357504.45922852 16.41057205 22 150 225
246089.16955566 3357506.79580688 15.02655125 151 150 168
246089.32812500 3357509.56768799 15.58061409 136 147 139
246087.61132813 3357506.00729370 14.19990826 161 165 166
246089.40917969 3357510.46090698 16.70504761 11 62 141
246087.81176758 3357506.56484985 16.04682922 110 172 195
246088.14233398 3357509.68133545 16.64469910 12 166 228
246088.90625000 3357509.31359863 16.53507614 28 123 181
246089.28576660 3357505.68588257 16.78451729 58 144 229
246089.00488281 3357504.09606934 16.34272957 17 161 224
246087.12536621 3357504.97653198 14.20652485 128 129 131
246090.16467285 3357504.56008911 16.31426239 22 148 224
246086.87646484 3357497.33779907 14.12514782 131 133 128
246088.69812012 3357505.20318604 15.56204319 146 149 140
246090.10498047 3357506.37042236 15.72391987 118 127 134
246088.64099121 3357496.27124023 14.03150272 153 153 151
246088.91040039 3357496.86663818 14.01612186 111 112 114
246088.67333984 3357506.31448364 14.52504539 174 191 185
246089.38696289 3357508.97042847 16.01879692 156 183 204
246089.20202637 3357496.34933472 14.03765202 144 148 151
246088.56640625 3357504.47799683 15.84513950 165 176 180
246087.75451660 3357505.25692749 15.55373764 188 194 184
246087.60290527 3357496.62322998 14.15257835 161 157 156
246089.32910156 3357509.65069580 14.43890190 106 109 114
246089.94995117 3357511.09814453 16.45831871 7 104 198
246087.98889160 3357496.12719727 16.53522873 144 200 237
246088.40673828 3357495.69006348 16.32018852 29 170 213
246089.49865723 3357505.39743042 16.69167328 108 155 223
246088.33911133 3357496.19155884 16.55343056 204 195 216
246089.80139160 3357505.44506836 16.54932022 56 127 193
246088.55334473 3357496.00314331 14.06098652 176 178 175
246090.11218262 3357506.63964844 15.27815914 72 80 93
246088.02404785 3357504.93826294 16.54201698 11 206 250
246088.55407715 3357498.61508179 14.15039825 58 62 73
246087.91320801 3357510.51852417 15.67432404 140 148 135
246086.76745605 3357496.03451538 15.61584091 107 106 78
246087.79260254 3357504.46963501 16.41594315 13 197 235
246089.23083496 3357506.74990845 16.30422783 53 145 220
246088.18103027 3357505.35089111 16.63801765 255 253 255
246088.58032227 3357496.04312134 15.61265945 165 164 160
246088.27734375 3357511.71261597 14.22898865 221 210 204
246088.07568359 3357496.04391479 15.62632847 136 141 137
246089.58435059 3357495.82974243 16.00357628 75 111 143
246089.43127441 3357506.89349365 14.97720432 99 104 108
246089.07226563 3357511.40905762 15.91968250 117 168 197
246087.80029297 3357506.41699219 14.17857170 161 168 176
246089.15881348 3357509.21746826 15.83169937 197 202 196
246089.48461914 3357498.12680054 15.21849060 107 119 117
246089.33374023 3357509.99011230 15.39205360 148 150 149
246088.28637695 3357496.72015381 16.89655685 7 129 202
246089.86523438 3357506.07409668 15.30725956 134 138 141
246088.23791504 3357498.47103882 15.23914242 131 118 144
246086.74597168 3357498.74301147 14.24965096 22 29 35
246089.52075195 3357511.50082397 16.01669312 98 160 199
246087.01416016 3357497.94839478 16.36430740 5 146 225
246090.01977539 3357508.93508911 16.17721558 65 105 140
246089.75097656 3357507.12615967 14.31668377 103 111 122
246089.33190918 3357496.51507568 15.56987762 152 157 160
246088.73278809 3357498.10305786 15.77781868 97 147 172
246088.87634277 3357511.16198730 15.03642273 148 153 156
246087.24487305 3357510.54180908 14.30910397 101 105 106
246088.74523926 3357505.27398682 15.53443909 149 152 143
246090.18603516 3357509.93725586 15.99424744 145 154 169
246088.89160156 3357506.38717651 14.76289082 88 88 88
246088.99694824 3357510.73892212 16.76622200 2 71 164
246088.70935059 3357506.65020752 14.58428288 44 53 62
246088.51586914 3357504.25125122 16.39892197 6 155 235
246089.19140625 3357506.77612305 15.98974228 50 112 161
246088.85717773 3357495.70959473 15.81394482 167 172 168
246087.20629883 3357497.87603760 16.44054604 2 164 228
246086.72290039 3357497.96102905 15.42032623 112 113 95
246089.19311523 3357496.32550049 14.03712940 149 150 152
246087.18017578 3357497.33972168 14.60832405 154 156 153
246086.84375000 3357498.16711426 15.77978039 174 179 173
246089.06518555 3357495.97445679 15.65653038 156 155 153
246087.82849121 3357498.41299438 15.07190800 149 136 146
246089.36962891 3357497.89953613 15.31810093 123 142 156
246089.05273438 3357511.47613525 16.24664879 70 143 184
246088.41723633 3357505.84362793 14.41761303 172 176 177
246088.08093262 3357505.62496948 14.32850075 154 158 161
246089.59179688 3357498.37905884 15.36614132 132 140 153
246088.40405273 3357506.44491577 15.77329731 183 196 204
246089.62866211 3357497.15463257 16.04920959 182 187 206
246089.27465820 3357511.98147583 14.31443596 50 51 56
246089.22851563 3357505.10827637 14.11307621 172 176 177
246087.46459961 3357510.39270020 14.23581219 72 73 75
246089.03991699 3357505.00622559 16.79819679 10 146 224
246088.74536133 3357509.04504395 16.07221603 184 201 208
246087.26342773 3357497.06250000 14.16383934 152 152 152
246087.55798340 3357496.48623657 16.59558105 101 205 230
246090.10522461 3357504.19174194 16.01670074 72 110 159
246088.56677246 3357495.78009033 14.06939125 159 158 154
246089.98974609 3357504.34710693 15.99154472 77 114 158
246089.81420898 3357510.83605957 14.16649723 165 165 165
246087.82495117 3357510.63739014 15.80387497 142 158 129
246087.42114258 3357505.67700195 16.25477409 254 255 250
246089.12353516 3357506.81231689 16.15256882 67 137 189
246087.41149902 3357506.45681763 16.23536110 61 113 150
246088.16442871 3357498.38281250 15.43093204 155 143 163
246089.17346191 3357497.53167725 15.35679436 89 93 105
246086.72375488 3357497.28549194 14.10538006 114 114 114
246088.84570313 3357504.47012329 16.54403305 195 220 240
246088.75415039 3357509.67602539 15.55665112 177 181 182
246088.38964844 3357509.78900146 15.59308052 168 171 178
246089.87255859 3357504.15740967 15.99488354 64 108 157
246089.71081543 3357510.36523438 15.58195210 85 88 95
246089.80212402 3357509.81143188 15.65645027 157 163 161
246088.29589844 3357497.90896606 15.42108822 146 150 149
246089.74475098 3357509.78433228 15.65924168 158 167 164
246088.89367676 3357498.06649780 16.36015129 51 215 250
246087.82092285 3357506.30575562 15.97183514 112 145 152
246087.81359863 3357510.87585449 16.54033852 41 135 207
246086.77746582 3357497.85095215 15.27176762 142 144 131
246089.67858887 3357505.36349487 15.52781200 177 181 180
246087.42980957 3357498.09048462 15.00219345 155 159 158
246089.61328125 3357510.55252075 15.22354412 151 155 158
246087.29223633 3357496.08480835 16.44263840 98 175 183
246089.42077637 3357506.75500488 15.95658112 19 62 107
246087.60327148 3357506.61798096 14.20032024 156 159 164
246089.58496094 3357504.66302490 16.55882645 12 134 217
246087.61181641 3357510.74038696 16.51979065 36 91 158
246088.99255371 3357496.16204834 14.01844120 150 149 147
246087.65795898 3357505.93557739 16.35259247 6 184 220
246089.14245605 3357496.29708862 15.52468014 160 155 159
246088.74450684 3357505.83673096 15.31835079 144 149 145
246089.56347656 3357507.19619751 14.26002693 105 110 116
246088.42944336 3357504.75091553 16.63413429 6 163 232
246088.25634766 3357510.97171021 16.10380363 156 161 141
246090.06372070 3357505.35180664 14.10865307 133 138 142
246089.57373047 3357505.46286011 14.17044735 157 157 159
246089.07617188 3357506.10751343 14.66726017 112 131 164
246089.32519531 3357506.70529175 15.43577194 143 152 169
246087.16259766 3357495.72592163 16.17177010 63 92 87
246088.07922363 3357506.25387573 16.53103065 42 219 239
246088.52001953 3357505.72583008 16.79464149 6 200 236
246089.81860352 3357505.70455933 14.24225998 101 76 82
246089.52612305 3357509.69851685 15.58644962 112 121 118
246089.15441895 3357509.72476196 14.51259804 100 102 114
246088.97631836 3357495.62451172 16.23526192 14 172 220
246088.67517090 3357505.98367310 15.26254272 140 144 147
246088.20703125 3357497.46307373 14.35857296 104 104 104
246088.26782227 3357506.30676270 15.71065998 194 201 207
246089.31896973 3357504.95779419 15.67284298 153 157 156
246089.33093262 3357506.98602295 14.60812759 122 121 129
246090.11816406 3357505.14630127 15.68088150 179 184 188
246087.36669922 3357504.41333008 16.18629456 48 158 209
246088.05957031 3357509.71850586 14.24718380 123 130 136
246090.10900879 3357504.87533569 15.79577446 167 182 187
246088.70043945 3357498.04656982 14.22250080 96 102 114
246090.30798340 3357511.30227661 16.03055954 185 185 193
246089.58166504 3357497.67172241 15.57040501 157 161 173
246086.53137207 3357496.95800781 14.06543732 142 142 142
246089.20190430 3357510.68151855 16.79030037 35 105 191
246088.80822754 3357497.28894043 16.59736824 19 124 207
246089.26098633 3357498.44329834 14.09220314 108 115 131
246087.09082031 3357498.19866943 14.18501854 131 131 133
246088.50854492 3357505.94586182 15.27856827 147 151 152
246089.26000977 3357504.55639648 14.11935425 196 197 199
246087.51721191 3357506.16979980 15.64256859 151 167 164
246089.82189941 3357511.50289917 14.40126514 87 97 124
246088.53344727 3357506.53894043 14.34003353 20 56 88
246087.71545410 3357506.45120239 16.38370514 0 142 198
246088.26623535 3357505.30477905 16.67414093 251 255 255
246088.24389648 3357509.48571777 15.88246536 200 203 208
246089.23669434 3357497.83489990 14.09525108 146 151 155
246087.98291016 3357496.55444336 14.16130924 208 204 201
246089.45849609 3357506.78845215 16.13330841 12 69 146
246087.41162109 3357496.00878906 15.73603916 125 127 113
246088.32141113 3357510.51425171 15.39839935 151 153 152
246088.48742676 3357496.03518677 15.61512280 158 157 152
246089.56701660 3357508.86602783 16.18378639 57 142 209
246086.84387207 3357498.19873047 15.80908012 156 161 157
246090.28076172 3357511.35482788 15.95844269 179 187 190
246088.62011719 3357495.96026611 16.43288422 14 176 225
246088.25634766 3357498.21020508 15.00953388 112 109 118
246089.71386719 3357510.19006348 15.61275387 55 60 66
246088.68908691 3357505.20877075 14.27390003 133 141 154
246089.94506836 3357506.19958496 15.34544182 168 170 169
246088.08007813 3357504.14834595 16.07891464 122 153 171
246089.04418945 3357510.75454712 16.75861168 2 68 162
246089.22778320 3357506.74191284 14.91620064 196 197 199
246087.99047852 3357496.23971558 16.58263969 103 199 241
246086.72082520 3357497.41903687 14.84489155 172 169 152
246088.93066406 3357509.70785522 15.45317745 183 187 186
246089.71215820 3357508.84823608 16.17058182 68 139 193
246088.24096680 3357511.07397461 14.18856049 154 158 167
246088.23999023 3357509.57873535 14.23821640 101 108 116
246089.19030762 3357510.49533081 14.32439232 144 146 143
246089.51440430 3357510.51477051 16.65134621 4 75 157
246089.25476074 3357504.41549683 16.48194504 7 161 233
246088.90490723 3357496.70263672 16.53992271 139 99 149
246088.34863281 3357506.49044800 15.91539574 162 189 200
246089.62756348 3357506.56298828 14.62445164 173 180 186
246090.13989258 3357504.99401855 15.75554562 173 182 187
246088.02307129 3357496.20111084 15.54008293 140 145 139
246089.33264160 3357510.51895142 16.74885178 7 65 149
246089.20471191 3357509.44900513 14.47330189 66 75 80
246087.13073730 3357497.89096069 15.58800411 185 188 179
246088.26721191 3357497.63592529 14.80354023 136 135 143
246088.36840820 3357511.11123657 16.19846153 112 121 102
246089.63964844 3357498.03866577 15.77870464 129 129 141
246087.59118652 3357498.10501099 15.54950237 124 130 142
246088.10314941 3357496.00088501 15.66058445 139 144 140
246088.54187012 3357497.75292969 15.36158466 179 184 180
246087.85876465 3357505.17895508 15.58131981 189 194 188
246087.55273438 3357506.81091309 16.03075600 63 106 138
246087.82299805 3357511.01580811 14.21902657 196 192 189
246088.19738770 3357510.39550781 15.47731781 129 131 128
246088.21130371 3357497.30749512 14.55023003 118 118 120
246090.23913574 3357505.14596558 16.29321861 47 140 207
246087.40856934 3357505.20541382 16.26182747 128 165 181
246087.53820801 3357507.04190063 14.17869473 163 163 165
246088.91162109 3357506.52642822 14.83320904 76 75 73
246087.27563477 3357506.04467773 15.50034142 159 171 167
246089.42468262 3357498.13619995 15.37018299 96 105 110
246088.35314941 3357497.06274414 16.84550858 9 128 208
246089.51013184 3357506.73913574 15.89989948 11 44 89
246089.61718750 3357496.29754639 16.13664436 143 162 194
246090.03820801 3357506.07919312 15.82137012 102 120 130
246089.45446777 3357511.26528931 14.30613899 43 57 70
246089.76611328 3357506.30993652 16.47004890 16 125 210
246089.00854492 3357506.58361816 15.49663925 97 106 135
246089.40234375 3357506.74569702 16.29995346 23 123 209
246087.49877930 3357511.45053101 14.24233150 119 127 129
246090.04943848 3357506.61968994 15.35290718 75 80 99
246088.18322754 3357507.18405151 14.14966583 197 196 194
246089.47729492 3357496.87283325 15.81681919 125 128 135
246089.49572754 3357510.07315063 14.24767494 149 156 164
246089.42443848 3357506.64974976 14.79159355 178 181 186
246088.61816406 3357505.86865234 16.73921585 6 138 213
246090.00048828 3357510.20034790 16.43522453 0 96 180
246088.86010742 3357511.31323242 15.95076084 138 166 180
246088.56298828 3357510.83435059 14.30302048 175 178 183
246086.81445313 3357496.15728760 14.07452106 142 141 136
246089.96179199 3357505.20004272 15.62622356 178 188 189
246088.52453613 3357509.51358032 14.36070824 174 179 183
246087.18847656 3357504.64282227 15.30514145 130 151 134
246087.52185059 3357496.34451294 15.49461365 150 152 139
246087.30175781 3357511.15396118 14.29400826 88 86 89
246088.63049316 3357497.64221191 16.51582146 19 158 225
246089.26232910 3357496.71575928 14.02817440 111 119 121
246089.97814941 3357505.35162354 16.46127892 105 182 238
246088.93249512 3357497.34350586 16.53215408 18 120 202
246088.75585938 3357511.23590088 14.37919903 149 163 176
246087.56713867 3357510.04754639 16.62073898 46 156 241
246089.68103027 3357505.63638306 16.60833740 27 130 207
246089.23376465 3357509.21426392 16.49097061 16 138 223
246088.60461426 3357504.72897339 14.15183926 151 155 158
246088.94519043 3357509.40933228 14.36005974 66 70 81
246088.48120117 3357510.33288574 14.25064182 160 165 169
246087.73388672 3357505.25723267 14.23325825 160 165 171
246089.75573730 3357506.67926025 14.57489395 178 182 185
246090.21166992 3357504.95147705 15.85504436 169 179 189
246088.81408691 3357497.73333740 16.47768974 5 157 220
246087.12670898 3357506.79489136 14.22681046 145 152 170
246088.11437988 3357496.68685913 14.10337925 137 136 132
246089.99035645 3357511.28732300 14.19398594 46 49 54
246088.19213867 3357511.90280151 14.19339180 209 190 175
246088.09448242 3357511.57452393 14.25544167 128 155 182
246089.07629395 3357511.26348877 15.55348587 169 177 180
246089.31713867 3357495.91809082 14.01716423 180 180 180
246089.48229980 3357495.74859619 15.86911106 125 141 164
246090.20336914 3357510.17297363 16.22166824 92 133 177
246089.53417969 3357497.60784912 15.49846172 122 128 142
246089.72570801 3357510.42712402 15.55438042 85 88 95
246088.45300293 3357510.36605835 15.23915195 193 195 194
246088.37060547 3357510.21118164 16.86264610 39 206 242
246090.39355469 3357506.46331787 16.20050621 28 95 148
246088.31579590 3357498.32241821 14.92719364 123 117 127
246087.88854980 3357504.59970093 16.45977402 6 203 245
246086.70947266 3357496.93487549 16.20823860 163 181 203
246086.98181152 3357495.95663452 16.28054810 105 165 157
246087.89343262 3357506.46701050 16.10457420 145 180 182
246087.08264160 3357506.48489380 14.26281261 58 70 94
246090.16564941 3357505.03704834 15.75397301 174 183 188
246089.54846191 3357504.79547119 16.59903717 22 143 222
246088.61157227 3357505.92498779 16.70539474 9 135 219
246090.07702637 3357509.12161255 16.33680153 10 104 192
246087.42639160 3357510.53286743 16.56805611 37 55 93
246087.68969727 3357506.62023926 16.35810471 27 192 237
246089.85656738 3357505.82034302 15.37196350 120 124 123
246088.56250000 3357504.19131470 16.37454033 12 153 222
246087.50732422 3357510.85150146 16.48567772 25 93 164
246088.04052734 3357498.55618286 14.31883049 91 90 104
246088.62963867 3357495.59582520 15.93371964 167 178 184
246086.58215332 3357497.25021362 14.87235069 141 137 110
246089.28637695 3357497.90505981 16.35244751 32 160 225
246088.78063965 3357506.25976563 16.56155777 145 220 255
246086.82373047 3357498.87701416 14.25080872 11 11 21
246087.32080078 3357509.53253174 16.18046379 50 133 199
246088.52648926 3357496.58001709 15.28274536 141 141 143
246089.81970215 3357508.83074951 16.29511833 62 167 235
246089.33654785 3357497.54849243 16.34523582 18 141 219
246087.99902344 3357497.18713379 16.76269341 48 209 255
246089.13671875 3357510.06478882 14.44016075 187 200 206
246087.46203613 3357495.88397217 16.37627792 30 159 191
246089.37182617 3357512.08197021 14.35180950 79 83 86
246087.61975098 3357496.68283081 16.62897682 176 223 239
246089.16979980 3357511.43872070 14.39909172 28 46 68
246089.32543945 3357506.81130981 15.15188503 76 77 82
246088.60083008 3357511.62969971 14.44008446 200 203 220
246088.18750000 3357498.22860718 15.24461174 154 148 162
246088.49194336 3357498.30847168 16.15399933 24 109 163
246090.10949707 3357506.47659302 14.46579742 144 148 159
246088.46716309 3357496.11770630 16.51479340 83 176 217
246088.74487305 3357506.84295654 14.34995270 79 81 93
246088.66748047 3357504.84579468 16.69629669 9 159 222
246089.99938965 3357507.04977417 14.29665852 105 111 125
246088.82312012 3357511.42272949 16.35174751 92 143 162
246088.23229980 3357505.82635498 16.63376045 7 215 243
246087.74328613 3357495.81573486 15.84829807 142 156 159
246087.20385742 3357511.38742065 14.34412861 105 106 108
246086.95532227 3357498.34844971 16.26118469 76 106 132
246087.20275879 3357496.23944092 16.44090462 91 188 205
246089.38708496 3357497.33663940 16.31788063 15 134 214
246090.32995605 3357506.60937500 15.68166256 158 159 161
246088.77697754 3357506.88171387 14.54802036 40 47 57
246089.48535156 3357506.63693237 15.02366829 180 188 190
246089.62622070 3357497.65124512 15.71898270 183 186 195
246087.49572754 3357506.39944458 15.69570637 147 166 164
246088.77160645 3357504.31909180 16.47221756 162 228 252
246088.91125488 3357504.95053101 15.66339684 136 138 127
246090.35644531 3357506.00778198 16.19820023 35 86 143
246089.65380859 3357509.48809814 16.53800774 29 111 213
246086.72692871 3357496.39160156 15.49139595 132 133 102
246088.55383301 3357509.45104980 15.81770897 175 179 182
246088.53491211 3357510.97857666 16.70522308 8 90 176
246088.97326660 3357495.88226318 15.70241451 158 160 157
246088.27014160 3357506.25354004 14.21569252 156 173 181
246087.84460449 3357511.35342407 14.24424076 186 186 184
246089.62939453 3357498.01010132 15.95216942 70 81 103
246087.69201660 3357506.45013428 14.18730164 154 161 169
246088.31481934 3357498.09652710 14.76932526 97 96 94
246087.60607910 3357510.86419678 16.49524117 0 58 131
246088.10729980 3357497.21932983 14.14350510 75 74 70
246088.42712402 3357510.25784302 14.26717854 165 170 176
246087.37500000 3357506.72518921 15.69421291 105 116 112
246088.55371094 3357510.56918335 15.18300438 133 134 136
246088.22363281 3357504.42355347 16.44647980 1 158 229
246089.43615723 3357511.06863403 15.08584213 178 182 181
246087.91809082 3357505.08303833 14.19851971 135 139 140
246089.54553223 3357510.05593872 14.21845818 153 160 168
246088.42883301 3357506.74359131 14.19176292 133 143 155
246089.95104980 3357506.24230957 15.61894035 99 108 113
246089.16833496 3357497.08642578 16.41445923 25 116 199
246089.96179199 3357511.29614258 16.43112564 6 121 202
246088.21569824 3357498.32327271 15.42062092 160 158 169
246089.04931641 3357504.11428833 16.06558609 172 191 197
246087.38244629 3357496.09191895 14.07564163 163 164 158
246089.47094727 3357495.97888184 15.75107765 169 170 172
246090.28747559 3357511.02008057 16.10744476 123 140 170
246086.94433594 3357497.74490356 14.77609253 209 206 197
246088.26770020 3357497.95605469 15.44133091 123 129 127
246089.32189941 3357509.91543579 14.37789726 142 147 151
246089.47973633 3357505.47143555 14.16901588 152 152 154
246089.98059082 3357505.76907349 14.12231159 111 71 82
246087.18322754 3357506.00286865 14.19105530 229 235 249
246090.01159668 3357506.11184692 15.79874611 99 118 125
246087.41442871 3357510.84265137 16.49218750 31 100 165
246087.53015137 3357505.43563843 16.31422997 97 207 240
246089.70715332 3357511.47183228 16.28991318 31 144 214
246088.67871094 3357504.28494263 16.45547295 166 241 255
246086.95556641 3357498.75256348 14.18987656 33 27 37
246089.70776367 3357502.23245239 14.07163239 186 188 187
246087.64526367 3357498.01025391 16.36507797 13 183 235
246086.74621582 3357496.77716064 15.22173023 134 131 88
246088.55993652 3357496.46264648 15.38120461 137 141 140
246089.87646484 3357506.47113037 16.39781570 17 131 219
246087.39160156 3357505.00473022 16.25151062 70 126 173
246088.21289063 3357495.93127441 15.70294571 151 156 159
246088.06445313 3357498.09158325 16.36638069 9 165 222
246088.62329102 3357505.54632568 14.38896656 89 92 97
246086.76928711 3357497.54907227 14.10663414 121 121 119
246090.05688477 3357505.22540283 16.42156410 60 161 217
246089.59558105 3357510.17968750 16.61121368 123 48 81
246087.26928711 3357497.33966064 14.37227440 167 167 167
246087.94921875 3357506.22021484 15.94741154 152 158 154
246087.05627441 3357497.88540649 15.05820751 186 187 182
246087.96777344 3357496.62960815 15.24064922 143 149 147
246090.02526855 3357506.45889282 16.40451622 11 132 205
246088.05224609 3357506.21069336 14.17657089 155 166 172
246088.86926270 3357511.43243408 16.44618416 196 233 226
246089.54418945 3357497.17083740 15.70195389 170 175 181
246088.83691406 3357509.77813721 15.42174149 181 185 184
246088.65722656 3357496.48080444 16.64933014 7 117 196
246089.42260742 3357496.28759766 14.03979588 143 147 148
246088.17236328 3357498.00140381 15.25039291 110 111 113
246089.39440918 3357506.88342285 14.93879223 138 149 155
246087.94714355 3357498.63684082 14.32238007 129 132 139
246088.59912109 3357496.14086914 14.04763699 141 141 139
246087.36108398 3357497.97976685 16.40110016 8 167 232
246088.40673828 3357511.73907471 14.24479008 233 217 201
246087.73352051 3357504.94064331 14.23037243 142 146 149
246087.61853027 3357505.77282715 15.60258961 148 176 187
246087.78710938 3357510.19570923 15.73001671 139 148 143
246087.88562012 3357497.54183960 16.61440086 17 180 235
246088.03442383 3357496.92257690 14.94028473 162 166 169
246086.84790039 3357496.51193237 15.42799950 139 135 100
246088.50830078 3357511.13180542 14.28968811 158 170 184
246087.23693848 3357506.79083252 14.19195557 183 186 193
246089.16284180 3357506.19232178 16.58769226 155 112 166
246088.14343262 3357496.40634155 15.37134552 146 150 149
246087.66772461 3357505.73556519 14.22398758 149 154 158
246086.53137207 3357497.34988403 14.09749508 140 142 139
246088.52331543 3357497.90847778 16.42609978 29 166 218
246088.20727539 3357506.14541626 16.58889771 51 219 255
246088.07849121 3357497.05142212 16.83702087 36 181 236
246087.25634766 3357504.82601929 14.22591972 140 142 141
246087.65295410 3357504.94866943 15.61536217 106 109 66
246088.34826660 3357506.48953247 15.91424942 162 189 200
246089.80834961 3357510.79779053 14.16913509 165 165 165
246089.12609863 3357496.80813599 15.45436382 125 129 132
246088.43981934 3357506.08880615 14.34896088 166 176 178
246088.66210938 3357504.52850342 16.56792068 178 190 212
246089.36035156 3357505.77569580 15.36065865 188 192 191
246088.21215820 3357496.10934448 15.57883549 147 151 150
246088.78540039 3357510.42733765 17.03400421 2 58 141
246088.68090820 3357510.36230469 15.13526726 146 146 136
246089.06823730 3357506.19110107 16.58743668 160 88 126
246090.03674316 3357510.73892212 15.64805984 143 144 146
246087.82177734 3357506.35256958 15.99348450 124 162 171
246089.57714844 3357504.17462158 16.33278275 13 173 233
246088.71850586 3357510.06579590 16.94161987 6 136 230
246087.29418945 3357511.66036987 14.31495285 155 156 158
246088.67407227 3357496.71975708 15.24264145 143 142 147
246087.16296387 3357510.00976563 14.32837391 62 63 58
246087.42248535 3357498.21725464 14.47567940 160 162 161
246089.45849609 3357511.20816040 15.38661671 165 175 177
246088.88293457 3357510.30441284 17.03624153 0 51 125
246090.38146973 3357506.50814819 16.11006355 63 111 149
246088.08630371 3357496.23181152 16.58467674 181 213 251
246090.24877930 3357505.78195190 15.88731098 155 159 160
246087.30285645 3357505.80160522 15.43360615 130 146 146
246088.75366211 3357505.27282715 15.53480148 151 154 145
246089.30651855 3357511.31582642 15.64282513 145 167 181
246087.47229004 3357506.46325684 16.25605202 128 208 245
246087.00415039 3357497.92001343 14.97457504 195 194 189
246087.38769531 3357510.08908081 16.42596245 31 139 204
246089.56872559 3357509.11114502 16.42396164 16 151 233
246088.79357910 3357506.14459229 14.56299496 148 158 167
246087.45141602 3357505.12554932 15.39853191 123 144 135
246087.90173340 3357511.42999268 16.49479675 32 135 202
246089.45068359 3357504.43389893 15.87100124 145 158 167
246087.17565918 3357504.93927002 15.28318501 175 209 210
246086.94812012 3357497.50283813 14.17876625 112 114 113
246089.49145508 3357497.96966553 15.22530842 108 121 112
246088.37414551 3357510.93460083 16.04007912 206 212 202
246088.68786621 3357496.58676147 14.01965141 136 136 136
246087.49926758 3357506.71386719 14.20864201 144 151 159
246088.39306641 3357510.34112549 15.29996777 193 194 196
246089.90991211 3357505.22616577 16.49029541 78 148 208
246089.15576172 3357497.82565308 14.09862423 134 137 142
246087.71875000 3357496.21276855 15.55569458 131 134 127
246087.47924805 3357496.15762329 15.60482502 126 127 109
246088.03125000 3357505.92175293 15.52422333 131 137 135
246089.38720703 3357505.48242188 15.47610569 184 188 191
246089.01672363 3357506.18884277 14.74601841 114 129 162
246090.28918457 3357505.12692261 16.22861862 78 143 199
246087.43225098 3357496.11346436 14.07778549 161 162 156
246088.78210449 3357496.04418945 15.61563301 149 154 148
246090.05883789 3357510.31466675 15.98323250 117 137 162
246087.64062500 3357505.65298462 14.22942734 139 144 148
246089.39343262 3357496.71829224 15.61150455 156 161 164
246088.00012207 3357505.95269775 15.54282761 128 134 130
246086.98229980 3357496.68383789 14.10185146 149 149 149
246088.78295898 3357504.24359131 16.43216515 159 249 255
246088.17541504 3357497.83465576 14.96468067 173 158 155
246089.70556641 3357506.68173218 15.49063015 44 49 52
246088.32458496 3357505.37969971 16.69461060 248 255 255
246089.63977051 3357505.07495117 16.60585213 141 175 238
246089.93395996 3357509.28100586 16.42623520 21 111 208
246089.34033203 3357504.10610962 16.01836777 164 180 193
246089.80407715 3357506.10128784 15.25722313 169 175 175
246089.28088379 3357497.70156860 14.07369614 116 121 127
246088.66625977 3357504.28640747 15.95734406 177 182 185
246088.79870605 3357504.34259033 15.90044975 191 193 192
246088.61694336 3357506.05181885 16.64353561 3 128 212
246089.75427246 3357505.79394531 15.36835670 158 160 157
246088.35607910 3357510.39144897 14.19228840 164 167 174
246087.74572754 3357511.13229370 16.51167679 34 156 233
246088.90820313 3357505.80346680 16.77552032 6 125 215
246088.01037598 3357510.60601807 16.64209366 168 152 191
246088.41101074 3357511.39059448 14.25696373 124 144 169
246087.44799805 3357496.51013184 14.11710739 175 170 166
246090.20471191 3357510.58950806 16.09915161 34 68 116
246089.32739258 3357510.83581543 14.30270195 188 190 185
246087.68627930 3357496.14407349 15.59743977 146 147 139
246086.92602539 3357496.87573242 15.17669487 152 151 121
246088.27636719 3357496.53814697 15.24585342 140 144 145
246089.39770508 3357497.13665771 14.01610851 129 138 143
246087.94018555 3357510.20138550 14.20949268 144 147 152
246088.86608887 3357495.88809204 14.03553391 159 159 157
246088.61828613 3357496.08508301 16.49664307 10 171 226
246088.80358887 3357511.41842651 16.36295891 92 143 162
246089.16992188 3357504.15893555 16.36141586 23 166 232
246088.98681641 3357508.97671509 16.34000778 22 135 227
246088.10693359 3357506.41357422 16.45298576 36 156 217
246088.06042480 3357506.73449707 14.15887928 166 171 175
246087.40893555 3357510.52880859 15.82410717 160 162 157
246089.21484375 3357504.12744141 16.03075981 164 181 189
246090.14843750 3357505.54074097 16.37745476 26 139 219
246087.21728516 3357496.86334229 14.11588573 167 167 167
246089.40954590 3357496.47753906 14.03697681 136 141 145
246089.85192871 3357509.03994751 16.43010139 25 147 233
246087.16760254 3357496.65802002 14.08448982 158 156 159
246087.58361816 3357498.18847656 16.22946358 89 210 253
246089.86425781 3357508.99816895 16.41665649 44 181 251
246089.48461914 3357506.87344360 14.98178959 174 183 188
246090.20092773 3357510.17190552 16.21313858 92 133 177
246088.65161133 3357495.61398315 16.23175621 16 171 219
246088.95825195 3357505.06784058 14.15993500 147 151 154
246088.76770020 3357510.44494629 15.09147263 140 140 132
246088.10375977 3357496.71456909 16.89292526 98 218 245
246089.82031250 3357504.25848389 16.41070938 1 149 221
246089.59887695 3357505.74478149 16.64568710 37 129 212
246086.43054199 3357496.39202881 14.08536339 157 159 158
246089.62915039 3357505.58206177 14.23507404 125 120 124
246088.84912109 3357495.65158081 15.85641479 171 173 172
246090.15258789 3357509.91705322 16.33315277 25 107 189
246089.85278320 3357510.92956543 14.16538429 169 169 169
246088.93908691 3357512.03814697 14.38679981 104 90 90
246089.42407227 3357506.33853149 15.11416245 194 198 199
246087.46044922 3357506.40643311 14.18220139 114 122 133
246089.10583496 3357509.31555176 16.53893661 15 132 212
246087.37854004 3357504.61334229 14.34284019 163 167 170
246087.85986328 3357495.78106689 14.06498528 170 170 162
246089.14599609 3357497.16653442 16.42843628 17 118 206
246087.03283691 3357498.16506958 15.88910484 194 203 200
246087.18884277 3357504.55291748 15.36338234 116 137 128
246089.32019043 3357506.71405029 15.57096004 103 116 135
246089.48693848 3357495.84600830 15.82930183 149 159 171
246088.88732910 3357504.49502563 15.83789921 146 149 140
246089.65930176 3357510.71600342 14.20125103 170 171 173
246090.29504395 3357505.78750610 15.95578289 168 171 178
246089.33862305 3357511.11447144 15.12205887 174 178 177
246088.48547363 3357510.17507935 14.34759998 155 162 170
246087.42248535 3357506.18670654 16.23004913 167 212 231
246089.73315430 3357509.49575806 14.25492668 146 156 165
246089.93835449 3357505.70388794 16.47696686 17 133 210
246087.81127930 3357505.70907593 14.26125622 159 163 166
246088.72619629 3357504.23608398 16.42826080 119 219 235
246089.04235840 3357504.73880005 15.74963856 141 144 137
246089.47045898 3357504.74053955 14.08181286 188 192 193
246087.83105469 3357510.60272217 16.56620789 165 184 216
246089.38452148 3357498.25888062 15.92254543 33 83 132
246089.42102051 3357497.29928589 14.01949787 125 132 138
246088.29125977 3357498.26098633 14.58458805 42 43 48
246089.47509766 3357506.60232544 15.03136539 182 190 192
246087.41845703 3357497.02502441 14.90171146 158 160 159
246088.16296387 3357498.24011230 15.57883549 70 68 81
246088.48425293 3357506.40777588 16.44021988 13 127 213
246089.89819336 3357511.35540771 14.25850582 39 44 63
246087.45190430 3357497.14807129 14.28705692 160 160 160
246088.67456055 3357510.96353149 14.37635517 155 162 168
246089.82202148 3357510.57504272 15.58869267 147 145 148
246089.53845215 3357496.03549194 16.19619942 22 124 198
246089.95385742 3357511.93353271 14.47162533 42 37 41
246088.61145020 3357505.56851196 14.39423847 77 80 85
246088.26611328 3357495.88989258 14.10259533 162 161 157
246089.55212402 3357509.33773804 16.53371429 28 166 238
246087.56738281 3357498.24908447 16.01370811 114 137 181
246088.34436035 3357497.36462402 14.75903130 103 115 129
246086.91906738 3357496.71313477 15.30165577 145 141 106
246087.65686035 3357511.38531494 16.12229156 168 187 181
246089.03613281 3357509.41952515 14.39734840 59 65 77
246088.38439941 3357509.61566162 16.64525223 14 142 205
246087.59973145 3357496.54290771 14.15012836 158 155 150
246087.60827637 3357504.87765503 15.60759258 108 114 76
246088.09118652 3357510.09988403 16.72862816 48 186 233
246087.59912109 3357510.07110596 14.23772812 72 76 75
246089.16394043 3357506.50982666 14.89976215 90 97 115
246088.42346191 3357510.21459961 16.90117073 38 204 242
246088.54113770 3357496.47448730 16.67733192 14 142 217
246090.26916504 3357506.66561890 15.16822147 133 141 154
246090.05493164 3357506.31204224 15.42331505 87 85 88
246088.48352051 3357506.11657715 15.34725475 153 154 156
246089.08813477 3357505.73992920 15.36314487 163 165 164
246087.03686523 3357497.61117554 14.62993526 209 206 199
246087.49438477 3357510.32839966 14.22954082 122 126 125
246089.15600586 3357497.23519897 15.46102047 131 136 142
246087.64709473 3357498.37246704 14.64338303 124 126 123
246088.92602539 3357509.16580200 15.92423916 193 199 199
246089.82287598 3357510.31842041 15.74510670 52 59 65
246087.30053711 3357497.20828247 14.22024822 158 158 156
246089.99365234 3357506.00695801 15.74637794 107 118 120
246087.78955078 3357506.02575684 16.42246437 10 219 249
246088.31237793 3357498.30780029 16.23292542 129 215 240
246089.88574219 3357504.30108643 16.41208839 22 152 228
246087.67541504 3357505.99554443 14.20511913 166 170 173
246089.52294922 3357511.46862793 15.92851067 105 165 202
246089.55236816 3357497.63436890 16.21549034 59 138 195
246086.84008789 3357497.86483765 14.09812641 140 140 130
246089.44677734 3357506.71234131 15.71911716 31 46 69
246087.69213867 3357496.00399780 16.45344162 34 184 234
246089.27783203 3357505.50891113 16.81213379 15 104 188
246087.69262695 3357510.23507690 16.71780396 130 200 234
246087.40258789 3357510.62442017 15.81063843 171 171 169
246087.87011719 3357505.86547852 14.22645473 162 167 171
246088.60266113 3357504.90344238 14.17392063 133 140 146
246087.75329590 3357498.47787476 14.53186893 116 121 117
246088.18701172 3357496.55938721 14.08738327 138 137 133
246088.78967285 3357511.18096924 14.39360428 154 164 176
246089.26208496 3357497.08459473 14.01346111 135 140 146
246086.66967773 3357496.64669800 14.08782291 125 125 123
246088.87878418 3357505.00830078 14.15227318 151 156 160
246088.78051758 3357512.08978271 14.34818554 46 37 28
246089.46044922 3357496.75006104 15.80661774 175 175 183
246088.20336914 3357498.22457886 14.42341614 111 111 119
246089.15319824 3357498.12133789 15.74983501 92 130 169
246087.61730957 3357510.40753174 16.59740829 175 184 193
246089.15051270 3357505.33306885 14.12187195 147 148 152
246088.83813477 3357511.28491211 16.53524208 120 153 204
246089.65942383 3357509.54107666 15.71613026 132 142 141
246087.98632813 3357504.78811646 16.50903320 1 197 237
246089.58728027 3357505.34478760 14.13641739 158 159 161
246088.32617188 3357509.96539307 16.78756142 25 189 240
246089.81579590 3357510.19210815 15.71344280 60 69 76
246090.22216797 3357505.55075073 15.70616341 178 182 185
