246108.14599609 3357409.01889038 14.71725750 221 227 239
246108.12622070 3357405.53781128 14.99829292 194 232 235
246108.14746094 3357408.51165771 16.97869873 218 251 255
246108.11169434 3357407.55300903 16.75526047 219 233 234
246108.16711426 3357409.74026489 15.62923622 226 231 250
246108.10058594 3357404.55062866 15.26115131 200 200 212
246108.09667969 3357404.29614258 16.78113556 254 248 248
246108.11291504 3357405.03939819 16.42898750 186 230 239
246108.12402344 3357406.02066040 14.67327690 201 222 241
246108.10266113 3357404.41906738 14.97891426 118 120 133
246108.07763672 3357403.90081787 16.52490044 187 236 251
246108.14477539 3357407.90844727 15.51107883 202 239 245
246108.10827637 3357406.92565918 17.16031837 220 239 246
246108.14062500 3357408.45135498 16.85961151 216 253 255
246108.10656738 3357406.87765503 16.44833946 212 237 242
246108.12573242 3357407.75125122 16.52734756 209 230 233
246108.10766602 3357404.61529541 15.23631191 205 207 219
246108.11889648 3357406.01660156 17.47621155 161 206 227
246108.11462402 3357405.57275391 15.37903690 192 209 227
246108.09460449 3357406.04486084 16.68516922 200 213 222
246107.94201660 3357404.68588257 14.64940834 83 84 88
246108.14404297 3357408.33398438 15.17237759 152 189 207
246108.12524414 3357406.15426636 15.04783535 202 232 242
246108.09924316 3357406.00012207 17.17089081 234 239 242
246108.09643555 3357404.28155518 15.31789684 209 206 225
246108.10949707 3357405.15621948 15.77596855 175 192 208
246108.12512207 3357407.36550903 17.20376587 210 251 255
246108.07800293 3357404.00155640 16.04064941 231 241 243
246108.04565430 3357404.55520630 14.67784309 94 100 100
246108.15319824 3357408.64337158 16.40838051 171 230 238
246108.15185547 3357408.94631958 14.73448944 217 232 237
246108.15344238 3357407.51998901 14.75125980 205 237 234
246108.11987305 3357406.82815552 15.96051121 227 243 243
246108.11450195 3357406.53341675 17.35773849 150 199 229
246107.97851563 3357406.19100952 14.60946083 88 91 98
246108.16650391 3357409.04226685 14.92605877 166 187 204
246108.11608887 3357405.03710938 15.62284946 211 227 242
246108.13745117 3357408.23782349 16.35805321 222 248 249
246108.10266113 3357407.09820557 16.97931099 175 218 237
246108.12194824 3357405.73098755 15.08050728 197 227 235
246108.11193848 3357405.74978638 15.53480530 213 237 239
246108.11389160 3357405.46987915 15.49177551 193 210 228
246108.08996582 3357406.14920044 17.04918289 210 222 222
246108.15917969 3357409.61288452 16.66878128 250 253 244
246107.90979004 3357406.87069702 14.61945724 94 95 100
246108.16992188 3357409.51348877 15.52626801 216 211 233
246108.09948730 3357405.19735718 15.17202377 199 212 221
246108.13146973 3357407.38067627 15.72968483 220 234 237
246108.11828613 3357405.18276978 15.38781166 206 222 237
246108.10961914 3357404.72753906 15.75110912 209 221 235
246108.12316895 3357405.33834839 14.71365261 216 241 248
246108.10107422 3357406.42004395 16.34881973 219 229 241
246108.12109375 3357407.83279419 16.73056602 196 225 233
246107.93481445 3357404.87960815 14.63682270 88 88 90
246108.11608887 3357405.36083984 15.90438271 212 241 245
246108.09814453 3357406.79013062 16.83262444 194 210 223
246108.10253906 3357405.71807861 15.82683849 203 223 230
246108.10046387 3357405.01092529 17.07167435 255 231 227
246108.14086914 3357407.68542480 14.63390636 191 204 210
246107.94873047 3357403.58526611 14.69693375 91 92 96
246108.11340332 3357405.72079468 15.36209869 191 210 224
246108.11499023 3357406.14309692 17.41962624 162 209 239
246108.08911133 3357403.76895142 14.87977695 228 227 235
246108.18237305 3357410.02203369 15.00867939 223 234 240
246108.12390137 3357406.79443359 15.83031464 227 237 236
246108.10107422 3357406.28143311 16.10011101 213 226 235
246108.09741211 3357405.03884888 17.27918434 243 237 247
246108.12268066 3357407.28387451 14.63651657 202 224 235
246107.83898926 3357404.53665161 14.65951538 88 89 93
246108.11730957 3357407.82315063 16.94071007 210 229 243
246108.12731934 3357407.27117920 16.05341911 167 185 195
246108.10876465 3357404.63177490 15.64449024 233 242 249
246108.08459473 3357406.16864014 16.90750122 218 233 238
246108.12561035 3357406.36120605 15.31487846 212 221 228
246108.16284180 3357408.85504150 14.79879475 215 235 234
246108.02697754 3357410.01843262 14.59998989 101 101 103
246107.97607422 3357404.74926758 14.64424229 80 79 84
246108.15380859 3357409.72445679 15.27375984 236 243 251
246108.09790039 3357405.99661255 15.77436352 219 233 242
246108.12060547 3357406.92477417 16.01119232 218 233 236
246108.09118652 3357405.63864136 16.93167686 181 216 238
246108.09558105 3357405.26550293 15.12020016 197 207 219
246107.83068848 3357406.79187012 14.62425900 95 98 103
246108.08422852 3357404.53143311 16.24973488 201 110 109
246108.11462402 3357405.88787842 15.23442364 197 217 226
246108.11108398 3357404.74749756 15.77146816 209 221 233
246108.13928223 3357407.83105469 15.28834057 210 235 240
246108.04797363 3357404.83752441 14.63686275 70 70 70
246108.14538574 3357408.42105103 17.06906319 187 214 225
246108.14953613 3357409.77774048 16.56059647 242 254 244
246108.13745117 3357406.50302124 14.95742702 200 234 246
246108.09167480 3357404.52035522 15.10542297 88 88 98
246108.11816406 3357405.29168701 14.71329975 219 239 248
246108.13818359 3357407.55364990 17.22146606 205 239 249
246108.07202148 3357403.99728394 14.92356110 217 218 223
246108.09472656 3357405.91314697 16.39655495 236 240 252
246108.10253906 3357405.35473633 17.57996559 206 223 239
246107.94213867 3357408.13204956 14.58968163 109 113 114
246108.09362793 3357406.01324463 16.43829727 233 242 251
246108.10644531 3357406.81219482 16.42103577 192 214 225
246107.92639160 3357409.56277466 14.60528564 97 97 95
246108.10839844 3357406.00885010 15.45251846 191 203 215
246108.11828613 3357405.12966919 15.41871834 208 222 235
246108.10705566 3357405.43002319 16.06335449 207 237 245
246108.16528320 3357409.64941406 15.56093025 203 218 239
246108.11901855 3357407.02044678 16.13132477 205 224 231
246108.04760742 3357407.80670166 14.58862686 99 103 106
246108.09899902 3357404.66348267 17.39430428 213 226 234
246108.07397461 3357404.29330444 15.88208771 195 188 195
246108.09753418 3357404.35830688 15.06950474 151 153 166
246108.11938477 3357405.29513550 15.89922333 209 240 243
246108.12561035 3357408.09860229 16.98525238 201 225 237
246108.08984375 3357404.51870728 15.98357487 246 235 239
246108.13232422 3357407.61566162 16.24314117 220 237 245
246108.08435059 3357405.33291626 17.22217369 189 221 244
246108.15747070 3357408.68161011 16.42159271 168 231 240
246108.13281250 3357407.92462158 15.81404114 192 229 238
246108.08105469 3357404.24389648 16.62657738 154 153 159
246108.08813477 3357405.15502930 17.30491447 216 225 240
246108.15039063 3357409.79470825 15.50288391 228 238 250
246108.10754395 3357407.29220581 16.66033554 225 246 249
246108.10668945 3357404.56762695 15.67967892 209 212 231
246108.07910156 3357405.27468872 17.28322411 193 221 245
246108.08349609 3357403.86648560 15.22514629 245 246 251
246108.08642578 3357405.37954712 15.44277954 213 232 239
246108.13586426 3357407.76199341 16.23313141 206 229 237
246108.13891602 3357407.85400391 15.99217129 190 218 230
246108.11376953 3357406.52078247 17.37776375 146 201 231
246108.09521484 3357406.47216797 16.65073967 210 223 239
246108.13281250 3357407.33068848 15.28088284 230 244 244
246108.11181641 3357405.68792725 15.61529732 216 237 240
246108.13989258 3357408.11169434 16.36617470 175 205 213
246108.10620117 3357405.41650391 16.46945381 185 220 239
246108.10437012 3357404.60144043 15.20839691 188 188 200
246108.13098145 3357408.55755615 15.30303574 186 234 244
246108.10546875 3357406.99450684 16.53960228 206 231 235
246108.13488770 3357407.31246948 17.42256546 151 218 244
246108.14929199 3357408.58706665 16.90729904 165 213 227
246108.10375977 3357406.00485229 17.24533081 229 240 246
246108.13146973 3357407.43392944 15.84336090 214 229 234
246108.13513184 3357407.59365845 15.75853252 202 221 227
246108.10937500 3357405.53701782 16.36412430 183 218 237
246108.13598633 3357407.94293213 15.72908306 188 228 236
246108.10607910 3357406.68563843 17.08984756 210 226 239
246108.13073730 3357408.01766968 16.08287239 175 219 232
246108.07543945 3357404.43481445 15.94736767 240 229 237
246108.09973145 3357403.78723145 15.27875328 251 254 255
246108.12780762 3357408.00009155 16.68466377 192 229 238
246108.08312988 3357404.34130859 17.54028511 193 216 232
246108.12963867 3357407.63546753 15.47291183 208 223 228
246108.10546875 3357406.16363525 15.75543499 223 231 242
246108.14587402 3357408.51663208 16.21450233 190 234 243
246108.07653809 3357403.93182373 15.39773560 238 237 243
246108.13635254 3357406.40466309 14.83236885 197 234 242
246108.14624023 3357408.15332031 15.42263794 159 199 211
246108.11926270 3357405.19857788 15.31257915 207 221 234
246108.11596680 3357408.58770752 14.68746853 128 95 124
246108.11706543 3357405.23101807 14.74249363 227 240 249
246108.07409668 3357404.25616455 15.97328377 245 220 223
246108.11767578 3357407.76791382 16.95551109 222 234 246
246108.09729004 3357406.05502319 15.87325859 203 221 233
246108.09313965 3357405.66867065 16.14272118 206 230 240
246108.08422852 3357403.96054077 15.87405014 203 210 218
246108.11364746 3357406.42214966 17.38633347 156 216 242
246108.08959961 3357403.92083740 15.72360039 247 255 255
246108.07458496 3357405.37997437 15.62357330 227 245 255
246108.09179688 3357405.69058228 16.95727539 188 219 239
246108.01074219 3357404.55856323 14.67522526 87 92 95
246108.11071777 3357406.19577026 15.62862778 225 236 242
246108.07495117 3357404.18856812 16.48093224 255 246 247
246108.15100098 3357408.17852783 15.28377438 194 222 236
246108.09057617 3357405.84649658 15.98845291 207 225 237
246107.86315918 3357409.95416260 14.62005424 104 106 105
246108.28247070 3357403.68472290 14.87163162 69 70 74
246108.11889648 3357407.30059814 16.35589981 207 230 236
246108.06530762 3357404.12881470 14.76897812 198 199 203
246108.08203125 3357405.20104980 17.48243523 183 208 230
246108.11010742 3357405.08840942 16.46694374 185 229 242
246108.12695313 3357406.88998413 15.78166866 226 237 231
246108.14221191 3357408.52236938 14.96568203 146 144 168
246108.13085938 3357408.02975464 16.13247871 182 222 234
246108.13500977 3357406.39538574 14.88477802 205 238 247
246108.15454102 3357408.69348145 16.51963043 162 224 235
246108.14160156 3357406.84988403 14.73266315 209 246 255
246108.07568359 3357404.08032227 16.43701363 219 232 241
246108.12170410 3357406.46679688 15.63574791 211 226 229
246108.11071777 3357404.85821533 15.65222836 199 217 229
246108.11877441 3357405.12890625 15.38869286 210 222 236
246108.10388184 3357405.76098633 17.18536568 226 243 253
246108.12011719 3357406.77285767 15.92725372 225 239 240
246108.12658691 3357407.24462891 16.07966423 180 200 209
246108.10461426 3357407.10504150 17.04133224 169 214 237
246108.07519531 3357404.45968628 16.16945457 182 111 109
246108.06457520 3357404.01788330 15.09084797 250 249 255
246108.13513184 3357408.43106079 15.63825703 187 237 246
246107.86743164 3357409.35394287 14.60359955 106 106 104
246108.09094238 3357405.58676147 17.40300751 171 213 238
246108.13366699 3357407.50985718 15.75525093 202 219 226
246108.14147949 3357408.17486572 16.44718361 219 247 248
246108.16040039 3357409.72543335 15.55745602 210 225 244
246108.14208984 3357408.76397705 15.44691372 236 239 232
246108.06970215 3357404.33108521 15.33675098 218 198 223
246108.09631348 3357405.85101318 16.38501740 229 236 252
246108.10449219 3357405.44689941 15.41538811 204 223 230
246108.12145996 3357407.02795410 16.07254601 193 208 215
246108.09057617 3357404.47976685 15.23546886 116 116 128
246108.11291504 3357407.03005981 16.30425072 206 229 237
246108.12133789 3357407.46200562 16.41805649 215 238 244
246108.08544922 3357404.32080078 17.51649094 191 214 230
246108.12866211 3357407.36346436 16.12238503 202 224 235
246108.14123535 3357409.01705933 14.69886494 202 205 214
246108.12060547 3357407.88653564 17.02807617 179 210 231
246108.15344238 3357408.56854248 15.94696045 182 234 248
246108.09692383 3357406.11880493 15.97078800 206 223 233
246108.10949707 3357406.47366333 16.11568069 209 221 233
246108.12841797 3357407.26351929 15.82979965 207 223 223
246108.14257813 3357407.25195313 15.06727600 201 222 227
246108.08898926 3357405.79696655 16.09524345 210 228 240
246108.15637207 3357408.61926270 15.76821232 197 232 238
246108.09423828 3357404.54248047 15.54894733 228 225 236
246108.09216309 3357406.41091919 17.00958633 190 207 225
246108.10424805 3357406.28549194 15.98451996 220 230 242
246108.08801270 3357406.13293457 16.83280182 217 232 235
246108.08740234 3357403.91293335 17.13352394 209 228 243
246108.07421875 3357404.22695923 16.39129257 190 129 126
246108.11425781 3357405.40835571 15.51003933 196 213 231
246108.13061523 3357405.96954346 14.99612331 201 234 241
246108.13818359 3357406.75112915 14.67535019 215 241 254
246108.13696289 3357408.02072144 16.44252777 181 214 223
246108.11791992 3357406.09875488 15.23050308 208 233 240
246108.17883301 3357409.96157837 14.94555187 239 246 254
246108.17138672 3357409.67749023 15.00552845 226 235 242
246108.10522461 3357406.88656616 17.06168365 228 243 246
246108.11584473 3357406.82617188 16.09566307 205 225 234
246108.09204102 3357405.70559692 16.96557236 190 218 232
246108.09460449 3357406.42547607 16.61353683 218 234 247
246108.15893555 3357409.94577026 16.51317596 212 231 237
246108.13366699 3357408.08117676 16.59015083 209 244 250
246108.12048340 3357407.28054810 16.29744148 209 232 238
246108.13110352 3357408.15643311 17.06373405 226 245 252
246108.12670898 3357408.93347168 14.64608479 125 131 129
246108.14794922 3357407.28857422 14.97035789 211 236 243
246108.08300781 3357408.48385620 14.62817669 118 112 124
246108.08532715 3357406.06472778 16.94572639 232 247 250
246108.17370605 3357409.93115234 14.99482250 237 246 255
246108.09985352 3357407.02566528 16.89010048 177 214 233
246108.11694336 3357405.29583740 15.40048885 201 218 236
246108.08679199 3357404.07476807 17.49512672 176 208 233
246107.94140625 3357409.50234985 14.60229206 95 95 93
246108.12377930 3357407.02035522 15.85792732 218 228 227
246108.07287598 3357404.39160156 16.10504913 211 163 161
246108.13305664 3357407.73248291 15.33570480 198 217 223
246108.13574219 3357406.45767212 14.96307850 201 233 244
246107.90173340 3357407.39773560 14.61044025 189 190 192
246108.09472656 3357404.37515259 15.34129524 131 130 144
246108.14685059 3357407.24697876 15.00463772 211 234 240
246108.08288574 3357404.19903564 15.02194977 169 166 175
246107.82824707 3357406.04742432 14.61631775 91 92 97
246108.07690430 3357403.88681030 14.82477093 224 222 233
246108.09667969 3357406.85183716 16.77967262 193 210 218
246108.10253906 3357406.90802002 16.60290527 225 246 251
246108.09680176 3357404.67813110 16.21751595 166 110 109
246108.12438965 3357406.68518066 15.75205040 226 236 238
246108.12548828 3357406.48303223 15.53152275 220 231 235
246108.11437988 3357405.50341797 15.62270260 203 220 236
246108.07458496 3357404.30490112 15.66151237 130 117 134
246107.91357422 3357405.47595215 14.62196636 89 90 92
246108.10595703 3357407.02133179 16.53830338 197 221 225
246108.07348633 3357403.94482422 15.38317108 238 237 243
246108.14697266 3357408.53100586 14.84150410 149 102 144
246108.11633301 3357407.98211670 16.88497925 180 217 236
246108.11816406 3357406.57687378 15.91783619 219 229 239
246108.12841797 3357407.25552368 15.81604862 207 223 223
246108.10046387 3357407.28567505 16.91202927 192 221 227
246108.06860352 3357404.40655518 15.43442345 87 55 79
246108.09045410 3357404.40133667 15.17851734 132 134 147
246108.10449219 3357404.93869019 17.31611061 242 241 247
246108.15148926 3357409.74526978 15.48529339 197 212 231
246107.89379883 3357407.70663452 14.59484863 105 107 106
246108.10583496 3357406.00030518 15.52228069 214 224 234
246108.13439941 3357407.21020508 15.50061989 233 245 243
246108.12475586 3357405.60229492 15.02575588 197 231 240
246108.09338379 3357405.52325439 16.93983269 180 214 239
246108.09594727 3357404.32781982 16.74740028 249 239 240
246108.11425781 3357405.04183960 15.23060417 206 223 233
246108.12304688 3357406.52175903 15.67374706 214 229 232
246108.13195801 3357408.34115601 15.98243427 181 231 242
246108.07421875 3357404.07333374 14.99622154 200 200 208
246108.17443848 3357409.51785278 15.16969967 190 199 216
246108.40649414 3357403.69860840 14.85447407 92 94 93
246108.09423828 3357404.54840088 16.02800560 240 198 199
246108.11254883 3357404.99768066 15.30769157 215 232 240
246107.95605469 3357404.94891357 14.63045311 80 79 84
246108.17163086 3357410.05093384 15.43545055 244 244 252
246108.09497070 3357403.82910156 16.38418770 198 240 254
246108.07946777 3357404.24584961 15.09525967 151 147 161
246108.13769531 3357408.22586060 17.15578079 207 235 246
246108.12158203 3357408.20532227 16.07779884 150 187 206
246108.12915039 3357405.93835449 15.00791359 203 233 241
246108.07006836 3357404.35479736 15.42251682 108 80 102
246108.13720703 3357408.36514282 15.60160065 185 233 243
246107.83337402 3357406.01062012 14.61655903 99 100 105
246108.10742188 3357405.01385498 16.52610207 188 226 237
246108.11376953 3357406.45376587 17.39833641 159 216 245
246108.07824707 3357404.17352295 15.73656464 60 57 68
246108.07470703 3357405.22158813 14.65051365 152 158 170
246108.10351563 3357405.07263184 16.58205032 186 229 238
246108.11022949 3357407.16439819 16.48677254 221 247 248
246108.12988281 3357407.41113281 16.08558083 198 218 229
246108.16638184 3357409.92404175 15.16645813 238 245 255
246108.10437012 3357405.74923706 15.73735905 216 237 242
246108.11572266 3357407.23870850 16.39551163 213 234 237
246108.08752441 3357405.94143677 16.95121384 243 242 247
246108.13659668 3357408.79769897 15.33087730 234 241 234
246108.12390137 3357408.73321533 14.66477871 186 201 204
246108.08251953 3357404.36962891 17.54691505 189 212 230
246108.07690430 3357405.28619385 14.67218494 144 156 168
246108.10693359 3357404.53768921 15.67450809 209 212 231
246108.09069824 3357404.43283081 17.46885872 188 211 229
246108.10839844 3357406.70828247 17.16386223 214 232 244
246108.09143066 3357405.76434326 16.06849480 209 229 238
246108.09875488 3357405.76928711 15.86431599 209 232 238
246108.10852051 3357404.72879028 15.15787792 215 219 231
246107.88439941 3357404.11471558 14.68728065 82 86 89
246108.25183105 3357403.74877930 16.83430290 147 153 167
246108.12463379 3357407.56845093 15.24686813 223 243 242
246108.15173340 3357408.19357300 15.16589069 194 221 238
246108.13513184 3357406.85183716 15.57895184 231 236 229
246107.93420410 3357405.21588135 14.62658787 83 86 91
246108.10168457 3357404.99041748 17.18296051 242 226 227
246107.98425293 3357408.45925903 14.61026287 113 112 117
246108.13793945 3357408.43426514 15.25366592 188 225 233
246108.07568359 3357404.13513184 15.98803520 248 224 224
246108.08959961 3357404.26074219 17.47299194 194 214 225
246108.15747070 3357409.65823364 15.33581638 209 226 246
246108.10070801 3357406.13888550 17.21745682 193 219 232
246108.15649414 3357409.64682007 16.61823845 248 254 244
246108.10229492 3357405.52172852 16.52207565 184 216 239
246108.13989258 3357406.99563599 15.43407154 204 214 215
246108.09997559 3357406.85034180 16.66496849 213 232 238
246108.12329102 3357405.37725830 15.06315994 188 200 214
246108.11291504 3357405.50115967 15.62163258 203 220 236
246108.12915039 3357407.91168213 17.15743637 170 211 231
246108.13757324 3357407.54907227 14.66995907 187 205 205
246108.09692383 3357404.74386597 17.45928574 187 205 217
246108.13183594 3357408.53646851 15.58702374 185 235 242
246108.16064453 3357409.86175537 15.58193207 239 241 254
246108.09277344 3357404.41671753 15.29837132 124 123 137
246108.12353516 3357408.81668091 14.65318680 184 203 197
246108.11682129 3357408.10369873 15.88640881 179 225 240
246108.09643555 3357404.54153442 17.41536713 201 218 228
246108.10412598 3357405.99258423 17.24944496 230 243 252
246108.13708496 3357407.79611206 15.26978779 205 228 236
246108.10668945 3357405.35049438 15.76722813 202 220 240
246107.88171387 3357405.16418457 14.63434696 77 78 83
246108.07714844 3357404.11859131 15.93806458 246 235 239
246108.09985352 3357406.99685669 16.88861847 182 218 234
246108.08288574 3357407.87002563 14.58576012 94 101 107
246108.11462402 3357405.63742065 15.60150433 220 241 244
246108.08801270 3357405.66131592 16.88404274 185 217 238
246108.13867188 3357408.04696655 16.41782570 176 208 219
246108.12707520 3357406.98135376 15.75080395 232 239 232
246108.13793945 3357408.82650757 15.08309460 217 247 239
246108.11499023 3357406.75936890 17.49370193 142 205 240
246108.09472656 3357404.61474609 17.43550491 199 217 227
246108.10095215 3357404.64804077 15.64051723 212 219 237
246107.94140625 3357403.75039673 14.69537640 82 83 85
246108.06933594 3357405.16601563 14.63751888 103 106 115
246108.08300781 3357406.07821655 14.66723633 93 103 113
246108.07458496 3357404.14468384 16.12540436 224 163 162
246108.03405762 3357407.93084717 14.58446598 110 111 115
246108.13757324 3357407.84210205 16.20732689 201 231 241
246108.13220215 3357407.61001587 16.23900986 220 237 245
246108.11486816 3357405.46600342 15.55426407 203 220 236
246108.11779785 3357405.00323486 15.24646854 208 225 235
246108.04150391 3357407.31436157 14.60819721 185 186 190
246108.10900879 3357405.02416992 16.49896622 185 227 239
246108.11535645 3357406.53836060 17.38625526 145 198 229
246108.09692383 3357405.57400513 16.64143753 186 220 245
246108.07299805 3357404.34814453 16.23766708 255 189 184
246108.02087402 3357406.95809937 14.61451817 94 100 114
246108.07910156 3357405.41354370 17.48209000 166 208 232
246108.13403320 3357407.31909180 15.22387791 231 245 245
246108.08947754 3357406.05456543 16.80077744 206 221 228
246108.13830566 3357407.77575684 15.82148647 202 231 239
246108.09912109 3357404.56741333 15.95954132 243 238 244
246108.02502441 3357407.66424561 14.59932995 105 105 107
246108.09326172 3357404.44668579 17.58754539 198 217 234
246108.05151367 3357407.20077515 14.60978508 178 185 191
246108.10131836 3357405.61834717 17.16273499 185 222 241
246108.09448242 3357405.65374756 16.12512970 206 230 240
246108.13476563 3357408.70416260 15.05799007 220 251 243
246108.08996582 3357406.04714966 16.40271187 230 239 248
246108.11938477 3357407.69396973 16.98623466 219 228 237
246108.16760254 3357409.59585571 15.13745975 229 237 250
246107.93103027 3357407.27151489 14.61173725 183 183 185
246108.06506348 3357404.00085449 15.13437176 250 247 254
246108.14489746 3357408.84960938 14.70156670 218 239 232
246108.41455078 3357404.76098633 14.73343945 38 39 41
246108.12036133 3357406.10665894 15.12002373 192 225 234
246108.16992188 3357409.00567627 14.82201385 169 185 201
246108.13256836 3357407.36163330 15.58685780 215 230 233
246108.14807129 3357409.81991577 16.56744766 243 255 249
246108.08996582 3357406.24884033 16.78367043 209 221 233
246108.11267090 3357405.87231445 15.36273384 203 216 225
246108.11535645 3357406.70776367 17.43917084 141 200 234
246108.14160156 3357408.36987305 15.34237480 179 213 225
246108.07165527 3357405.47323608 14.62452888 78 89 95
246108.13647461 3357408.43350220 16.39132690 219 244 248
246108.09619141 3357405.11904907 14.66159248 152 152 162
246108.11657715 3357405.11804199 15.93678284 206 222 237
246108.09436035 3357405.89398193 15.82782745 210 227 235
246108.08020020 3357403.95425415 15.63908482 249 253 255
246108.11389160 3357406.82382202 17.49053192 137 201 236
246108.06176758 3357406.43960571 14.63496590 84 91 99
246108.12695313 3357407.20275879 15.87312698 221 237 237
246108.09887695 3357404.38900757 14.97131443 123 125 138
246108.10131836 3357406.85836792 16.93559074 218 238 245
246108.11950684 3357407.35327148 14.63894653 181 196 203
246108.13403320 3357408.04437256 16.24825287 187 223 235
246108.07385254 3357404.25964355 16.35645103 198 125 119
246108.09948730 3357406.20553589 16.02445984 214 226 238
246108.15136719 3357408.82873535 14.72405529 220 247 242
246108.07165527 3357404.37814331 15.59500313 96 71 90
246108.08959961 3357404.32507324 17.47575188 194 216 230
246108.09106445 3357404.55148315 15.42252636 239 239 247
246108.10876465 3357407.32196045 16.64970016 221 242 243
246107.99670410 3357406.45242310 14.61759472 102 103 108
246108.09777832 3357404.40533447 15.51459694 165 164 178
246108.11682129 3357406.92880249 16.11752510 201 220 226
246108.09155273 3357406.30163574 16.51107025 199 217 229
246108.08056641 3357404.05868530 15.70751476 212 215 224
246108.15905762 3357409.90203857 15.28738785 233 237 246
246108.07971191 3357404.11972046 16.70652008 225 243 247
246107.85961914 3357405.72674561 14.61934566 92 95 100
246108.09802246 3357405.26364136 16.63904190 194 226 249
246108.10034180 3357405.53210449 17.06328583 179 213 238
246107.87719727 3357408.76049805 14.57489395 114 110 109
246107.92834473 3357408.54473877 14.58597279 110 111 113
246108.15356445 3357407.71295166 14.66947556 209 233 237
246108.11267090 3357405.12554932 15.76077938 165 184 199
246108.12597656 3357407.44277954 15.39067936 223 237 238
246107.95935059 3357410.20571899 14.61531353 107 105 106
246108.09252930 3357406.24133301 17.10898399 234 248 251
246108.12573242 3357405.51242065 15.00428009 195 230 236
246108.09069824 3357404.42816162 15.21778679 128 128 140
246107.85205078 3357407.93765259 14.59189796 108 109 113
246108.13061523 3357407.97155762 17.14751244 160 208 230
246108.13171387 3357406.28253174 14.92988014 205 235 245
246108.09289551 3357404.55157471 15.46416187 239 239 247
246108.11462402 3357404.91781616 15.85119915 207 225 237
246108.18115234 3357410.09112549 15.18064690 219 225 239
246108.11572266 3357406.26727295 15.55856609 223 237 240
246108.08032227 3357405.25622559 17.24939346 195 220 240
246108.14465332 3357409.79013062 15.39778709 242 246 255
246108.10156250 3357406.39172363 17.22403336 160 197 216
246108.11706543 3357406.61325073 17.45510292 151 206 237
246108.10229492 3357407.17678833 16.74214745 197 226 232
246108.04248047 3357404.85391235 14.63743019 70 70 70
246108.14697266 3357408.56588745 16.60659409 173 222 229
246108.08789063 3357405.80026245 16.91807365 210 224 233
246107.92517090 3357404.56829834 14.66656685 89 92 97
246108.15942383 3357408.31219482 14.93990135 191 230 245
246108.11901855 3357407.28677368 16.34245110 208 229 234
246108.12719727 3357408.08728027 17.05656624 207 235 247
246108.13354492 3357407.36999512 17.32051086 170 225 246
246108.14270020 3357408.05477905 17.12401390 189 226 244
246108.12390137 3357406.65151978 15.75530910 223 234 236
246108.08679199 3357403.91799927 15.62299633 246 251 255
246108.31530762 3357403.70080566 14.89881134 95 96 100
246107.85034180 3357406.23513794 14.62082291 90 91 96
246108.10046387 3357405.11962891 15.54647732 215 238 246
246108.35156250 3357403.68695068 14.86877441 83 84 86
246108.10009766 3357407.11050415 16.89858818 181 220 237
246108.13427734 3357407.56527710 15.09801483 204 230 231
246108.10229492 3357405.70510864 17.14251518 192 215 231
246108.11535645 3357405.61767578 15.60528851 220 241 244
246108.13220215 3357408.56628418 15.16730022 198 243 246
246108.10510254 3357406.27416992 15.92876816 208 216 229
246108.13452148 3357407.27645874 15.40822983 186 197 203
246108.11340332 3357407.50570679 16.97362518 222 233 237
246108.11596680 3357405.26571655 16.29033470 189 229 237
246108.09704590 3357405.27673340 16.65115166 194 226 249
246108.12023926 3357406.21697998 15.32687473 224 235 241
246108.08459473 3357405.37423706 17.27176666 184 219 241
246107.93981934 3357405.42425537 14.62005424 90 91 93
246107.91882324 3357410.01068115 14.61576843 103 101 104
246108.12500000 3357407.15249634 16.04958916 205 219 228
246108.11718750 3357405.90603638 15.17041588 182 206 216
246108.12597656 3357408.17028809 16.87235641 226 249 255
246108.13879395 3357408.47747803 16.44376755 216 247 250
246108.07543945 3357404.02252197 16.21417999 231 240 247
246108.11547852 3357405.74938965 15.43859386 204 228 232
246108.08435059 3357405.40600586 17.32571030 182 217 239
246108.10913086 3357405.23547363 15.84349823 197 214 234
246108.12585449 3357406.43572998 15.43866920 223 232 239
246108.12963867 3357407.88284302 16.53323555 214 239 243
246108.02734375 3357410.22140503 14.60714912 103 102 107
246108.08850098 3357403.89337158 17.44292831 159 209 236
246108.12280273 3357406.67239380 15.80011082 218 232 233
246107.93273926 3357410.27865601 14.61756516 105 107 106
246108.09619141 3357406.37207031 17.14999580 172 203 221
246108.10607910 3357406.83038330 16.44314957 207 230 238
246108.11596680 3357405.65817261 15.23580647 188 210 224
246108.12524414 3357405.86050415 15.03975296 201 228 237
246108.12744141 3357407.29412842 16.11036682 176 196 207
246108.10424805 3357405.61926270 16.47696114 187 218 239
246107.87512207 3357403.60092163 14.69688034 87 91 94
246108.09545898 3357408.88571167 14.61982632 130 135 131
246108.11938477 3357405.25152588 15.27036095 206 218 232
246107.91760254 3357406.10150146 14.61082840 89 92 99
246108.10290527 3357406.04699707 15.68078613 224 234 244
246108.10083008 3357406.39062500 16.30489159 215 227 239
246108.15039063 3357408.61407471 16.89229393 163 216 230
246108.15295410 3357409.85040283 16.44320679 241 253 251
246108.08935547 3357405.15658569 16.95720482 204 217 234
246108.12963867 3357408.06860352 16.69492340 187 221 231
246108.12756348 3357407.97131348 16.66701508 194 231 240
246108.12182617 3357406.16287231 15.14544964 198 222 234
246108.14343262 3357408.31536865 15.44735146 195 233 242
246108.11767578 3357405.16629028 15.43970108 203 219 235
246108.07617188 3357404.00106812 16.35972404 211 243 255
246108.09460449 3357405.38845825 16.69540596 194 225 246
246108.13903809 3357408.21966553 17.21180916 204 234 245
246108.13391113 3357408.44229126 16.26847649 214 238 248
246108.10412598 3357405.81439209 15.66352177 218 237 243
246108.15795898 3357409.92459106 15.45083714 244 242 253
246108.09497070 3357405.06808472 17.33488655 218 224 240
246108.10559082 3357405.84420776 17.23904800 216 233 243
246108.10705566 3357404.53088379 16.38616943 201 164 171
246108.10937500 3357405.31869507 16.43411636 185 222 238
246107.99414063 3357404.79913330 14.64024258 88 86 89
246108.11669922 3357406.65530396 17.48765755 146 203 232
246108.09741211 3357404.58609009 16.41537094 197 166 161
246108.08068848 3357404.42086792 15.15209961 93 88 108
246108.11035156 3357404.60748291 15.32063580 201 205 217
246108.09497070 3357404.35757446 15.09439278 151 153 166
246108.13574219 3357407.75802612 16.25753212 206 229 237
246108.09362793 3357404.01193237 17.32334137 187 219 234
246108.13537598 3357408.19998169 16.31237984 219 247 250
246108.09765625 3357405.60885620 17.24797821 187 224 243
246108.16442871 3357409.89047241 16.63344383 132 145 179
246108.13305664 3357407.48663330 15.77054024 199 216 223
246108.13208008 3357408.60186768 15.57754898 178 236 237
246108.12561035 3357408.02078247 16.76590919 180 220 230
246108.11181641 3357404.65029907 15.67078781 229 239 248
246108.11975098 3357405.19711304 15.28128719 208 220 234
246107.93420410 3357404.67837524 14.65004921 83 84 88
246108.07324219 3357404.30950928 16.25236893 199 114 111
246108.11413574 3357405.45776367 15.48003578 195 212 230
246107.85083008 3357409.29296875 14.60305977 112 112 110
246107.94812012 3357404.66616821 14.64757824 83 84 88
246108.16589355 3357409.01617432 15.05759430 194 216 227
246108.13330078 3357408.44525146 16.34005928 218 241 247
246108.11767578 3357407.46530151 16.52187538 208 232 234
