245739.45452881 3357385.84405518 18.26028252 119 126 85
245739.19403076 3357387.12777710 19.73115349 178 178 178
245740.24426270 3357386.08480835 18.59980011 213 214 216
245736.56671143 3357387.67919922 19.17071915 17 27 18
245740.23120117 3357386.08056641 19.12755966 176 177 182
245736.75219727 3357387.02264404 19.90828705 178 177 173
245739.64489746 3357386.13479614 19.49350166 219 220 225
245736.60809326 3357387.56250000 19.41850090 95 111 111
245737.48486328 3357386.17172241 19.21274185 166 167 169
245740.35034180 3357386.51568604 19.69584084 169 171 168
245734.77264404 3357386.37814331 19.31354141 221 223 218
245735.54248047 3357386.66796875 19.93503952 217 213 210
245735.05865479 3357387.30783081 19.81394577 211 211 203
245734.35052490 3357387.03448486 19.11913681 24 25 19
245737.69274902 3357387.28332520 19.84692001 213 215 212
245740.15655518 3357387.36013794 19.55598831 109 114 118
245739.87322998 3357386.07287598 19.32927132 213 214 218
245740.01837158 3357386.45953369 19.71100616 147 141 141
245737.40734863 3357386.43338013 19.77408981 235 235 233
245737.41003418 3357387.51181030 19.46972275 98 112 113
245736.05780029 3357386.22048950 18.78362656 231 235 236
245738.35937500 3357387.18136597 19.79914284 174 174 172
245735.49096680 3357387.31460571 19.94972420 235 228 222
245740.07751465 3357386.07980347 18.63099861 210 211 215
245736.28332520 3357387.48141479 19.84278297 205 211 211
245739.71459961 3357386.38116455 19.72485733 196 196 196
245739.80114746 3357387.30972290 19.69465065 216 220 219
245736.31024170 3357386.26800537 19.62149239 230 231 235
245734.28503418 3357387.27606201 19.10504532 24 31 0
245740.61718750 3357386.11669922 19.09951591 218 219 224
245738.00457764 3357386.13079834 19.01101685 217 221 222
245737.57641602 3357386.26867676 19.59998703 223 224 226
245738.80902100 3357387.08950806 19.76939583 175 177 176
245736.65814209 3357386.02142334 18.29341698 106 114 65
245734.57910156 3357387.25311279 19.25965691 2 2 4
245736.12103271 3357386.73699951 19.91279984 196 187 180
245740.05987549 3357386.06250000 19.19075966 213 214 219
245737.61743164 3357386.15563965 18.86433220 207 211 210
245735.56439209 3357386.27941895 19.38751030 224 225 227
245736.52264404 3357386.20489502 18.68581963 211 214 219
245736.00903320 3357386.39559937 19.85198593 230 226 223
245738.22216797 3357387.39688110 19.72889900 178 179 181
245738.22656250 3357386.57043457 19.81526947 150 149 147
245735.52111816 3357386.05148315 18.31265640 99 109 49
245740.97875977 3357386.89419556 19.30385590 81 82 87
245739.45629883 3357385.84863281 18.26004601 119 126 85
245738.41241455 3357386.14715576 19.19976044 225 229 232
245738.74578857 3357386.77548218 19.77726173 179 179 179
245740.97479248 3357386.68063354 19.37587166 115 120 124
245736.33294678 3357387.50268555 19.81640816 138 146 148
245740.26745605 3357387.36529541 19.30985832 96 110 111
245736.00518799 3357386.23483276 19.13695717 228 229 231
245740.65374756 3357387.01699829 19.68581581 157 158 153
245740.25030518 3357386.49786377 19.70040703 152 151 149
245738.74639893 3357387.52407837 19.20886230 47 57 56
245735.33868408 3357387.62829590 19.42461777 121 131 133
245739.68841553 3357387.31539917 19.70281601 205 207 204
245739.75964355 3357387.38629150 19.50043106 93 107 108
245736.36553955 3357386.99392700 19.91904449 210 210 200
245737.52062988 3357387.33114624 19.87802887 214 216 211
245736.35473633 3357386.63558960 19.90704155 172 167 161
245736.00360107 3357387.59002686 19.45275497 96 111 116
245741.07452393 3357386.08413696 18.63204575 86 91 94
245739.45916748 3357386.14706421 19.48198700 223 222 227
245740.45355225 3357386.09078979 18.55457687 220 222 221
245736.63751221 3357387.55447388 19.38799667 93 109 109
245736.67639160 3357387.47100830 19.81217766 186 192 192
245737.09301758 3357387.57888794 19.25233841 49 63 66
245738.72558594 3357387.20132446 19.77178764 188 187 185
245736.37939453 3357386.21435547 18.69066048 226 230 231
245735.01519775 3357386.36636353 19.42136002 236 237 232
245737.87640381 3357386.54614258 19.82430649 207 207 209
245740.79455566 3357387.18954468 19.65027809 212 220 222
245737.34851074 3357386.25445557 19.56972504 218 219 221
245739.05786133 3357386.96328735 19.75920105 185 187 186
245736.41430664 3357386.20773315 18.76976204 217 223 223
245737.89776611 3357386.16537476 19.29058456 229 233 234
245736.81243896 3357386.08175659 18.33117104 126 134 95
245736.82641602 3357387.13021851 19.90894318 187 186 182
245736.15185547 3357386.28176880 19.64699173 229 231 230
245739.78735352 3357386.35919189 19.72139931 194 194 194
245738.60522461 3357386.14328003 19.17574501 220 221 225
245737.93115234 3357387.46530151 19.50527000 70 80 81
245740.39892578 3357386.05633545 18.41594696 221 223 220
245738.51416016 3357386.38436890 19.80160904 159 157 162
245740.90521240 3357387.26092529 19.41190529 76 86 95
245736.66784668 3357387.26174927 19.91973877 211 213 210
245734.75427246 3357387.18789673 19.78186607 217 213 210
245738.10723877 3357386.95278931 19.82337570 192 192 190
245735.71313477 3357386.74639893 19.93623734 183 178 174
245738.88598633 3357386.17788696 19.61530495 209 210 214
245734.46655273 3357387.42742920 19.10017776 15 16 8
245735.14587402 3357386.29031372 19.18926048 229 229 229
245735.11218262 3357386.67419434 19.87892342 241 240 236
245740.50769043 3357386.09121704 18.47921562 219 221 220
245735.73040771 3357387.59442139 19.67644691 140 148 150
245737.24200439 3357386.21502686 19.37583923 211 212 214
245734.30804443 3357386.30523682 19.02980042 81 88 57
245739.99761963 3357386.91278076 19.71463013 156 153 148
245738.63433838 3357387.30233765 19.77635574 214 214 214
245736.76190186 3357387.19760132 19.91380501 187 187 185
245740.96002197 3357386.50955200 19.35111427 104 109 115
245737.06994629 3357386.18386841 18.81394196 239 245 245
245735.93652344 3357387.59811401 19.55226326 86 101 106
245736.28204346 3357386.20303345 18.86349678 225 226 231
245736.55053711 3357386.74676514 19.90852928 202 197 194
245737.68511963 3357386.16006470 19.17239761 205 209 210
245737.07171631 3357387.65716553 19.21719551 20 25 21
245735.80285645 3357387.61145020 19.48574638 101 115 118
245737.08782959 3357387.10586548 19.89311409 197 194 187
245735.73187256 3357387.26098633 19.95899391 200 196 187
245736.59558105 3357386.05850220 18.32386971 99 106 64
245735.87829590 3357386.26919556 19.30835915 173 174 176
245740.99035645 3357386.66842651 19.20662880 108 117 124
245739.55456543 3357386.07061768 18.79282379 229 230 235
245737.67370605 3357386.06640625 18.30608177 67 73 37
245738.35595703 3357387.10839844 19.80025101 196 196 194
245738.20092773 3357386.05166626 18.40333557 87 96 49
245737.28143311 3357387.48013306 19.78382492 167 177 178
245737.21270752 3357387.51571655 19.50832748 97 112 115
245739.37731934 3357386.07446289 18.45084953 228 226 227
245736.18585205 3357386.99349976 19.92457199 199 196 189
245739.66223145 3357386.84011841 19.73006058 201 200 198
245734.48754883 3357386.45013428 19.16592216 230 235 229
245739.25354004 3357386.12832642 19.30524445 215 218 223
245735.11682129 3357386.89767456 19.95000839 190 189 184
245737.28759766 3357386.28182983 19.70009041 185 186 188
245736.48474121 3357386.18493652 19.10657120 214 217 222
245736.98352051 3357386.17077637 18.53231049 226 230 231
245735.35571289 3357386.41604614 19.77462387 246 248 243
245734.98541260 3357386.59381104 19.79681206 240 241 236
245735.32696533 3357386.57766724 19.89034081 231 230 226
245735.17175293 3357387.60424805 19.37117577 180 187 180
245736.25744629 3357386.67282104 19.90548706 196 187 180
245740.53759766 3357386.44696045 19.65081406 172 172 174
245738.93530273 3357386.17337036 19.60850906 218 219 223
245734.57995605 3357387.20294189 19.34795189 91 92 96
245740.55706787 3357385.90240479 18.26632309 97 111 58
245740.16027832 3357386.11831665 19.48424721 228 229 234
245736.76928711 3357387.58129883 19.22451401 64 76 76
245738.21673584 3357386.13891602 19.12288094 211 215 216
245734.57189941 3357387.09332275 19.57698059 236 236 234
245735.59509277 3357387.36227417 19.94521332 223 223 223
245735.13079834 3357386.14135742 18.34485245 74 84 34
245739.09246826 3357387.11892700 19.75197029 192 194 193
245739.76947021 3357386.14572144 19.58406830 197 198 200
245736.79754639 3357386.18881226 18.71194839 183 187 188
245735.70428467 3357386.50979614 19.90550995 209 208 204
245737.67541504 3357385.90484619 18.20636177 94 102 53
245734.57562256 3357386.58547974 19.44777870 248 248 246
245734.86395264 3357387.38610840 19.64777565 139 149 150
245740.39575195 3357385.96365356 18.30577087 134 142 103
245736.45117188 3357387.57037354 19.32173347 96 109 115
245737.47454834 3357387.50881958 19.72145462 121 135 135
245735.73284912 3357386.30010986 19.58977318 203 203 201
245738.91375732 3357386.13479614 19.36806488 220 221 226
245735.54663086 3357386.98361206 19.95001602 187 184 177
245737.22741699 3357386.24450684 19.59353256 232 233 235
245735.01574707 3357387.52612305 19.18944740 39 51 31
245737.70294189 3357386.23001099 19.54079056 214 215 217
245737.64288330 3357387.49499512 19.52441597 93 107 110
245740.58929443 3357386.06991577 18.44038200 221 223 220
245738.18621826 3357386.10568237 18.59427834 214 219 215
245736.31134033 3357386.20553589 19.13412476 231 235 238
245740.56542969 3357386.06823730 18.43440437 226 228 223
245738.65112305 3357386.76672363 19.78484535 173 173 173
245735.14990234 3357387.11712646 19.93842125 213 210 201
245735.48156738 3357387.33087158 19.94707489 233 226 220
245735.56781006 3357387.62789917 19.44413948 85 99 102
245735.59906006 3357386.24047852 18.88096809 211 213 212
245738.83746338 3357386.09179688 18.41875076 230 229 234
245738.59094238 3357386.12039185 18.68454933 221 222 227
245740.32000732 3357386.12390137 19.37245560 227 227 235
245741.19213867 3357386.23947144 18.65997505 12 18 18
245739.87762451 3357386.97561646 19.72069740 157 153 150
245736.70440674 3357385.95315552 18.25796700 110 123 67
245740.99896240 3357387.07217407 19.10691452 114 121 129
245736.40020752 3357386.80618286 19.90827751 201 197 194
245740.56719971 3357387.32815552 19.61029243 197 206 211
245739.40826416 3357387.25787354 19.73129463 215 210 204
245736.68463135 3357387.12145996 19.91432953 190 189 185
245739.17089844 3357387.39859009 19.56892204 110 114 115
245738.85522461 3357386.73602295 19.77237701 181 183 182
245737.41101074 3357386.17266846 19.19716454 215 219 220
245736.83428955 3357387.54711914 19.66778374 140 152 152
245738.45092773 3357387.44760132 19.58899879 109 121 121
245736.37438965 3357386.78536987 19.90794373 206 202 199
245737.75018311 3357387.17489624 19.84809303 208 210 207
245735.00610352 3357386.34948730 19.34197807 222 223 217
245737.82128906 3357387.56842041 19.20644951 15 27 23
245739.59460449 3357386.15536499 19.58477211 218 217 222
245737.52905273 3357386.78512573 19.86311340 191 190 188
245737.28778076 3357386.18045044 19.21855545 180 182 179
245738.03588867 3357386.77572632 19.83071136 174 174 174
245736.74304199 3357386.60760498 19.92835236 212 212 212
245737.91729736 3357386.09054565 18.40492249 157 160 139
245739.36657715 3357386.06915283 18.42791176 228 226 227
245735.57507324 3357386.32907104 19.67945862 225 225 225
245739.32403564 3357387.39584351 19.47832298 104 115 117
245734.90319824 3357386.32107544 19.15426064 222 224 219
245735.50939941 3357387.63732910 19.38512039 83 98 103
245734.89483643 3357386.30410767 18.99658203 220 222 217
245736.86517334 3357386.18283081 18.68788719 223 227 230
245740.47869873 3357386.21362305 19.54022789 219 220 222
245737.12463379 3357386.18765259 19.10212898 217 221 222
245739.41754150 3357386.17330933 19.62553787 227 228 232
245737.51989746 3357386.01657104 18.27079964 111 121 71
245737.83380127 3357387.47100830 19.47943306 90 101 103
245740.89367676 3357386.48818970 19.51869392 78 79 81
245737.62109375 3357385.85806274 18.18287468 97 99 52
245739.39392090 3357386.14431763 19.44013977 224 225 230
245736.24737549 3357386.22909546 18.51004028 216 218 217
245734.70275879 3357386.96139526 19.87553596 237 239 238
245737.19665527 3357387.51690674 19.52191925 95 110 113
245734.77789307 3357387.01812744 19.90032768 223 224 226
245738.06286621 3357386.50088501 19.82588196 184 183 181
245737.73522949 3357386.14727783 18.86778641 207 211 210
245735.94085693 3357386.63735962 19.91546440 193 186 180
245738.79632568 3357386.10443115 18.41595840 230 229 234
245740.43359375 3357387.46804810 19.10762978 7 20 13
245735.04473877 3357387.53128052 19.35916328 147 154 147
245736.04516602 3357387.24801636 19.94495773 215 214 209
245739.23217773 3357386.08999634 18.59615517 214 214 222
245736.17010498 3357385.96914673 18.24987793 111 122 66
245740.26354980 3357385.92825317 18.25315094 93 101 60
245739.00860596 3357387.48416138 19.17633247 18 24 24
245737.60852051 3357387.00732422 19.86602211 190 190 188
245740.10467529 3357386.35183716 19.70674896 170 166 165
245738.99523926 3357385.89019775 18.25090027 103 110 68
245740.36932373 3357386.00961304 18.35344696 103 107 82
245735.90258789 3357387.60223389 19.43201256 89 106 113
245735.93005371 3357387.24688721 19.94978142 216 213 208
245739.41534424 3357387.44454956 19.17944527 32 51 49
245735.90319824 3357386.64562988 19.91852570 193 186 180
245734.72796631 3357386.39712524 19.39090347 238 238 238
245738.80572510 3357386.18231201 19.59988594 222 223 227
245737.01367188 3357387.28366089 19.90284157 211 210 205
245739.89306641 3357386.04376221 19.21374893 210 211 215
245738.38989258 3357386.90078735 19.80053139 177 177 177
245737.94531250 3357386.17135620 19.36060905 234 238 239
245735.59796143 3357386.24038696 18.90530586 212 214 213
245739.31115723 3357387.50869751 19.16183472 12 25 18
245739.97381592 3357386.07373047 19.33995247 221 222 226
245740.27508545 3357386.39816284 19.69900703 153 152 150
245737.35913086 3357386.17614746 19.21177864 223 227 228
245740.16217041 3357386.24111938 19.70336151 211 209 212
245739.00982666 3357386.67703247 19.76440048 186 186 188
245738.97979736 3357386.58105469 19.76415062 192 190 191
245738.72387695 3357387.19131470 19.77201653 188 187 185
245740.54156494 3357386.22518921 19.51460457 225 226 228
245735.97637939 3357386.15481567 18.39631844 138 141 112
245738.55792236 3357386.23403931 19.68709564 199 200 204
245739.47460938 3357386.11804199 19.32057762 226 227 232
245736.90661621 3357386.82125854 19.89716911 198 197 195
245737.55987549 3357387.58016968 19.25117874 14 24 16
245736.73663330 3357386.20123291 18.74465370 138 139 143
245741.08325195 3357386.01501465 18.51488876 30 41 35
245739.00726318 3357386.17343140 19.60408974 227 228 233
245735.37176514 3357386.26983643 19.27119255 228 232 233
245740.42150879 3357386.13043213 19.30086327 213 213 221
245738.38220215 3357386.14608765 18.65716743 197 199 198
245736.75946045 3357386.18154907 18.53975296 203 205 202
245740.44891357 3357386.10617065 18.98170280 221 221 229
245740.55139160 3357386.74725342 19.69061089 161 160 158
245734.71191406 3357387.14218140 19.76580429 164 166 163
245740.27197266 3357386.09039307 18.71892738 220 221 225
245735.95037842 3357386.74182129 19.92031860 165 158 150
245736.16961670 3357386.94787598 19.92267799 208 204 195
245736.02185059 3357386.32278442 19.75008583 220 220 218
245736.95269775 3357387.10839844 19.90101242 203 202 198
245735.12493896 3357387.57580566 19.38456726 207 212 208
245736.42254639 3357387.57034302 19.35287285 99 114 119
245739.95147705 3357386.58520508 19.71485138 149 145 142
245740.51885986 3357386.56091309 19.67344475 161 159 160
245738.66564941 3357386.27786255 19.74391747 171 172 174
245734.78887939 3357386.38446045 19.36211014 229 231 228
245735.14245605 3357387.58895874 19.36228180 231 237 233
245738.04278564 3357386.92736816 19.82943535 184 184 182
245741.22009277 3357386.02548218 18.60049057 16 34 22
245740.14562988 3357387.36102295 19.46957397 92 100 103
245737.11791992 3357386.21444702 19.46752930 228 229 231
245739.47351074 3357387.39321899 19.53188515 107 121 124
245738.31616211 3357387.38958740 19.72343636 195 199 202
245739.65374756 3357387.03439331 19.73160934 212 206 206
245736.60809326 3357386.22525024 19.31653976 215 216 221
245738.80804443 3357386.11764526 19.11788750 234 235 240
245739.37817383 3357386.10656738 18.85470009 220 220 228
245736.15521240 3357387.49337769 19.84554863 190 196 196
245739.36743164 3357386.09692383 19.13989830 214 211 218
245738.23895264 3357386.10305786 18.53298569 216 223 215
245736.72241211 3357387.03826904 19.91000938 167 163 160
245735.16607666 3357387.47879028 19.66082001 124 129 125
245740.36981201 3357387.35009766 19.46485519 94 108 109
245738.05126953 3357387.46307373 19.54131508 88 100 100
245736.93200684 3357386.17144775 18.52200127 227 231 230
245737.02416992 3357387.00790405 19.89456940 177 176 171
245737.44720459 3357386.25173950 19.52202797 221 222 224
245740.13940430 3357386.14758301 19.62174416 207 208 213
245737.70495605 3357385.96078491 18.23537064 112 120 69
245738.71319580 3357386.13442993 19.20290375 212 213 217
245738.35150146 3357387.22442627 19.79967117 183 183 181
245738.99816895 3357386.77209473 19.76491928 202 204 203
245738.58709717 3357385.86788940 18.22638512 90 104 53
245734.58953857 3357386.66177368 19.49885941 249 249 249
245736.66748047 3357386.69900513 19.91921425 210 209 207
245734.66174316 3357387.32391357 19.18986511 29 31 17
245737.30566406 3357385.87991333 18.21002197 75 85 32
245738.05041504 3357387.13412476 19.80754852 210 212 211
245739.37744141 3357387.41497803 19.22470284 105 121 120
245735.19128418 3357387.45339966 19.72990608 121 126 122
245736.50042725 3357387.24511719 19.92588806 218 219 214
245739.52935791 3357386.07617188 19.05279922 229 230 235
245739.85772705 3357387.05065918 19.72209167 179 174 170
245735.43353271 3357386.43310547 19.82394600 226 227 221
245738.03790283 3357386.35385132 19.78605461 203 204 206
245740.86981201 3357387.28958130 19.30403328 91 101 111
245736.92102051 3357387.70660400 19.19026566 20 25 18
245737.62841797 3357387.14739990 19.87001991 207 203 202
245735.64599609 3357386.77413940 19.93855858 199 194 190
245739.29541016 3357386.09521484 18.65495110 209 210 215
245737.77276611 3357386.14373779 18.64904213 214 219 215
245741.00146484 3357386.84255981 19.06222725 126 136 148
245738.98846436 3357386.09262085 18.40304184 229 228 234
245735.19299316 3357386.27227783 18.62448692 224 224 224
245738.06060791 3357386.71307373 19.82869339 165 165 165
245739.81799316 3357387.37570190 19.51804924 88 98 99
245739.79602051 3357386.09326172 19.39028168 222 223 227
245737.03710938 3357385.92724609 18.22845459 88 100 50
245735.41754150 3357386.83145142 19.94468689 172 171 166
245736.27502441 3357386.22543335 18.55617142 223 224 226
245740.94110107 3357386.19525146 19.09420395 175 180 184
245740.80767822 3357386.09082031 18.93452835 226 227 232
245734.94982910 3357386.44812012 19.63645554 237 239 234
245739.39471436 3357386.09475708 18.94430733 227 228 233
245734.26470947 3357386.66345215 19.10844803 92 100 59
245735.00128174 3357386.35238647 19.35092545 222 223 217
245734.99450684 3357387.50317383 19.33252144 102 112 101
245736.33355713 3357386.93005371 19.91665268 204 204 196
245737.73553467 3357387.49972534 19.35277367 75 89 92
245734.70703125 3357387.34912109 19.27066422 41 49 26
245740.57971191 3357387.32589722 19.62096024 203 214 218
245736.97912598 3357386.17636108 18.62537003 230 234 237
245735.04333496 3357386.81326294 19.92729950 199 200 195
245734.51470947 3357387.11859131 19.31144905 101 102 104
245738.65283203 3357387.44604492 19.47842979 104 118 119
245736.12048340 3357387.36505127 19.89749718 205 205 203
245736.43530273 3357385.94442749 18.24918938 136 148 100
245738.59948730 3357386.28182983 19.74480820 177 179 178
245740.56347656 3357387.34631348 19.36642838 94 108 117
245740.23388672 3357386.41326904 19.70094681 147 146 144
245738.55889893 3357387.47119141 19.30483437 102 120 122
245739.99450684 3357386.19247437 19.67856979 190 191 193
245735.92053223 3357386.29171753 19.58952141 221 219 220
245739.14544678 3357386.59417725 19.74970436 177 178 180
245735.38159180 3357387.59463501 19.61441803 175 180 183
245738.11688232 3357387.46664429 19.48422432 98 109 111
245735.13824463 3357387.10763550 19.93890572 214 211 202
245738.95452881 3357387.36801147 19.70898247 210 214 215
245741.01934814 3357386.32931519 18.93514633 76 80 89
245738.45739746 3357386.14413452 18.71996498 226 228 227
245740.78143311 3357386.53903198 19.62042618 178 178 180
245737.27105713 3357386.18103027 19.06585884 211 213 212
245737.49981689 3357387.35427856 19.87823296 210 213 206
245739.14617920 3357387.26586914 19.71609879 117 116 114
245737.79241943 3357386.20150757 19.49234581 227 231 232
245737.55877686 3357386.73538208 19.85480690 198 198 196
245735.27801514 3357387.59796143 19.57061195 193 193 193
245739.26312256 3357386.09945679 18.76062012 207 206 214
245739.15930176 3357386.15594482 19.47562218 214 217 224
245734.37664795 3357386.67837524 19.12530708 71 76 53
245739.63293457 3357387.39672852 19.36146545 101 119 121
245737.23986816 3357386.22952271 19.47900200 230 234 235
245740.43688965 3357386.55349731 19.69194794 169 169 167
245736.12066650 3357386.31649780 19.74128914 227 227 225
245736.98681641 3357386.21835327 19.43158150 229 230 232
245740.79510498 3357386.23883057 19.40044022 238 241 246
245738.82037354 3357386.24420166 19.72936630 182 181 186
245738.95825195 3357386.76663208 19.76693535 201 203 202
245739.26684570 3357386.96673584 19.74918938 186 186 184
245740.84777832 3357386.49331665 19.58358192 164 165 169
245740.07012939 3357386.07250977 18.83796883 200 201 205
245737.80017090 3357387.12136841 19.84400749 212 214 209
245740.47003174 3357386.10275269 18.87185860 222 223 228
245736.17919922 3357386.94369507 19.92203522 208 204 195
245739.45159912 3357387.40972900 19.26123238 106 124 126
245734.66278076 3357386.99353027 19.78432274 248 248 248
245735.79345703 3357387.74966431 19.22099876 24 31 23
245735.21270752 3357387.56057739 19.58358383 159 156 151
245740.13897705 3357387.36117554 19.50549126 96 104 107
245736.26245117 3357386.22213745 18.60173035 223 224 226
245739.24578857 3357386.33746338 19.74289703 167 165 166
245734.52893066 3357387.05181885 19.42259598 241 242 244
245736.03729248 3357386.25042725 19.25804138 228 229 233
245735.92303467 3357386.35012817 19.78889656 230 229 227
245736.66259766 3357387.56533813 19.65056229 84 95 97
245739.54327393 3357386.07122803 18.84358025 232 233 238
245737.62866211 3357386.48629761 19.75969505 240 240 238
245738.48809814 3357387.11312866 19.79128265 196 195 193
245738.36218262 3357387.14288330 19.79942322 182 182 180
245734.62872314 3357386.80514526 19.62983131 246 246 244
245739.54986572 3357386.83773804 19.73526955 193 193 193
245737.64825439 3357386.17034912 19.25376892 206 210 213
245740.19244385 3357386.14398193 19.58979988 219 220 224
245738.41857910 3357387.44522095 19.63117027 130 140 142
245738.78582764 3357387.39422607 19.71173096 225 231 227
245738.66412354 3357386.11251831 18.47310638 211 214 219
245736.34722900 3357387.57083130 19.71414948 120 134 135
245737.02716064 3357385.99050903 18.26430702 112 121 74
245740.98486328 3357386.92712402 19.39626694 109 112 117
245736.89813232 3357385.88226318 18.22206879 79 93 42
245736.56170654 3357387.56808472 19.33928108 87 101 102
245736.36297607 3357386.22763062 19.35322762 223 227 230
245740.03906250 3357387.37124634 19.47473717 106 116 117
245734.20739746 3357387.25988770 19.10773849 93 105 57
245736.72576904 3357386.23614502 19.34645653 201 202 207
245735.43267822 3357386.25445557 18.79127693 219 219 219
245736.49194336 3357386.65274048 19.91460419 209 204 201
245737.93817139 3357386.23074341 19.62789536 216 217 221
245736.00030518 3357386.28802490 19.57772827 221 223 222
245737.08776855 3357387.23062134 19.89781761 204 201 196
245738.55908203 3357387.44689941 19.52869034 100 114 114
245739.17236328 3357386.05426025 18.40295410 222 218 217
245738.50738525 3357386.13687134 18.76296997 229 230 232
245738.43939209 3357386.98242188 19.79628754 190 190 190
245736.32263184 3357386.08489990 18.33387756 101 110 57
245740.43536377 3357387.44439697 19.12639427 11 23 19
245739.97766113 3357386.90756226 19.71554565 155 152 147
245737.16809082 3357386.46292114 19.85015678 190 190 188
245736.06451416 3357387.58270264 19.54615974 92 103 105
245736.68585205 3357386.81423950 19.91056252 163 162 158
245736.60601807 3357387.56875610 19.52833939 92 108 108
245737.33959961 3357386.71374512 19.87394905 208 208 206
245740.37127686 3357387.34997559 19.47627449 94 108 109
245736.13037109 3357386.21279907 18.95693398 222 226 227
245736.62585449 3357386.73443604 19.91501427 190 186 183
245735.03881836 3357386.28967285 18.70009804 223 225 220
245736.94354248 3357387.54183960 19.64936447 102 116 117
245739.58520508 3357387.45681763 19.18567848 23 40 34
245736.69378662 3357386.20147705 18.65876770 221 225 228
245736.06683350 3357387.69232178 19.21928406 14 24 16
245736.76635742 3357387.53106689 19.38839912 91 105 108
245735.86804199 3357386.56365967 19.91744041 202 197 191
245734.24920654 3357386.84127808 19.10936356 81 94 51
245736.83294678 3357386.20800781 19.04819679 232 235 244
245738.15063477 3357386.11932373 18.87663651 214 218 217
245737.33721924 3357385.86926270 18.20434570 69 76 25
245737.98925781 3357386.10363770 18.47300911 213 218 211
245738.73065186 3357387.14230347 19.77241325 188 186 187
245740.62432861 3357386.25897217 19.53787994 226 227 232
245737.10156250 3357386.37023926 19.83711624 200 202 201
245735.34875488 3357386.26766968 19.24926376 234 238 239
245739.64459229 3357386.85223389 19.73094940 199 199 199
245739.68444824 3357386.25607300 19.70468330 159 159 159
245738.15734863 3357386.45544434 19.82121468 169 167 168
245740.33215332 3357386.78930664 19.69803238 178 177 173
245740.34313965 3357386.13098145 19.40170479 232 232 240
245740.40997314 3357387.17221069 19.70889854 205 200 194
245737.11816406 3357387.40127563 19.87140083 217 216 212
245735.39123535 3357386.97903442 19.95211029 180 177 170
245738.52343750 3357386.90991211 19.79163742 171 171 171
245734.98474121 3357386.32144165 19.21183586 219 220 215
245736.79150391 3357387.03500366 19.90712929 177 176 172
245738.97460938 3357386.53109741 19.76296425 166 164 165
245739.72235107 3357387.50173950 19.17947769 2 11 6
245740.17559814 3357387.46600342 19.16601753 10 22 18
245734.72100830 3357387.47821045 19.06547928 18 28 4
245739.03826904 3357386.81140137 19.76239586 199 201 200
245735.53265381 3357386.43820190 19.84541893 221 222 216
245740.07806396 3357386.43365479 19.70818710 148 144 145
245738.05139160 3357387.57550049 19.19047928 14 25 19
245736.93621826 3357387.29547119 19.90962601 198 197 193
245738.30340576 3357385.84185791 18.20094872 83 87 37
245738.44952393 3357387.32217407 19.77923775 192 194 193
245739.11828613 3357386.15661621 19.48849297 207 210 215
245738.09112549 3357387.11715698 19.81221962 210 212 211
245741.01184082 3357386.50491333 18.99354172 78 88 90
245737.23266602 3357385.83886719 18.18419838 77 87 37
245738.87457275 3357386.17892456 19.61694145 203 202 207
245737.32482910 3357387.68414307 19.18040276 19 27 16
245734.59741211 3357386.35861206 19.07361221 220 223 216
245738.29833984 3357386.01354980 18.31645966 103 113 61
245739.77490234 3357386.62100220 19.72343826 195 194 192
245739.06518555 3357386.49548340 19.75261879 164 162 163
245740.46569824 3357386.30108643 19.64030457 219 220 224
245736.20458984 3357386.20666504 19.00825310 207 211 214
245739.12609863 3357386.11816406 19.27884102 192 197 203
245738.65472412 3357385.98574829 18.25800133 110 118 79
245736.24017334 3357387.12228394 19.92955971 194 191 184
245738.24365234 3357386.03247070 18.34906769 91 100 47
245738.54412842 3357386.41696167 19.80462456 134 132 135
245737.08422852 3357387.23315430 19.89813423 204 201 196
245737.44342041 3357387.53796387 19.28933907 52 67 64
245737.91491699 3357386.17300415 19.36545181 227 231 232
245739.33685303 3357386.92312622 19.74567604 186 185 183
245737.49584961 3357386.38354492 19.72772408 234 235 230
245740.43688965 3357385.85540771 18.24073219 105 122 68
245736.96221924 3357386.19235229 18.89016533 225 228 233
245736.12713623 3357386.21279907 18.97296524 222 226 227
245735.41619873 3357387.60775757 19.58335686 157 165 167
245736.94128418 3357386.53424072 19.91067696 215 215 215
245737.43029785 3357386.53845215 19.80637169 214 216 211
245739.26098633 3357386.04244995 18.33147240 186 178 167
245736.97833252 3357386.54837036 19.90392494 210 210 210
245735.88281250 3357386.48641968 19.90121841 210 207 202
245735.12322998 3357386.13925171 18.34368515 74 84 34
245738.00201416 3357386.22534180 19.63430595 226 227 231
245738.27648926 3357386.52630615 19.81252098 178 176 177
245737.68389893 3357386.97290039 19.85927200 175 174 170
245737.79760742 3357387.29284668 19.82313538 130 135 131
245739.72613525 3357386.05389404 19.02087402 205 206 211
245739.31970215 3357386.90673828 19.74637413 187 187 185
245740.97955322 3357386.97912598 19.48758888 104 109 112
245734.87377930 3357387.30560303 19.77064896 250 252 247
245734.71862793 3357387.33871460 19.50297737 109 113 114
245737.17889404 3357386.18826294 19.23550224 223 225 222
245740.22460938 3357386.08294678 18.56801224 219 220 224
245736.98822021 3357386.11962891 18.35248947 155 160 137
245737.67340088 3357386.90206909 19.85728073 182 181 177
245736.20935059 3357387.22528076 19.93670082 220 219 215
245736.71942139 3357387.63308716 19.18950653 6 16 8
245740.98107910 3357386.16677856 18.96373558 153 158 162
245736.05072021 3357386.23001099 18.51992607 226 226 226
245738.42816162 3357386.55535889 19.80219460 111 107 106
245741.03417969 3357387.00875854 19.02800179 72 82 84
245736.81280518 3357387.68124390 19.18550301 21 28 20
245738.52923584 3357387.10589600 19.78818893 191 190 188
245735.28094482 3357387.05557251 19.95358467 194 191 182
245738.22668457 3357387.56353760 19.15920258 19 30 24
245740.04681396 3357386.11453247 19.50111961 215 216 220
245734.40875244 3357386.32598877 18.99432755 85 88 77
245736.29406738 3357386.21817017 18.65138817 226 227 229
245740.59832764 3357387.34109497 19.41187668 92 107 114
245739.33929443 3357386.06317139 18.40464973 221 217 216
245739.14758301 3357386.61541748 19.74986839 171 171 173
245740.43322754 3357387.45733643 19.11355209 7 20 13
245736.87768555 3357387.54135132 19.60102844 95 109 109
245738.56762695 3357386.39791870 19.79797935 124 122 125
245735.88732910 3357386.31753540 19.72426796 221 220 218
245738.85754395 3357387.50955200 19.19029427 21 32 28
245735.88610840 3357386.28863525 19.41699982 218 219 221
245737.30438232 3357386.17495728 18.91455841 227 231 230
245735.19812012 3357387.02703857 19.95187950 180 180 170
245735.82971191 3357387.53958130 19.79812050 158 162 165
245739.29266357 3357386.96957397 19.74800682 195 194 192
245737.30261230 3357386.18734741 19.29506683 190 192 189
245736.32391357 3357387.26489258 19.92344475 202 201 199
245737.27313232 3357386.16989136 18.77711105 169 170 172
245737.40637207 3357386.17178345 19.15351677 218 222 223
245736.32409668 3357387.46371460 19.85068321 149 153 152
245737.36944580 3357386.67941284 19.87047577 211 211 211
245735.09887695 3357386.22479248 18.43533516 127 131 106
245736.56579590 3357386.02218628 18.29448509 90 98 49
245740.48144531 3357386.10986328 19.05871582 218 218 226
245736.43768311 3357386.23605347 19.42054558 231 232 237
245738.69897461 3357386.11221313 18.74329948 232 233 238
245738.39428711 3357386.14944458 18.78758430 220 221 225
245738.56726074 3357386.93826294 19.78827477 169 169 167
245740.12261963 3357385.97143555 18.26952553 87 93 57
245740.53216553 3357386.60009766 19.67741776 155 153 154
245738.93670654 3357386.31964111 19.75956726 161 159 160
245735.53253174 3357386.24301147 18.93446922 227 229 228
245735.61077881 3357387.03320313 19.95142365 189 185 176
245736.21466064 3357386.20895386 18.79161072 206 210 211
245740.43627930 3357385.91525269 18.26517868 125 139 90
245737.74560547 3357387.47869873 19.54910851 94 105 107
245737.09930420 3357387.38195801 19.87761688 213 214 208
245734.34954834 3357387.20669556 19.10637283 72 76 61
245734.37646484 3357386.46963501 19.09849548 94 98 81
245740.71862793 3357386.20657349 19.35513687 237 238 242
245738.53533936 3357387.34637451 19.78071213 213 217 218
245738.94946289 3357386.00833130 18.29583549 136 140 115
245738.21655273 3357387.17553711 19.80725479 219 221 220
245736.17730713 3357386.22534180 19.18090248 224 225 229
245738.37756348 3357387.45352173 19.56355667 103 114 116
245735.36614990 3357386.83438110 19.94559097 187 184 179
245738.73315430 3357387.56845093 19.16124344 13 25 15
245740.96081543 3357386.90573120 19.52981186 131 135 138
245734.48864746 3357386.93811035 19.36437607 238 240 239
245739.94067383 3357386.14410400 19.60738182 213 214 216
245735.25738525 3357386.34207153 19.61589622 228 229 224
245740.93029785 3357387.23016357 19.43260384 136 145 152
245740.98883057 3357386.25561523 19.00055695 79 82 89
245735.22918701 3357387.06185913 19.95256615 197 194 185
245738.21972656 3357386.12338257 18.73984337 213 217 220
245734.71771240 3357387.07394409 19.81912804 157 159 158
245737.06970215 3357386.18624878 18.89533424 243 248 251
245740.98114014 3357386.93649292 19.27214432 94 97 102
245738.06237793 3357387.06927490 19.81939507 213 213 213
245735.92492676 3357386.22872925 18.79936600 212 216 217
245734.85662842 3357386.29901123 18.87460518 216 215 211
245738.63812256 3357386.22442627 19.66398621 201 202 206
245735.11651611 3357387.56069946 19.45208359 203 205 204
245740.63708496 3357387.33468628 19.43869781 83 98 105
245737.65625000 3357386.60946655 19.80807114 237 237 235
245738.21728516 3357386.17315674 19.42773247 230 234 237
245736.35595703 3357387.46548462 19.84280014 154 163 162
245739.10656738 3357386.15234375 19.46781921 207 210 215
245734.91839600 3357387.23922729 19.83860397 236 226 216
245740.97674561 3357387.25933838 19.11320114 80 91 95
245736.45123291 3357387.36859131 19.87466049 168 169 171
245734.90679932 3357386.69900513 19.82881927 238 239 234
245738.29614258 3357386.40350342 19.81295586 183 183 183
245734.79980469 3357386.22348022 18.47393036 65 73 50
245734.52459717 3357386.34619141 18.89219856 219 222 215
245734.83056641 3357386.30422974 18.90238190 208 209 204
245740.90966797 3357386.74993896 19.59982872 194 199 203
245740.36431885 3357386.25299072 19.64589310 164 165 167
245740.68090820 3357385.96914673 18.32398796 100 107 73
245737.79779053 3357385.97100830 18.23841095 113 123 71
245738.05444336 3357386.23867798 19.67315674 233 234 238
245738.00158691 3357385.97277832 18.26435471 132 141 84
245734.81054688 3357386.50378418 19.69443321 237 237 239
245734.88989258 3357386.43023682 19.57798004 245 245 243
245736.57940674 3357387.05072021 19.91579056 183 183 175
245740.02252197 3357386.06536865 18.90539360 208 209 213
245739.73718262 3357386.05361938 19.04338646 206 207 212
245735.89611816 3357386.58309937 19.91628647 196 191 185
245735.01733398 3357386.26193237 18.52196503 217 220 213
245738.30975342 3357386.14953613 19.21914101 206 210 213
245735.70916748 3357387.47851563 19.85173798 121 131 132
245736.86712646 3357387.03936768 19.90337753 175 171 168
245734.49206543 3357386.74649048 19.31926155 250 250 250
245736.71295166 3357387.01837158 19.90971756 170 166 163
245740.94183350 3357386.37634277 19.21155167 96 100 109
245740.01397705 3357386.07531738 18.53281212 190 191 193
245739.36560059 3357386.09753418 19.03092766 219 220 225
245737.65515137 3357386.24716187 19.57450485 204 205 207
245736.93548584 3357387.53833008 19.70958328 125 136 138
245740.29418945 3357386.09365845 18.91383743 214 214 222
245739.99871826 3357386.88436890 19.71440697 164 161 156
245739.61218262 3357386.99841309 19.73332596 201 200 198
245734.71191406 3357386.33520508 18.99207687 206 211 205
245738.76300049 3357387.42019653 19.67537880 205 214 211
245735.98413086 3357387.57888794 19.73692322 153 161 163
245736.95141602 3357386.80459595 19.89493942 195 194 192
245735.00970459 3357386.31317139 19.19406509 219 220 215
245738.39160156 3357387.48446655 19.26137733 92 108 108
245740.63244629 3357386.07803345 18.46186829 223 225 222
245739.10931396 3357387.32629395 19.71252060 144 144 144
245740.76416016 3357386.35269165 19.60357285 229 232 239
245740.88317871 3357386.41879272 19.48836136 59 60 64
245741.03149414 3357386.02740479 18.51815033 112 117 113
245735.15026855 3357387.58087158 19.44252968 227 229 228
245738.24664307 3357387.44003296 19.68292999 203 207 210
245737.23864746 3357386.69320679 19.88039970 209 210 205
245738.36846924 3357387.03408813 19.80032730 177 177 175
245736.28289795 3357386.25369263 19.50348663 230 231 235
245739.93792725 3357386.73156738 19.71637344 155 154 150
245738.32641602 3357387.54132080 19.18947601 23 35 31
245739.90570068 3357386.24966431 19.69758034 214 214 216
245734.56091309 3357386.58972168 19.42354965 247 247 245
245741.01635742 3357386.25146484 18.90703392 63 66 71
245738.35015869 3357386.19067383 19.44926071 186 187 191
245737.99316406 3357386.18435669 19.49455643 235 239 242
245740.45428467 3357387.22714233 19.69683456 237 233 232
245735.11828613 3357387.59457397 19.20623016 46 52 38
245736.63226318 3357387.52868652 19.75991440 170 180 181
245736.46795654 3357387.39657593 19.86363029 154 160 160
245740.45672607 3357386.09161377 18.57287025 222 224 223
245738.97320557 3357385.78765869 18.23151016 99 110 67
245734.43890381 3357386.69439697 19.16935921 228 230 225
245738.53582764 3357386.13659668 18.85324097 231 232 236
245736.51837158 3357387.57083130 19.41946983 90 105 108
245738.59423828 3357386.23336792 19.68675423 188 189 191
245736.99304199 3357385.90490723 18.22368431 92 104 56
245737.95208740 3357386.90524292 19.83790588 178 178 176
245739.26025391 3357386.06710815 18.43585205 226 225 223
245740.98370361 3357386.77307129 19.26622581 107 115 118
245736.60229492 3357386.20376587 18.60622787 226 230 233
245737.75598145 3357386.18734741 19.44385910 218 222 223
245735.22210693 3357386.26483154 18.56011772 227 227 227
245735.57965088 3357386.33840942 19.69969940 226 225 223
245738.23370361 3357386.19979858 19.53164482 210 214 217
245736.77258301 3357386.62606812 19.92777061 214 214 214
245738.35827637 3357386.22961426 19.64743423 215 216 220
245736.01824951 3357387.58587646 19.71345329 131 141 142
245737.01074219 3357387.53433228 19.54176140 95 110 115
245739.74804688 3357386.75238037 19.72550011 186 185 181
245737.04779053 3357386.17523193 18.63488579 219 223 226
245740.31469727 3357385.99246216 18.31290627 100 105 75
245738.69750977 3357387.36584473 19.77071571 221 225 224
245734.45837402 3357387.18746948 19.12922859 16 18 13
245738.60888672 3357386.12136841 18.74514389 223 224 229
245738.53515625 3357386.18194580 19.42390060 230 231 235
245734.62396240 3357386.76507568 19.59906387 247 248 243
245735.84204102 3357387.01776123 19.94054413 208 201 193
245738.92553711 3357386.86077881 19.76712990 209 211 210
245740.29351807 3357387.40432739 19.18720245 40 63 57
245735.21942139 3357387.55526733 19.60010338 149 146 141
245736.93218994 3357386.18731689 18.79204941 225 228 233
245737.69079590 3357386.15136719 19.09292412 204 208 209
245736.26641846 3357386.20312500 18.93834305 222 225 230
245735.49078369 3357386.19262695 18.41696358 133 134 100
245739.50646973 3357386.07888794 19.06006241 221 224 231
245737.21716309 3357386.29837036 19.77000999 148 149 151
245735.03057861 3357387.50485229 19.50512123 147 151 150
245734.84405518 3357386.84613037 19.89748001 230 232 229
245737.58703613 3357387.50173950 19.44885445 92 106 109
245739.12463379 3357386.10006714 19.16379356 216 216 224
245740.17260742 3357387.35940552 19.59288597 139 147 149
245736.44537354 3357387.21615601 19.92711639 214 215 210
245734.71075439 3357386.37014771 19.23590088 214 216 211
245736.79772949 3357386.12860107 18.38512993 162 168 140
245738.13891602 3357386.64767456 19.82173920 160 158 159
245738.87432861 3357386.10461426 18.99704361 230 233 240
245738.47857666 3357386.73013306 19.79676628 174 174 174
245738.08471680 3357387.46765137 19.30858612 86 98 98
245737.42822266 3357386.15704346 18.48529053 201 203 198
245734.75585938 3357386.61380005 19.71525002 250 249 245
245740.44256592 3357386.13055420 19.27052879 190 190 198
245740.46722412 3357386.53320313 19.68117523 160 160 158
245735.12969971 3357387.59179688 19.28780174 144 152 141
245740.98010254 3357386.28042603 19.04116821 93 98 104
245737.01855469 3357386.19583130 19.08078194 229 234 237
245738.31787109 3357387.44149780 19.67899895 160 165 169
245738.80383301 3357386.10522461 18.42624855 230 228 233
245736.61999512 3357386.50354004 19.93286896 224 224 224
245740.07366943 3357387.36404419 19.58417320 116 121 124
245740.51361084 3357387.43200684 19.12386131 5 17 15
245739.83789063 3357386.05587769 18.87002373 218 219 223
245740.60540771 3357386.10308838 18.72220802 223 227 228
245738.68737793 3357387.43569946 19.62171173 102 114 114
245741.09344482 3357386.33679199 18.68935776 36 40 43
245739.99176025 3357386.88961792 19.71476936 164 161 156
245737.92504883 3357387.05264282 19.82712173 193 194 189
245740.10784912 3357386.19729614 19.68365097 209 208 213
245739.48797607 3357386.08258057 18.78642082 236 235 243
245737.67669678 3357386.27694702 19.63541794 208 209 211
245739.31042480 3357386.18777466 19.65164566 184 185 189
245740.13281250 3357387.12747192 19.71829033 142 134 131
245738.18402100 3357387.45812988 19.59317589 108 117 116
245739.61596680 3357386.09335327 19.28846169 225 226 231
245738.58178711 3357387.47943115 19.24035263 78 96 96
245738.69177246 3357386.71652222 19.78257942 170 170 168
245738.17108154 3357386.10647583 18.64720154 218 222 223
245740.69665527 3357387.35485840 19.11472321 66 81 86
245738.56225586 3357387.04846191 19.78665352 189 189 187
245738.56262207 3357386.39398193 19.79774284 134 132 135
245740.75219727 3357386.88510132 19.66017532 172 170 175
245734.83496094 3357386.30404663 18.79167557 217 216 212
245738.50177002 3357386.17199707 19.31580162 228 229 233
245734.70214844 3357387.35543823 19.38625717 52 60 49
245739.96740723 3357387.26770020 19.71472931 213 212 208
245738.76330566 3357387.53085327 19.19200516 38 49 43
245736.88397217 3357386.17181396 18.50857162 227 229 226
245738.27960205 3357386.13723755 19.10899544 219 223 226
245740.34832764 3357386.85937500 19.69942093 169 168 163
245734.83868408 3357386.62878418 19.77105713 238 240 235
245736.22875977 3357387.63082886 19.22751045 23 38 35
245738.34820557 3357386.47439575 19.80843163 194 192 195
245736.13928223 3357386.28015137 19.59153938 227 229 228
245740.28094482 3357387.18685913 19.71304131 162 155 149
245736.00146484 3357387.11178589 19.93909836 199 195 184
245740.09527588 3357386.07196045 18.93928719 230 231 235
245734.89117432 3357387.54644775 19.11623383 51 71 22
245734.85998535 3357386.26007080 18.54866791 183 183 175
245738.79064941 3357386.70599365 19.77595139 167 169 166
245738.70916748 3357387.07095337 19.77472687 166 166 164
245738.65185547 3357386.27429199 19.74158669 168 169 171
245735.90954590 3357386.23028564 18.72354698 211 212 214
245739.29376221 3357386.43121338 19.74214554 168 166 167
245735.24957275 3357386.44177246 19.76946068 234 236 231
245734.31060791 3357386.60147095 19.10621262 71 77 39
245736.35351563 3357386.20297241 18.84835625 222 226 229
245735.70416260 3357387.64736938 19.31132126 88 108 109
245737.66851807 3357387.54354858 19.25766754 60 72 72
245734.68756104 3357386.33685303 18.97013855 202 207 201
245734.76489258 3357386.33609009 19.07800484 203 205 200
245737.69812012 3357386.33081055 19.69400406 236 237 239
245737.45489502 3357386.26776123 19.57585335 201 202 204
245735.52868652 3357387.45648193 19.82841682 119 128 127
245740.97052002 3357387.13473511 19.49180984 131 140 145
245736.53527832 3357386.43496704 19.93574142 224 224 224
245740.37438965 3357386.09701538 18.80839729 225 226 231
245736.26574707 3357386.37091064 19.86586380 220 219 217
245737.84527588 3357386.11642456 18.44794846 234 239 232
245738.37762451 3357387.29998779 19.78292465 186 188 187
245740.04663086 3357386.44119263 19.70965385 149 143 145
245736.40521240 3357386.22152710 18.52440834 214 218 221
245736.83239746 3357386.25927734 19.71655846 231 232 234
245739.06072998 3357386.75891113 19.76206207 186 188 187
245737.09246826 3357386.23052979 19.59976196 228 230 229
245735.49768066 3357387.04852295 19.95383644 187 184 177
245739.68615723 3357386.14056396 19.54313850 213 214 218
245740.02874756 3357386.14712524 19.63378334 199 203 204
245737.41339111 3357387.04315186 19.88142014 196 193 188
245737.17828369 3357387.40383911 19.86529541 218 217 215
245734.39129639 3357387.14758301 19.10629272 27 32 25
245739.27551270 3357387.49798584 19.16327286 16 29 22
245735.17248535 3357386.62051392 19.87385559 241 237 234
245735.93725586 3357387.56079102 19.77010727 170 178 180
245738.86083984 3357386.14874268 19.43006897 227 226 231
245735.04656982 3357386.58770752 19.81487846 234 235 230
245738.76275635 3357386.04751587 18.30762672 136 137 123
245740.31616211 3357386.14056396 19.51350212 221 222 226
245738.38256836 3357386.18856812 19.42790031 208 209 211
245740.44677734 3357386.10528564 19.06404114 217 220 225
245741.07586670 3357386.50915527 18.76447487 60 61 65
245740.98333740 3357387.06405640 19.42233086 112 117 121
245739.28533936 3357386.16189575 19.50499916 197 196 201
245736.14074707 3357386.24841309 19.30909157 239 240 244
245738.53546143 3357387.44735718 19.53893089 100 114 114
245740.04284668 3357387.36630249 19.50770569 108 116 118
245736.26269531 3357386.05285645 18.31229591 106 116 56
245737.77343750 3357387.13964844 19.84747696 213 214 209
245736.64215088 3357386.24429321 19.40778542 192 193 198
245736.87646484 3357386.08178711 18.32979774 120 126 90
245735.29992676 3357387.32928467 19.88076019 178 179 174
245736.29150391 3357386.12149048 18.35773087 113 118 88
245734.88964844 3357386.43798828 19.59920883 243 243 241
245737.26507568 3357385.91613770 18.22943115 87 100 46
245737.63677979 3357386.15420532 18.84848213 206 210 209
245737.73138428 3357386.14605713 18.50318146 196 201 197
245740.58392334 3357386.10412598 18.89196205 226 227 232
245739.37188721 3357387.39315796 19.56116295 107 118 120
245736.15899658 3357386.27816772 19.59423447 229 230 232
245736.27423096 3357387.57238770 19.62810898 109 123 126
245737.85510254 3357387.46520996 19.70050430 139 149 148
245734.93939209 3357386.75897217 19.87302589 247 248 243
245739.66192627 3357386.04910278 18.42506599 191 193 192
245738.68969727 3357387.43811035 19.58297157 92 104 104
245734.81726074 3357386.75161743 19.84499741 230 231 225
245736.05957031 3357386.22210693 18.65873909 229 230 232
245738.86590576 3357386.15533447 19.47170067 217 218 223
245735.35662842 3357386.43502808 19.80109978 248 249 244
245734.24798584 3357387.16265869 19.11394691 26 36 1
245738.32733154 3357386.10055542 18.43478394 203 209 197
245736.03332520 3357387.29428101 19.93172073 212 211 207
245736.92810059 3357386.34359741 19.87486458 205 206 208
245739.52905273 3357386.07913208 19.12632370 224 225 230
245738.23937988 3357387.40100098 19.72384071 192 196 199
245735.37188721 3357387.64889526 19.27405167 110 126 123
245736.31634521 3357386.21640015 18.67271042 226 230 231
245736.81427002 3357386.24349976 19.57340240 227 228 230
245739.77331543 3357386.59832764 19.72337914 198 194 193
245736.75482178 3357386.23046875 19.29918671 187 188 193
245735.45306396 3357387.60580444 19.60144424 171 179 181
245734.95733643 3357386.18945313 18.41795921 34 40 12
245734.35302734 3357386.81555176 19.12344551 44 49 27
245739.45745850 3357386.54180908 19.73716545 163 163 163
245734.54687500 3357386.86184692 19.48201942 250 249 247
245736.52398682 3357387.55960083 19.69663239 111 126 129
245739.43493652 3357386.97253418 19.74140930 209 209 209
245740.15698242 3357387.36013794 19.54990387 109 114 118
245736.19317627 3357386.21011353 18.82008171 214 218 219
245734.56597900 3357387.13665771 19.54963875 238 238 238
245735.91308594 3357386.68447876 19.91952515 178 169 164
245736.75665283 3357386.19546509 18.71246529 138 139 141
