246120.98547363 3357551.01623535 15.74263477 20 191 221
246121.71875000 3357552.85510254 13.64558506 69 19 20
246121.10461426 3357550.77404785 13.48179817 139 131 128
246121.09082031 3357550.73864746 15.39209366 127 129 124
246123.23486328 3357552.12115479 15.65937614 183 214 255
246121.75549316 3357552.27648926 13.67928123 180 175 155
246121.49865723 3357552.91571045 13.68729401 248 120 119
246122.55932617 3357550.46270752 15.57059002 114 191 211
246122.63903809 3357551.64123535 13.48072433 159 176 186
246123.36706543 3357551.77197266 15.68193626 178 225 241
246121.25451660 3357550.90478516 15.79063797 20 222 246
246120.33435059 3357551.95501709 13.79402924 88 89 91
246120.73815918 3357551.70257568 15.37907028 127 129 128
246122.23608398 3357550.42016602 15.70177555 20 180 230
246120.64770508 3357551.80108643 15.37824535 128 128 128
246122.64318848 3357551.78308105 15.94318104 92 85 129
246120.93225098 3357550.91473389 15.44509506 252 249 240
246121.41918945 3357552.19982910 13.62185192 75 75 77
246123.10595703 3357552.68920898 15.79645634 8 33 53
246122.99670410 3357552.85467529 15.80897999 82 142 196
246122.55761719 3357552.38470459 15.87315750 11 110 191
246120.98034668 3357551.15020752 13.84674644 231 232 234
246121.67065430 3357550.58355713 13.73365879 180 174 174
246122.02612305 3357551.69317627 13.63497162 166 186 197
246121.97863770 3357551.94714355 13.66687965 238 195 163
246121.47998047 3357550.73614502 15.84617996 3 179 229
246123.03466797 3357552.17913818 15.70882988 24 136 218
246121.21777344 3357550.72668457 13.57303524 182 174 171
246123.48059082 3357551.09143066 13.53062630 127 131 132
246121.13281250 3357550.97839355 13.57922459 177 177 179
246123.58129883 3357551.47662354 13.59597683 123 127 130
246122.72692871 3357552.44403076 15.84405708 3 123 201
246121.18762207 3357551.17535400 15.79583836 153 216 233
246120.70898438 3357551.44207764 15.74532986 6 197 242
246121.94335938 3357552.33569336 15.89111233 99 146 214
246121.29614258 3357551.72668457 16.04664421 62 239 247
246120.45507813 3357551.55584717 13.80766106 121 125 128
246121.60021973 3357551.63763428 13.69864750 134 150 165
246122.25695801 3357552.91790771 15.62762451 37 155 193
246122.68823242 3357550.54589844 15.65098000 62 172 185
246120.90771484 3357551.89916992 15.37417126 128 128 128
246121.16955566 3357550.63330078 15.39314365 125 130 124
246123.17456055 3357552.46459961 15.31424236 128 128 128
246121.14575195 3357552.48455811 15.52982616 160 176 165
246120.96704102 3357551.80364990 14.04870605 139 137 138
246121.22448730 3357551.28631592 13.85288429 254 255 255
246121.28125000 3357551.16564941 15.85363388 143 191 191
246121.01171875 3357550.85186768 15.40253830 253 254 248
246122.35070801 3357552.02368164 13.55082798 200 165 146
246120.89221191 3357550.39642334 13.53989792 178 168 159
246122.28271484 3357550.70410156 15.46121311 128 128 128
246122.43688965 3357553.17926025 13.58635426 138 133 137
246121.22741699 3357551.11163330 15.79987240 152 252 254
246122.63769531 3357552.74926758 15.40196609 128 128 128
246123.07604980 3357552.34075928 15.68121433 14 132 202
246123.08007813 3357550.34423828 13.49415493 131 130 128
246122.06787109 3357550.49157715 15.73982620 0 145 208
246121.20227051 3357551.32843018 15.85183048 255 252 255
246120.87695313 3357551.86499023 14.08832359 151 147 146
246122.37878418 3357550.17614746 13.59126663 255 183 159
246121.27490234 3357550.41387939 15.44154453 151 157 157
246123.48547363 3357550.77178955 15.48389816 130 140 106
246120.61596680 3357551.44476318 14.12014580 187 198 218
246122.07897949 3357550.29760742 15.55328465 127 130 123
246121.41333008 3357552.30462646 15.87561798 8 113 196
246121.38659668 3357552.82244873 13.67738056 213 94 100
246121.67907715 3357550.95233154 13.78112507 115 148 179
246121.60046387 3357552.30389404 13.64150906 67 67 65
246121.39428711 3357550.51629639 13.74476051 209 204 200
246122.02783203 3357552.16894531 15.33223248 129 128 124
246121.78833008 3357550.77160645 15.91770935 4 165 237
246121.99951172 3357551.08581543 15.37778091 128 128 128
246120.46728516 3357551.50280762 13.83749104 119 120 124
246123.49597168 3357551.77197266 13.59973335 118 123 126
246122.55383301 3357550.27655029 13.55226326 110 93 86
246123.12731934 3357552.08123779 15.32443523 128 128 128
246122.79113770 3357551.98443604 15.83490562 4 83 158
246122.03918457 3357552.77789307 15.54134750 109 172 189
246121.65942383 3357550.29791260 13.78421307 70 71 75
246121.33154297 3357551.97680664 15.36199856 128 128 128
246121.27075195 3357551.23791504 13.83311176 254 255 255
246122.52416992 3357551.19494629 13.52809906 149 149 149
246123.06921387 3357552.13372803 15.32005024 128 128 128
246120.56628418 3357552.29699707 14.14954853 143 153 165
246121.69055176 3357552.85839844 13.65141296 85 15 17
246121.60839844 3357552.29205322 15.39888859 126 123 80
246121.85217285 3357552.90112305 13.61366177 48 33 38
246121.74865723 3357550.59790039 13.73017120 232 228 227
246122.77990723 3357551.35986328 16.01379585 2 95 173
246120.55151367 3357551.74432373 15.41411114 245 249 250
246121.09130859 3357550.44281006 13.58726120 161 142 128
246121.91552734 3357550.82244873 15.93436146 20 143 203
246120.52282715 3357552.25842285 15.41701508 181 205 209
246123.67749023 3357551.06408691 15.58216190 56 104 150
246120.95483398 3357550.75628662 15.76412106 25 190 248
246121.25158691 3357550.31658936 15.72073555 11 159 223
246121.39709473 3357550.97845459 15.85781384 50 239 255
246120.89746094 3357550.51586914 15.74363708 32 99 167
246121.25354004 3357550.72235107 13.63400555 215 214 212
246122.11145020 3357550.63781738 15.78597450 71 162 207
246122.32971191 3357553.19848633 13.58381653 56 57 62
246122.65197754 3357550.74298096 15.77229118 33 167 192
246122.48608398 3357550.82812500 15.86540794 96 183 210
246120.27075195 3357551.68011475 13.48704433 116 120 123
246122.64453125 3357551.19116211 16.10626793 56 170 224
246121.25158691 3357551.69567871 15.37441730 128 128 128
246120.48156738 3357550.96246338 13.52001667 147 143 140
246120.42272949 3357551.60467529 14.15618229 110 114 117
246120.86096191 3357550.95782471 13.52816486 195 191 182
246122.73779297 3357552.84301758 13.52284813 71 71 79
246122.17175293 3357550.71759033 15.44817638 128 128 128
246123.04797363 3357552.40637207 13.54592323 94 101 111
246121.43762207 3357551.64135742 15.37360764 128 128 128
246122.20397949 3357552.82440186 15.69464874 22 159 211
246120.71484375 3357550.87487793 15.46820736 245 243 244
246123.09216309 3357552.73864746 16.07208443 42 45 38
246121.09460449 3357550.27648926 15.72019768 35 182 236
246123.53247070 3357551.11700439 15.67400646 14 121 191
246122.57275391 3357551.54766846 15.36464596 128 128 128
246120.96264648 3357552.45953369 14.00088024 68 72 81
246120.70483398 3357551.48046875 14.15957832 176 191 214
246121.68896484 3357552.01574707 15.35270309 128 128 128
246123.59118652 3357551.15606689 15.64288807 86 161 200
246121.53320313 3357550.87750244 13.81227589 171 170 184
246120.87304688 3357550.56115723 13.49256706 183 174 167
246121.19323730 3357552.15808105 15.96305656 6 120 208
246123.30017090 3357551.71099854 15.35512733 127 127 127
246122.85546875 3357552.33135986 15.30346489 128 128 128
246121.92468262 3357550.37304688 15.51582718 129 129 127
246123.55981445 3357551.51147461 13.59258175 126 131 135
246121.33349609 3357551.29626465 15.38041115 128 128 128
246121.06372070 3357551.46923828 14.05014706 85 83 86
246121.22595215 3357551.30718994 13.86893177 254 255 255
246122.79492188 3357551.55194092 15.92101479 44 101 178
246120.92932129 3357551.76232910 15.37628460 128 128 128
246122.72277832 3357551.09454346 15.42185593 128 128 128
246122.44738770 3357550.93255615 15.93803978 111 185 212
246121.88012695 3357551.67169189 15.36898327 128 128 128
246122.13354492 3357550.57489014 13.59451580 102 101 99
246121.79528809 3357550.30194092 13.74486160 226 227 231
246122.25573730 3357551.86938477 16.18023109 1 76 157
246122.65063477 3357551.24176025 16.11908531 38 129 199
246121.09509277 3357552.29406738 15.88011265 13 123 218
246121.19616699 3357550.81365967 15.38984585 128 128 128
246121.30798340 3357552.60772705 15.59355354 62 180 208
246120.60839844 3357550.90753174 13.53748226 168 163 160
246123.34375000 3357551.72808838 15.35443306 129 129 129
246123.07360840 3357550.83093262 15.78958797 69 163 163
246123.18334961 3357551.35815430 15.80578518 8 108 193
246122.11914063 3357551.41070557 13.59008884 150 167 177
246122.76257324 3357552.47503662 15.83472443 5 127 204
246121.23693848 3357550.64288330 13.59312916 171 160 154
246121.57128906 3357552.27423096 13.63937378 78 78 78
246120.33374023 3357551.87670898 13.92184830 114 115 119
246123.52282715 3357551.11840820 15.41933537 103 128 150
246121.40563965 3357551.70532227 16.12699318 61 236 253
246122.15405273 3357552.14843750 15.33238697 128 128 128
246121.94006348 3357552.39941406 15.86120033 50 129 196
246122.98168945 3357552.91644287 15.77755070 63 128 186
246122.38574219 3357553.19683838 13.58876038 60 59 64
246122.07763672 3357552.40551758 15.88385201 12 125 203
246122.55566406 3357551.40081787 13.49106503 147 158 160
246123.29821777 3357552.24456787 15.30547810 128 128 128
246122.17749023 3357552.38659668 15.90811825 13 124 203
246120.72949219 3357551.05310059 15.75054836 25 141 214
246121.31335449 3357549.77014160 13.78290653 139 140 142
246120.96557617 3357550.45117188 15.45454502 166 170 173
246120.61926270 3357550.97296143 13.56662083 155 150 146
246123.51025391 3357551.28826904 13.55142975 154 158 167
246121.83422852 3357550.92218018 16.01121902 0 169 228
246121.24938965 3357551.39538574 13.89353180 248 250 249
246120.61437988 3357551.72143555 15.77628994 3 205 245
246122.09655762 3357552.82879639 15.65118027 37 165 210
246122.44250488 3357551.55444336 13.48552036 137 159 170
246122.28186035 3357552.33465576 15.94888210 45 146 218
246120.67285156 3357552.08911133 15.41011810 188 189 181
246122.18054199 3357552.79077148 15.49691963 71 133 146
246120.98461914 3357550.56604004 13.48360538 156 147 138
246123.18518066 3357552.63098145 16.05482483 36 38 24
246120.74609375 3357551.25152588 15.73915672 16 187 243
246122.69689941 3357552.16229248 15.32280540 128 128 128
246120.46130371 3357552.16296387 15.77696228 43 233 255
246121.00219727 3357550.47778320 15.43990517 160 164 165
246120.68005371 3357550.88549805 15.65859699 236 246 248
246120.57934570 3357551.29168701 15.53729153 235 235 233
246121.66760254 3357551.98602295 13.66448212 69 65 64
246121.44128418 3357551.74432373 13.73727131 140 141 146
246120.37011719 3357551.81665039 13.78182983 102 106 107
246120.32873535 3357551.75726318 14.06245041 98 99 103
246123.22888184 3357551.39544678 13.50463486 152 150 151
246123.12341309 3357550.45349121 13.49252701 146 146 144
246122.26806641 3357552.84753418 13.55365658 121 46 51
246121.93859863 3357551.61523438 16.46644211 140 234 255
246122.55444336 3357551.32843018 15.36852264 128 128 128
246120.92028809 3357552.18664551 14.03273964 210 170 162
246121.21166992 3357550.63024902 13.54226494 188 174 163
246121.18859863 3357550.52832031 13.62764549 168 150 136
246121.86145020 3357551.91546631 16.18690872 4 105 197
246122.37023926 3357553.33166504 13.59105968 70 60 69
246121.40551758 3357551.93286133 13.69124699 184 180 171
246121.21044922 3357550.19042969 15.46901608 142 166 168
246123.35217285 3357551.41485596 15.39470577 128 128 130
246122.36022949 3357551.05126953 15.39720345 128 128 128
246121.22656250 3357549.96374512 13.84081745 177 198 201
246122.69274902 3357550.97186279 15.92946911 25 169 206
246122.08435059 3357552.73858643 15.72522640 31 160 217
246121.51782227 3357549.96343994 13.69771576 100 104 107
246121.02636719 3357550.66387939 15.75337791 18 199 244
246120.46325684 3357551.66595459 15.70503998 83 191 240
246122.45507813 3357552.86279297 13.53257084 62 38 38
246122.33569336 3357551.83996582 16.12461662 5 80 163
246121.54626465 3357550.62615967 15.40908051 128 128 128
246122.71057129 3357553.10772705 13.59012604 96 80 90
246121.31628418 3357549.76513672 13.78180790 139 140 142
246123.34619141 3357552.15594482 15.31364250 128 128 128
246121.16467285 3357551.74731445 15.98085213 58 238 255
246121.49340820 3357551.53417969 16.12960625 47 239 254
246120.40942383 3357552.19439697 15.41824627 227 238 244
246123.23681641 3357550.98077393 13.48958778 147 149 146
246121.87341309 3357550.75933838 15.89821720 0 150 221
246120.34948730 3357552.10791016 15.45837784 224 235 241
246123.19921875 3357552.63604736 16.49805450 138 146 97
246121.15563965 3357550.65222168 13.49968719 173 156 146
246123.45227051 3357550.75946045 15.72797585 87 158 142
246122.60754395 3357551.02423096 13.54994297 110 108 109
246121.38903809 3357551.33728027 15.37919998 128 128 128
246121.56823730 3357550.33026123 15.73272991 4 172 235
246122.24499512 3357550.87396240 13.60290432 153 142 138
246121.24096680 3357552.57611084 15.56925011 85 183 196
246121.44189453 3357552.09832764 13.65111828 56 55 61
246123.17590332 3357551.63311768 13.51531696 163 159 158
246122.27795410 3357551.53979492 15.36751842 128 128 128
246121.94458008 3357552.69757080 15.48967648 142 144 130
246120.98913574 3357550.87414551 13.49204159 193 186 180
246122.69433594 3357551.02313232 15.96624374 13 151 190
246122.26916504 3357551.56652832 13.54652786 159 182 196
246122.16552734 3357551.71716309 16.33106232 0 72 149
246121.86083984 3357550.17822266 15.57761002 170 175 171
246123.20019531 3357551.29089355 13.49470234 144 144 144
246120.49206543 3357551.51159668 14.16453648 158 157 163
246121.70080566 3357551.65802002 13.65971851 100 136 170
246121.83618164 3357551.66369629 13.62694740 243 237 237
246121.30212402 3357550.08172607 15.51653290 153 181 185
246121.83325195 3357551.47436523 13.65020943 166 181 188
246121.13476563 3357551.95965576 13.86569691 132 126 128
246121.28088379 3357552.06744385 16.02581978 4 115 207
246122.78100586 3357550.35260010 13.51943016 108 106 107
246120.09094238 3357551.49658203 13.48663616 122 126 129
246121.56018066 3357551.59924316 13.71826172 146 155 164
246122.83081055 3357552.81860352 15.78055763 19 137 209
246122.04113770 3357551.03503418 15.37825203 128 128 128
246121.66369629 3357550.37396240 15.48982048 146 152 150
246121.39929199 3357550.77777100 15.82206821 24 224 255
246121.65197754 3357551.59521484 16.27968788 61 242 251
246120.79272461 3357551.40344238 14.15588570 98 109 131
246121.82055664 3357550.55615234 15.45220947 128 128 128
246123.15747070 3357550.75555420 15.73070812 72 162 150
246121.50451660 3357552.29321289 15.40874577 130 126 88
246121.10314941 3357551.42877197 14.00936127 89 89 89
246122.48608398 3357551.50683594 16.15798759 1 64 141
246122.25524902 3357552.87664795 13.55229473 89 24 32
246121.38549805 3357549.98327637 15.56199265 150 197 207
246121.91650391 3357553.03460693 13.58984184 58 48 56
246122.26257324 3357550.98291016 15.40218639 128 128 128
246122.69799805 3357551.92999268 15.89084530 34 93 151
246121.48242188 3357552.13885498 15.35468578 142 138 103
246121.24536133 3357552.73883057 13.64368439 108 97 95
246120.57788086 3357551.18713379 13.59323978 93 95 94
246121.52478027 3357551.09289551 13.82048225 154 161 169
246121.15454102 3357550.24951172 15.44988537 183 201 203
246121.21350098 3357551.81884766 15.37268925 128 128 126
246121.59436035 3357552.01672363 16.05673599 5 94 176
246121.27819824 3357549.94909668 13.80351067 166 185 189
246121.52282715 3357551.92565918 16.12037468 3 109 197
246121.39697266 3357551.36071777 15.37873077 128 128 128
246122.75939941 3357550.65722656 15.69734383 66 177 184
246120.60144043 3357551.33654785 13.96881008 74 77 84
246120.98889160 3357550.21539307 13.77366924 7 2 8
246122.70080566 3357551.64440918 15.93779659 42 25 79
246121.99365234 3357551.46722412 16.46366692 23 150 185
246121.16601563 3357550.42822266 13.77468777 109 98 92
246120.91259766 3357551.55969238 15.37986660 128 128 128
246122.50915527 3357553.15454102 13.58465767 136 125 129
246120.42529297 3357551.67919922 13.65356064 105 106 108
246121.85375977 3357553.11437988 13.59331322 26 21 27
246122.65954590 3357552.00140381 13.49046898 178 160 160
246122.07531738 3357551.97808838 15.35064983 128 128 128
246121.90917969 3357551.21191406 15.37648773 128 128 128
246123.11145020 3357552.41027832 15.66174412 97 171 234
246122.17456055 3357551.72692871 16.31864166 0 72 149
246122.62609863 3357553.28576660 13.75608826 116 81 87
246121.20324707 3357550.74682617 13.54814529 176 168 165
246121.91992188 3357551.42987061 16.42140579 66 224 235
246121.65319824 3357553.01312256 13.64279652 35 3 8
246120.27954102 3357552.00250244 15.57830906 221 240 244
246122.58166504 3357552.61669922 13.51720047 70 54 54
246120.17492676 3357551.87200928 13.50730133 124 125 127
246120.96228027 3357551.64599609 15.86315155 38 233 251
246119.92968750 3357551.79895020 13.50133419 128 133 139
246121.60937500 3357550.47106934 13.75391674 75 75 75
246122.53442383 3357552.82708740 15.43271542 123 131 118
246120.77551270 3357550.72747803 15.77480030 61 110 168
246120.89953613 3357551.03649902 13.64652061 81 77 74
246120.88415527 3357552.48919678 14.04046154 101 103 118
246121.76135254 3357552.37322998 13.67014885 209 202 176
246122.93444824 3357552.12634277 13.51256466 157 158 162
246120.71606445 3357551.21459961 13.93138504 67 68 72
246122.40844727 3357551.28558350 15.37060452 128 128 128
246121.76403809 3357550.82385254 15.38869762 128 128 128
246121.33825684 3357552.00476074 15.35909748 127 129 128
246121.30505371 3357551.15057373 13.81411552 254 254 255
246122.82653809 3357552.96917725 15.35046101 114 149 153
246123.51953125 3357551.63165283 15.60482597 79 114 144
246121.78576660 3357551.40368652 16.30084610 51 232 243
246121.28271484 3357552.55590820 15.53302193 153 176 160
246123.51623535 3357551.51715088 15.64666462 64 122 162
246122.31823730 3357551.43273926 15.36895370 128 128 128
246123.05895996 3357552.72753906 15.85355854 51 80 98
246120.79443359 3357550.70721436 15.47372150 249 245 244
246122.44970703 3357552.70849609 15.41394901 128 128 130
246122.35656738 3357552.41571045 15.37586689 128 128 128
246122.00732422 3357551.21984863 16.21621513 16 171 235
246120.45654297 3357551.04156494 13.52167320 138 134 133
246122.01037598 3357550.03845215 13.59586620 35 29 31
246122.41088867 3357550.12200928 13.57816029 255 181 160
246121.08154297 3357551.70416260 15.93228245 50 227 243
246120.75451660 3357551.99468994 15.87676144 13 211 238
246121.61853027 3357550.36254883 15.48943996 145 154 153
246122.97570801 3357552.49212646 15.33634377 128 128 128
246121.57177734 3357552.17095947 15.35821915 131 127 90
246120.43981934 3357552.11755371 15.40196609 218 232 233
246120.21508789 3357551.54144287 13.48264790 115 116 120
246120.83251953 3357551.23193359 15.39260387 248 244 243
246121.12353516 3357551.58856201 14.00481987 117 118 120
246122.96154785 3357552.60577393 15.35281277 128 128 128
246121.44506836 3357552.21002197 15.93445206 39 124 204
246122.18444824 3357551.86529541 16.22679329 13 92 171
246122.47399902 3357552.84265137 13.52096081 51 20 25
246121.84814453 3357550.46972656 13.71300697 254 255 255
246122.21789551 3357552.41784668 13.69049549 238 201 175
246121.37048340 3357551.66387939 13.77336597 144 148 149
246121.60363770 3357552.15576172 13.65384293 64 66 65
246122.11047363 3357550.88311768 13.63494396 152 143 136
246122.95556641 3357551.00195313 15.91642952 33 132 164
246121.80029297 3357552.47778320 15.79822350 145 206 251
246121.62109375 3357550.16271973 15.55482101 170 179 174
246121.76989746 3357551.67919922 16.40620422 84 203 233
246123.47583008 3357551.50177002 15.38424969 112 115 124
246123.48071289 3357552.07690430 15.69373417 118 118 118
246120.72937012 3357550.57342529 13.51839066 197 188 181
246122.48046875 3357550.41107178 15.57946301 120 185 207
246122.13696289 3357553.29974365 13.54101849 50 50 60
246123.05578613 3357551.02545166 15.90534878 29 113 157
246122.62817383 3357550.42065430 13.54770851 104 104 106
246122.00476074 3357552.43157959 15.41359520 128 128 128
246123.46044922 3357551.18615723 15.40478039 123 128 134
246120.99963379 3357551.94091797 13.98446560 162 158 157
246121.77099609 3357550.37615967 15.49937153 148 152 151
246123.53625488 3357551.62646484 15.50212479 83 94 112
246120.99877930 3357550.62280273 15.41706753 194 196 191
246121.28076172 3357551.51184082 13.88823891 134 134 132
246121.38171387 3357552.82855225 13.67783928 213 94 100
246123.21081543 3357551.60296631 15.72557640 0 112 194
246123.03308105 3357551.93682861 15.34033108 128 128 128
246121.30310059 3357550.81695557 15.38879776 128 128 128
246121.12963867 3357551.35400391 15.82632160 185 203 215
246122.86499023 3357550.35754395 13.50673866 120 119 117
246121.17724609 3357550.47119141 13.71223164 107 93 82
246122.34265137 3357552.28411865 15.32932854 128 128 128
246122.13208008 3357550.16864014 13.63657665 141 81 70
246122.84570313 3357552.67462158 13.52763367 198 200 187
246121.04431152 3357550.64776611 13.45905972 152 142 133
246122.09814453 3357550.92297363 15.39927197 128 128 128
246122.85888672 3357550.62451172 15.61040020 79 166 158
246122.04785156 3357550.91638184 15.97880268 255 215 249
246123.35266113 3357551.92639160 13.57654858 142 146 155
246122.04187012 3357553.04785156 13.56662178 57 52 59
246122.05883789 3357551.78717041 16.31992531 37 115 197
246122.94689941 3357552.92852783 15.75677109 43 123 186
246120.78820801 3357552.24932861 14.09990215 217 204 195
246122.71936035 3357552.64562988 15.38057613 128 128 128
246122.00195313 3357550.66333008 13.63075161 163 164 168
246123.19543457 3357551.96588135 13.55375767 137 137 145
246122.91076660 3357551.88134766 15.34773827 128 128 128
246122.05810547 3357552.14068604 15.33460522 128 128 130
246122.97009277 3357551.74560547 13.49193573 172 172 170
246121.67517090 3357551.05902100 13.78939152 127 177 200
246120.28381348 3357552.12213135 13.93036652 159 160 164
246120.79748535 3357551.03967285 15.74872589 32 187 251
246120.83898926 3357551.79461670 15.88748741 58 244 255
246121.78540039 3357550.16516113 13.71844196 87 88 93
246121.78149414 3357551.30914307 16.25436974 87 250 255
246122.41638184 3357551.02642822 16.00289345 8 147 206
246122.50073242 3357550.09063721 13.55132866 151 92 86
246123.04699707 3357552.73547363 15.75556946 49 107 145
246123.59167480 3357551.31121826 15.49316502 77 93 119
246122.02954102 3357552.50177002 15.42529583 128 128 128
246121.86450195 3357551.87469482 16.23127556 3 103 197
246120.92199707 3357551.60870361 15.83736515 22 223 243
246121.97631836 3357551.52178955 16.50549889 147 251 255
246120.64660645 3357551.88049316 15.81223583 37 226 245
246122.15075684 3357550.37634277 13.62508774 116 87 81
246122.32739258 3357551.34533691 16.25593185 39 148 205
246120.87536621 3357551.23059082 15.74091816 54 199 220
246121.23352051 3357550.94116211 15.38734341 128 128 128
246121.75219727 3357552.42492676 13.66021252 213 206 178
246121.96655273 3357551.21099854 16.22187042 11 169 230
246123.19714355 3357551.79296875 15.35227585 128 128 128
246120.65246582 3357551.94622803 15.37531662 128 128 126
246122.33032227 3357551.45190430 15.36851788 128 128 128
246123.16430664 3357552.20031738 13.56047344 121 127 139
246120.94213867 3357551.99414063 15.96237564 69 226 241
246121.54418945 3357551.60272217 13.72354507 146 155 164
246121.65185547 3357550.25042725 13.77082443 70 71 75
246121.27905273 3357550.09149170 15.50796413 148 176 180
246120.47656250 3357552.08770752 15.39200211 219 231 231
246121.53454590 3357551.54870605 13.73439217 161 164 169
246122.89843750 3357551.70166016 15.83784771 40 103 170
246121.98376465 3357551.48162842 13.60881233 153 173 182
246122.81835938 3357551.79370117 15.35791969 128 128 128
246122.08496094 3357552.74859619 13.59377766 136 67 72
246120.33679199 3357551.84197998 14.05717087 90 94 95
246123.51171875 3357551.68743896 15.59016323 95 123 145
246121.51257324 3357552.26922607 13.63070679 75 74 79
246121.85998535 3357552.66638184 15.48499012 144 143 123
246121.33129883 3357550.86059570 15.81059265 5 215 242
246122.42138672 3357550.73907471 15.81490803 146 211 239
246121.79699707 3357551.00469971 16.04950905 9 175 225
246122.82202148 3357552.14636230 13.49137306 168 159 150
246122.05236816 3357550.54125977 15.75565052 6 140 203
246121.19238281 3357552.12078857 13.73350143 50 50 58
246122.61450195 3357551.09893799 16.02757454 3 143 194
246122.72961426 3357551.95184326 15.87128639 25 99 162
246122.44897461 3357553.22937012 13.60954094 89 83 85
246122.64685059 3357552.32299805 15.31582069 128 128 128
246121.83081055 3357550.95996094 13.72887421 110 97 114
246121.49902344 3357551.26043701 16.02408409 103 227 229
246121.70410156 3357552.27606201 13.66422367 139 137 122
246121.63073730 3357550.43615723 15.46779728 125 129 128
246121.59094238 3357552.65032959 15.62090778 38 162 200
246122.53527832 3357551.85156250 15.98569393 91 130 185
246122.33459473 3357552.89544678 13.53982449 56 17 20
246122.95166016 3357550.65155029 15.60907459 96 155 127
246122.21252441 3357552.35986328 13.67234135 234 196 173
246123.54040527 3357551.44189453 15.44737816 74 82 101
246120.72802734 3357550.76318359 15.57805824 243 243 245
246121.61315918 3357550.73278809 15.88995552 59 195 235
246123.38928223 3357550.87213135 13.51852226 152 151 146
246122.25000000 3357552.94189453 13.54576874 50 13 21
246123.40441895 3357551.99804688 15.68959427 62 67 73
246122.16296387 3357552.66314697 13.63164139 93 25 26
246121.61267090 3357551.99060059 16.07741547 7 103 190
246120.67846680 3357550.85382080 15.72633362 229 242 250
246121.07507324 3357551.95544434 13.92143059 157 149 147
246123.18676758 3357550.71380615 13.50140762 117 118 113
246123.08557129 3357551.79968262 13.51740837 164 162 163
246121.87060547 3357550.16198730 15.62750626 154 178 180
246121.95593262 3357552.34869385 15.38791752 128 128 128
246121.56738281 3357550.34490967 15.49055099 149 158 157
246120.45959473 3357551.51751709 15.59955025 110 174 210
246123.90966797 3357551.11004639 13.62239456 59 63 48
246123.70336914 3357551.15124512 13.60130501 134 136 131
246122.61193848 3357552.99194336 15.53322983 73 132 138
246122.15002441 3357551.97930908 13.64611530 255 209 186
246121.31506348 3357550.48724365 13.76331043 138 135 130
246122.88903809 3357552.47656250 13.51813793 193 190 183
246120.54541016 3357550.81756592 13.52470589 126 123 118
246122.48950195 3357551.94158936 15.34805775 128 128 128
246123.26367188 3357550.89733887 15.45546913 128 128 128
246122.49011230 3357552.88336182 15.49190140 107 122 103
246120.88940430 3357550.43597412 13.52874088 178 168 159
246124.06872559 3357550.84686279 13.63238525 115 115 79
246123.02917480 3357552.40673828 13.53890514 95 99 108
246123.10327148 3357551.54809570 15.78189945 0 96 183
246122.90759277 3357550.38830566 13.50416374 120 119 117
246123.17346191 3357551.37426758 15.80792522 8 108 193
246120.55346680 3357551.85156250 15.37826824 127 129 126
246121.63732910 3357551.83294678 15.36851311 128 128 126
246121.67004395 3357550.19787598 15.68150997 19 181 220
246121.85217285 3357552.28143311 15.91131878 161 91 145
246121.94152832 3357551.46069336 13.62502098 152 172 179
246121.72644043 3357550.69006348 15.87201214 0 159 227
246120.77502441 3357552.39099121 15.46575642 120 177 186
246122.06140137 3357553.23388672 13.55042076 56 60 69
246121.19555664 3357551.66558838 13.91651249 124 127 132
246121.83203125 3357552.47064209 15.80765343 106 174 219
246121.18115234 3357550.12188721 13.88385391 123 121 132
246122.66589355 3357552.44390869 15.35802841 128 128 128
246123.07214355 3357551.01092529 15.90176678 29 113 157
246122.19714355 3357553.26129150 13.53655720 49 49 57
246121.42114258 3357552.10992432 13.64692593 50 49 54
246123.47583008 3357551.20294189 15.68338013 23 117 189
246120.29150391 3357552.14739990 13.72674465 112 112 112
246121.01733398 3357552.32220459 13.96844673 63 61 64
246123.63366699 3357550.98266602 15.50424385 79 117 153
246123.27783203 3357551.07043457 15.43690109 128 128 130
246123.07128906 3357551.81219482 13.51629543 164 162 163
246122.64282227 3357552.12957764 15.32689762 128 128 128
246122.74890137 3357550.64678955 15.69075012 58 173 180
246123.16442871 3357552.68371582 16.31601906 32 36 13
246122.13488770 3357551.08880615 13.65105915 164 167 176
246120.30334473 3357552.07019043 14.03440857 101 102 104
246120.34436035 3357551.98797607 15.72284412 48 186 232
246121.08886719 3357551.92376709 13.92029667 142 138 139
246120.85644531 3357551.39166260 15.38322830 128 128 128
246121.51269531 3357550.33666992 15.73814869 0 157 222
246121.62133789 3357551.57971191 13.69901371 152 162 171
246120.61608887 3357552.28161621 15.42926121 162 190 194
246121.48229980 3357551.83557129 13.71221161 142 140 141
246121.21752930 3357552.73242188 13.64842987 236 228 226
246122.62268066 3357551.54260254 16.03913116 55 92 162
246121.35485840 3357550.36511230 15.46470070 155 161 161
246122.42346191 3357551.09637451 16.04765892 5 161 222
246122.76708984 3357552.93115234 15.74527073 3 126 196
246122.86975098 3357552.29083252 15.30731010 128 128 128
246120.78356934 3357550.62817383 13.50178623 181 172 165
246121.88928223 3357552.94909668 13.60264111 48 35 42
246120.42700195 3357551.54119873 13.56951332 105 106 108
246121.73791504 3357552.60473633 15.72789860 196 253 255
246120.71215820 3357551.95672607 15.37336445 128 129 124
246123.22387695 3357551.59692383 15.36520481 127 129 128
246121.34130859 3357549.99194336 13.77226162 138 147 156
246121.31420898 3357551.96234131 16.10563087 0 112 175
246121.39282227 3357552.57531738 15.70434761 52 162 225
246121.67907715 3357551.99945068 15.35448456 128 128 128
246122.27258301 3357550.96484375 13.61608124 130 121 122
246121.37548828 3357551.33367920 15.37938786 128 128 128
246122.84289551 3357550.85321045 15.83128357 18 156 182
246123.35424805 3357550.48669434 13.48371315 142 143 137
246121.66076660 3357551.83520508 16.24917030 1 110 193
246123.12963867 3357552.68115234 15.70072651 13 46 77
246120.27185059 3357551.05419922 13.51461983 139 138 136
246121.85974121 3357552.71636963 15.65489483 57 164 208
246122.42614746 3357551.79193115 16.07521820 7 77 147
246123.16418457 3357550.48449707 13.49066925 132 131 129
246122.60668945 3357550.86199951 13.56648636 102 100 101
246122.43371582 3357550.15789795 13.57493114 207 128 111
246120.98828125 3357551.09826660 13.74084473 92 91 96
246122.67687988 3357552.20654297 15.31867123 128 128 128
246121.74523926 3357550.55126953 15.44600487 128 128 128
246121.70507813 3357551.97882080 15.35616016 128 128 128
246121.02111816 3357551.48760986 15.38007736 128 128 128
246121.65734863 3357550.75665283 15.91145229 1 150 206
246120.38977051 3357552.00512695 15.72638798 44 207 248
246121.62170410 3357552.42340088 15.44540691 128 128 128
246122.40295410 3357551.14758301 16.08414078 6 157 230
246122.32312012 3357551.71203613 16.19642639 3 76 155
246121.51293945 3357550.31488037 15.72944832 3 162 227
246123.57995605 3357550.86761475 15.67914295 26 122 164
246121.83312988 3357552.55249023 15.45026684 128 128 128
246120.88635254 3357551.20043945 13.99407673 222 223 225
246122.85253906 3357553.01269531 15.36429024 125 159 161
246123.06542969 3357552.25567627 15.69389439 14 142 213
246122.27416992 3357551.53594971 16.31124878 5 72 127
246121.65356445 3357551.52001953 16.24721909 49 245 255
246123.18847656 3357551.80145264 15.70463181 4 108 197
246121.06555176 3357551.78784180 13.98708344 155 155 155
246122.11328125 3357552.20098877 15.32773113 128 128 128
246121.22509766 3357551.61486816 13.91138554 127 131 134
246121.59973145 3357551.89019775 13.68030357 66 70 81
246122.84106445 3357551.59185791 15.88396168 64 118 192
246122.13757324 3357551.61859131 13.60797310 156 184 196
246121.67541504 3357552.75244141 13.66004372 87 22 20
246121.92651367 3357550.29205322 15.69408226 9 180 236
246121.86120605 3357550.12145996 13.67526245 83 84 89
246122.90942383 3357550.97174072 15.91088963 42 161 191
246122.99414063 3357551.78112793 13.49978733 169 169 169
246123.10485840 3357551.43115234 15.83605099 3 104 186
246121.78564453 3357551.25671387 13.71420670 167 184 194
246122.84606934 3357551.78350830 15.84363556 36 80 141
246123.36791992 3357551.41101074 13.52480030 128 132 135
246121.51696777 3357550.68212891 15.83660316 69 206 240
246121.70837402 3357551.55877686 15.37248898 128 128 128
246122.64135742 3357552.97900391 15.69066048 17 153 215
246123.06494141 3357552.80194092 16.01693344 34 37 28
246123.28491211 3357551.17065430 15.79548645 13 114 186
246121.39941406 3357550.45324707 13.76409435 212 204 201
246121.83996582 3357551.25030518 13.70194626 164 177 186
246120.80395508 3357551.99786377 15.90346050 16 210 237
246123.50561523 3357550.94720459 15.71136665 23 115 178
246123.23083496 3357551.99530029 13.56294060 134 139 145
246121.11926270 3357552.69128418 13.72079659 167 162 169
246122.37805176 3357550.91223145 15.93291092 226 235 242
246122.55993652 3357552.73455811 15.78666115 105 193 241
246121.61621094 3357551.13433838 15.38052177 128 128 128
246120.89062500 3357552.19409180 14.05348110 231 195 183
246121.94189453 3357551.45794678 13.62559795 152 172 179
246122.12292480 3357553.27593994 13.54276085 50 50 60
246121.46398926 3357551.95471191 16.10466385 0 106 192
246120.20141602 3357551.52221680 13.48357868 113 114 118
246123.03417969 3357552.75909424 15.81672001 84 125 153
246121.30249023 3357552.54595947 15.53059769 149 175 162
246122.56250000 3357550.08996582 13.53460693 108 87 86
246122.45019531 3357551.66375732 15.36382294 128 128 128
246121.14990234 3357551.67785645 15.37566376 128 128 126
246121.21252441 3357552.51293945 15.51957130 154 171 155
246123.01574707 3357550.78515625 13.50260353 142 142 140
246121.53149414 3357551.95245361 15.36142731 127 127 127
246120.84497070 3357550.74224854 13.47870159 158 151 145
246122.19482422 3357550.93994141 13.62763500 146 136 134
246122.75927734 3357551.95239258 15.85635948 31 109 175
246121.73400879 3357551.43554688 16.27342415 48 242 251
246121.25390625 3357551.12817383 15.38399124 128 128 128
246122.23583984 3357553.20550537 13.55398750 52 51 59
246123.50573730 3357551.61291504 15.44316387 74 80 92
246123.27185059 3357550.69561768 15.59486961 101 163 140
246121.70556641 3357550.06292725 13.69467926 98 102 105
246120.38159180 3357551.79620361 13.77848339 102 106 107
246121.91601563 3357551.94805908 15.35606289 128 128 128
246122.00439453 3357552.11938477 15.33755398 128 128 128
246120.26708984 3357551.57971191 13.48316860 108 112 115
246120.47216797 3357551.46740723 14.01287270 131 133 132
246122.07189941 3357552.25836182 13.71337891 235 210 188
246122.69897461 3357552.24560547 15.31442165 128 128 128
246120.59533691 3357551.00512695 13.55911064 176 171 168
246122.34875488 3357550.35614014 15.57514286 121 178 197
246121.67224121 3357551.03173828 13.79317188 115 176 207
246122.55688477 3357552.71685791 15.79240704 116 209 252
246122.06201172 3357551.94464111 16.17820930 8 103 183
246121.56359863 3357551.41094971 15.37633228 128 128 128
246122.76245117 3357552.65289307 13.51641083 194 198 184
246122.77966309 3357550.83508301 15.82363605 26 167 195
246121.33117676 3357551.30999756 13.83921719 218 218 218
246121.05957031 3357552.39172363 13.91620541 67 71 83
246121.08251953 3357550.31304932 13.86175251 46 28 26
246120.33947754 3357551.71588135 14.12289143 87 88 90
246122.20776367 3357551.51635742 15.36856651 128 128 128
246121.40881348 3357550.76385498 15.38871288 128 128 128
246122.23535156 3357550.45568848 15.52328205 129 129 129
246121.60913086 3357550.48645020 15.79281807 5 168 233
246122.07958984 3357552.11669922 15.33668613 128 128 128
246122.35815430 3357553.53308105 13.53847885 74 65 70
246123.44982910 3357552.06488037 15.32121086 168 170 169
246122.90686035 3357551.01452637 15.94213772 39 150 180
246122.31579590 3357552.89727783 15.50353146 74 136 147
246120.81677246 3357552.42767334 14.08194160 250 253 255
246121.24597168 3357550.46179199 15.73369694 14 191 243
246122.54687500 3357552.06005859 15.94510365 1 76 157
246123.46618652 3357550.70141602 13.54189777 161 160 155
246121.54687500 3357551.91461182 15.36498737 128 128 128
246122.89379883 3357552.62030029 15.80070305 16 142 218
246122.44250488 3357552.67651367 13.55011940 91 28 39
246122.89074707 3357551.04644775 15.95584202 75 174 206
246121.07275391 3357551.43701172 15.38045216 128 128 128
246122.63171387 3357552.71771240 13.50237370 58 57 62
246121.98791504 3357553.00909424 13.57974052 61 56 63
246121.30822754 3357550.81958008 15.79676437 7 217 244
246122.72412109 3357550.43652344 13.53593636 104 105 109
246122.29980469 3357550.75604248 13.56025219 145 136 127
246122.44982910 3357550.66577148 15.48453045 128 128 128
246120.93432617 3357550.49487305 13.50817871 182 173 166
246122.81359863 3357551.57354736 15.90194988 63 115 191
246123.48706055 3357550.95324707 15.42457676 118 131 139
246123.02392578 3357551.30236816 15.40709877 128 128 128
246119.89685059 3357551.82092285 13.50724411 122 129 135
246122.51757813 3357552.72186279 13.52286243 70 44 53
246122.18408203 3357552.71008301 13.60920334 89 13 17
246122.52954102 3357551.92761230 13.50480461 136 119 135
246122.43737793 3357552.56329346 15.86294937 85 181 239
246122.06835938 3357552.59112549 15.79348755 29 146 213
246122.19152832 3357552.13153076 15.33351231 128 128 128
246123.01879883 3357550.70739746 15.65966129 61 162 146
246122.16784668 3357550.16809082 13.63104439 202 119 103
246121.68627930 3357551.85894775 15.36761856 128 128 126
246121.25915527 3357550.89794922 15.38783550 128 128 128
246120.73706055 3357552.41741943 15.52437115 98 162 189
246122.06945801 3357551.27972412 13.63439274 163 176 184
246122.28723145 3357552.87957764 15.67532635 25 153 192
246121.51831055 3357550.83056641 13.79853630 195 194 200
246122.10827637 3357551.74523926 16.34160233 0 70 150
246122.82971191 3357551.61035156 15.36119938 128 128 128
246122.28796387 3357552.85815430 15.68960190 25 153 192
246120.51123047 3357551.86584473 14.18757725 254 255 255
246121.55383301 3357552.03112793 16.04636574 3 98 180
246122.07019043 3357552.57971191 15.79922485 25 144 212
246123.18640137 3357552.64068604 16.21963120 38 41 10
246122.69030762 3357553.00292969 15.71618652 60 191 247
246123.08166504 3357550.74627686 15.70848179 41 152 143
246121.14868164 3357552.46069336 13.78655052 110 118 141
246122.00964355 3357551.23144531 16.22676659 13 166 233
246121.08874512 3357552.50585938 13.83724022 95 101 123
246122.75854492 3357551.08502197 16.01080513 44 152 191
246121.37084961 3357550.96807861 13.82189178 254 255 255
246121.60522461 3357552.20275879 15.36674690 128 125 84
246121.02722168 3357550.50036621 15.43092823 160 164 165
246121.25317383 3357552.27728271 15.89050484 3 121 209
246121.92993164 3357552.20373535 13.73548222 112 78 53
246122.29394531 3357552.80725098 15.72420979 26 154 201
246121.24133301 3357550.75579834 15.79229450 6 205 238
246123.61914063 3357551.47192383 13.60525417 116 120 119
246120.58813477 3357551.23034668 13.61175060 97 98 100
246120.44750977 3357551.58972168 13.69107437 112 118 118
246121.79016113 3357550.60223389 15.81397152 6 165 231
246121.46569824 3357551.68878174 16.17748451 61 239 253
246122.05932617 3357552.48669434 15.84215355 16 134 206
246119.96350098 3357551.40563965 13.49696159 127 130 135
246121.25720215 3357552.53973389 15.71786499 39 164 222
246123.10986328 3357552.24945068 13.55088806 110 117 127
246121.61828613 3357550.26568604 15.70654011 11 181 232
246121.73657227 3357551.75170898 16.34814644 0 109 176
246122.38317871 3357550.43676758 13.56046772 125 90 86
246122.48583984 3357552.94409180 15.64324284 41 146 175
246122.74096680 3357550.18572998 13.51202297 109 109 111
246122.46936035 3357552.47747803 15.88366222 64 156 223
246120.68212891 3357552.22235107 15.42891026 173 189 186
246121.04003906 3357551.48773193 15.83108139 161 239 252
246120.80798340 3357551.76873779 15.37730408 128 128 128
246120.47082520 3357552.11444092 14.18702316 254 254 255
246122.29431152 3357551.47473145 15.36846542 128 128 128
246121.23559570 3357551.77160645 16.03602028 63 239 254
246121.94726563 3357550.27203369 13.70073128 221 225 236
246123.52575684 3357551.82867432 15.56241226 101 114 123
246122.46228027 3357551.43853760 16.20655632 0 58 138
246120.89941406 3357552.22137451 15.43761444 174 171 152
246121.76892090 3357552.91638184 13.62793350 66 35 40
246121.89233398 3357550.22564697 15.55890179 173 176 169
246121.78015137 3357551.98895264 16.09828186 6 90 178
246123.45458984 3357551.54418945 15.37200642 111 114 121
246122.26513672 3357550.18518066 13.62088108 254 163 134
246122.46166992 3357550.97033691 15.42317772 128 128 128
246120.92846680 3357551.76300049 15.89602661 64 237 253
246122.60839844 3357551.19030762 16.10651207 61 181 234
246122.53930664 3357552.82446289 15.75331593 24 136 182
246122.53540039 3357552.62908936 15.82311058 29 124 180
246123.11779785 3357552.70935059 16.08283806 31 34 25
246123.07141113 3357551.91333008 15.34210873 128 128 128
246121.79809570 3357552.30328369 13.68932056 239 232 203
246123.64379883 3357551.00054932 15.62825680 46 116 168
246120.61840820 3357552.21264648 15.42128372 181 195 195
246121.88171387 3357551.32806396 15.37477875 128 128 128
246122.38793945 3357551.37939453 16.26247406 49 121 180
246121.65527344 3357550.51898193 15.80171394 3 168 234
246121.20373535 3357551.46441650 13.94744015 100 100 100
246122.67980957 3357550.59661865 15.67500401 58 176 186
246122.11706543 3357550.50854492 13.61073017 112 110 113
246123.13452148 3357552.38946533 15.66479397 114 185 241
246123.10473633 3357550.88159180 13.47816753 121 123 122
246120.86437988 3357551.14392090 15.40345192 253 252 250
246120.04699707 3357551.90118408 13.47692490 97 101 104
246122.38293457 3357551.79364014 13.52919292 181 191 216
246122.28247070 3357550.54467773 15.73299408 154 231 241
246121.93774414 3357551.48474121 15.37160969 128 128 128
246123.52294922 3357552.00994873 15.62310982 107 116 125
246122.75415039 3357551.45568848 15.98194790 4 87 167
246122.66845703 3357551.49053955 15.36472321 128 128 128
246121.05798340 3357550.60266113 15.74776554 18 197 240
246122.14550781 3357552.77258301 15.71683502 26 160 213
246123.22888184 3357551.28668213 15.42129040 128 128 128
246121.99694824 3357552.62060547 13.65572739 172 149 133
246121.78393555 3357550.13128662 15.65387630 172 199 206
246122.63281250 3357551.70343018 15.36145592 128 128 128
246123.08349609 3357551.65832520 13.50214672 169 165 164
246122.21081543 3357550.69378662 13.56045628 138 133 127
246122.51684570 3357552.18603516 15.93853951 9 94 184
246120.76440430 3357552.06268311 15.89297581 18 184 208
246122.62133789 3357553.18548584 13.61204147 117 90 97
246122.15747070 3357551.84234619 15.36301422 128 128 128
246120.45593262 3357551.69696045 15.51979923 241 246 250
246121.97961426 3357551.56109619 13.60533810 164 192 203
246121.69335938 3357552.68310547 15.63945866 30 153 197
246121.36193848 3357552.26763916 15.89776707 9 121 207
246122.93164063 3357550.89355469 15.84873581 41 162 179
246122.82348633 3357552.82147217 15.77943707 19 137 209
246122.58496094 3357550.78619385 15.47233772 128 128 128
246122.89013672 3357550.84637451 15.82233524 31 160 179
246122.31799316 3357551.79418945 15.36284447 128 128 128
246121.96704102 3357552.19647217 15.33158207 114 113 92
246121.10546875 3357550.87084961 13.49580097 104 99 96
246120.82971191 3357551.72485352 15.86603737 34 225 244
246122.94470215 3357552.42663574 15.32642269 128 128 128
246122.41223145 3357550.62408447 15.49235630 128 128 128
246123.42028809 3357551.16168213 13.51311779 126 130 131
246121.19970703 3357551.63623047 15.95110989 107 224 241
246121.56054688 3357552.27081299 13.63798809 78 78 78
246123.05236816 3357550.97723389 15.89884949 76 163 182
246121.49353027 3357550.75006104 15.85192490 6 168 217
246122.33361816 3357550.81677246 15.87591934 196 214 234
246123.56433105 3357551.39166260 15.47192955 57 69 91
246122.81823730 3357551.04980469 15.97850037 41 145 182
246123.34155273 3357551.32611084 15.40460873 127 128 130
246122.24902344 3357551.73852539 16.24829292 1 73 158
246122.09069824 3357551.81439209 13.64423752 174 163 179
246122.08215332 3357551.91357422 16.21407509 13 106 184
246121.96435547 3357551.25531006 15.37524223 128 128 128
246122.17297363 3357550.52478027 15.73934364 170 243 250
246120.30566406 3357552.10687256 13.75651360 115 117 116
246122.75756836 3357552.99133301 15.41161728 106 144 153
246122.43591309 3357551.47204590 13.49384117 146 163 171
246122.65795898 3357551.43566895 16.05504799 0 77 152
246120.82507324 3357550.62908936 15.77230549 61 111 170
246120.92419434 3357550.30773926 13.54642963 185 180 174
246120.14880371 3357551.99035645 13.48300171 114 115 119
246121.23413086 3357552.01354980 13.73939228 83 81 84
246121.39062500 3357551.84277344 16.14980125 84 224 255
246121.76086426 3357550.39483643 15.73975658 0 174 234
246121.69897461 3357551.10046387 13.77347279 133 180 200
246123.37731934 3357550.75927734 15.73735142 91 157 143
246121.38964844 3357550.23413086 15.51053333 169 183 184
246121.98840332 3357552.75189209 15.54042435 122 162 164
246121.30773926 3357550.94390869 15.80988884 13 217 241
246120.68627930 3357551.87445068 15.83236599 63 247 255
246123.21496582 3357552.00183105 15.33106804 128 128 128
246120.27758789 3357551.98681641 15.59876537 222 239 246
246123.29895020 3357550.78289795 15.77274418 66 142 140
246121.45629883 3357552.65344238 13.65721035 150 79 85
246121.94702148 3357551.43475342 13.62983227 145 165 172
246121.16967773 3357549.96832275 13.87868404 184 203 207
246121.47204590 3357549.94451904 13.71049595 105 109 112
246122.20361328 3357551.84631348 15.36192131 128 128 128
246123.21533203 3357552.42340088 15.69778442 60 66 80
246122.06433105 3357552.74243164 15.72008228 34 161 216
246121.10766602 3357552.09143066 13.83224201 73 58 61
246121.87316895 3357552.32440186 15.38660049 128 128 128
246122.29968262 3357552.06494141 13.57464314 192 156 132
246122.01538086 3357550.59606934 15.46034050 129 127 128
246120.36962891 3357551.43652344 13.50128460 96 96 98
246122.16442871 3357552.79272461 15.70742607 24 160 212
246120.49426270 3357551.43829346 15.61655903 83 153 189
246121.22265625 3357551.79003906 13.84948254 118 121 128
246122.77612305 3357550.81646729 13.54446602 121 123 122
246122.00964355 3357552.44927979 15.85172272 11 128 205
246121.26354980 3357550.19372559 13.83566856 178 173 170
246120.35961914 3357551.86352539 13.77045155 100 101 103
246123.44567871 3357550.74401855 15.71380711 97 161 145
246122.24072266 3357553.22698975 13.55387115 52 51 59
246121.28027344 3357551.19006348 15.38269901 128 128 128
246121.53234863 3357551.74749756 16.24708176 99 239 254
246121.53417969 3357552.20446777 13.63921928 60 58 61
246122.78637695 3357550.79925537 15.79724979 42 173 191
246121.15820313 3357550.26513672 15.71814156 31 181 240
246120.71496582 3357552.39050293 15.48361206 117 174 191
246122.42517090 3357552.07580566 16.00316620 6 80 165
246122.30920410 3357551.66394043 16.23137093 0 74 147
246121.38330078 3357550.70135498 13.74069595 211 212 216
246122.86633301 3357552.60217285 15.83715725 11 137 211
246122.77612305 3357550.29553223 13.51548481 109 109 109
246120.74462891 3357552.02429199 15.38005447 185 186 178
246123.32519531 3357550.98132324 15.44024181 128 128 128
246121.39489746 3357550.59686279 15.40108299 128 128 128
246121.07775879 3357550.97271729 15.38825703 128 128 128
246122.59729004 3357553.17242432 13.60338306 117 90 97
246122.17761230 3357552.51629639 13.69041061 234 196 175
246120.32641602 3357552.01861572 15.51375866 219 238 242
246121.31176758 3357552.03674316 13.66877365 96 96 96
246120.95898438 3357550.18206787 13.75257206 51 58 66
246120.59216309 3357551.39489746 14.04823971 47 53 65
246122.05871582 3357550.25964355 15.67329597 15 175 227
246120.40295410 3357551.86572266 15.49790287 239 243 244
246123.06225586 3357551.33685303 13.49445438 141 139 140
246122.96875000 3357551.59014893 15.36024952 128 128 128
246119.94775391 3357551.89617920 13.48697376 108 113 119
246121.70373535 3357551.29620361 13.72553444 168 182 191
246122.32189941 3357550.81958008 15.87910843 221 237 250
246122.80419922 3357550.79785156 15.49021626 128 128 128
