245695.49493408 3357501.64880371 21.58890343 180 194 177
245696.42828369 3357503.56530762 22.63382721 250 252 251
245700.22857666 3357505.26776123 20.51409340 160 187 182
245694.39282227 3357502.22201538 25.01410103 217 216 212
245695.99749756 3357500.09887695 20.33208656 229 239 228
245694.75524902 3357499.97738647 25.05956078 186 185 181
245695.16485596 3357502.69995117 24.06933403 70 85 78
245694.57116699 3357503.32458496 22.36791420 200 211 197
245698.55090332 3357499.28924561 25.12723160 151 167 167
245700.35888672 3357501.60455322 24.47951889 81 106 87
245694.94171143 3357499.75314331 20.41566086 178 188 180
245699.44726563 3357505.40048218 25.10092545 154 162 164
245699.68762207 3357504.86557007 23.71405792 119 146 131
245699.49719238 3357503.84085083 19.71304703 193 212 208
245693.49047852 3357504.11312866 19.41688728 156 163 169
245697.17736816 3357505.39157104 24.29629326 40 72 59
245693.94494629 3357502.74694824 19.41567421 152 162 164
245697.34606934 3357503.51495361 20.12748909 110 131 116
245694.83233643 3357503.29452515 20.16991615 153 175 173
245694.50738525 3357500.49337769 20.25608635 234 248 235
245700.15002441 3357500.33676147 24.71730614 201 222 217
245695.01403809 3357504.20590210 24.21875572 113 126 119
245699.65637207 3357498.78771973 23.11030769 169 196 177
245696.06744385 3357501.32415771 24.91687012 164 184 183
245698.83264160 3357503.83734131 21.54021263 159 170 154
245695.85583496 3357499.97161865 20.76175117 162 170 155
245697.90710449 3357504.93579102 22.10452652 120 143 127
245695.84735107 3357501.26565552 22.76824379 140 154 141
245697.90173340 3357503.15594482 20.31593704 112 130 116
245700.34149170 3357499.65319824 24.77447891 161 186 165
245699.67858887 3357499.04113770 20.32584190 225 234 215
245698.96667480 3357501.30410767 20.02489853 114 134 125
245697.29339600 3357503.74499512 19.84913254 158 182 169
245694.97161865 3357501.26107788 20.10695076 134 136 131
245694.13726807 3357499.97528076 19.48804474 241 234 228
245695.26177979 3357502.97607422 21.84226227 132 153 138
245696.83367920 3357505.29269409 23.63169670 162 196 182
245697.60144043 3357499.25558472 20.34526825 118 126 113
245697.13488770 3357498.69235229 19.72202682 235 218 202
245698.95355225 3357503.24490356 25.14915085 218 235 227
245696.70709229 3357504.50830078 20.84172821 183 207 193
245696.60241699 3357503.87289429 25.08333397 196 198 197
245695.62115479 3357500.21533203 23.44300842 104 124 113
245696.47491455 3357503.83728027 25.03096771 242 249 242
245695.26721191 3357504.66833496 20.25184631 160 174 161
245699.05450439 3357505.00564575 25.10800171 160 165 159
245695.53436279 3357499.17468262 22.28026390 175 189 174
245700.13928223 3357504.18688965 19.72491074 206 216 205
245696.45227051 3357499.48275757 21.56823921 134 153 133
245698.35809326 3357503.32870483 25.15719604 217 221 220
245700.37799072 3357504.24404907 19.71787643 160 171 163
245700.17291260 3357498.30325317 22.57916260 197 200 181
245694.68597412 3357501.54644775 24.32031441 101 124 114
245699.04418945 3357505.33285522 25.10494995 153 157 156
245700.30792236 3357499.86801147 22.15568924 113 131 115
245697.61260986 3357499.21026611 23.96264267 124 140 127
245698.33654785 3357499.44140625 21.04062462 105 125 116
245695.93603516 3357504.63635254 23.41883659 144 165 148
245694.50933838 3357500.48107910 22.47576141 216 232 222
245695.71478271 3357500.64727783 22.87401009 190 200 192
245698.55578613 3357502.10958862 20.53967285 143 159 146
245695.71356201 3357502.31176758 21.57146835 179 202 182
245699.10644531 3357499.84893799 20.90868568 173 189 176
245695.06103516 3357502.61822510 22.02049065 130 148 134
245692.61230469 3357499.09902954 19.60321808 132 143 149
245697.04364014 3357503.84927368 20.44908905 147 161 144
245697.85583496 3357499.16903687 24.88928795 164 185 180
245695.90789795 3357501.69869995 23.21280670 79 95 85
245695.48931885 3357499.28826904 22.82868195 127 145 123
245700.46417236 3357504.20956421 24.18128395 121 147 122
245696.59936523 3357505.25399780 22.22428703 204 221 205
245695.83758545 3357504.71444702 23.16130257 146 167 150
245694.16516113 3357499.19665527 19.67413712 251 235 222
245697.62091064 3357504.92636108 22.03087807 106 129 113
245695.25213623 3357503.06158447 23.92141533 130 146 136
245695.16790771 3357500.37661743 22.74305534 115 121 111
245695.15899658 3357499.97338867 20.20463181 158 171 162
245697.77154541 3357501.41351318 24.94049072 179 204 209
245700.13250732 3357498.06072998 21.40668869 138 143 123
245696.93627930 3357504.50439453 21.56007957 147 171 139
245699.43896484 3357502.41854858 21.30715752 134 155 138
245698.26947021 3357503.78549194 19.75920486 169 198 193
245695.98260498 3357503.10617065 20.76797676 178 195 177
245695.41223145 3357504.29919434 20.35984421 159 176 160
245696.58874512 3357505.04238892 21.28916550 164 185 178
245698.40838623 3357503.67742920 25.12849998 208 212 215
245698.43109131 3357499.60873413 20.14128685 92 103 97
245696.26776123 3357504.76983643 20.08697701 189 201 181
245696.64764404 3357504.98394775 20.81085396 187 209 197
245698.92736816 3357499.16790771 21.36991692 76 98 96
245699.92877197 3357504.65390015 21.79589272 150 170 142
245696.34405518 3357499.47570801 22.82425499 227 239 227
245696.04406738 3357505.57107544 19.57933235 100 98 111
245694.41613770 3357499.11489868 20.84524345 253 255 249
245699.10284424 3357500.38265991 21.00428772 101 125 109
245700.18109131 3357504.67846680 19.79057503 97 108 100
245696.50000000 3357504.87081909 21.44712830 133 155 143
245697.99047852 3357505.42572021 24.71677399 116 147 139
245695.48309326 3357504.10513306 20.44930458 224 233 216
245699.70983887 3357502.70404053 24.90258408 174 195 196
245697.55297852 3357503.85815430 20.69632530 115 136 117
245695.95983887 3357502.12332153 23.42905426 63 83 72
245695.11822510 3357503.80261230 24.10369682 133 153 142
245699.46978760 3357503.17749023 20.57552528 184 201 183
245697.94207764 3357498.96127319 24.62458229 187 200 180
245699.21063232 3357502.52182007 25.08593369 190 208 210
245695.00372314 3357504.75073242 20.35028458 126 143 133
245696.85314941 3357505.24255371 25.09883118 231 236 230
245694.67987061 3357504.00326538 25.02119064 172 171 166
245700.57684326 3357502.86004639 24.93038368 140 163 143
245695.17663574 3357498.76638794 19.81797981 233 214 197
245694.97735596 3357505.45169067 24.50605202 86 116 104
245699.01190186 3357503.97259521 21.60105705 185 198 178
245696.77716064 3357504.20791626 20.68886948 188 210 197
245700.49847412 3357505.22259521 24.16598511 105 139 122
245697.67901611 3357499.16619873 23.97948647 122 140 126
245699.89294434 3357499.93173218 23.35461426 138 156 132
245697.51348877 3357505.29913330 19.87444878 50 69 76
245699.50177002 3357499.27490234 20.10566139 126 146 137
245694.53198242 3357498.75805664 19.73411560 240 230 220
245699.77215576 3357497.72143555 19.42054176 139 135 124
245696.03771973 3357505.05169678 22.53747177 219 225 213
245696.50433350 3357504.88189697 24.93704605 217 231 232
245698.50219727 3357502.06375122 20.29853821 142 156 143
245694.89892578 3357500.84793091 22.75538826 134 151 141
245699.62438965 3357498.14984131 21.83867836 92 105 113
245697.45837402 3357503.74328613 25.12151337 180 188 190
245698.29821777 3357503.53652954 21.14294434 117 138 121
245699.75250244 3357504.66656494 19.79911232 172 189 181
245695.66217041 3357505.02676392 20.15705490 155 160 154
245696.14837646 3357500.06829834 20.43787003 236 241 234
245694.38250732 3357501.83929443 25.02214622 226 225 220
245695.11047363 3357501.91180420 24.07129669 69 88 84
245697.75122070 3357502.39682007 24.94742203 192 207 214
245699.62731934 3357502.37936401 19.92714119 71 86 83
245700.23193359 3357505.15100098 20.72618294 156 183 176
245700.68835449 3357503.58300781 25.03655624 155 176 161
245695.99060059 3357503.25640869 22.99953270 224 237 228
245695.63378906 3357499.26733398 24.22010231 148 162 145
245696.45599365 3357499.70758057 21.40581703 173 191 167
245695.93072510 3357501.86987305 21.13177872 111 128 112
245696.17199707 3357498.25299072 19.42312431 242 239 230
245699.92254639 3357499.66500854 21.76108742 99 117 95
245695.83459473 3357504.45886230 23.57596207 157 179 156
245698.70196533 3357504.36349487 21.82863045 179 183 166
245696.17773438 3357502.33709717 23.25453377 57 73 63
245696.20037842 3357504.29971313 21.55047035 116 143 124
245695.50097656 3357504.88510132 22.83323479 155 173 159
245700.30773926 3357499.10906982 24.20972824 112 139 124
245699.10601807 3357504.25439453 21.73242950 160 171 155
245695.95330811 3357503.22796631 22.77012634 106 129 121
245694.20617676 3357498.86599731 19.87499428 230 218 202
245695.43817139 3357503.71890259 21.73039818 136 160 144
245700.55993652 3357505.36544800 24.77389145 135 163 149
245699.25891113 3357501.61398315 19.95686340 89 102 93
245695.23425293 3357502.40545654 20.05830383 116 131 126
245696.51019287 3357504.70687866 21.31737518 122 146 133
245693.55255127 3357503.81896973 19.42085075 147 156 161
245695.50537109 3357500.82434082 20.04622650 138 147 142
245694.81677246 3357499.02923584 22.94660187 135 151 141
245695.24707031 3357501.26840210 21.81596565 185 201 175
245699.75952148 3357503.68453979 19.69547272 191 202 196
245694.34539795 3357501.51550293 20.00800323 211 205 183
245694.77429199 3357505.27093506 24.98680878 147 153 149
245696.49023438 3357503.07141113 24.83174133 223 230 222
245697.55340576 3357499.06134033 22.37696457 211 225 212
245700.45532227 3357505.36416626 23.85894203 151 191 180
245696.57592773 3357499.28048706 21.06587791 247 255 242
245695.13940430 3357499.47457886 21.05756950 152 162 151
245693.28381348 3357504.46209717 19.40811920 149 160 166
245696.97222900 3357499.10723877 23.62421036 144 159 140
245700.56811523 3357505.05102539 19.85665512 32 46 47
245693.05773926 3357499.85498047 19.43003464 212 214 209
245694.80859375 3357503.66094971 22.61248779 135 147 133
245694.61956787 3357504.09591675 22.44723320 234 246 234
245694.61407471 3357502.79577637 22.58882904 222 225 216
245697.26525879 3357505.22189331 22.61849403 98 129 114
245695.05096436 3357504.74176025 20.42850685 136 156 145
245697.19409180 3357501.92587280 25.04677010 183 193 194
245699.26025391 3357500.44299316 20.10556793 88 105 97
245699.43438721 3357500.15829468 20.06686020 100 119 115
245695.93957520 3357504.38760376 23.60686111 151 171 144
245695.99359131 3357501.39471436 21.30264473 148 171 153
245693.64288330 3357505.71157837 19.38801956 124 138 151
245700.57189941 3357503.07452393 24.90786934 144 169 148
245696.67681885 3357505.02630615 22.78868294 216 225 222
245695.78967285 3357501.85348511 25.09811211 175 185 184
245700.41210938 3357502.11187744 24.50301933 90 119 97
245694.40643311 3357501.35412598 20.11925888 226 221 215
245695.23834229 3357504.88366699 20.23660851 164 176 164
245695.59399414 3357500.81307983 23.33524513 91 103 93
245697.64929199 3357503.63623047 19.78175354 165 193 179
245694.09368896 3357503.58035278 19.39936447 85 93 96
245698.51550293 3357502.89520264 19.91463470 129 147 135
245697.56829834 3357501.78250122 25.00454330 180 191 195
245700.12426758 3357501.21780396 22.12759590 167 177 150
245699.40667725 3357500.47839355 25.07913399 186 205 209
245697.15734863 3357499.09567261 23.30264091 153 164 156
245699.64288330 3357498.34243774 20.85361099 49 60 62
245694.92089844 3357505.13241577 20.24514580 137 152 149
245695.64624023 3357504.11410522 20.59358025 235 246 232
245695.82281494 3357499.97616577 23.17304420 76 93 83
245695.49829102 3357504.59191895 21.51621246 155 167 153
245698.30578613 3357503.79989624 19.76020050 168 197 193
245700.41571045 3357503.84527588 24.90550995 164 187 181
245694.60290527 3357505.30307007 24.14137650 245 250 244
245696.98876953 3357504.31359863 21.43836975 131 156 127
245695.34625244 3357504.38427734 20.57126999 150 168 152
245694.39007568 3357499.63766479 24.89496994 254 253 249
245700.44128418 3357501.99822998 19.76047897 65 70 73
245697.28173828 3357505.65576172 25.00043678 167 192 189
245695.41809082 3357503.73394775 20.25846481 185 197 187
245694.53564453 3357500.73953247 24.63688278 235 247 247
245694.20977783 3357504.15008545 19.42465591 143 147 156
245694.40118408 3357499.19424438 23.12549973 254 255 251
245694.68560791 3357502.81213379 22.24226379 159 176 158
245695.98999023 3357505.04455566 22.55539131 219 225 215
245694.52642822 3357502.67575073 20.14614487 244 243 241
245700.44458008 3357501.01666260 24.71379662 105 132 113
245699.37066650 3357499.64337158 20.38627052 150 161 147
245698.43109131 3357498.91394043 22.25035095 111 127 116
245694.77050781 3357501.60580444 20.18370247 187 208 201
245696.72784424 3357504.75814819 21.39277840 134 164 140
245699.37255859 3357499.25836182 20.18428040 128 148 136
245699.85595703 3357498.37338257 22.30156898 104 110 98
245700.43859863 3357504.82437134 22.23249435 87 109 97
245693.97070313 3357504.61212158 19.39548683 118 127 134
245699.29534912 3357502.04479980 21.44687843 108 127 105
245698.94189453 3357501.95721436 19.64862823 99 109 101
245699.32556152 3357504.83889771 24.00545311 77 101 87
245700.20538330 3357504.03475952 23.51338768 146 169 141
245695.82049561 3357501.76095581 23.30821609 71 88 78
245695.89843750 3357503.35589600 25.01519012 208 224 224
245699.63787842 3357498.97360229 20.24655151 190 203 186
245700.25573730 3357498.53564453 21.00256348 217 216 185
245699.47235107 3357503.03286743 20.94633484 184 205 190
245699.64123535 3357501.17175293 25.00424767 161 185 189
245696.29669189 3357499.16421509 22.48366737 218 226 213
245699.76434326 3357500.96295166 19.99140930 119 136 128
245698.62847900 3357498.67019653 20.02304840 218 201 181
245697.86529541 3357503.27279663 19.77996635 168 189 180
245696.80047607 3357502.51565552 25.12981987 238 247 246
245698.62310791 3357502.89956665 20.13749886 115 135 123
245696.32946777 3357500.53561401 20.17337227 244 245 240
245696.94531250 3357505.31582642 22.27210808 124 150 139
245700.17907715 3357505.05517578 23.60742760 141 177 165
245697.72363281 3357505.22534180 20.22743416 169 203 204
245700.04589844 3357505.16452026 24.90776443 167 181 181
245698.63073730 3357503.91595459 21.57190514 147 158 142
245695.59844971 3357502.67071533 21.63771820 104 124 112
245696.10369873 3357504.38385010 20.16020393 165 178 168
245699.78607178 3357498.99798584 20.67103004 217 225 210
245696.14953613 3357500.05963135 20.91631699 124 138 121
245696.42364502 3357499.44116211 22.86928177 98 111 94
245698.00030518 3357504.75515747 23.68009186 48 76 62
245696.83575439 3357505.29360962 23.64312935 162 196 182
245696.22509766 3357502.11148071 23.07172966 78 95 85
245696.27722168 3357503.81716919 22.52001572 113 135 132
245700.16021729 3357501.33224487 22.76556587 138 154 143
245695.23687744 3357504.07562256 22.30449867 142 154 144
245698.15454102 3357500.98419189 25.14217758 229 227 230
245694.58142090 3357499.36865234 23.58854485 180 198 182
245695.73529053 3357500.96527100 25.13210297 173 189 189
245700.36853027 3357501.47543335 24.74220467 131 160 138
245695.04724121 3357504.29522705 24.19057655 115 130 123
245697.27795410 3357499.34411621 23.72906876 90 104 89
245699.70379639 3357501.42208862 21.84989929 119 139 114
245695.47253418 3357501.92642212 21.72559357 170 188 172
245694.66308594 3357505.13818359 21.94059563 208 224 213
245698.43426514 3357499.19247437 23.75632477 156 170 155
245696.95086670 3357505.18676758 22.10916138 113 137 124
245697.22424316 3357504.17852783 21.35361290 91 119 97
245693.50378418 3357502.76965332 19.41278458 142 152 151
245700.46575928 3357504.95056152 24.16917801 119 148 126
245699.56762695 3357498.34176636 20.92190552 61 72 78
245699.24389648 3357498.74499512 20.07224274 169 163 147
245697.34777832 3357499.07727051 22.13413048 127 147 136
245699.77484131 3357497.66522217 19.42524910 140 140 132
245698.32653809 3357504.79919434 19.86679649 146 170 170
245696.52850342 3357504.92996216 24.16156197 105 138 119
245700.28820801 3357500.61923218 24.17443657 99 126 95
245694.20654297 3357499.20623779 19.99022484 196 189 179
245700.17852783 3357501.29528809 22.72048950 132 148 138
245694.90130615 3357501.00903320 22.84745407 110 128 116
245695.77539063 3357503.78707886 23.63667297 75 96 91
245699.94653320 3357504.87649536 19.95435905 137 154 146
245696.22894287 3357504.99725342 20.15026855 165 172 164
245696.84051514 3357504.97976685 20.92784500 164 187 161
245694.85211182 3357505.67886353 19.46002388 51 55 64
245698.11871338 3357498.91241455 22.67539597 183 194 178
245695.68634033 3357502.76919556 23.77914047 55 68 59
245699.53741455 3357500.55966187 21.71595383 174 188 153
245696.57220459 3357499.09808350 20.31230736 235 230 224
245696.60711670 3357504.28540039 20.35722351 150 168 152
245699.62023926 3357498.77230835 22.86650276 147 168 151
245697.33758545 3357499.04681396 22.21181488 127 147 136
245700.18164063 3357498.26452637 22.05472755 201 204 185
245699.77447510 3357504.64031982 21.85453796 62 94 83
245699.58270264 3357503.25146484 21.12063789 173 190 172
245698.41448975 3357503.76223755 21.41187286 136 154 138
245693.42199707 3357502.66589355 19.41474724 179 185 185
245695.26123047 3357504.93872070 21.86451340 171 192 173
245696.42309570 3357505.11401367 24.47687340 120 154 138
245694.48608398 3357500.32476807 22.60419273 246 252 250
245695.49273682 3357499.75643921 20.76419449 146 154 141
245696.19458008 3357502.38833618 23.23026466 47 62 55
245699.81604004 3357501.37564087 20.01347923 58 73 70
245696.65045166 3357505.48980713 24.82575226 150 176 165
245700.52978516 3357503.19757080 24.28489494 98 119 104
245697.34674072 3357499.01193237 24.22131157 176 190 175
245696.89300537 3357505.50473022 19.83725166 82 82 90
245695.63244629 3357499.73483276 21.12291908 152 166 153
245699.76379395 3357499.40240479 23.14575577 146 169 127
245700.32147217 3357505.34100342 22.08749771 128 159 153
245695.72399902 3357505.20162964 22.19316292 150 175 156
245694.30468750 3357504.84005737 19.43331909 106 109 114
245700.51647949 3357503.74630737 24.32942963 88 113 94
245698.90100098 3357502.97839355 20.50299644 121 142 127
245696.14282227 3357504.93228149 22.79656982 124 142 130
245696.14477539 3357499.73965454 21.59900856 155 164 145
245700.37365723 3357501.61041260 24.78326797 129 158 138
245695.00860596 3357504.99911499 22.85493279 154 171 152
245695.03173828 3357501.24649048 20.09999084 143 148 142
245694.34661865 3357504.43389893 19.80832291 111 112 117
245694.83221436 3357499.75521851 20.41444206 186 196 188
245695.48217773 3357503.51315308 22.36803627 103 125 113
245697.26721191 3357499.06710815 24.17195129 183 194 178
245699.36456299 3357502.35769653 19.82805252 66 78 74
245699.38861084 3357500.76214600 21.58032036 117 135 113
245697.60565186 3357499.12808228 22.97369003 119 133 120
245698.37249756 3357503.81155396 25.13802719 203 204 206
245694.81793213 3357505.10592651 20.70265007 219 232 225
245694.94970703 3357500.91171265 20.08697510 131 140 135
245700.39648438 3357503.33535767 23.40570831 109 134 112
245695.82733154 3357498.67578125 19.54172516 241 234 224
245695.17510986 3357499.15905762 22.72047806 124 145 130
245695.12945557 3357504.91189575 23.28141403 164 183 164
245694.90289307 3357505.13061523 21.25265884 188 208 197
245700.09381104 3357505.31814575 22.51089859 55 81 78
245694.18743896 3357502.82519531 19.42855453 113 96 88
245697.56060791 3357503.49450684 19.87970543 168 191 175
245697.12365723 3357505.37271118 19.93731117 42 50 53
245695.61810303 3357505.34649658 19.91918182 72 90 94
245696.31817627 3357504.84140015 24.90562439 173 192 196
245699.70324707 3357501.00070190 25.04285431 196 216 215
245697.44799805 3357503.51580811 20.36009789 131 153 130
245699.71051025 3357500.64675903 24.95136452 174 200 201
245695.18640137 3357500.66384888 23.89102173 56 71 68
245699.15844727 3357505.10400391 24.32707214 59 89 77
245694.81182861 3357504.04406738 20.18052483 174 203 199
245700.20556641 3357501.45834351 24.78325272 249 249 241
245695.60302734 3357499.78002930 20.71218872 155 166 158
245696.92791748 3357504.26672363 20.04747009 203 220 210
245698.69348145 3357505.60430908 24.98114967 157 172 169
245697.13482666 3357505.07290649 22.96730614 98 118 107
245696.94879150 3357499.76043701 25.14873695 157 169 159
245699.90490723 3357504.91387939 19.98555756 123 138 131
245700.48406982 3357505.07568359 22.90814781 110 133 123
245693.71520996 3357500.19342041 19.43596840 210 207 200
245695.61749268 3357504.41973877 21.60742760 171 192 175
245694.71807861 3357502.26342773 20.20923805 200 222 219
245697.14520264 3357505.32391357 23.89900589 64 94 82
245695.10217285 3357500.83358765 22.81622696 175 186 180
245695.42858887 3357504.70965576 23.82834816 156 181 149
245698.08288574 3357504.30380249 19.71861458 178 203 197
245695.94604492 3357498.33786011 19.41670990 241 238 229
245699.55743408 3357503.29177856 21.02303696 143 159 146
245694.58172607 3357501.17788696 22.36733818 186 201 182
245695.21728516 3357502.73571777 24.03891182 69 85 75
245696.74822998 3357498.77511597 20.00996399 186 176 166
245695.53796387 3357501.27093506 20.16414833 222 228 218
245694.21685791 3357503.09796143 19.47007561 126 106 99
245698.89904785 3357503.54672241 21.29237747 143 157 140
245694.69952393 3357504.98391724 22.67459679 206 211 204
245694.30303955 3357499.34255981 20.07040596 212 212 202
245697.24291992 3357498.32397461 19.43238449 240 236 227
245699.72821045 3357504.87286377 23.44720840 109 136 121
245695.48315430 3357504.35415649 20.77723503 178 191 174
245696.57366943 3357502.54605103 25.01537895 186 195 190
245699.15930176 3357499.49551392 20.98210526 72 92 81
245696.95788574 3357504.57739258 19.95190620 145 160 155
245698.41052246 3357499.46264648 21.04039955 112 132 123
245696.10131836 3357502.62133789 23.41020393 63 78 73
245698.81439209 3357502.60324097 25.12318420 190 206 196
245696.02954102 3357504.59805298 21.78205109 108 141 122
245700.45434570 3357500.86056519 24.43272591 100 128 105
245700.33837891 3357502.12072754 19.88943100 70 84 87
245694.87963867 3357502.76568604 22.12513351 141 159 143
245700.47760010 3357502.59548950 24.46380424 110 142 118
245699.93463135 3357498.55206299 19.62337494 218 203 184
245697.74169922 3357505.54354858 19.52398300 56 56 64
245699.95306396 3357505.24221802 20.11920166 147 159 157
245696.39965820 3357499.99127197 20.19158173 208 215 207
245694.93750000 3357505.21798706 23.87412834 127 148 129
245697.97583008 3357499.33245850 21.34315109 123 139 128
245700.48352051 3357502.52413940 19.74062347 57 60 65
245698.43670654 3357501.58071899 25.14048004 197 209 209
245694.81646729 3357499.52362061 22.04750443 209 220 206
245697.22180176 3357504.68844604 21.77050400 153 176 150
245695.84576416 3357503.06027222 23.60498619 77 88 82
245693.57257080 3357498.73403931 19.45181274 244 240 237
245693.95568848 3357504.03616333 19.40472603 58 65 73
245694.96252441 3357505.60223389 19.57674217 83 86 93
245696.32501221 3357504.88150024 24.25305367 113 144 128
245700.46942139 3357504.99060059 23.89261627 125 153 131
245695.08312988 3357500.03482056 22.81368828 144 164 152
245697.14025879 3357499.13891602 23.39735413 113 125 115
245694.89190674 3357505.47494507 25.07785416 156 168 164
245695.55847168 3357499.49346924 21.72723389 180 191 175
245699.11236572 3357502.34527588 19.70670700 87 99 95
245696.31140137 3357503.89639282 25.03309250 211 224 215
245695.82702637 3357505.28759766 22.32205391 134 155 140
245699.73187256 3357499.18719482 23.17817688 58 71 51
245695.72497559 3357505.62911987 25.01402855 180 203 197
245699.43475342 3357499.63031006 20.18753433 123 143 132
245695.72497559 3357504.14886475 21.01212883 164 178 163
245700.29876709 3357499.11221313 24.15910721 114 138 124
245695.30358887 3357504.75024414 21.48806000 172 188 175
245694.55139160 3357499.45193481 24.51651192 171 183 171
245696.09216309 3357503.74566650 24.99510956 205 225 216
245698.92266846 3357502.06674194 25.13207626 184 190 186
245699.16363525 3357498.84042358 24.56430817 111 127 116
245696.86743164 3357498.92880249 23.88728714 110 121 105
245695.72607422 3357501.92877197 21.46430969 139 162 142
245695.06689453 3357502.07434082 25.11858559 179 182 175
245696.03869629 3357500.15023804 21.19222641 131 149 137
245694.69769287 3357499.32830811 22.89556122 139 161 140
245700.18670654 3357504.74429321 19.81588554 78 91 82
245696.25671387 3357503.70184326 24.97123909 209 228 222
245695.15832520 3357504.15447998 20.30645943 155 166 152
245695.51910400 3357503.54568481 21.65371513 161 185 171
245696.78582764 3357502.75329590 25.14088249 229 234 227
245696.26165771 3357502.88317871 23.16481400 68 85 77
245699.84527588 3357504.87313843 23.90333939 65 97 82
245694.97143555 3357502.02746582 24.17436028 69 84 77
245700.21423340 3357505.25143433 20.31979752 153 180 175
245696.64776611 3357498.96459961 20.52364922 244 244 234
245695.79345703 3357503.33477783 20.31720924 244 247 238
245694.71520996 3357499.68316650 20.41933060 187 193 189
245697.57733154 3357505.22830200 24.17981339 43 79 67
245696.09259033 3357500.35653687 20.11807060 205 215 207
245700.48028564 3357503.18518066 23.21960640 108 133 111
245695.77947998 3357502.85839844 21.48635292 118 139 124
245699.62866211 3357498.93258667 24.76646042 201 213 203
245697.25341797 3357499.16348267 21.60068703 111 123 121
245700.29571533 3357502.61343384 23.71932602 109 134 112
245695.74334717 3357499.75479126 23.35536003 86 106 95
245700.22796631 3357502.40093994 23.43030167 102 130 108
245695.71453857 3357500.35534668 20.14134979 160 175 168
245694.33807373 3357500.16690063 24.99113083 244 240 237
245700.37628174 3357498.72274780 21.11498451 211 214 193
245699.52691650 3357499.02807617 23.47827530 79 104 83
245695.36389160 3357503.10635376 24.94136238 197 217 215
245693.35046387 3357504.70242310 19.40593529 148 157 164
245696.89453125 3357504.08621216 21.12704659 123 145 122
245695.08984375 3357503.53457642 20.18781662 158 172 172
245696.37237549 3357504.55606079 23.73994064 124 157 140
245695.58966064 3357500.00204468 20.38907051 141 152 138
245698.65856934 3357499.51568604 21.08366585 126 142 132
245700.31848145 3357502.39620972 19.94364357 88 102 103
245694.20581055 3357501.30133057 19.52047539 227 217 205
245696.83581543 3357505.00482178 21.54972839 154 188 164
245694.72460938 3357499.20977783 20.74996567 199 213 200
245699.41564941 3357500.49456787 25.07280159 186 205 209
245698.83532715 3357502.63586426 20.33516693 155 176 169
245700.55407715 3357505.28494263 24.46283722 101 138 120
245696.63842773 3357504.38656616 21.11920357 111 135 121
245695.41741943 3357501.93200684 23.87368584 66 83 75
245700.15539551 3357501.77230835 23.98485374 117 144 113
245699.65429688 3357500.69531250 21.79348373 144 157 129
245697.40698242 3357505.39660645 19.80943680 58 67 66
245694.34686279 3357504.26828003 19.75399590 95 99 102
245699.32403564 3357503.68545532 25.12284088 179 190 192
245694.73590088 3357500.07406616 22.72807693 163 177 164
245700.22882080 3357500.11322021 24.82204628 204 216 204
245696.86053467 3357498.90222168 23.16248703 169 182 172
245699.17547607 3357498.84945679 24.91565323 190 205 200
245698.77996826 3357501.97311401 19.60717964 108 119 105
245693.07769775 3357503.44677734 19.42457962 131 140 145
245694.09863281 3357505.65344238 19.38995934 153 161 174
245697.16705322 3357504.55966187 21.67876244 140 164 138
245698.76013184 3357502.11383057 19.62574577 115 127 117
245697.57757568 3357503.24374390 19.93824577 119 137 125
245698.93762207 3357501.97052002 19.64084625 96 106 98
245698.03106689 3357504.38623047 19.73332405 183 204 199
245699.74163818 3357504.82992554 23.30538750 109 131 118
245699.85168457 3357499.59121704 24.90962029 174 194 193
245697.05133057 3357498.98712158 20.27038002 185 196 188
245696.29791260 3357500.12176514 20.44868088 228 239 225
245699.88897705 3357503.61563110 24.91073036 168 192 194
245698.17047119 3357501.95852661 25.10334969 157 163 159
245696.54711914 3357504.67715454 22.80445671 115 127 115
245695.31066895 3357502.02392578 25.12298584 171 174 167
245694.99468994 3357504.22979736 25.06965065 192 194 189
245694.60510254 3357499.68316650 20.40320587 198 205 197
245697.63977051 3357498.92910767 24.23666954 128 146 134
245697.98052979 3357503.40664673 20.66868019 115 138 120
245695.02142334 3357505.01110840 21.42901802 204 222 210
245698.06207275 3357504.16094971 25.10470963 181 181 181
245698.27490234 3357499.16085815 20.04091644 251 254 247
245700.53771973 3357505.12533569 23.46840096 129 157 142
245699.74310303 3357505.05160522 22.66077995 129 157 143
245696.46063232 3357504.88906860 22.72148514 214 222 211
245697.26354980 3357504.59088135 21.72008133 135 159 133
245696.14398193 3357501.07522583 20.94311905 166 180 165
245695.53332520 3357502.09393311 25.12003517 176 178 173
245699.07537842 3357502.61453247 25.10487366 194 210 209
245695.85473633 3357505.03079224 24.40110207 134 168 141
245695.55633545 3357499.02700806 19.96613312 232 238 226
245695.41680908 3357503.30209351 20.13334084 164 179 174
245698.20629883 3357498.96765137 22.29230881 86 104 92
245699.03332520 3357499.47171021 21.06912041 55 74 68
245694.66131592 3357500.42419434 22.30482292 204 217 200
245694.32806396 3357505.01657104 19.60955620 108 109 114
245696.04791260 3357504.76126099 21.86954880 127 156 138
245697.33654785 3357499.35214233 23.74279213 97 111 98
245695.15069580 3357499.78622437 25.13817787 184 185 179
245695.70989990 3357499.33346558 23.34223747 219 226 219
245694.80914307 3357501.66409302 25.06501198 172 177 171
245698.67340088 3357502.08831787 19.65310097 162 174 160
245700.24987793 3357498.46865845 23.16359138 214 217 200
245698.32971191 3357504.96435547 22.77625275 113 135 122
245695.84069824 3357501.64028931 25.03021431 180 196 195
245698.54992676 3357502.21414185 20.35739517 160 178 164
245695.03997803 3357499.35870361 21.86998749 152 156 139
245695.03442383 3357504.94223022 22.89597511 162 185 169
245700.63195801 3357505.11862183 25.03858948 152 171 175
245696.96533203 3357503.53738403 25.11311150 187 199 197
245697.08001709 3357502.32711792 25.04653358 178 190 188
245700.27478027 3357499.45324707 22.52766418 110 122 110
245696.47918701 3357505.14901733 20.19245720 243 245 240
245696.16760254 3357499.36114502 19.95507813 195 198 189
245697.48492432 3357504.89181519 25.01222992 166 181 184
245698.75421143 3357504.18658447 19.84780693 155 190 186
245699.04718018 3357501.10107422 25.13193321 193 211 215
245696.37152100 3357504.11898804 22.49428368 91 113 110
245695.28363037 3357503.19763184 24.98409843 195 214 212
245695.55560303 3357500.72753906 21.66011047 181 195 178
245696.69982910 3357505.14462280 23.46478844 158 191 180
245697.15686035 3357505.09500122 25.05934906 156 172 172
245695.35137939 3357504.46841431 20.89275169 161 179 165
245695.76855469 3357502.99954224 20.55063438 246 248 243
245699.93511963 3357503.30920410 19.88330269 192 204 200
245699.95825195 3357504.02890015 24.94197464 153 169 168
245696.05358887 3357500.47323608 21.20238686 124 142 130
245700.31268311 3357504.10006714 22.46068382 129 154 135
245694.67761230 3357503.79922485 22.28815842 166 186 175
245698.61364746 3357504.49966431 25.13326454 176 178 175
245693.38586426 3357499.93753052 19.43064308 234 234 224
245696.94732666 3357504.84170532 21.71963882 195 221 196
245695.54107666 3357502.31277466 25.11803627 181 186 180
245694.80352783 3357502.27221680 22.18390656 180 197 179
245698.45208740 3357503.11175537 20.41269112 113 131 119
245695.75762939 3357503.25506592 23.23181915 107 121 108
245698.27478027 3357499.32885742 23.50132751 133 148 141
245694.90618896 3357501.93002319 24.20589447 70 91 84
245694.80737305 3357499.15112305 21.26095009 157 166 163
245699.07061768 3357504.91427612 24.08981895 106 129 113
245695.71087646 3357500.66751099 21.51558685 172 186 169
245694.66540527 3357505.46350098 23.18684578 173 206 199
245699.10015869 3357498.95895386 21.41154289 129 140 132
245695.41137695 3357502.84579468 22.60933876 107 131 118
245700.43225098 3357502.89767456 22.83626175 119 144 122
245699.70397949 3357504.41290283 25.13494682 149 154 150
245700.11853027 3357498.50854492 19.59321213 212 200 186
245696.82666016 3357504.95108032 20.20123100 155 176 157
245697.60595703 3357503.48114014 20.48665810 130 154 132
245700.49291992 3357504.89968872 21.71599388 128 145 129
245697.97778320 3357505.46325684 19.74770546 95 94 99
245700.64459229 3357500.28323364 25.11467171 134 154 152
245695.92877197 3357502.65048218 22.45506859 181 202 187
245694.62005615 3357505.53482056 19.78127098 80 84 95
245695.47106934 3357503.29776001 22.88836098 107 130 120
245697.68280029 3357499.35421753 20.43622017 94 102 89
245698.97149658 3357502.73242188 20.45103836 163 185 172
245695.49011230 3357500.81295776 22.92688751 209 219 211
245695.05285645 3357500.66314697 20.07024002 133 143 135
245700.17785645 3357499.13467407 20.68824387 131 152 143
245700.18579102 3357505.25143433 21.21710205 165 192 187
245700.40124512 3357504.91998291 22.62123108 86 105 99
245695.23132324 3357504.59234619 20.84547997 164 182 168
245699.48931885 3357505.22457886 25.10669899 157 161 160
245694.98962402 3357505.00967407 23.15386772 174 195 176
245698.52239990 3357504.47830200 19.78471184 169 195 194
245695.03973389 3357499.34024048 20.62170029 196 207 199
245695.84411621 3357501.63473511 21.29424286 206 226 201
245698.41857910 3357500.79067993 25.15231705 189 203 204
245699.67132568 3357498.64587402 22.31659317 221 233 213
245699.14691162 3357505.30209351 19.77535057 86 96 97
245695.66760254 3357501.75909424 21.44313812 132 148 135
245695.48376465 3357505.57608032 19.55759048 110 109 117
245696.58825684 3357504.81973267 22.33825684 109 132 124
245696.89331055 3357505.12496948 21.00347900 161 187 162
245695.16705322 3357499.41632080 21.03708458 180 190 179
245694.94262695 3357503.49880981 22.04805946 141 165 151
245699.99682617 3357503.46826172 19.77701950 119 130 124
245695.71942139 3357502.84902954 23.73806763 59 72 65
245695.93695068 3357503.96868896 21.04195404 181 196 177
245694.75836182 3357502.81024170 22.69207001 188 194 184
245695.65356445 3357504.10464478 20.69403648 162 174 160
245694.24383545 3357501.58798218 19.72254753 217 198 183
245695.19104004 3357505.51449585 25.10607529 179 194 189
245694.64843750 3357498.95590210 22.79802895 222 237 234
245700.17822266 3357501.57537842 22.72770500 98 116 100
245696.50103760 3357499.38821411 20.23827934 193 194 188
245698.01281738 3357499.31613159 21.70792961 129 150 135
245695.66699219 3357503.33801270 22.71800423 121 147 134
245696.01800537 3357499.26882935 24.35513115 141 159 137
245699.69128418 3357503.69500732 25.00171471 162 183 186
245695.49810791 3357504.86898804 23.24111366 137 159 136
245700.50781250 3357500.58480835 24.90847778 135 163 141
245694.80767822 3357499.56439209 25.08535576 187 186 181
245695.54235840 3357504.12643433 20.52476311 226 233 215
245695.05743408 3357502.42861938 22.46730804 175 186 178
245697.58746338 3357498.56225586 19.45781708 238 226 214
245695.64251709 3357500.03735352 21.51985168 197 214 196
245695.79357910 3357504.02154541 20.83312988 167 181 164
245695.97033691 3357503.21844482 23.02375221 197 208 192
245696.70587158 3357505.16534424 23.23375702 161 194 183
245694.55120850 3357501.67929077 22.55353928 229 239 231
245700.41497803 3357499.01577759 25.00281715 165 187 174
245696.73742676 3357505.17416382 23.53263664 154 184 174
245694.86999512 3357505.44406128 23.72708130 153 184 166
245699.73034668 3357505.45022583 24.86380386 146 171 165
245694.88964844 3357505.37231445 25.03967094 187 196 191
245698.56701660 3357503.41943359 19.70070648 148 173 167
245694.89868164 3357499.26248169 21.50187111 198 204 192
245694.74865723 3357505.13378906 20.99648285 217 229 225
245697.84094238 3357499.41250610 20.78613472 80 90 81
245699.66503906 3357505.56155396 25.05068779 156 175 171
245693.93725586 3357504.70437622 19.39626503 137 146 153
245695.16125488 3357503.66281128 20.21560097 123 138 133
245699.23620605 3357500.67004395 21.40976715 114 132 110
245700.40759277 3357503.36251831 23.65934181 106 134 112
245697.57098389 3357505.44125366 24.74802780 132 162 152
245694.61041260 3357500.67596436 22.60542488 232 238 234
245700.14770508 3357499.17736816 23.27565384 113 135 114
245699.86151123 3357499.11984253 20.80770111 108 120 110
245695.49060059 3357498.28628540 19.44352722 241 242 236
245695.44256592 3357501.36114502 23.76033401 176 200 178
245694.36663818 3357499.50338745 20.06267738 224 218 204
245699.24249268 3357498.87872314 24.63449669 135 148 138
245696.98699951 3357498.98590088 23.01516151 159 175 165
245694.95849609 3357501.95074463 25.10718536 179 180 174
245694.57196045 3357500.59823608 22.34449577 193 210 192
245693.67718506 3357505.25268555 19.40480042 171 183 195
245696.73144531 3357504.65026855 21.17791557 144 169 140
245695.20129395 3357499.42486572 21.87737465 189 198 179
245698.48516846 3357501.79290771 20.43928146 120 138 126
245700.37219238 3357505.24230957 23.04043579 134 177 170
245699.33746338 3357499.14797974 21.13213921 60 79 77
245700.23187256 3357504.25207520 23.40299225 160 183 157
245694.17883301 3357499.57479858 19.68292236 235 219 206
245699.48156738 3357498.92602539 22.16345787 83 93 82
245700.18444824 3357500.78356934 20.20142174 152 183 175
245696.55596924 3357503.79763794 20.56145668 130 141 125
245695.45782471 3357499.47167969 23.71332550 225 235 224
245695.05926514 3357503.34951782 25.03506660 205 221 221
245694.91223145 3357505.23239136 23.49043083 114 136 124
245696.00952148 3357502.18725586 25.12893867 185 192 185
245694.68750000 3357499.85922241 22.27106857 195 205 196
245694.96136475 3357500.94964600 22.85905457 105 120 113
245699.21301270 3357497.75650024 19.44117165 242 235 219
245696.99005127 3357503.50827026 25.11277008 172 182 181
245698.58056641 3357498.15307617 19.45630074 241 232 223
245697.26141357 3357504.73419189 25.08230209 159 169 170
245695.40313721 3357502.93246460 21.74272156 118 138 126
245698.76153564 3357503.91110229 19.79642868 151 187 183
245694.83477783 3357498.40292358 19.45030594 241 236 230
245700.38012695 3357498.91027832 24.02944756 111 137 128
245699.30706787 3357500.41616821 25.12751198 184 193 198
245700.29278564 3357502.58023071 23.82015228 95 123 100
245697.97064209 3357503.19848633 25.00132751 222 234 232
245696.49151611 3357499.98526001 20.36092186 106 121 114
245699.67773438 3357502.65170288 21.52349854 148 163 144
245696.96508789 3357503.96771240 25.12557220 163 168 164
245699.65997314 3357502.55886841 24.94014740 177 199 197
245700.31292725 3357500.30416870 19.87903214 48 62 62
245697.84881592 3357499.22573853 21.91523361 128 145 135
245699.03582764 3357505.49957275 24.88781738 157 174 168
245695.20983887 3357499.16638184 22.70373726 150 166 153
245699.99993896 3357505.23150635 24.45200920 124 155 147
245695.13671875 3357498.75552368 19.74300766 235 218 200
245698.82189941 3357502.88809204 20.05022240 115 131 128
245693.69519043 3357498.83740234 19.44942474 234 231 226
245694.12145996 3357501.08340454 19.47260284 240 233 223
245700.21002197 3357504.06689453 19.71209335 212 222 214
245695.79510498 3357505.06213379 20.17677879 104 106 103
245696.24273682 3357501.00238037 20.54983521 133 136 125
245694.87225342 3357499.17987061 20.62239647 100 107 99
245700.41888428 3357501.10565186 25.17004395 202 220 224
245696.06378174 3357504.39099121 25.08296776 172 176 175
245700.30279541 3357501.49465942 24.87079048 215 217 216
245695.47924805 3357504.78359985 24.08832741 127 164 130
245699.18011475 3357499.33511353 21.09516716 62 79 73
245695.20306396 3357504.35650635 22.18031502 190 203 193
245696.06365967 3357499.99938965 21.31311417 180 186 172
245699.90808105 3357504.90856934 23.65218735 80 107 92
245694.74591064 3357503.43991089 20.24409103 203 218 211
245700.32812500 3357502.13345337 24.29514122 89 117 95
245697.48657227 3357499.41427612 24.97149849 167 186 182
245699.49700928 3357499.10568237 20.34463310 199 211 197
245694.76422119 3357502.61532593 20.22227478 180 204 208
245694.94183350 3357503.46575928 22.04576683 147 169 156
245695.08624268 3357499.36166382 20.74579811 188 198 189
245696.08563232 3357501.93585205 20.57313156 142 156 141
245696.80908203 3357498.66213989 19.49255943 235 231 219
245695.50054932 3357504.92401123 25.10037994 168 173 167
245696.97521973 3357505.32614136 23.72412682 129 161 146
245698.76678467 3357499.19061279 23.42156601 92 109 101
245697.84924316 3357504.95288086 23.96536255 46 80 66
245700.36920166 3357503.65988159 24.88337708 184 207 201
245693.06469727 3357502.95776367 19.42091751 128 138 139
245699.61962891 3357500.27764893 20.02593994 100 121 116
245697.49554443 3357499.31845093 20.54082108 92 102 93
245694.56378174 3357498.94293213 21.69921303 201 221 212
245695.84704590 3357501.52020264 24.98807144 179 197 197
245695.18865967 3357499.19058228 22.23158455 152 163 147
245695.77331543 3357502.74902344 20.31379318 239 240 234
245695.23779297 3357502.73919678 21.87673569 121 139 127
245696.23803711 3357504.76107788 21.78820419 142 165 149
245695.23760986 3357505.05307007 25.07589149 173 179 175
245698.71386719 3357504.42977905 23.35403824 104 120 109
245698.99041748 3357499.15066528 23.71499825 66 95 77
245694.33551025 3357499.49914551 20.02622986 217 210 194
245696.93499756 3357502.27041626 25.08650589 180 195 192
245700.53283691 3357503.52435303 24.36466599 99 124 105
245700.22039795 3357504.70550537 22.88277817 99 125 112
245696.01983643 3357501.32458496 20.29757881 243 246 229
245695.03662109 3357504.97592163 23.50244331 156 173 154
245699.79718018 3357502.68701172 19.97389984 90 101 97
245699.62420654 3357500.26757813 25.03184128 182 197 202
245694.72839355 3357500.21115112 22.27566147 202 215 198
245700.04663086 3357502.77783203 21.99740219 138 153 134
245694.27142334 3357504.67214966 19.40634346 128 132 141
245699.89123535 3357500.44290161 23.17296028 197 208 176
245695.88537598 3357503.22756958 22.88706017 128 150 137
245700.55242920 3357500.65066528 24.98726082 143 164 145
245694.84075928 3357501.76602173 20.13311958 174 191 185
245700.26019287 3357500.13034058 24.83611107 197 213 202
245697.47705078 3357503.37054443 20.08320808 117 135 121
245699.08453369 3357499.24163818 25.07893753 157 173 173
245699.86669922 3357498.35595703 22.29400063 104 110 98
245693.84558105 3357501.33840942 19.42507553 216 213 206
245699.34338379 3357502.12814331 19.83059502 68 80 76
245695.86419678 3357499.95892334 21.06051064 154 165 148
245699.95159912 3357499.99188232 21.77927589 146 157 127
245695.09576416 3357499.42410278 21.37137604 158 168 157
245697.82244873 3357499.10513306 22.11549950 112 132 120
245695.79180908 3357500.70327759 20.15657997 215 223 212
245697.72271729 3357504.68341064 23.11978531 76 104 90
245696.16986084 3357500.07235718 20.44391251 234 241 233
245698.58648682 3357503.16342163 25.12576485 199 211 211
245696.66381836 3357505.13864136 21.49560738 234 251 243
245698.68762207 3357499.68936157 20.69451523 154 167 157
245699.67565918 3357499.29278564 23.03664780 149 156 138
245699.97515869 3357504.94647217 22.89444542 95 127 116
245700.46008301 3357500.70236206 24.74213600 128 158 134
245694.69964600 3357503.08779907 24.45635605 139 159 148
245700.29522705 3357499.02319336 21.73421860 100 131 116
245693.72796631 3357499.56072998 19.43362236 216 212 200
245695.10388184 3357504.74539185 20.33794403 165 182 174
245694.74108887 3357502.41168213 20.20683479 198 222 224
245697.62451172 3357505.28726196 24.35553169 53 89 77
245696.40374756 3357500.49645996 25.01074600 180 199 193
245696.50329590 3357503.69552612 22.87003899 92 104 94
245697.64483643 3357499.76181030 25.10205078 161 172 164
245697.66333008 3357505.37582397 24.60139084 106 136 126
245699.95416260 3357500.61154175 24.83109665 177 203 204
245700.48944092 3357503.46914673 24.20973015 94 117 99
245695.54101563 3357501.27804565 20.16513252 222 228 218
245699.41168213 3357498.59835815 19.68620110 216 198 178
245694.36541748 3357504.38317871 19.83784294 109 110 114
245699.75140381 3357502.62344360 21.61746025 144 159 140
245696.98614502 3357505.23519897 20.31406975 113 134 129
245696.91302490 3357504.95907593 21.71145058 148 177 155
245694.64556885 3357500.75946045 24.31815720 91 110 106
245696.30718994 3357500.73788452 20.89683723 137 150 141
245699.59429932 3357500.08908081 20.01094437 110 129 125
245696.20520020 3357500.85040283 25.00461960 180 201 196
245696.37457275 3357505.23181152 22.28357315 114 145 129
245697.96850586 3357504.35488892 19.72443581 192 212 203
245699.96838379 3357504.50143433 21.86522675 154 174 147
245695.47930908 3357498.45474243 19.43978691 242 239 230
245695.39013672 3357499.53634644 20.20206642 107 113 103
245697.57177734 3357504.37442017 25.11206627 174 178 179
245695.38146973 3357500.66455078 25.14559746 139 145 143
245699.44036865 3357499.17413330 22.85033035 78 94 83
245695.35467529 3357503.88409424 20.28556442 207 220 203
245699.95477295 3357499.69290161 21.78599548 102 120 98
245694.86773682 3357499.20565796 21.49091148 154 159 152
245698.08795166 3357498.89364624 24.40832520 126 139 122
245699.46575928 3357502.53390503 21.26871681 153 173 161
245699.37072754 3357499.32699585 20.16338158 130 153 137
245697.50891113 3357499.32067871 23.88107109 115 129 114
245696.51013184 3357501.32522583 24.99639511 192 209 203
245697.90045166 3357503.17654419 19.77958298 163 184 175
245695.53826904 3357505.01861572 22.03488731 158 181 161
245695.03161621 3357504.81130981 20.69798470 166 186 174
245698.18566895 3357504.69363403 23.70288086 87 111 97
245698.32696533 3357505.08850098 20.09985161 248 248 240
245700.43676758 3357502.35467529 24.53913307 93 125 102
245695.32696533 3357504.30245972 24.01503754 109 121 117
245697.19421387 3357504.75625610 21.79580688 155 178 152
245700.48120117 3357500.89404297 24.87393379 125 153 130
245699.17871094 3357499.98986816 21.26360321 190 200 166
245694.53869629 3357501.11129761 22.60472488 213 224 210
245695.11437988 3357503.07434082 22.79650688 102 128 119
245698.77752686 3357502.80767822 25.13408279 171 187 184
245696.60375977 3357501.91964722 25.13125992 231 238 231
245697.74639893 3357499.34600830 21.66826820 113 133 121
245695.76428223 3357499.31069946 24.00161171 172 184 162
245700.47222900 3357504.94708252 19.97262573 139 159 157
245695.30371094 3357501.60250854 21.75524712 212 220 207
245695.98718262 3357504.66348267 23.18999481 144 166 153
245699.32495117 3357498.47683716 19.54866982 227 212 193
245700.40838623 3357504.85989380 21.70886230 123 141 127
245695.99188232 3357504.88610840 21.95925522 132 159 142
245699.51544189 3357501.41018677 24.97861862 148 169 174
245700.27545166 3357501.79132080 20.04162025 101 126 120
245695.07519531 3357504.37127686 24.16681671 117 134 126
245700.17407227 3357503.74084473 19.72277641 165 176 172
245695.03417969 3357499.26718140 23.17535210 105 131 102
245694.96710205 3357499.28442383 21.37888908 197 203 191
245696.09490967 3357499.40298462 24.90537453 180 201 192
245694.35418701 3357504.01165771 19.80903244 84 87 92
245698.01446533 3357504.82159424 25.02628517 177 196 202
245695.38372803 3357499.78744507 22.79530334 163 185 173
245694.59759521 3357503.68499756 22.47270012 231 244 235
245699.84564209 3357503.28646851 20.52429199 151 168 158
245695.09301758 3357505.14694214 20.20129585 194 205 201
245699.79382324 3357499.45285034 23.45998955 145 172 129
245694.89971924 3357505.27862549 23.38354111 118 144 131
245700.42181396 3357498.75280762 24.92055893 189 206 196
245695.12951660 3357499.47442627 20.76385307 132 138 128
245698.01605225 3357503.29263306 20.53505707 114 132 116
245695.82379150 3357503.33441162 23.42185020 116 132 121
245694.78417969 3357499.22735596 20.58427811 196 212 199
245695.37512207 3357503.25399780 20.11910820 154 169 166
245698.98895264 3357502.72409058 20.49297905 160 182 169
245698.36206055 3357504.43801880 19.78009796 156 186 186
245696.08837891 3357502.97509766 22.43777466 182 198 185
245700.53192139 3357500.93679810 24.99004745 146 165 146
245696.12487793 3357503.90112305 22.49986076 106 131 127
245698.34185791 3357500.51651001 25.16238785 187 206 204
245694.59960938 3357499.98513794 22.34601974 205 216 208
245694.35229492 3357505.09613037 19.77337265 108 111 118
