246085.73547363 3357521.93560791 16.41056061 78 157 213
246085.65148926 3357520.90966797 16.11033630 99 119 146
246084.09667969 3357522.57336426 16.10985184 128 128 128
246083.98669434 3357522.45599365 16.60931015 38 145 181
246084.77502441 3357519.96655273 14.13216305 173 173 173
246083.49804688 3357522.67370605 16.34007454 13 147 242
246083.82141113 3357521.48242188 16.74497223 0 194 238
246084.42443848 3357521.18395996 14.16694546 218 213 217
246083.21386719 3357521.01617432 16.42765808 2 155 223
246084.15100098 3357521.82391357 14.21029949 196 195 190
246085.47131348 3357522.02252197 16.55330276 37 134 211
246083.32470703 3357522.61413574 16.27067757 140 216 252
246085.21679688 3357521.72845459 16.10304642 128 128 128
246084.79846191 3357521.92791748 16.80541229 45 140 222
246085.27941895 3357522.41290283 16.17640495 128 128 128
246085.34362793 3357520.65734863 16.12483406 128 128 128
246085.40356445 3357522.46435547 16.46503830 74 182 221
246084.22790527 3357521.47735596 16.09814453 128 128 128
246085.34960938 3357521.76837158 16.57629967 35 124 206
246085.66455078 3357522.12268066 16.16605568 128 128 128
246083.05590820 3357521.66058350 16.13590622 137 161 199
246083.85119629 3357522.72058105 16.49309921 23 133 184
246084.44775391 3357522.53564453 14.32846165 209 208 206
246084.37939453 3357521.10778809 16.69138336 194 251 255
246084.99475098 3357521.98254395 14.60519218 183 194 200
246085.44030762 3357520.07983398 16.29546547 118 171 202
246084.08703613 3357522.45745850 16.63397980 167 251 255
246085.51831055 3357522.40643311 16.18675613 128 128 130
246084.99340820 3357520.60412598 16.51201630 20 187 229
246084.22399902 3357520.41796875 16.30449677 169 204 223
246084.40783691 3357521.56475830 14.19294739 182 180 181
246083.43981934 3357521.26379395 14.13702106 200 200 202
246084.32641602 3357521.71923828 14.20771217 204 200 199
246083.25378418 3357521.04504395 14.12184525 164 165 167
246083.07519531 3357521.53228760 14.14641380 195 194 192
246083.15429688 3357521.11541748 16.36805153 9 157 231
246084.73828125 3357520.77069092 16.13408089 128 128 128
246084.52185059 3357521.77551270 14.36543846 162 162 162
246083.98925781 3357520.78833008 16.13986588 128 128 128
246085.28247070 3357522.07958984 16.64624405 26 125 210
246083.09948730 3357521.25140381 16.25837708 22 154 218
246085.53234863 3357522.50494385 16.42107964 146 197 214
246084.13793945 3357521.99694824 16.77876091 9 171 243
246083.36535645 3357522.00610352 16.09545135 128 128 128
246084.33361816 3357521.42150879 16.09989548 128 128 128
246083.98583984 3357522.74578857 16.11861610 128 128 128
246084.20483398 3357520.25811768 14.13107204 187 192 198
246084.47644043 3357522.33514404 16.15239143 128 128 128
246084.87756348 3357520.99084473 14.15379238 194 192 193
246084.65686035 3357520.26092529 16.16252708 208 208 206
246083.26904297 3357520.95593262 16.43829918 42 207 255
246084.24340820 3357522.35760498 16.10068703 128 128 128
246084.18505859 3357521.25311279 14.15493298 206 201 205
246082.52343750 3357520.91003418 14.13807774 162 167 171
246083.31298828 3357521.37030029 16.14034081 128 128 128
246084.56140137 3357521.52313232 14.26860237 191 190 188
246084.61401367 3357520.29400635 16.24946213 128 190 215
246085.51123047 3357522.12902832 16.54231071 29 131 213
246083.14733887 3357521.84674072 16.36208534 26 137 208
246085.23193359 3357521.96337891 16.66515923 25 124 209
246083.56054688 3357522.72174072 16.09444618 128 128 128
246083.28149414 3357521.05688477 16.19127274 68 175 221
246085.57519531 3357522.40368652 16.19229698 129 127 128
246085.48486328 3357520.87359619 16.40922928 27 131 218
246084.21252441 3357520.95623779 14.14624882 176 180 189
246084.47375488 3357522.09655762 16.79579735 7 160 230
246083.75976563 3357520.75744629 14.11422253 153 157 160
246085.00207520 3357522.18011475 16.14641571 128 128 128
246085.55053711 3357522.39044189 14.47213745 53 60 76
246084.77832031 3357521.62774658 16.11290359 128 128 128
246084.18115234 3357522.65124512 16.54158020 18 125 203
246082.35461426 3357522.07086182 14.12076283 188 186 187
246083.14807129 3357521.11535645 16.34630203 9 157 231
246084.81188965 3357521.51763916 16.11372757 128 128 128
246085.48510742 3357520.45703125 16.35576439 49 156 226
246082.88574219 3357522.21099854 14.15037727 200 198 199
246085.22888184 3357520.12225342 16.29643440 93 178 219
246082.97351074 3357520.59039307 14.14409733 179 188 195
246084.69348145 3357519.95983887 14.13009167 167 169 168
246082.79260254 3357522.91912842 14.11328506 176 176 178
246083.04907227 3357521.76873779 16.14651299 207 233 255
246085.62573242 3357521.05072021 16.38162804 19 129 216
246085.78405762 3357522.15240479 16.41360283 80 163 215
246082.39575195 3357522.04968262 14.12233448 194 192 193
246083.46459961 3357522.72082520 16.32925987 14 144 240
246085.73791504 3357521.18475342 16.32809830 23 135 217
246084.13647461 3357520.53259277 16.14767647 128 128 128
246085.37475586 3357521.67828369 14.41870213 113 107 109
246083.43847656 3357522.56610107 16.06502151 128 128 128
246083.90063477 3357521.35394287 16.75079346 62 255 255
246083.14367676 3357522.15570068 16.13160515 236 241 247
246085.36486816 3357521.49688721 16.54289627 95 115 152
246083.81152344 3357521.33209229 16.72455025 28 222 247
246085.74853516 3357522.41149902 16.21122551 125 129 130
246084.62304688 3357522.79840088 16.18644905 128 128 128
246085.45361328 3357521.20135498 16.47555542 7 119 195
246085.23864746 3357520.56030273 16.46878052 18 128 207
246085.85351563 3357521.95159912 16.16400909 128 128 128
246084.77392578 3357520.66094971 14.16199780 175 176 171
246082.35791016 3357521.96075439 14.11967945 197 195 196
246085.10095215 3357520.60797119 16.52470589 81 209 254
246084.63354492 3357520.51062012 16.43389702 50 177 232
246083.86242676 3357521.44702148 16.10389900 128 128 128
246083.98205566 3357521.26965332 16.10874939 128 128 128
246084.78479004 3357522.42388916 14.50223637 217 222 225
246084.34863281 3357522.71234131 16.13813972 128 128 128
246084.60021973 3357522.69165039 16.48311615 24 136 200
246083.59704590 3357520.33337402 14.13267231 150 155 159
246083.42773438 3357520.93408203 16.50174332 26 206 241
246084.37939453 3357522.81665039 16.42785072 51 151 213
246083.01477051 3357521.93328857 14.14822578 192 192 192
246084.49621582 3357522.24511719 16.14329529 128 128 128
246083.98083496 3357520.77862549 14.12092876 181 184 189
246082.60998535 3357522.51538086 14.11958313 200 198 201
246083.77172852 3357522.58905029 16.08941078 128 128 128
246082.90673828 3357521.94097900 14.14356518 197 197 197
246083.52172852 3357522.51269531 16.06589890 128 128 128
246085.18103027 3357520.41009521 14.14158535 155 157 156
246083.91271973 3357522.58966064 14.15977478 212 208 209
246084.40063477 3357521.79400635 14.22186756 211 207 204
246083.89807129 3357521.93652344 16.67673874 225 204 221
246084.56738281 3357522.56890869 16.55039406 85 126 148
246083.85156250 3357520.63177490 16.40493774 68 186 224
246084.48352051 3357521.01666260 14.14627266 198 198 198
246085.19079590 3357520.31744385 14.13684464 155 157 156
246083.86425781 3357521.09808350 16.64700890 10 213 245
246084.71826172 3357520.15704346 14.13972664 176 178 177
246083.66052246 3357520.85949707 16.15308952 128 128 128
246083.50939941 3357520.83105469 14.11809635 161 165 168
246085.35913086 3357521.28741455 16.52472115 145 196 253
246083.66906738 3357521.66076660 16.10086060 128 128 128
246082.81665039 3357522.30041504 14.14425945 210 208 211
246085.45605469 3357520.74462891 16.40211487 27 133 217
246083.97998047 3357521.56286621 16.09577560 128 128 128
246083.60620117 3357520.32409668 14.13247871 150 155 159
246085.37377930 3357521.34820557 16.52440453 153 193 229
246084.07299805 3357522.66076660 14.18454647 210 208 209
246083.81433105 3357521.12219238 14.12490940 193 192 197
246082.35290527 3357522.24761963 14.11932278 203 203 205
246083.07727051 3357522.06280518 14.15241337 189 187 188
246083.24633789 3357522.13214111 14.16060829 194 190 189
246083.48840332 3357521.96777344 16.47965622 92 149 156
246083.97692871 3357520.63958740 16.42583466 75 171 193
246083.62719727 3357521.92175293 14.18273258 191 187 184
246084.20898438 3357522.13861084 14.26471710 212 204 202
246083.53466797 3357521.54876709 14.17301750 197 194 189
246084.06323242 3357522.52404785 16.60977745 46 136 170
246085.55529785 3357520.52154541 16.31057930 59 161 227
246085.12194824 3357520.38208008 14.14674759 153 158 154
246083.77685547 3357522.53479004 16.08497620 128 128 128
246084.74108887 3357522.22998047 14.51704693 142 146 157
246085.03552246 3357522.03668213 14.62425900 118 132 143
246084.67773438 3357520.29095459 14.16444778 158 160 159
246084.39660645 3357520.97845459 14.15567970 198 197 203
246083.56579590 3357522.28527832 16.45202255 14 146 228
246084.93164063 3357521.11920166 16.67050362 19 130 202
246083.54077148 3357521.41027832 14.15597057 188 184 181
246083.23010254 3357522.96563721 14.12769413 214 212 217
246084.44763184 3357520.44378662 16.38049316 40 175 239
246084.83178711 3357521.79113770 16.10662270 128 128 128
246083.45104980 3357522.84423828 16.10677147 128 128 128
246084.65136719 3357522.18469238 16.13998604 128 128 128
246083.85998535 3357522.43579102 16.55469704 2 148 223
246084.58557129 3357521.85266113 16.95574188 14 121 191
246085.37548828 3357520.16674805 16.38158035 49 154 202
246083.29663086 3357521.24835205 14.13394547 198 196 199
246083.10949707 3357520.71942139 14.14309216 190 198 201
246084.71801758 3357521.44598389 14.23835850 199 200 195
246084.86682129 3357522.72668457 16.44553566 167 239 255
246085.24169922 3357520.81658936 16.49118233 19 125 213
246084.20446777 3357520.41845703 16.29923439 177 206 224
246085.37487793 3357522.48889160 16.45436478 77 183 222
246083.79919434 3357522.72460938 14.14547348 217 215 218
246085.58007813 3357521.37609863 16.07921791 129 129 129
246084.12731934 3357521.54577637 16.09589577 128 128 128
246084.87341309 3357520.78601074 16.57520294 10 178 240
246083.73913574 3357522.23034668 16.54135132 38 139 209
246082.61608887 3357522.56909180 14.11688900 198 196 199
246083.31494141 3357522.59613037 16.25546646 136 211 250
246083.70874023 3357522.63092041 14.13911533 214 210 209
246084.93383789 3357522.34442139 16.60429192 180 170 231
246083.63769531 3357521.62976074 14.18354511 193 188 184
246083.87207031 3357520.79248047 16.48677063 47 206 235
246084.05761719 3357520.82171631 16.52625084 174 216 232
246084.44104004 3357520.88708496 16.60555077 244 255 255
246085.21630859 3357521.31225586 16.09849548 128 128 128
246084.52185059 3357520.77838135 14.16206932 158 162 161
246083.55761719 3357520.65319824 16.34165001 78 184 223
246083.70263672 3357522.75927734 16.10778427 128 128 128
246084.38977051 3357521.53228760 16.09546280 128 128 128
246085.02148438 3357521.82702637 14.54308796 52 51 56
246082.64379883 3357521.31134033 14.12650013 190 190 190
246083.11181641 3357522.05401611 14.15383148 189 188 186
246083.05590820 3357522.26800537 14.16051292 202 200 201
246085.46337891 3357521.68145752 14.39703941 103 98 102
246083.63049316 3357523.03356934 16.37671280 5 137 222
246083.64428711 3357521.69409180 16.61120796 142 216 225
246083.42724609 3357522.86657715 14.13597202 208 208 210
246085.05126953 3357520.33020020 16.15375900 129 129 129
246083.89550781 3357521.14202881 16.67487526 9 219 246
246084.64892578 3357521.12530518 16.71314430 0 172 240
246084.28063965 3357522.50341797 16.11604309 128 128 128
246083.29943848 3357520.42315674 14.13624859 166 174 177
246083.54235840 3357522.16235352 16.07504272 128 128 128
246084.77819824 3357522.65710449 16.18588257 128 128 128
246083.58569336 3357521.57482910 16.61024666 13 167 227
246084.54003906 3357521.10577393 14.15240669 201 201 199
246084.21435547 3357521.40686035 16.83315849 18 211 252
246083.47802734 3357521.27380371 16.63483810 13 171 234
246084.48901367 3357522.34313965 14.39148712 211 206 210
246084.31530762 3357522.49267578 14.27252579 203 199 200
246082.72778320 3357522.67193604 14.11359787 206 204 207
246083.07666016 3357521.00628662 14.12538910 163 168 171
246085.61254883 3357522.25659180 16.50574303 21 133 205
246083.98681641 3357520.95629883 16.58316422 125 217 238
246084.06262207 3357522.50189209 16.61784744 87 177 203
246083.06567383 3357520.46453857 14.14106750 152 161 166
246083.06225586 3357522.64428711 14.12186241 203 201 204
246084.50463867 3357521.47717285 16.96102715 0 163 227
246084.45739746 3357521.78619385 14.35339451 173 173 173
246083.16503906 3357521.74902344 14.15277004 196 195 193
246085.92285156 3357522.36492920 16.22337723 126 127 129
246084.67724609 3357520.25628662 16.16690636 205 207 202
246082.80090332 3357522.91540527 14.11362743 176 176 178
246083.36181641 3357522.54956055 14.13369370 188 184 185
246084.66015625 3357522.56427002 14.39621735 220 222 219
246083.27453613 3357520.95037842 16.26125908 30 164 227
246084.50524902 3357520.40216064 14.17754841 164 168 167
246085.70397949 3357521.01531982 16.15323448 66 111 153
246082.96240234 3357522.69824219 14.12085342 197 195 200
246084.78430176 3357521.63061523 16.11254311 128 128 128
246085.50244141 3357522.03979492 16.54017067 37 134 211
246083.34997559 3357520.85803223 14.12281322 162 163 167
246084.54602051 3357521.84967041 14.39048576 156 156 158
246085.08044434 3357521.61230469 16.09843254 128 128 128
246084.07397461 3357522.65148926 16.11486816 128 128 128
246084.36743164 3357520.18878174 14.13125706 187 191 200
246083.28747559 3357522.16961670 16.36682510 22 140 227
246082.89294434 3357521.02783203 14.13278770 164 169 172
246085.39941406 3357522.32873535 16.53828239 38 161 221
246083.70104980 3357521.66998291 16.64338303 170 236 248
246084.18017578 3357520.42358398 16.24133110 206 214 225
246084.96411133 3357521.80786133 16.78090286 20 120 208
246083.60827637 3357522.19592285 14.17615318 201 197 196
246084.55615234 3357522.57983398 16.54505920 157 224 251
246084.11193848 3357520.81402588 14.13286686 189 190 195
246085.76452637 3357521.90234375 16.14858818 128 128 128
246084.52758789 3357521.62268066 17.06694412 65 192 235
246085.79394531 3357521.61242676 16.34991455 69 151 211
246083.67797852 3357522.40386963 16.47681808 15 145 229
246083.76318359 3357521.93560791 16.61392212 192 82 117
246084.77893066 3357520.57824707 16.13640022 128 128 128
246083.69604492 3357521.30584717 14.14441776 189 188 186
246084.78369141 3357521.58563232 16.85469818 13 108 200
246085.73034668 3357521.93481445 16.41345406 78 159 215
246083.12756348 3357521.38128662 14.14533615 203 201 202
246085.20556641 3357521.44409180 16.09606743 128 128 128
246083.87170410 3357521.14544678 14.12919044 200 199 204
246084.53942871 3357521.64361572 17.07607079 65 192 235
246085.07666016 3357522.10937500 16.68672371 26 139 217
246085.32946777 3357522.21936035 14.59748363 159 172 188
246085.46435547 3357522.04260254 16.14102364 128 128 128
246083.91418457 3357520.35815430 14.13138485 194 197 204
246085.33142090 3357520.65924072 16.43636894 26 128 213
246084.82812500 3357522.44555664 16.58003235 147 73 110
246082.66748047 3357521.05413818 14.13060760 152 156 159
246083.09216309 3357521.29119873 16.23970604 32 153 210
246082.91564941 3357520.84008789 14.14970779 171 179 182
246083.99877930 3357521.24371338 16.10951042 128 128 128
246085.14477539 3357522.18182373 16.14940453 128 128 128
246083.49316406 3357520.71636963 16.36512566 37 195 242
246084.47668457 3357522.00286865 14.40315151 166 167 171
246085.72851563 3357522.29229736 16.19410133 128 128 128
246084.14318848 3357520.51751709 16.15100670 238 226 228
246084.42382813 3357521.30786133 16.10390854 128 128 128
246085.45324707 3357520.29876709 16.15550423 128 128 126
246084.23425293 3357520.97967529 16.62785339 185 64 109
246084.42041016 3357520.87615967 16.12040710 128 128 128
246085.31469727 3357520.57275391 16.43936729 24 131 211
246083.91589355 3357521.94921875 16.08125496 128 128 128
246083.79333496 3357522.04925537 16.60426521 184 71 117
246083.40356445 3357522.34814453 16.07073593 128 128 128
246085.07934570 3357520.03411865 14.14185619 186 190 189
246085.25378418 3357521.23388672 16.56488800 76 136 208
246084.62695313 3357521.94299316 16.11403275 128 128 128
246082.52539063 3357523.18273926 14.11559582 218 219 221
246082.70373535 3357521.00756836 14.13258648 153 158 161
246084.10961914 3357520.57647705 16.41293907 99 176 194
246084.99829102 3357519.95056152 14.13624287 193 198 194
246082.91467285 3357520.77270508 14.15893364 176 184 187
246085.13610840 3357522.52185059 16.48352242 61 165 220
246083.53979492 3357522.12670898 16.47041893 55 138 168
246085.12670898 3357521.83880615 16.70088196 25 123 210
246083.83410645 3357521.09771729 16.12853050 128 128 128
246085.02490234 3357520.18945313 16.29669189 108 179 207
246085.65759277 3357521.38470459 16.07550240 127 128 130
246084.45727539 3357521.57543945 17.01763916 40 207 252
246084.62756348 3357520.80151367 16.13881874 128 128 128
246084.61572266 3357522.71575928 16.46863747 28 148 209
246085.30590820 3357520.95544434 16.10237885 128 128 128
246082.40026855 3357522.21905518 14.12380219 205 203 206
246083.30249023 3357521.89709473 16.10623360 128 128 128
246085.72119141 3357521.63275146 16.39193916 60 149 217
246084.98657227 3357522.55505371 16.18562126 128 128 128
246085.31787109 3357521.60430908 16.09194946 128 128 128
246085.06005859 3357520.46020508 16.13868523 128 128 128
246083.84558105 3357521.08551025 14.12125492 188 187 192
246084.08374023 3357521.36132813 16.10309792 128 128 128
246084.86840820 3357521.29467773 16.75012398 17 132 212
246083.96130371 3357522.64465332 14.16420650 208 206 207
246082.34240723 3357521.67742920 14.11992168 220 218 219
246082.81005859 3357521.12036133 14.13017750 165 166 168
246085.00842285 3357522.39550781 16.16923332 128 128 128
246083.97692871 3357522.06439209 16.68634415 32 141 206
246084.26916504 3357522.19165039 14.28026772 208 200 198
246084.97546387 3357520.39294434 14.15354156 169 171 168
246084.51684570 3357521.32122803 14.18729973 200 199 197
246083.43408203 3357521.31646729 16.61531067 14 167 235
246083.55676270 3357522.54888916 16.40194130 9 141 216
246083.37768555 3357522.62561035 16.06896019 129 127 128
246083.07751465 3357522.44091797 14.14719868 205 204 202
246082.56384277 3357521.47314453 14.12398911 207 205 208
246083.32360840 3357522.41607666 16.32645416 17 149 224
246083.91967773 3357522.15783691 16.64027596 63 149 208
246083.37780762 3357520.96368408 16.51114655 20 198 234
246084.00598145 3357522.48095703 16.61303711 91 200 223
246085.11682129 3357520.97784424 16.11086655 128 128 128
246084.43151855 3357520.75964355 16.53421402 170 223 237
246084.42138672 3357521.44116211 16.90847778 19 165 242
246083.53979492 3357521.13671875 16.62595940 25 203 239
246085.00085449 3357521.47082520 16.71067810 31 112 191
246083.88281250 3357521.57965088 16.75386047 1 203 243
246084.80786133 3357522.54437256 14.47669220 220 222 219
246083.15100098 3357521.99658203 14.15491486 198 196 197
246083.53869629 3357521.85736084 14.17522430 194 190 187
246084.90527344 3357520.25134277 16.17330170 207 209 206
246084.62731934 3357521.72052002 14.37662315 129 125 126
246083.07556152 3357521.52813721 16.31564522 55 148 217
246083.57592773 3357520.50427246 14.13505077 161 164 171
246083.57958984 3357522.78295898 16.38066864 14 148 245
246084.64782715 3357520.65411377 14.16872692 155 155 153
246085.57104492 3357520.42687988 16.25038338 35 114 170
246083.57934570 3357521.14770508 16.13975143 127 129 128
246085.10485840 3357522.05908203 16.69375420 21 127 211
246083.28442383 3357520.90679932 14.12208843 165 169 172
246084.39294434 3357520.60858154 16.46584320 162 236 239
246084.81042480 3357520.77368164 14.15913582 162 161 159
246085.39697266 3357521.92706299 14.54383755 103 103 113
246082.97302246 3357520.52056885 14.14359283 152 159 165
246084.04711914 3357522.24084473 16.68217850 10 145 209
246084.50256348 3357521.55975342 17.02271652 9 165 226
246084.25268555 3357521.37634277 16.10191345 128 128 128
246084.45947266 3357522.34051514 16.67687988 12 137 203
246085.53466797 3357520.74304199 16.11903763 127 129 128
246085.41247559 3357521.26617432 16.08990669 128 128 128
246083.74365234 3357521.04455566 14.11369705 183 184 186
246084.90917969 3357520.93023682 16.12212181 128 128 128
246084.46008301 3357520.46105957 16.39337349 40 175 239
246084.26306152 3357522.38708496 16.10460472 128 128 128
246082.87158203 3357521.59954834 14.13821602 196 195 193
246083.13110352 3357521.68145752 14.15052986 195 191 190
246084.16918945 3357522.47198486 16.62859344 9 107 170
246083.70056152 3357520.26654053 14.13097954 165 170 174
246083.53955078 3357521.83142090 14.17529106 195 191 190
246083.38989258 3357522.61956787 16.30094147 12 138 214
246083.44580078 3357522.80548096 16.10053253 128 128 128
246083.50842285 3357520.95355225 16.15546417 128 128 128
246083.43701172 3357521.38897705 16.59253120 24 165 244
246084.05554199 3357522.70080566 16.53866959 22 131 188
246083.18298340 3357521.95562744 14.15586090 198 197 195
246085.46069336 3357522.44866943 16.18613052 129 129 131
246084.94445801 3357522.42187500 14.55770111 250 248 253
246083.25561523 3357521.67956543 16.12324142 128 128 128
246083.88354492 3357522.65344238 16.10209084 128 128 128
246085.30346680 3357520.37005615 16.43627548 16 131 198
246085.78613281 3357522.42376709 16.42343140 89 165 201
246083.44287109 3357521.83605957 14.16709614 194 190 189
246084.78613281 3357521.71630859 16.86713600 13 108 202
246084.55603027 3357521.81347656 14.38696957 155 155 157
246083.44970703 3357521.20733643 14.13012886 196 196 198
246084.92126465 3357521.64758301 14.39009285 206 205 200
246082.46618652 3357522.61981201 14.11291790 205 205 207
246083.74536133 3357521.28533936 16.12124252 128 128 128
246084.79187012 3357522.02270508 14.54499149 153 158 162
246083.87426758 3357521.38995361 16.10698128 128 128 128
246083.57849121 3357522.71697998 16.37795258 16 146 234
246082.66540527 3357523.00183105 14.11337471 198 199 201
246085.65185547 3357521.71240234 16.11295319 128 128 128
246082.88549805 3357521.93078613 14.14251614 197 197 197
246083.80310059 3357520.92974854 14.11207581 185 189 192
246084.93090820 3357522.05639648 14.59976673 190 199 206
246082.91394043 3357521.40008545 14.13785553 203 199 198
246085.74194336 3357521.29498291 16.34982491 17 136 218
246084.99279785 3357521.84393311 16.76960373 21 121 207
246084.18835449 3357522.20959473 16.08394241 128 128 128
246084.38659668 3357520.07824707 14.13100338 158 163 169
246083.30114746 3357521.33569336 16.55185318 16 157 237
246082.69616699 3357521.29998779 14.12717819 173 173 173
246084.34863281 3357521.35021973 16.10256386 128 128 128
246085.52270508 3357520.87005615 16.39475822 29 133 218
246083.09753418 3357522.64074707 14.12271500 206 204 207
246084.12207031 3357521.07928467 16.11372948 128 128 128
246085.77075195 3357521.38665771 16.12691689 118 147 181
246083.30187988 3357522.10363770 16.38175201 18 141 221
246083.95410156 3357521.24145508 16.71865273 28 241 255
246085.28234863 3357521.25946045 16.55510139 149 194 253
246084.83105469 3357521.96270752 16.78573799 58 155 236
246082.30322266 3357520.87829590 14.14071846 157 162 166
246084.20202637 3357522.57696533 16.57713890 21 127 203
246083.09509277 3357522.04919434 16.29083633 245 255 255
246084.84545898 3357521.41009521 16.79408646 21 127 215
246083.61718750 3357522.26623535 16.07022858 128 128 128
246084.52624512 3357521.76287842 17.03750992 107 200 241
246084.21423340 3357521.58697510 16.88644981 59 228 249
246084.67968750 3357521.33862305 14.19340324 200 199 197
246085.14746094 3357520.97998047 16.56156731 18 127 209
246083.09191895 3357521.29534912 16.30062675 18 151 218
246084.55554199 3357521.10955811 16.13544464 128 128 128
246084.49304199 3357521.49584961 16.97779274 1 165 228
246085.34155273 3357520.74743652 16.11807823 128 128 128
246083.68017578 3357521.67205811 16.09948349 128 128 128
246085.39099121 3357522.23925781 16.16030502 128 128 128
246084.16967773 3357521.23925781 16.10744667 128 128 128
246085.17810059 3357521.44366455 14.27212048 161 157 154
246085.13330078 3357521.29907227 16.62323570 96 141 209
246085.32360840 3357521.30187988 16.09346581 128 128 128
246083.52246094 3357521.50402832 16.59624290 22 169 246
246083.20581055 3357522.16760254 16.09466743 240 240 248
246083.15625000 3357520.65820313 14.14044666 196 204 207
246085.18542480 3357521.42211914 14.25526810 161 157 154
246083.28698730 3357521.83538818 14.15908718 196 190 192
246082.97583008 3357520.42224121 14.14280510 165 174 181
246085.46630859 3357521.22570801 16.08817101 128 128 128
246084.15930176 3357522.62164307 14.20680046 211 207 206
246083.56201172 3357520.61621094 14.13040733 166 171 175
246085.20776367 3357520.24346924 16.40851784 49 169 186
246084.48681641 3357521.98297119 16.87171936 6 146 205
246085.66162109 3357521.22174072 16.38755035 22 133 222
246084.11437988 3357521.95440674 16.08033752 128 128 128
246084.62817383 3357522.38220215 14.44386864 213 215 214
246083.50305176 3357521.71826172 16.53919601 13 136 193
246082.46203613 3357521.24700928 14.12590408 162 163 167
246083.78869629 3357522.00701904 14.20681286 204 198 198
246084.99853516 3357520.30926514 14.15300941 167 169 168
246085.78210449 3357521.37780762 16.33513260 27 140 218
246084.94567871 3357520.76312256 16.12407494 128 128 128
246083.39221191 3357520.82867432 14.12311172 163 167 170
246085.35729980 3357520.34796143 16.15757179 128 128 128
246084.97106934 3357522.44158936 16.17335510 128 128 128
246083.68908691 3357521.78442383 14.18794727 193 192 188
246083.49963379 3357523.07592773 16.17833900 95 198 239
246084.35681152 3357520.73901367 16.52447701 225 249 253
246083.14660645 3357521.72436523 14.15168953 196 192 191
246083.77465820 3357522.10198975 16.58461189 227 179 203
246085.55578613 3357521.54046631 16.46494102 77 153 205
246083.47912598 3357521.68847656 16.10988617 128 128 128
246083.63793945 3357520.67797852 14.12308979 166 169 174
246085.55358887 3357520.67425537 16.12425423 129 129 129
246083.71057129 3357521.10241699 14.11987782 177 177 179
246083.71777344 3357521.29870605 14.14386845 184 183 181
246083.77893066 3357520.52099609 16.23427582 177 196 213
246085.70019531 3357520.90539551 16.21928024 80 132 189
246083.92712402 3357521.54113770 16.09679794 128 128 128
246083.54626465 3357522.52069092 14.13883972 196 192 193
246083.64111328 3357522.24969482 14.17071915 200 200 200
246084.22973633 3357521.93054199 16.08083344 128 128 128
246083.09326172 3357521.57031250 16.33314896 17 129 203
246084.88854980 3357520.78894043 16.57758522 11 175 236
246085.20288086 3357520.51159668 14.14264011 169 170 165
246083.14379883 3357520.90777588 14.12773323 189 194 198
246083.11779785 3357522.10931396 16.28026009 247 255 255
246083.28051758 3357521.41754150 14.15323067 196 195 193
246083.04089355 3357522.78155518 14.12390518 218 216 219
246084.93664551 3357521.20745850 16.69187164 21 132 211
246084.31164551 3357521.48010254 16.09773636 128 128 128
246084.69775391 3357522.24945068 14.49654579 137 140 149
246083.65112305 3357520.55718994 16.25703812 133 186 217
246085.17785645 3357520.68457031 14.15085793 170 171 166
246084.08557129 3357521.63446045 16.83034134 21 211 247
246084.90075684 3357519.86364746 14.13012791 163 165 164
246084.97900391 3357521.71417236 14.45201874 159 154 150
246083.19189453 3357521.37115479 16.47178841 7 152 231
246085.35510254 3357521.67651367 14.41992664 125 116 117
246083.83984375 3357522.19396973 14.19772911 193 189 186
246083.16748047 3357522.18841553 16.12065697 236 240 249
246085.35754395 3357521.28259277 16.52494240 145 196 253
246082.55017090 3357521.86651611 14.12707233 208 206 209
246085.17651367 3357522.37377930 14.56723690 230 229 245
246083.98413086 3357521.61077881 16.09393120 128 128 128
246085.63525391 3357521.98223877 16.14529610 128 128 128
246083.59985352 3357521.68151855 14.18036175 192 185 179
246084.49218750 3357521.11901855 14.15422249 200 200 198
246084.43847656 3357522.50207520 16.16923904 128 128 128
246084.30249023 3357520.73596191 16.12618637 128 128 128
246084.89404297 3357520.34680176 16.38943672 100 199 222
246084.73315430 3357520.26025391 16.28433418 125 181 198
246085.25769043 3357520.82415771 16.48633957 19 125 213
246083.29785156 3357520.69689941 14.13591766 169 177 180
246084.84020996 3357520.48754883 14.15992165 172 174 171
246083.63342285 3357522.11260986 16.07603645 128 128 130
246085.50292969 3357520.16412354 16.21559525 74 117 152
246084.98022461 3357521.58312988 16.74352074 21 122 210
246084.57800293 3357522.80584717 16.18583488 129 128 126
246085.70642090 3357520.89874268 16.24862289 78 138 201
246083.24621582 3357522.40625000 16.09652901 161 202 234
246085.41162109 3357520.38891602 16.15266800 128 128 128
246084.83361816 3357522.49548340 16.55644226 219 192 225
246083.45739746 3357521.80511475 16.10343742 128 128 128
246084.27429199 3357521.57397461 16.09428787 128 128 128
246085.13171387 3357522.32049561 16.57835960 37 150 216
246084.79345703 3357521.85778809 16.10833740 128 128 128
246083.04638672 3357523.03540039 14.12031460 217 215 218
246084.49792480 3357522.47155762 14.36126995 217 213 212
246084.70239258 3357522.19226074 16.71827888 40 131 201
246085.52734375 3357521.91302490 16.12861061 128 128 128
246082.54431152 3357521.66705322 14.12459660 209 207 208
246083.73925781 3357521.09161377 14.11929512 187 187 189
246085.40051270 3357522.51458740 16.43589401 108 189 218
246084.37487793 3357520.97485352 16.11680222 128 128 128
246085.26965332 3357521.71325684 16.10248566 128 128 128
246085.29809570 3357522.29284668 16.16412544 128 128 128
246085.59484863 3357521.99902344 16.14323044 128 128 128
246082.92382813 3357520.94079590 14.13512707 181 189 192
246084.94470215 3357521.37792969 14.21451283 202 203 198
246082.80273438 3357522.12799072 14.14108181 204 202 205
246085.06518555 3357522.04022217 14.62661362 92 106 119
246083.40710449 3357521.23907471 14.13368130 194 194 196
246084.27526855 3357520.57806396 16.43628883 187 222 226
246084.53125000 3357521.28033447 16.13280869 128 128 128
246084.11694336 3357522.32208252 16.68321419 112 224 246
246082.70166016 3357522.90057373 14.11212921 217 216 221
246083.45544434 3357521.32617188 16.13510895 127 129 128
246083.96142578 3357522.32470703 16.62494087 14 151 221
246082.89965820 3357521.06536865 14.13350105 160 164 165
246085.70263672 3357520.94470215 16.16361046 73 110 152
246085.71374512 3357521.81274414 16.13202477 128 128 128
246085.24072266 3357522.33386230 16.55657387 37 157 218
246085.59533691 3357520.49468994 16.18846130 54 110 157
246082.90307617 3357521.64611816 14.14011860 188 187 185
246085.34960938 3357520.31451416 16.15976906 127 129 128
246082.32324219 3357521.31085205 14.12411213 156 157 159
246083.80895996 3357521.43035889 16.10805321 128 128 128
246084.62426758 3357520.90277100 16.62022591 4 172 243
246084.27111816 3357522.58691406 16.55896759 10 121 203
246085.05139160 3357521.86114502 14.56986141 44 45 50
246083.92077637 3357520.91229248 16.13579941 128 128 128
246085.13159180 3357520.43121338 16.14108849 128 128 128
246084.69226074 3357520.70043945 14.16599083 162 162 160
246084.89782715 3357521.25201416 16.72496414 21 132 213
246084.81811523 3357520.22283936 16.19990730 207 209 204
246083.86950684 3357522.38507080 16.56966400 2 148 223
246084.99108887 3357520.55993652 16.13098907 128 128 128
246083.35107422 3357521.03002930 16.17052078 87 141 165
246085.23608398 3357522.65356445 16.36976433 102 192 218
246083.08691406 3357521.84210205 16.31196213 82 150 197
246084.41101074 3357521.47692871 16.93325043 15 166 239
246084.15856934 3357520.99627686 16.62566757 180 68 108
246083.16796875 3357521.09289551 14.12801075 170 174 175
246083.97766113 3357521.35064697 14.15677071 176 172 169
246084.08312988 3357520.85473633 16.13031578 128 128 128
246084.28637695 3357521.04968262 14.15567398 199 198 204
246084.71618652 3357521.64984131 16.11545753 128 128 128
246084.97729492 3357521.51379395 16.73274231 22 117 199
246085.13439941 3357520.84436035 14.16052246 201 200 196
246084.75170898 3357520.83489990 14.16173840 178 177 173
246083.96826172 3357520.66040039 16.14883423 128 128 128
246085.22644043 3357520.78283691 14.14906311 187 187 185
246084.84497070 3357520.85913086 14.15660000 187 186 182
246083.03955078 3357521.77478027 16.20062447 207 248 255
246084.03955078 3357521.33978271 16.76463127 25 236 253
246083.90661621 3357522.51104736 14.17402840 218 214 213
246083.47851563 3357521.09222412 16.14855576 128 128 128
246084.68981934 3357521.77185059 16.11401367 128 128 128
246082.77514648 3357523.00604248 14.11207294 194 194 196
246083.62255859 3357521.74395752 16.58979797 193 240 234
246085.08081055 3357521.90484619 16.11895370 128 128 128
246084.05395508 3357522.37774658 16.08973885 128 128 128
246083.05187988 3357520.44061279 14.14120674 150 159 164
246082.69604492 3357522.86370850 14.11181259 220 219 224
246083.76965332 3357522.08624268 16.07654953 128 128 128
246083.53869629 3357521.36663818 16.12769127 127 129 128
246085.48974609 3357521.79028320 16.11493492 128 128 128
246083.62194824 3357520.66235352 16.38979912 72 176 213
246085.42883301 3357521.97052002 14.55311775 89 89 99
246082.60974121 3357521.58599854 14.12656784 208 206 207
246084.85461426 3357521.23162842 14.16750526 203 203 201
246083.54101563 3357523.09381104 16.15031815 123 129 129
246084.87158203 3357522.41485596 16.58510780 156 88 139
246083.52478027 3357523.11724854 16.17383194 116 186 212
246085.18823242 3357522.21807861 16.62669563 18 133 213
246085.48413086 3357521.44018555 16.08248711 128 128 128
246085.36853027 3357522.20147705 16.59683609 25 136 217
246083.37072754 3357521.57012939 16.12387466 128 128 128
246084.73840332 3357520.86303711 16.60103989 5 174 239
246083.85937500 3357522.40216064 16.56141853 2 148 223
246084.44213867 3357520.69964600 14.16337109 170 174 177
246083.04724121 3357520.87475586 14.13394070 193 198 202
246085.43505859 3357520.60992432 16.39343834 31 138 220
246084.49206543 3357522.17523193 16.13585281 128 128 128
246083.26916504 3357522.14520264 16.36363792 31 148 228
246085.06335449 3357521.61737061 16.09915924 128 128 128
246084.22424316 3357521.19763184 16.10883904 128 128 128
246084.36437988 3357521.63830566 16.97975159 77 243 255
246084.33386230 3357521.00421143 16.11582947 128 128 128
246085.37597656 3357522.50830078 16.18836212 128 128 128
246082.78771973 3357521.39392090 14.13224316 209 208 206
246085.87243652 3357522.23077393 16.20122528 129 127 128
246083.89648438 3357521.69628906 14.19524193 192 189 184
246084.90734863 3357522.52239990 16.52943802 200 204 249
246085.65307617 3357522.22692871 16.48888206 42 147 212
246084.23974609 3357522.63006592 14.22342110 210 208 209
246084.17272949 3357520.95062256 14.14281464 183 187 196
246084.92480469 3357522.39093018 14.56577110 236 235 240
246082.55163574 3357521.29064941 14.12605667 167 168 172
246084.20275879 3357522.18823242 14.27466011 213 205 203
246085.13073730 3357520.92828369 16.11129570 128 128 128
246083.88867188 3357522.36853027 16.58199120 6 150 221
246084.97106934 3357521.75054932 16.10070038 128 128 128
246082.34033203 3357520.69927979 14.14886093 164 169 175
246084.51782227 3357520.57977295 16.46591949 31 172 244
246083.89758301 3357522.26318359 16.60811615 14 152 225
246082.89880371 3357521.83453369 14.14203072 200 198 199
246083.06408691 3357520.91088867 14.13075161 194 199 203
246085.18139648 3357522.34710693 14.57770634 231 233 246
246084.66723633 3357520.94006348 14.15795898 203 204 199
246084.42883301 3357522.60980225 16.13537598 128 128 128
246084.13037109 3357520.96405029 16.12041283 128 128 128
246085.49377441 3357521.66381836 16.50381660 40 126 201
246084.83605957 3357519.95623779 14.13300514 175 177 176
246083.07189941 3357522.04510498 16.22650528 248 255 255
246084.39086914 3357520.82238770 14.14632893 165 168 175
246083.06408691 3357522.40478516 14.15217590 204 202 203
246085.52026367 3357522.51019287 16.20006180 118 133 130
246083.52258301 3357520.63482666 16.27236557 110 178 213
246082.49792480 3357521.05187988 14.13160801 155 159 160
246085.18530273 3357521.15081787 16.58228302 17 122 213
246083.21557617 3357522.62524414 14.12544823 207 205 208
246084.43920898 3357521.25970459 14.17835045 195 193 194
246085.11560059 3357522.35595703 16.16717720 127 129 128
246082.40539551 3357522.14733887 14.12384415 198 196 199
246083.40087891 3357521.75604248 14.16351414 191 185 185
246083.26660156 3357522.41510010 16.08498001 142 190 228
246083.30859375 3357521.80914307 16.42923355 12 132 195
246083.60046387 3357520.84570313 16.47898865 38 230 245
246085.11914063 3357521.18206787 16.61632919 15 119 204
246084.59020996 3357522.38244629 14.42676830 232 232 232
246083.63940430 3357521.48785400 14.16639423 191 188 183
246083.22680664 3357522.10400391 16.35413551 27 127 189
246085.07897949 3357521.26232910 16.10634804 128 128 128
246085.05676270 3357522.55712891 16.18722343 128 128 128
246084.17004395 3357520.44824219 16.19750786 223 221 226
246084.81665039 3357520.26037598 16.30512619 138 194 207
246083.80590820 3357521.93273926 16.63440132 196 70 108
246084.03991699 3357522.78820801 16.49514580 24 134 193
246083.16577148 3357521.39923096 16.43996239 8 144 228
246084.52990723 3357520.95080566 16.64077187 32 159 204
246083.08996582 3357521.78778076 14.14990520 194 190 191
246084.03002930 3357522.27960205 16.66619873 13 146 215
246084.45239258 3357520.61602783 14.17159271 155 159 160
246083.59008789 3357522.00067139 14.17961121 198 194 191
246084.08496094 3357521.83459473 16.08502007 128 128 128
246083.89746094 3357522.28222656 16.07081413 128 128 128
246085.36523438 3357522.32214355 14.55527973 159 167 180
246085.51184082 3357522.50756836 16.42256737 138 199 217
246084.69458008 3357520.27832031 16.15306282 204 206 203
246083.66711426 3357520.66259766 16.16537476 128 128 128
246085.58984375 3357521.54699707 16.45089912 156 239 255
246082.38745117 3357520.81640625 14.14315701 166 174 176
246085.24121094 3357522.16040039 14.62683010 196 212 228
246085.34484863 3357521.83990479 14.52102375 130 125 131
246083.80932617 3357523.00335693 16.45914650 35 129 180
246084.79492188 3357522.72131348 16.18766403 128 128 128
246083.81555176 3357520.55499268 16.16771126 194 200 214
246083.28344727 3357521.19897461 16.56660461 8 165 242
246084.24084473 3357521.24707031 14.15922928 209 204 208
246083.68432617 3357521.01849365 16.58477402 22 212 244
246082.90698242 3357521.34881592 14.13698101 203 199 198
246084.30822754 3357522.65698242 16.51479340 15 126 208
246085.74633789 3357521.73272705 16.38716698 71 150 216
246085.60546875 3357521.18597412 16.40858459 20 131 213
246085.22851563 3357521.09588623 16.55275917 18 123 214
246084.90100098 3357522.59472656 16.49810410 142 178 228
246083.79516602 3357521.13732910 16.66330910 10 207 242
246084.28173828 3357522.42407227 14.28059101 205 201 200
246082.29931641 3357520.66223145 14.15102768 171 175 184
246082.95336914 3357521.28839111 14.13834190 193 192 190
246085.45410156 3357520.28442383 16.35418129 53 160 232
246084.58837891 3357522.29003906 16.68964577 112 183 235
246085.54504395 3357520.22576904 16.23001480 33 100 153
246085.42126465 3357522.30950928 16.54588127 34 157 225
246083.61303711 3357522.79132080 16.10835075 127 129 128
246083.71801758 3357522.83001709 14.14572525 210 208 211
246084.99072266 3357520.93078613 14.15850830 207 206 204
246084.49694824 3357522.77160645 16.43818283 9 152 230
246084.96374512 3357520.41015625 16.14212036 128 128 128
246085.17468262 3357520.47326660 16.13807869 128 128 128
246085.19909668 3357520.62219238 16.12700272 128 128 128
246083.45629883 3357522.07348633 16.44281578 201 255 255
246084.10009766 3357521.26568604 16.10668945 128 128 128
246083.00305176 3357520.79406738 14.14589596 190 198 201
246083.82434082 3357521.51818848 16.10138321 128 128 128
246084.55712891 3357521.41998291 14.22130966 192 191 189
246084.11401367 3357522.70574951 14.18842030 204 202 203
246082.46972656 3357521.31524658 14.12515450 181 181 183
246084.22412109 3357521.94104004 16.86257172 3 154 225
246084.78308105 3357520.02563477 14.13506222 177 179 178
246084.05310059 3357522.07507324 14.23956203 205 197 195
246084.85290527 3357520.68963623 16.13027191 128 128 128
246084.73437500 3357522.56555176 14.43261337 222 224 221
246084.95532227 3357521.07617188 16.65622520 22 128 202
246083.61926270 3357522.29565430 14.16147423 201 199 200
246085.36193848 3357522.51599121 16.44124985 103 192 222
246084.87023926 3357522.16375732 14.57840824 161 171 180
246083.78540039 3357521.17266846 16.12638092 128 128 128
246085.02368164 3357520.31866455 14.15160179 162 164 161
246083.13513184 3357522.02203369 16.32895470 94 144 171
246083.36657715 3357522.36248779 14.15990925 208 204 205
246084.36584473 3357520.44696045 16.37748528 116 191 223
246083.52624512 3357521.20465088 16.63580513 12 182 234
246083.48767090 3357520.45513916 14.13513374 176 184 187
246084.66821289 3357520.42608643 14.16952896 174 176 175
246085.30078125 3357520.34234619 16.16060829 128 128 128
246083.08300781 3357521.94110107 16.29682350 224 252 255
246082.53564453 3357520.75830078 14.16024113 164 169 175
246085.12768555 3357520.73974609 16.52272987 22 129 211
246084.90466309 3357520.88299561 14.15324402 196 195 191
246083.84521484 3357521.35363770 16.11103439 128 128 128
246083.82690430 3357522.64135742 14.14615631 215 211 212
246085.07971191 3357521.34667969 14.20564461 181 182 177
246084.49560547 3357522.68933105 16.48656464 9 147 222
246085.03063965 3357520.91857910 14.16202450 206 205 203
246085.37207031 3357520.65264893 16.12528038 128 128 128
246084.43566895 3357522.08392334 16.08946991 128 128 128
246083.83898926 3357522.75677490 16.11395645 128 128 128
246084.03906250 3357522.04821777 16.07702827 128 128 128
246084.01196289 3357522.84948730 16.13825035 128 128 128
246085.21020508 3357520.59094238 16.48112297 19 125 203
246085.23840332 3357520.85705566 16.10953140 128 128 128
246084.29211426 3357520.95312500 14.15258408 161 164 169
246083.17028809 3357522.37005615 16.22907639 225 255 255
246084.59313965 3357520.47985840 16.41053772 55 178 235
246084.87683105 3357520.38940430 14.15878868 166 168 165
246085.07946777 3357521.14013672 16.10906029 128 128 128
246083.94641113 3357522.19830322 16.07163048 128 128 128
246082.51281738 3357521.35980225 14.12494850 202 202 204
246082.91113281 3357522.20642090 14.15104198 200 198 199
246085.16003418 3357520.79626465 14.15631294 184 184 182
246084.16943359 3357520.60516357 16.43519020 213 249 247
246083.63659668 3357522.21319580 16.49730110 24 137 213
246083.51977539 3357523.06494141 16.28292656 13 148 238
246083.30493164 3357521.08404541 16.17117691 93 139 162
246084.35559082 3357521.84442139 16.98736000 12 155 213
246085.85949707 3357521.87066650 16.33440399 84 157 210
246084.78149414 3357521.47863770 14.25532150 198 199 194
246084.26330566 3357521.21594238 16.75424385 33 213 240
246085.43786621 3357520.80218506 16.11428833 128 128 128
246084.36108398 3357521.44671631 14.17815971 195 191 192
246083.39501953 3357522.46380615 16.34761238 20 146 233
246082.40319824 3357521.21960449 14.12578869 169 173 176
246084.06420898 3357522.57061768 16.10743523 128 128 128
246085.38293457 3357521.33459473 14.21416283 203 204 199
246085.48071289 3357520.88348389 16.10833931 128 128 128
246084.42932129 3357521.53332520 14.19024467 192 190 191
246085.46899414 3357521.66400146 14.38150692 103 98 102
246083.66857910 3357522.54040527 16.07820511 128 128 128
246084.06018066 3357522.43530273 16.64207077 166 255 255
246085.70739746 3357521.95727539 16.42841911 80 161 217
246084.64526367 3357520.43103027 14.17070007 175 177 174
246084.52709961 3357521.61700439 14.31040382 185 184 182
246084.71911621 3357521.95404053 16.82402802 28 123 203
246085.28015137 3357520.49511719 16.45005989 23 137 210
246083.02575684 3357521.16070557 14.13746166 178 179 183
246083.85729980 3357521.83837891 16.08569908 128 128 128
246084.28173828 3357520.92260742 14.15062809 160 164 173
246084.34411621 3357521.28436279 16.80087280 25 208 252
246084.44665527 3357522.67150879 14.29305267 209 209 207
246085.59851074 3357520.80645752 16.34201241 58 151 229
246083.85583496 3357522.98773193 16.15288162 128 128 128
246085.71972656 3357521.84136963 16.41168213 74 154 213
246084.99584961 3357522.71801758 16.19486046 130 128 131
246085.75634766 3357521.81976318 16.13731003 128 128 128
246085.16491699 3357520.80169678 16.11343956 128 128 128
246085.02453613 3357521.76464844 16.10307312 128 128 128
