246114.48535156 3357560.69445801 13.47326756 167 169 168
246115.10925293 3357560.46569824 15.65598011 78 161 213
246117.02014160 3357560.04046631 15.48561001 121 177 190
246115.90234375 3357561.68109131 15.38082504 128 128 128
246115.07788086 3357560.62438965 13.47722626 180 182 181
246117.65832520 3357561.31732178 15.71590042 7 122 203
246117.36730957 3357561.85388184 13.45603466 145 144 142
246117.53491211 3357561.03515625 15.32380962 128 128 128
246116.34472656 3357560.89086914 13.50894642 179 179 179
246117.07775879 3357561.16076660 16.00311852 7 106 187
246116.78747559 3357562.71734619 15.65019989 61 145 209
246116.58007813 3357561.17999268 16.33640862 7 86 161
246117.07336426 3357560.45361328 15.86890411 80 169 227
246115.06188965 3357560.32000732 15.46263409 241 251 250
246115.37915039 3357560.18103027 15.69911003 2 172 233
246117.06457520 3357562.30541992 13.52878284 128 130 129
246116.02307129 3357560.09838867 15.89002323 61 216 246
246116.23254395 3357560.71801758 16.18468666 91 216 236
246116.39929199 3357559.24017334 13.51855373 133 140 148
246117.49108887 3357561.53131104 13.43496418 111 111 113
246116.81835938 3357560.80328369 15.35380936 128 128 128
246115.70788574 3357559.89715576 15.23286343 128 128 128
246116.32458496 3357561.02075195 15.26482487 128 128 128
246116.58044434 3357562.38000488 13.65011311 146 146 144
246115.26586914 3357560.98468018 13.50700665 180 182 181
246115.40039063 3357561.74975586 15.45300579 128 128 128
246116.20983887 3357560.20648193 13.52581882 186 182 179
246116.20263672 3357560.83575439 16.21214104 16 193 237
246115.00512695 3357561.08135986 15.78548622 1 160 226
246115.90759277 3357559.30401611 13.46229744 141 146 150
246116.53674316 3357561.36181641 13.52539635 187 183 180
246115.50695801 3357559.83544922 15.30670166 189 185 182
246117.23266602 3357560.19006348 15.52569675 97 160 165
246116.46191406 3357562.03741455 13.58624363 165 162 157
246116.22717285 3357561.01007080 16.34607887 51 195 221
246118.00769043 3357560.75079346 15.43617344 40 115 134
246116.02380371 3357560.48785400 15.24924850 128 128 128
246118.05969238 3357561.15142822 15.61087227 47 133 210
246116.18933105 3357561.68524170 16.03435516 7 165 226
246116.58129883 3357560.23687744 15.91871834 47 169 216
246116.15209961 3357562.00585938 15.39158249 128 128 128
246115.54895020 3357561.01544189 16.00647736 59 202 242
246117.32165527 3357561.53125000 13.46699905 122 123 125
246115.97180176 3357562.37322998 13.47518444 169 171 170
246115.96765137 3357559.81903076 15.26384640 128 128 128
246118.20983887 3357560.72467041 13.46087074 127 127 127
246115.18603516 3357561.31213379 15.42078972 117 132 137
246115.47790527 3357559.85278320 15.31703186 198 197 193
246116.44763184 3357562.33843994 15.35969830 129 127 128
246116.47875977 3357561.98095703 15.92529583 23 143 206
246115.55151367 3357560.30267334 15.79207230 187 236 250
246116.11938477 3357559.13067627 13.55731869 131 140 145
246116.03918457 3357560.79052734 16.12500381 5 192 237
246116.98510742 3357561.19964600 16.03599167 10 101 184
246115.30993652 3357560.51745605 15.79515648 142 216 245
246115.66491699 3357559.88989258 13.47645760 182 184 183
246115.26477051 3357560.26019287 15.68263531 33 173 222
246117.72216797 3357561.69165039 15.56738091 9 62 114
246116.91186523 3357562.66113281 15.54774284 3 50 92
246116.64270020 3357559.61462402 15.42128277 145 167 190
246115.94250488 3357560.05212402 15.85129070 58 216 251
246115.43566895 3357560.04345703 13.48276997 176 178 177
246116.01770020 3357561.73608398 15.37344456 128 128 128
246116.90954590 3357561.74884033 15.85796070 83 149 199
246116.74035645 3357560.80609131 15.33952904 128 128 128
246116.09997559 3357560.81677246 13.51991749 175 175 173
246116.44628906 3357562.79748535 13.49391174 106 110 113
246117.11157227 3357561.53894043 15.33715439 128 128 128
246117.00012207 3357559.65826416 13.54504299 203 159 134
246115.39111328 3357561.28643799 15.38416767 128 128 128
246115.20947266 3357560.24731445 15.20801163 128 128 128
246117.09423828 3357561.82666016 15.76761818 95 177 233
246115.81420898 3357560.71038818 16.01187134 234 209 230
246117.04479980 3357561.82409668 15.31487465 128 128 128
246116.64782715 3357559.87689209 15.38307190 128 128 128
246115.96740723 3357561.64233398 15.36598778 128 128 128
246116.70935059 3357560.37408447 15.94098473 111 111 149
246117.08569336 3357562.24200439 13.52292728 140 140 138
246115.08129883 3357560.73937988 15.32992840 128 128 128
246118.11169434 3357561.09710693 15.61153603 43 126 206
246116.86987305 3357561.08245850 15.34500885 128 128 128
246115.97106934 3357560.97784424 16.17930603 91 219 244
246116.27929688 3357560.02337646 13.47495937 181 176 173
246118.02954102 3357561.15979004 15.62004375 56 157 237
246116.37145996 3357559.14373779 13.53805351 127 135 138
246114.96398926 3357560.80603027 15.73394966 16 157 236
246117.10717773 3357560.17700195 13.62339306 179 120 106
246116.99731445 3357560.29034424 15.41341877 128 128 128
246115.41809082 3357560.08758545 15.68607903 4 174 226
246117.26525879 3357560.10034180 13.69817924 224 118 79
246116.74963379 3357562.11816406 15.32413101 128 128 128
246116.28222656 3357560.85137939 16.27596664 116 229 243
246116.35485840 3357562.79571533 13.48201656 127 131 134
246117.36828613 3357561.46630859 15.29098892 127 129 128
246116.14038086 3357560.12219238 13.50438976 187 183 180
246114.55236816 3357560.37396240 13.47626019 148 150 149
246116.27893066 3357560.29486084 16.03033829 60 174 210
246117.40795898 3357561.75939941 15.68546677 50 140 200
246117.38122559 3357561.31695557 15.82474327 17 117 202
246115.37719727 3357560.07122803 15.66275978 120 202 226
246115.63110352 3357559.27343750 13.46583366 137 140 147
246117.61279297 3357561.31671143 13.42651653 124 122 123
246116.28137207 3357559.18957520 15.49555111 38 84 118
246116.46508789 3357561.75439453 15.31164551 128 128 128
246117.31054688 3357561.71142578 15.73022461 63 144 200
246116.04504395 3357561.98321533 15.86770058 16 170 224
246116.34106445 3357559.37554932 15.68364239 28 166 239
246117.55041504 3357561.17742920 15.29074478 128 128 128
246116.93041992 3357562.03210449 15.29615974 124 128 131
246116.40881348 3357559.59545898 15.36241913 127 128 130
246115.51550293 3357562.01055908 15.46743298 128 128 128
246118.07897949 3357561.14251709 13.42829227 135 131 128
246117.73010254 3357561.06469727 13.42642689 129 127 130
246116.15576172 3357561.24615479 13.50444126 175 175 173
246116.14440918 3357560.49066162 13.51841354 189 184 181
246116.97875977 3357560.71551514 13.50755215 109 98 96
246115.57348633 3357560.02410889 15.22618866 128 128 128
246116.23071289 3357560.66888428 13.51364517 169 168 166
246115.43713379 3357560.19091797 15.21944618 128 128 128
246116.01464844 3357559.72503662 15.78785992 7 186 244
246117.70104980 3357560.34948730 13.47405815 96 100 111
246116.13256836 3357559.86145020 13.44320583 175 173 174
246117.04541016 3357561.40661621 15.34418297 128 128 128
246117.93237305 3357561.38098145 13.40368366 135 134 130
246116.45202637 3357562.71234131 15.37167168 97 142 175
246115.94653320 3357561.56005859 16.01121521 246 203 231
246115.87182617 3357560.79840088 16.06292915 89 189 213
246116.38049316 3357561.10760498 13.52744579 179 178 176
246117.62500000 3357561.79510498 15.36253548 62 78 101
246117.42224121 3357561.12194824 15.34216690 128 128 128
246116.80187988 3357560.65661621 13.51297283 103 103 111
246115.34350586 3357561.04602051 13.51186657 184 186 185
246115.69262695 3357562.12438965 15.70436954 9 151 213
246116.69104004 3357560.04528809 15.37994385 128 128 128
246115.84240723 3357560.56652832 15.97565937 249 235 235
246115.02038574 3357561.02789307 13.49344158 160 162 161
246115.33361816 3357561.17529297 15.96626091 66 216 249
246115.73522949 3357560.30474854 15.85495663 106 195 227
246115.98010254 3357559.52075195 15.29114056 128 128 128
246116.96923828 3357562.58154297 15.52716351 28 61 96
246116.30090332 3357562.51953125 15.37189102 127 129 128
246115.10998535 3357561.30938721 13.51218605 184 184 182
246115.04223633 3357559.85681152 13.48586082 169 170 172
246118.12231445 3357560.94372559 15.67856407 10 142 207
246116.57006836 3357561.17596436 16.34470177 7 86 161
246116.86840820 3357559.74505615 13.51024342 176 150 135
246115.12963867 3357561.03631592 15.37800884 128 128 128
246115.40344238 3357560.98156738 15.95517254 45 200 248
246117.14184570 3357561.18701172 15.97172546 9 110 192
246116.69775391 3357561.71282959 13.50819397 188 187 185
246116.70166016 3357561.33160400 16.13347244 12 91 170
246116.32861328 3357561.34704590 13.51283455 198 197 193
246115.27453613 3357561.90429688 15.64418602 36 134 195
246116.11865234 3357558.83978271 13.49341297 124 131 139
246116.96301270 3357561.11334229 13.58661079 164 102 89
246115.79064941 3357561.39086914 13.61950970 173 175 170
246117.47827148 3357560.61560059 15.75548553 14 156 232
246115.84204102 3357561.17510986 15.29283237 128 128 128
246117.47778320 3357560.55627441 13.51627064 95 89 91
246117.62658691 3357561.79614258 15.57673359 34 85 140
246115.68200684 3357561.26794434 16.05048370 7 157 216
246116.52734375 3357562.81280518 15.37720013 97 140 172
246116.00695801 3357558.98352051 13.52018261 129 136 144
246117.00842285 3357559.67242432 13.54485416 203 159 134
246115.58911133 3357561.70111084 13.70139217 170 169 164
246115.61230469 3357560.60455322 15.90355587 248 222 247
246117.08251953 3357562.37976074 15.54961777 39 78 135
246116.54675293 3357559.56195068 15.63216496 38 165 234
246117.01013184 3357562.50866699 15.49979687 30 57 87
246116.89440918 3357561.95605469 13.51382828 179 174 168
246116.08239746 3357562.25592041 15.75239849 2 162 224
246116.09790039 3357561.12786865 13.51501656 183 183 181
246114.89672852 3357560.10272217 13.49221420 153 153 153
246116.53283691 3357560.77032471 15.30432892 128 128 128
246116.85083008 3357560.14910889 13.50098896 163 150 144
246116.68872070 3357561.22552490 16.22633553 5 86 167
246115.96289063 3357561.87298584 13.67971039 179 181 178
246117.49194336 3357561.07373047 15.84410477 10 120 199
246115.78186035 3357560.39038086 15.23697853 128 128 128
246116.66479492 3357560.52172852 16.01708412 144 147 190
246115.39794922 3357561.13403320 13.51578045 183 183 181
246118.03991699 3357560.93420410 15.17466450 86 106 81
246117.09265137 3357561.56457520 15.33539391 128 128 128
246117.19934082 3357561.57312012 15.32302094 128 128 128
246116.02587891 3357559.79815674 15.80851460 8 189 242
246117.46594238 3357560.65893555 13.49041462 89 87 90
246115.23889160 3357560.05987549 15.39043427 105 115 116
246115.98168945 3357561.40667725 16.08840561 10 160 223
246116.19433594 3357561.36053467 13.51324844 166 165 161
246115.84924316 3357560.35571289 15.24034882 128 128 128
246117.90429688 3357560.83074951 15.67814064 11 159 231
246116.70776367 3357560.07244873 15.38121796 128 128 128
246115.71130371 3357561.28100586 13.59298038 178 179 174
246117.50476074 3357561.55377197 13.43139839 114 114 116
246116.03430176 3357560.13934326 13.49549866 189 185 182
246116.37231445 3357559.27136230 13.51592255 137 144 152
246115.93432617 3357562.21978760 15.42072201 128 128 128
246115.10119629 3357561.51757813 13.55067730 182 182 180
246117.97253418 3357561.14477539 15.16196442 128 128 128
246116.25512695 3357561.71472168 13.57987022 177 176 174
246115.43286133 3357559.89947510 15.56635761 179 210 231
246117.20373535 3357562.17895508 13.49289322 161 162 157
246115.87707520 3357560.87915039 13.53018665 179 179 177
246117.24792480 3357561.61126709 13.46977425 115 116 121
246116.52294922 3357562.95397949 15.58974171 44 150 212
246116.81872559 3357562.66394043 15.37114143 129 129 129
246117.15319824 3357562.07659912 15.37249279 68 84 107
246116.75817871 3357561.71160889 15.93823433 14 105 175
246116.64160156 3357560.77001953 16.11763000 26 148 221
246116.61474609 3357561.26239014 16.24958038 3 84 163
246116.58105469 3357562.42718506 15.33588982 129 127 128
246116.75769043 3357562.77453613 15.63242626 67 138 202
246116.26696777 3357562.65515137 15.59987545 43 167 229
246116.42041016 3357561.75683594 15.31899929 128 128 128
246115.74902344 3357562.12194824 15.72114658 32 153 206
246115.85571289 3357561.25213623 13.56570816 176 177 172
246117.07336426 3357560.08776855 15.65715885 21 162 207
246116.46813965 3357561.96466064 15.34639549 128 128 128
246117.32495117 3357560.96453857 15.93125153 58 159 231
246115.93908691 3357562.32330322 13.49743748 170 172 171
246117.22521973 3357559.72784424 13.55084991 171 110 91
246116.29797363 3357559.12353516 13.55503273 132 139 145
246116.44067383 3357560.05737305 13.47415924 181 171 169
246117.00305176 3357561.84729004 13.50028229 170 167 162
246116.54528809 3357561.08941650 16.36006927 20 103 179
246117.08776855 3357560.17974854 15.72959900 19 162 204
246115.35791016 3357561.85565186 15.72321510 34 161 230
246117.37377930 3357560.97534180 15.36560249 128 128 128
246116.25805664 3357559.15429688 15.60935688 20 98 164
246116.08007813 3357560.79656982 16.13888168 4 195 239
246115.97070313 3357561.67993164 15.96983910 205 83 122
246115.43090820 3357561.88006592 15.73896217 37 170 226
246116.65222168 3357562.81439209 13.51812363 112 112 112
246117.15368652 3357560.31396484 15.78290939 75 194 236
246115.79089355 3357562.00616455 15.43542099 128 128 128
246116.26538086 3357561.72283936 16.03414726 3 166 231
246115.59875488 3357561.60070801 15.88337612 90 186 236
246116.24511719 3357561.52984619 13.54897881 168 167 165
246116.98352051 3357561.28533936 15.34959412 128 128 128
246115.12280273 3357560.24829102 13.48805046 173 173 173
246117.33642578 3357560.44555664 13.61362648 179 115 105
246117.15515137 3357561.16668701 15.96939564 8 107 188
246115.52148438 3357561.32647705 15.37205410 128 128 128
246115.57727051 3357561.13043213 16.04286575 63 213 248
246116.96081543 3357560.21289063 13.53892136 159 148 142
246116.56860352 3357559.17962646 13.49744225 133 136 141
246116.44812012 3357561.90991211 15.95239162 60 175 230
246115.40698242 3357561.89031982 15.47045135 128 128 128
246115.45153809 3357560.34033203 15.76860809 149 220 238
246117.16357422 3357561.41400146 13.54346371 144 116 104
246115.98840332 3357559.11627197 13.53410816 142 149 157
246116.80468750 3357562.06243896 15.79927349 30 145 212
246117.78027344 3357560.56225586 13.44455528 113 114 119
246117.62854004 3357561.17938232 15.76922607 6 122 205
246116.01391602 3357559.95635986 15.84759712 23 201 239
246117.13671875 3357559.86193848 13.53297901 181 123 101
246115.69714355 3357561.52239990 15.94676113 184 242 254
246116.86108398 3357562.00482178 15.79668903 25 144 210
246118.19995117 3357560.66381836 13.45298672 126 126 128
246115.56701660 3357559.48248291 13.46892643 158 162 165
246117.56909180 3357561.38946533 15.25907421 128 128 128
246116.43481445 3357562.80139160 15.46776485 93 145 185
246116.40844727 3357560.17425537 13.50761223 187 182 179
246116.53552246 3357563.07714844 13.47952175 97 99 98
246115.50305176 3357561.75079346 13.69151306 176 176 174
246115.49523926 3357560.57568359 15.22760487 128 128 128
246115.22021484 3357559.78839111 13.48052883 175 176 178
246117.04235840 3357560.61669922 13.49744225 123 102 101
246115.38427734 3357560.59332275 15.83835125 133 196 231
246116.16430664 3357562.39117432 13.52364349 162 163 165
246116.17602539 3357561.91125488 15.37627125 128 128 128
246116.22619629 3357560.77880859 16.20366478 53 208 238
246116.61401367 3357562.09814453 13.56859207 165 164 160
246117.40661621 3357561.44183350 15.77700043 27 128 208
246116.73181152 3357561.78411865 13.51041031 171 171 169
246117.22668457 3357560.73626709 15.93402767 7 138 220
246115.53820801 3357562.02587891 15.70941257 9 155 214
246115.16882324 3357560.37457275 15.23944569 128 128 126
246117.65136719 3357561.49176025 15.66986656 20 121 201
246116.05468750 3357559.16168213 15.38705826 152 161 176
246115.75805664 3357562.24438477 13.55146122 170 172 171
246116.55749512 3357562.42346191 13.64670658 142 142 142
246114.78735352 3357560.98107910 15.61516094 15 136 207
246116.73217773 3357560.31848145 15.91039085 121 147 184
246116.71520996 3357562.09265137 13.55013752 161 160 155
246117.07385254 3357559.98730469 13.55050087 171 123 109
246117.52783203 3357560.48046875 15.49869728 64 155 176
246116.71008301 3357560.69421387 13.51146221 161 167 179
246115.46228027 3357561.14379883 15.34502220 128 128 128
246116.71606445 3357561.71411133 15.95575333 7 104 181
246116.08203125 3357560.76263428 13.52061367 179 178 176
246116.12255859 3357562.22589111 15.77502537 2 164 228
246116.95776367 3357561.83441162 15.81431389 41 137 198
246116.33642578 3357561.86602783 15.35016823 128 128 128
246116.35510254 3357560.10626221 13.49330330 189 181 178
246115.68286133 3357560.44836426 15.87784100 168 194 207
246117.40527344 3357561.22692871 15.85384083 17 117 202
246116.90600586 3357561.84710693 15.82900047 34 136 202
246115.91369629 3357561.85247803 15.87974453 211 152 184
246115.61267090 3357560.09521484 15.22821808 128 128 128
246116.88024902 3357561.20214844 15.33912468 128 128 128
246115.89611816 3357561.06109619 13.52809334 189 188 184
246116.19372559 3357559.90997314 15.90040874 133 251 255
246115.52136230 3357560.09906006 15.22362137 128 128 128
246117.08093262 3357561.45910645 15.89393234 89 38 79
246116.59643555 3357562.04101563 15.88252926 20 136 211
246116.65173340 3357562.11602783 15.83925247 18 143 210
246116.59033203 3357559.73150635 13.47951126 162 158 157
246116.18334961 3357561.54034424 13.56918144 172 172 170
246116.31518555 3357560.34521484 16.04239082 54 175 218
246117.70764160 3357561.28540039 15.70417786 8 125 204
246116.26342773 3357561.82128906 15.98917484 2 171 236
246115.62048340 3357561.42761230 15.37684727 128 128 128
246117.17651367 3357561.83923340 15.73415184 68 165 216
246116.47729492 3357560.51507568 13.50741577 175 171 172
246116.12695313 3357560.06451416 15.91397572 69 209 234
246117.43298340 3357561.45617676 15.27256298 128 128 128
246116.13513184 3357562.70989990 13.46512318 136 137 141
246117.71093750 3357561.36273193 13.40960312 120 120 120
246116.31372070 3357560.32159424 16.03263283 49 171 218
246117.31494141 3357560.25012207 13.71984577 205 93 73
246116.98535156 3357561.04595947 15.36473274 128 128 128
246116.37487793 3357560.69763184 15.28049183 128 128 128
246116.71362305 3357561.63061523 13.50445461 189 189 189
246115.81494141 3357561.23736572 15.30932426 128 128 128
246116.22949219 3357562.51141357 13.51487541 144 145 147
246117.10107422 3357560.61016846 15.92742157 17 131 201
246116.64196777 3357561.32446289 15.28811169 128 128 128
246117.10266113 3357560.42602539 15.84863949 58 157 216
246118.03625488 3357560.89184570 15.20049095 84 107 87
246116.85815430 3357561.35113525 16.03722763 19 79 149
246116.50048828 3357562.12048340 13.59163570 168 164 161
246116.07495117 3357560.24261475 13.51637363 190 186 183
246116.43786621 3357561.92083740 13.57338428 183 179 176
246117.25268555 3357561.49078369 13.49582291 123 113 112
246117.60534668 3357560.64483643 15.69038200 16 158 230
246116.83972168 3357559.91784668 13.49571896 175 155 144
246116.61145020 3357561.22784424 15.28887081 128 128 128
246118.22265625 3357560.75915527 15.43074226 15 83 118
246116.91540527 3357562.53942871 15.65111351 79 169 232
246116.48889160 3357560.94598389 15.28498840 128 128 128
246116.26306152 3357559.24230957 15.67224026 49 149 224
246116.85729980 3357560.89801025 13.54206371 161 132 134
246115.58630371 3357560.89654541 15.27705479 128 128 128
246115.09130859 3357561.44293213 15.74265099 20 190 241
246117.51745605 3357560.66754150 15.75959206 14 156 232
246115.00988770 3357560.57025146 15.31194019 128 128 128
246118.09838867 3357560.76715088 15.37396717 46 100 110
246116.44299316 3357560.51605225 16.07925224 40 174 227
246115.83801270 3357562.37072754 15.52371311 47 152 182
246115.71081543 3357561.68371582 15.40531349 128 128 128
246116.49450684 3357559.36816406 13.48750496 133 133 141
246116.49462891 3357560.23114014 13.49957466 168 163 159
246115.26416016 3357561.71978760 15.47210217 119 164 206
246116.74694824 3357560.05822754 15.77778912 33 175 221
246117.26550293 3357560.34442139 15.73543835 12 156 219
246117.12548828 3357560.15692139 13.63097572 179 120 106
246116.70043945 3357562.86523438 13.51322174 221 218 211
246116.88781738 3357561.56317139 15.93851280 152 123 145
246118.25366211 3357561.00909424 15.07236671 96 109 81
246117.34741211 3357560.35339355 15.69180012 22 155 222
246115.36975098 3357560.34332275 15.21616936 128 128 128
246116.58679199 3357562.16656494 13.58333206 163 164 158
246116.54943848 3357561.76983643 13.53217220 193 189 186
246116.71899414 3357562.71746826 15.69029236 39 136 204
246116.65966797 3357562.61499023 15.75307083 37 130 200
246117.05871582 3357560.77081299 13.50748253 104 88 88
246116.33093262 3357562.34991455 13.57991123 150 152 149
246117.63220215 3357561.34759521 13.42181301 122 120 121
246115.43579102 3357560.57678223 15.23694611 128 128 128
246118.01037598 3357560.82922363 13.43247509 126 126 128
246116.66723633 3357562.78424072 15.37725067 128 128 128
246117.58776855 3357560.76519775 15.76512241 8 151 227
246117.08923340 3357560.12493896 13.60518360 164 120 109
246116.46154785 3357561.79364014 16.00617409 84 179 227
246116.78833008 3357559.69384766 13.50523186 181 162 148
246117.13964844 3357561.19122314 15.97198296 9 110 192
246116.57604980 3357560.09326172 13.47557831 167 157 155
246116.06896973 3357558.96081543 13.52438927 141 150 155
246117.12719727 3357561.03173828 13.62429523 240 189 160
246116.13562012 3357559.97332764 15.89140987 46 189 223
246117.58288574 3357560.08673096 13.54368401 137 99 96
246117.77978516 3357560.30017090 13.44543839 112 112 122
246117.34289551 3357560.99261475 15.36747265 128 128 128
246115.92651367 3357561.08880615 13.52479076 184 183 179
246117.81372070 3357560.45806885 13.43799973 122 122 130
246115.71520996 3357561.72741699 15.86761379 124 169 202
246117.53234863 3357561.20269775 13.48105717 134 130 129
246116.85888672 3357559.92944336 15.41593647 127 129 128
246116.47070313 3357560.64587402 13.50422001 175 174 179
246117.52612305 3357560.54687500 15.69222832 15 157 231
246114.69177246 3357560.83471680 15.49034691 241 251 255
246115.68762207 3357561.18743896 15.31902599 128 128 128
246117.95727539 3357560.89300537 13.43688011 115 115 117
246116.04052734 3357559.70068359 15.79283142 9 184 239
246116.48876953 3357562.35845947 13.62643242 138 140 137
246117.36474609 3357560.61260986 15.81986904 9 154 233
246115.48144531 3357561.72271729 15.43927765 128 128 128
246115.60229492 3357560.29583740 15.80746174 158 229 249
246115.60156250 3357560.15289307 15.22770214 128 128 128
246116.56579590 3357560.80316162 15.30815887 128 128 128
246116.07055664 3357560.40460205 13.52353954 191 186 183
246117.55749512 3357561.15997314 15.80049706 3 118 199
246116.64477539 3357560.46258545 15.34451771 128 128 128
246116.64941406 3357559.63629150 13.49239922 160 150 148
246116.91723633 3357561.29577637 15.33940601 128 128 128
246115.01062012 3357560.72222900 15.34170151 128 128 128
246115.22766113 3357561.23785400 15.39969444 127 129 128
246117.88708496 3357560.76885986 15.58765030 12 157 220
246115.17785645 3357561.35015869 13.51764965 182 182 180
246116.45349121 3357559.82922363 15.75083542 7 167 225
246116.64001465 3357562.99487305 15.57321835 51 88 130
246115.83496094 3357561.63934326 15.38390446 128 128 128
246117.90393066 3357561.42736816 15.57051754 40 89 155
246115.64941406 3357559.57232666 13.46979427 166 170 173
246117.83532715 3357561.54406738 15.20078278 128 128 128
246116.71704102 3357559.72363281 15.40630722 115 131 144
246116.91479492 3357561.84149170 15.30389690 128 128 128
246115.28698730 3357560.01000977 13.48470879 166 168 165
246116.97631836 3357560.26751709 15.81784344 130 206 240
246116.66174316 3357561.54327393 15.28222942 128 128 128
246116.37048340 3357562.75421143 15.47766209 78 141 185
246116.76806641 3357561.64141846 15.29035759 128 128 128
246116.23413086 3357560.62237549 13.51353645 165 164 162
246117.48400879 3357560.24969482 13.66944408 145 93 80
246115.75939941 3357560.82189941 16.02710152 165 215 238
246116.12744141 3357559.38214111 15.33186531 128 128 128
246115.95092773 3357562.52551270 15.55449200 163 205 245
246116.23876953 3357559.48370361 15.76023006 18 161 227
246118.30786133 3357560.89843750 15.09832287 94 108 83
246116.80334473 3357559.53704834 13.51495457 167 149 139
246117.45898438 3357561.58789063 13.43830967 110 111 113
246115.90917969 3357559.49566650 13.46474648 151 154 159
246116.88952637 3357559.56091309 13.53355598 184 155 137
246116.86291504 3357560.97558594 13.55326557 169 124 119
246116.88513184 3357560.80633545 15.36521053 128 128 128
246116.59179688 3357561.09863281 13.57480431 183 173 172
246116.50097656 3357562.02575684 13.57771111 166 163 158
246117.53356934 3357561.49114990 15.26146698 127 129 128
246116.72961426 3357559.70043945 15.41536522 107 139 164
246117.26281738 3357561.03417969 13.66051674 208 163 132
246116.18945313 3357559.49926758 15.33167934 127 129 128
246117.93566895 3357560.75939941 15.50304317 27 140 180
246115.65429688 3357560.83801270 15.25502968 128 128 128
246116.57385254 3357561.28918457 15.27810192 128 128 128
246118.13903809 3357560.77246094 15.48208904 28 128 164
246115.97473145 3357562.43774414 13.45938015 165 167 166
246115.72790527 3357561.13208008 16.08898163 74 222 248
246115.67639160 3357561.18511963 13.57295322 182 183 178
246117.19396973 3357559.72235107 13.55419922 181 123 99
246116.69067383 3357561.39044189 13.52938271 168 167 165
246116.43994141 3357562.14575195 15.36039543 128 128 128
246115.08032227 3357561.24066162 15.43194962 41 115 162
246116.36950684 3357561.90588379 15.35117912 128 128 128
246117.91979980 3357560.84619141 13.43123913 122 123 127
246116.94079590 3357561.56506348 15.91456604 149 115 132
246116.82226563 3357559.78100586 13.50301933 174 152 139
246117.27258301 3357560.75219727 15.39441204 128 128 128
246115.23364258 3357560.28771973 13.48694134 203 205 202
246118.01232910 3357561.21752930 15.60529995 27 107 180
246115.26647949 3357561.64349365 15.76645088 32 173 229
246116.48840332 3357560.80401611 13.50222206 164 165 169
246117.44946289 3357560.82330322 15.37268066 128 128 128
246116.30444336 3357560.86376953 13.51072121 182 182 182
246115.45385742 3357560.38201904 15.22043705 128 128 128
246116.22973633 3357561.19378662 16.34453201 30 157 208
246115.99279785 3357561.19171143 16.21825218 99 226 243
246117.29357910 3357560.26409912 13.71158600 179 67 45
246116.07397461 3357560.10089111 13.49344635 187 183 182
246116.11657715 3357562.36212158 15.71098328 2 153 222
246116.97448730 3357562.27734375 13.55096817 152 152 150
246117.06665039 3357561.37030029 13.55613995 219 181 160
246116.14514160 3357562.80267334 13.46923637 111 110 116
246116.18041992 3357561.72412109 16.01480484 13 161 223
246115.74792480 3357560.12127686 15.80799389 21 186 231
246118.05883789 3357561.04290771 13.43718052 136 135 133
246116.58117676 3357560.24652100 15.34703827 128 128 128
246114.69604492 3357560.84228516 15.51129627 213 236 254
246116.22375488 3357559.88513184 15.89845276 69 192 223
246115.94372559 3357560.07708740 13.47500324 177 176 174
246116.80871582 3357561.24627686 13.56776047 183 173 174
246116.99377441 3357562.31439209 15.38933659 42 64 88
246115.40051270 3357560.55090332 15.83047581 193 221 243
246116.27612305 3357559.79510498 15.84212303 28 169 223
246117.06445313 3357562.36621094 13.52880859 115 116 118
246115.85156250 3357560.84436035 16.07017899 91 206 233
246116.19824219 3357562.52429199 15.65415573 10 151 222
246115.31970215 3357560.34289551 15.73007584 12 173 228
246117.31005859 3357560.59552002 15.84227085 7 153 230
246115.36926270 3357561.48693848 15.42277908 129 127 128
246117.34375000 3357560.66162109 15.40251064 128 128 128
246116.37316895 3357562.00024414 15.36299324 128 128 128
246115.14489746 3357560.58917236 15.76577663 10 157 235
246116.73120117 3357562.61608887 13.56391525 133 133 133
246116.51794434 3357562.54602051 13.57420158 134 136 135
246116.45983887 3357562.44665527 15.79249287 75 187 233
246115.00317383 3357560.44714355 15.52955818 227 247 255
246116.22741699 3357560.90466309 13.51430988 185 185 183
246115.07421875 3357561.43847656 15.52263165 53 135 175
246115.58679199 3357561.60760498 15.87678719 90 186 236
246116.64868164 3357562.76892090 15.37482357 128 128 128
246115.36022949 3357560.45959473 15.78671455 126 197 225
246116.28088379 3357559.46966553 15.73679256 19 170 239
246114.74865723 3357560.44390869 13.48217106 182 184 183
246115.25512695 3357560.14587402 15.24007988 120 120 112
246116.41247559 3357562.19860840 13.61462307 159 160 155
246115.23999023 3357559.89862061 13.48288250 175 177 176
246115.61950684 3357560.81463623 15.96926880 230 225 247
246115.90930176 3357561.37145996 16.07914543 10 164 228
246116.53430176 3357560.16900635 15.90301228 24 169 222
246116.90917969 3357561.32073975 16.02722359 20 80 150
246116.49328613 3357559.98742676 15.81643677 21 174 234
246114.88635254 3357560.95471191 13.48659039 169 171 170
246115.39147949 3357560.46270752 15.22119617 128 128 128
246114.87060547 3357561.03826904 15.46990299 59 139 192
246115.44616699 3357560.98144531 15.96731663 44 195 240
246117.43347168 3357560.16839600 13.69179153 226 126 100
246116.37255859 3357561.78100586 16.00561905 19 157 206
246117.77380371 3357560.87316895 13.42922211 105 106 110
246116.09680176 3357559.31463623 15.74123287 63 193 227
246117.89672852 3357560.42053223 13.42004204 114 117 124
246117.42297363 3357561.62054443 15.72327042 26 124 195
246116.60632324 3357562.99523926 15.61848164 68 134 182
246117.55187988 3357561.80297852 13.41975117 128 128 130
246115.58715820 3357560.03942871 13.48070526 174 176 175
246116.37573242 3357559.15808105 13.53513622 128 135 141
246116.51721191 3357561.19573975 13.56389523 190 186 183
246115.72131348 3357559.81909180 15.23347569 128 128 128
246115.33508301 3357559.98040771 13.48299408 166 168 167
246116.91796875 3357561.07446289 15.35326385 128 128 128
246116.11999512 3357559.43713379 15.76953316 91 229 255
246116.61169434 3357560.32116699 15.34772015 128 128 128
246118.10083008 3357560.68377686 13.42505550 110 111 113
246116.80334473 3357562.67547607 15.66160107 50 147 218
246116.04089355 3357559.70373535 15.79365253 9 184 239
246117.71057129 3357561.51318359 15.25044346 128 128 130
246116.24853516 3357562.99090576 13.47227097 132 133 137
246115.78942871 3357561.47064209 15.35938168 128 128 128
246115.39196777 3357560.67407227 13.48227882 169 169 167
246116.45727539 3357559.14239502 13.51964188 135 140 146
246116.95507813 3357562.60638428 15.49318695 32 59 86
246115.08508301 3357560.29992676 13.48652267 170 172 169
246115.28063965 3357560.85449219 13.50685596 166 168 167
246116.28417969 3357560.02246094 15.30788898 128 128 128
246116.05017090 3357560.56280518 16.05285454 80 215 244
246115.94274902 3357560.73394775 13.52688599 196 195 193
246117.97961426 3357560.37707520 13.41812420 113 117 126
246117.19982910 3357561.09307861 15.36973667 128 128 128
246116.22302246 3357560.84960938 13.51439095 185 185 183
246116.25817871 3357561.87518311 15.36121845 128 128 128
246115.70629883 3357559.89880371 15.23278522 128 128 128
246116.34277344 3357559.47491455 15.70921326 22 173 242
246117.07043457 3357561.52838135 13.51067162 101 112 134
246116.90112305 3357560.00311279 15.68583870 33 171 220
246117.32690430 3357560.98034668 13.62649155 135 68 52
246116.15478516 3357562.13226318 15.82448578 5 170 236
246116.18664551 3357560.68676758 16.15021133 58 206 234
246115.73583984 3357561.88952637 13.70694065 177 179 176
246117.63610840 3357560.86309814 13.44044781 110 108 111
246117.15588379 3357561.08978271 15.36851883 128 128 128
246115.80432129 3357560.75622559 15.23839855 128 128 128
246115.91735840 3357559.96423340 15.24533749 128 128 128
246117.37133789 3357560.29742432 15.47276020 93 132 131
246116.19763184 3357562.45581055 15.39006042 128 128 128
246116.04650879 3357562.00085449 15.40423584 128 128 128
246116.13598633 3357560.03582764 13.48757267 186 182 181
246116.24768066 3357562.76269531 13.46943092 104 105 110
246117.12084961 3357561.09088135 13.62735558 246 199 169
246115.17407227 3357560.20812988 15.57102299 235 253 253
246117.38696289 3357561.93328857 13.45227623 144 143 141
246117.17810059 3357560.46124268 13.57608700 159 96 87
246115.62377930 3357560.08166504 15.75453472 6 185 241
246116.16906738 3357559.67413330 13.45395374 157 158 160
246116.47058105 3357559.49755859 15.40319538 111 137 160
246116.31457520 3357561.14636230 16.41647720 78 172 206
246116.68798828 3357559.70947266 13.49221992 169 158 154
246115.91601563 3357560.28045654 13.50463295 183 182 178
246116.70825195 3357560.49420166 15.99269772 123 102 141
246117.66162109 3357560.97015381 15.29671478 128 128 128
246116.35803223 3357560.43853760 15.29424763 128 128 128
246116.73840332 3357562.89398193 13.50790787 176 173 164
246117.71948242 3357560.66027832 13.43929386 111 109 114
246117.72937012 3357561.49578857 15.62165928 26 121 201
246116.24096680 3357560.79504395 15.26043606 128 128 128
246116.37976074 3357561.34161377 16.28415108 31 118 189
246115.34020996 3357560.75781250 15.28745461 128 128 128
246115.99475098 3357561.28051758 15.29022217 128 128 128
246116.55236816 3357560.93035889 15.29748631 128 128 128
246115.72229004 3357560.36206055 15.23395348 128 128 128
246116.80798340 3357561.22772217 15.32440567 128 128 128
246117.60266113 3357561.35809326 13.42536736 119 119 119
246116.29516602 3357560.97985840 16.37325668 62 174 196
246117.05969238 3357562.11157227 15.69244194 59 165 223
246115.43371582 3357562.00274658 15.48185921 157 215 237
246115.87707520 3357562.28161621 15.67691135 14 157 225
246115.98413086 3357560.90209961 13.52536869 188 188 186
246116.36621094 3357561.75677490 13.56191635 162 161 159
246117.84375000 3357560.56652832 13.43082905 107 110 115
246115.36047363 3357559.55694580 13.47323322 163 164 168
246115.61376953 3357560.05426025 13.48067856 180 180 180
246117.34887695 3357561.98883057 15.39044189 72 90 110
246117.54553223 3357560.55279541 15.68398476 16 158 234
246115.74353027 3357559.46044922 13.46614647 152 157 160
246117.27636719 3357559.78576660 13.53841400 183 115 102
246116.76074219 3357560.73779297 15.34764194 128 128 128
246117.59057617 3357560.61309814 15.67977238 20 161 233
246115.92041016 3357561.55981445 16.00258064 222 163 191
246116.10937500 3357560.51989746 13.51943588 189 185 182
246116.96899414 3357562.27777100 15.35731506 42 64 87
246116.23388672 3357559.63879395 15.81051540 22 165 223
246116.74572754 3357559.54132080 13.51011753 166 153 147
246115.03198242 3357560.58026123 13.47385502 179 179 177
246116.85791016 3357560.79797363 15.36131096 128 128 128
246115.82019043 3357561.74176025 15.89266968 241 224 240
246117.50573730 3357561.38903809 15.26303577 128 128 128
246117.56298828 3357560.51025391 15.53135395 51 157 196
246116.90039063 3357562.51464844 15.66193867 83 175 238
246116.72021484 3357560.52716064 15.35397625 128 128 128
246115.76379395 3357560.29290771 15.23599052 128 128 128
246115.44873047 3357561.85803223 13.71364307 170 170 168
246115.86315918 3357560.98016357 16.11909103 86 214 243
246116.35571289 3357561.79370117 16.00526810 20 160 209
246116.17480469 3357562.38720703 15.39681244 128 128 128
246115.14379883 3357560.81481934 15.33141327 128 128 128
246117.66137695 3357560.78289795 15.73655796 9 160 233
246115.59802246 3357560.05499268 13.48090076 177 179 176
246116.52368164 3357562.27404785 15.35188770 128 128 128
246115.93383789 3357561.42358398 15.32788086 128 128 128
246116.05432129 3357559.62670898 15.78198624 2 178 238
246116.04235840 3357561.38763428 15.30407906 128 128 128
246116.04553223 3357562.61376953 15.54028702 108 161 203
246115.36267090 3357561.49218750 15.85883808 3 163 225
246117.31140137 3357560.34698486 15.71072674 16 155 222
246116.02160645 3357559.57312012 15.75706387 0 173 239
246117.51599121 3357560.74511719 15.37302113 128 128 128
246115.11877441 3357560.46209717 15.66410828 43 147 210
246117.41479492 3357559.91149902 13.56244755 197 104 87
246117.40759277 3357561.07421875 13.58711052 173 125 113
246114.74340820 3357560.74975586 13.47817898 175 177 174
246115.84094238 3357561.07196045 16.13118744 89 217 244
246116.91467285 3357560.50000000 15.38849926 128 128 128
246115.38085938 3357560.38549805 15.76367378 71 180 221
246115.51391602 3357559.74810791 15.38912201 207 207 209
246116.11120605 3357561.34588623 13.52509594 156 157 152
246117.95996094 3357561.24237061 15.61736488 46 136 212
246116.16760254 3357561.01708984 13.52057934 187 188 183
246116.72167969 3357562.36297607 15.32687473 128 130 129
246115.88488770 3357561.88726807 15.85563469 209 220 242
246115.98535156 3357559.60247803 15.28402710 128 128 128
246116.29846191 3357562.09356689 13.62194443 167 168 163
246117.51037598 3357561.88366699 15.38376331 52 69 85
246116.17663574 3357561.97839355 13.62855721 156 157 151
246116.90930176 3357559.38873291 13.50916386 158 143 138
246114.57910156 3357560.30004883 13.48388863 149 150 152
246116.07812500 3357559.07324219 15.64106846 107 174 216
246117.89831543 3357560.97900391 15.74871922 9 138 219
246117.46948242 3357560.45385742 15.67703724 18 155 227
246117.16528320 3357562.27087402 15.53282642 26 66 117
246116.66381836 3357562.54022217 15.76221943 34 130 206
246117.50292969 3357561.66918945 15.68270588 36 137 207
246116.10900879 3357561.25860596 15.26833344 128 128 128
246116.06140137 3357562.34771729 15.70548439 5 154 222
246116.98083496 3357561.18298340 16.04038048 8 99 182
246117.45446777 3357560.43585205 13.58835506 114 89 84
246115.12072754 3357560.58886719 15.29188442 128 128 128
246116.95959473 3357561.71783447 15.31925964 128 128 128
246118.26672363 3357560.65673828 13.47531986 129 127 130
246117.94982910 3357561.12158203 15.66933441 16 143 222
246116.61291504 3357559.55316162 13.49349499 155 150 147
246115.38818359 3357560.61230469 13.47312260 169 169 167
246117.47778320 3357561.29223633 13.48711395 133 133 131
246116.48474121 3357560.58972168 15.30735016 128 128 128
246116.41223145 3357561.72479248 16.03408623 108 200 251
246116.24060059 3357562.15399170 13.60217953 163 163 161
246116.74780273 3357562.80700684 15.61450577 18 76 140
246117.02893066 3357561.62591553 15.85279465 154 173 203
246117.16967773 3357561.04711914 15.37175655 128 128 128
246116.71386719 3357562.93182373 15.52631474 41 72 116
246116.24340820 3357561.33685303 16.25215149 10 133 211
246115.48706055 3357560.97332764 13.51944256 177 177 175
246115.01501465 3357561.28955078 13.50893021 180 182 179
246117.72644043 3357561.60437012 13.39579678 122 122 122
246116.52746582 3357560.96435547 16.30920029 18 121 196
246116.01916504 3357561.92810059 15.39822483 128 128 128
246116.79907227 3357562.83447266 15.40384674 59 76 92
246118.34545898 3357560.79559326 13.51543903 130 132 131
246117.15795898 3357561.18054199 13.61635303 248 206 166
246116.50646973 3357560.89776611 16.26342010 13 136 206
246116.87524414 3357562.65454102 13.50724792 123 123 121
246115.16333008 3357560.95428467 13.50096893 169 171 170
246116.94116211 3357562.17657471 13.53656769 159 160 155
246117.51586914 3357560.45556641 15.62156487 36 155 211
246116.53674316 3357560.40240479 13.51458454 171 167 166
246116.39196777 3357560.74597168 16.21402359 23 163 212
246118.12121582 3357561.12689209 15.59006786 12 75 146
246115.82580566 3357560.64013672 15.23938942 128 128 128
246116.32275391 3357559.28094482 13.51460838 141 145 154
246116.75451660 3357560.70812988 15.34843063 128 128 128
246116.47900391 3357561.21813965 16.38059425 11 85 160
246115.92590332 3357560.13232422 15.24403191 128 128 128
246115.52954102 3357560.67761230 15.24247932 128 128 128
246115.12243652 3357560.59936523 15.75741482 10 157 235
246116.51989746 3357560.52825928 16.06211662 60 167 221
246116.12548828 3357562.34136963 15.72249317 8 159 228
246116.86584473 3357560.40954590 15.91069889 220 221 242
246116.46362305 3357562.16796875 15.87329292 80 200 252
246116.86865234 3357560.26544189 15.39645863 128 128 128
246115.56347656 3357560.38372803 15.81897640 170 202 217
246115.77282715 3357560.96948242 13.52287674 174 175 170
246115.50512695 3357560.58514404 15.22794437 128 128 128
246116.64038086 3357560.03253174 13.46949196 160 152 149
246116.21459961 3357560.29370117 13.52223110 191 187 184
246116.06018066 3357561.04766846 16.26448250 84 219 238
246116.67749023 3357561.41253662 15.28883648 128 128 128
246116.55322266 3357561.66143799 15.27971554 128 128 128
246114.88745117 3357560.67114258 13.48320103 163 165 164
246115.79577637 3357560.09625244 15.81642151 32 195 238
246115.55395508 3357561.55993652 15.40897846 128 128 128
246116.48376465 3357561.82684326 15.32310581 128 128 128
246116.89550781 3357561.20971680 16.07406044 8 93 176
246114.44604492 3357560.48626709 13.46439457 165 167 166
246115.09509277 3357561.03771973 15.85683155 14 169 235
246118.14550781 3357561.00897217 15.63281441 44 149 217
246116.89062500 3357560.14562988 15.40705490 128 128 128
246115.07958984 3357560.39422607 13.48376179 169 171 168
246117.33520508 3357560.24493408 15.56374073 83 161 181
246116.03222656 3357562.54150391 15.45681286 121 156 188
246117.13867188 3357560.14251709 15.64351845 17 158 203
246117.63061523 3357561.61309814 15.25560379 128 128 128
246116.55480957 3357560.54260254 13.51106453 168 166 169
246117.73828125 3357561.06115723 15.25446892 128 128 128
246116.32470703 3357559.58612061 13.46824551 154 155 160
246116.31213379 3357560.95416260 15.26414776 128 128 128
246115.28234863 3357561.59185791 15.79165649 27 178 233
246114.95141602 3357561.01440430 15.41183853 129 129 129
246116.96752930 3357561.03979492 13.58186913 175 116 102
246117.33630371 3357561.19708252 15.34655094 128 128 128
246115.37219238 3357559.90936279 15.34140968 214 213 209
246116.34582520 3357559.70825195 15.33971786 128 128 128
246115.72558594 3357560.53387451 15.23425198 128 128 128
246118.00939941 3357561.09350586 15.65662956 45 160 240
246115.64489746 3357559.92089844 15.71648884 1 185 247
246117.28723145 3357561.55493164 13.46477699 118 119 123
246116.08630371 3357561.36865234 15.29356670 128 128 128
246116.59838867 3357562.87744141 13.50757122 106 106 106
246116.02783203 3357561.82952881 15.92847919 222 224 249
246116.24206543 3357562.50512695 13.51953125 145 146 148
246114.47265625 3357560.63043213 13.47052479 162 164 163
246116.93835449 3357560.05908203 15.71187687 49 185 225
246116.25512695 3357561.22357178 16.33745003 17 147 209
246115.07873535 3357560.61669922 15.30636501 128 128 128
246116.54846191 3357562.02301025 15.90369701 14 126 200
246116.92578125 3357560.64520264 15.38105679 128 128 128
246117.95104980 3357560.93133545 13.44033718 108 108 110
246116.18054199 3357559.79388428 15.86946487 109 225 250
246116.64916992 3357562.89758301 15.64999866 47 124 192
246115.61633301 3357561.11779785 16.05076218 69 216 250
246116.79504395 3357560.57763672 16.00286865 149 154 184
246117.87194824 3357560.89404297 15.73028660 42 169 246
246115.21154785 3357560.48516846 13.47759151 185 187 186
246115.11389160 3357560.32202148 15.23853111 128 128 128
246116.69335938 3357561.34747314 13.53804588 179 178 176
246115.63818359 3357560.49414063 13.46685696 195 194 192
246115.98779297 3357559.20953369 15.35238457 126 128 140
246116.87487793 3357562.68499756 13.49919510 122 121 117
246115.85668945 3357561.54571533 15.36390305 128 128 128
246116.30664063 3357560.31390381 16.03134727 49 171 218
246117.55212402 3357561.34405518 15.75330544 15 128 206
246117.69641113 3357561.02075195 15.27571774 128 128 128
246116.64587402 3357560.91711426 16.20345688 15 122 200
246117.61938477 3357561.43786621 13.41803360 123 123 125
246116.80944824 3357560.24444580 15.38844967 128 128 128
246116.54980469 3357559.67510986 15.66127872 41 181 242
246116.84887695 3357559.99798584 15.41022968 128 128 128
246116.39819336 3357559.32293701 15.48563099 32 81 124
246115.27990723 3357560.18609619 15.21151829 128 128 128
246116.54467773 3357561.42218018 13.51436996 185 185 183
246116.15979004 3357559.27258301 15.73156452 47 164 218
246115.41992188 3357561.44580078 15.41104603 128 128 128
246116.50708008 3357561.38641357 16.22779274 9 81 157
246115.49743652 3357561.95275879 13.69930744 162 164 161
246117.46948242 3357560.89123535 15.36307049 128 128 128
246116.46740723 3357561.54333496 15.27243519 128 128 128
246116.99389648 3357562.49499512 15.43705177 53 71 95
246116.53149414 3357559.44476318 13.49085331 144 145 149
246116.01428223 3357561.37927246 15.30673981 128 128 128
246115.19580078 3357560.58776855 13.47089863 174 174 172
246116.52160645 3357560.30126953 15.96377087 47 169 218
246115.32580566 3357560.91809082 13.50989628 174 176 175
246115.75402832 3357560.33050537 13.48283577 183 182 180
246116.36645508 3357560.74212646 16.22287560 32 161 201
246115.94506836 3357562.60449219 13.46088505 154 155 157
246115.71020508 3357561.40380859 13.62108994 177 179 174
246115.65686035 3357559.72137451 15.27728081 183 182 178
246117.20544434 3357561.28857422 15.91252995 21 112 191
246116.63745117 3357562.52587891 13.60682583 134 136 135
246116.55786133 3357561.52569580 15.27697849 128 128 128
246116.62145996 3357561.22937012 16.27091408 3 84 163
246115.16662598 3357561.31427002 15.84533215 15 176 231
246116.73950195 3357562.71105957 15.37267399 128 128 128
246115.71984863 3357559.90447998 13.47605705 182 186 187
246115.59143066 3357560.03167725 15.22709560 128 128 128
246115.22155762 3357560.77014160 13.49784946 168 170 167
246115.06372070 3357560.65765381 15.31762123 128 128 128
246116.24499512 3357560.39093018 13.51722240 187 179 177
246116.37353516 3357561.50921631 16.13986397 57 133 208
246117.38549805 3357561.06774902 15.88796711 14 117 194
246115.36865234 3357560.95501709 15.32208157 128 128 128
246115.30932617 3357561.37072754 13.51913452 176 176 174
246116.71557617 3357561.48315430 13.50878429 171 171 173
246116.19543457 3357560.91961670 16.28363991 10 181 227
246116.07971191 3357562.00433350 15.86578941 4 170 228
246115.99194336 3357561.63879395 15.36150074 128 128 128
246115.45471191 3357560.70770264 13.48682117 164 164 162
246116.46020508 3357562.23712158 15.85403728 81 197 246
246116.33862305 3357559.70513916 15.77220440 4 167 226
246116.29089355 3357561.79455566 16.00730515 0 167 230
246117.68774414 3357561.58386230 15.25198555 128 128 130
246116.24499512 3357562.24176025 15.79460335 7 165 228
246117.38635254 3357561.06140137 13.60484409 193 146 130
246115.24462891 3357561.68743896 13.59067440 176 177 172
246115.07385254 3357561.16931152 13.49754143 182 184 183
246117.85107422 3357560.72106934 13.41766453 133 134 139
246114.78771973 3357560.86596680 13.48131084 174 179 175
246117.41479492 3357560.62390137 15.79664421 11 154 232
246115.56103516 3357560.66333008 13.47942734 160 160 158
246116.26306152 3357560.29693604 13.52019787 190 185 182
246116.92736816 3357559.79193115 13.51331425 193 162 144
246116.84375000 3357560.08935547 13.48958492 159 144 139
246116.37512207 3357562.62042236 13.52320290 123 124 126
246116.67651367 3357559.52178955 13.50313854 159 149 147
246115.59802246 3357561.95458984 15.75128174 123 204 231
246116.78454590 3357562.16027832 15.31976509 128 128 128
246116.16979980 3357560.27728271 13.52463531 190 186 183
246117.38818359 3357560.49633789 15.74566841 12 156 227
246116.74414063 3357561.75872803 13.50909519 171 171 169
246116.53808594 3357561.83142090 13.54284668 184 180 177
246115.29321289 3357561.16369629 15.37494564 128 128 128
246117.73059082 3357561.41650391 15.24903202 128 128 128
246116.35046387 3357559.88861084 13.45653534 176 172 171
246115.69738770 3357560.77325439 15.23560143 128 128 128
246118.13903809 3357560.69287109 13.43278503 114 114 114
246116.96923828 3357562.10113525 15.30933189 78 88 98
246116.65771484 3357559.76171875 15.39231777 129 128 126
246115.83288574 3357561.58770752 15.96136284 227 177 206
246117.09191895 3357561.02539063 13.61428738 151 89 64
246115.38757324 3357561.60778809 13.61460018 176 175 171
246115.91613770 3357561.57684326 15.99389362 222 163 191
246115.45324707 3357559.95178223 15.24480057 225 218 212
