245740.48760986 3357537.07995605 17.93828964 230 201 183
245743.28808594 3357537.62390137 18.08527565 121 28 49
245741.43261719 3357537.89916992 17.96371460 66 23 30
245739.93859863 3357537.59802246 18.16989517 182 169 179
245746.37011719 3357537.46551514 18.00123405 99 15 31
245744.45306396 3357537.51416016 18.01281166 103 43 51
245740.56768799 3357537.84051514 18.02753448 108 31 49
245744.45092773 3357537.15905762 17.92992592 239 152 132
245747.21380615 3357537.36230469 17.88969994 102 72 74
245745.61334229 3357537.05053711 17.90305901 244 195 165
245742.41033936 3357537.79156494 17.97874260 109 33 43
245746.66461182 3357537.31488037 18.02935982 166 38 53
245744.02252197 3357536.86004639 17.89099121 244 212 191
245746.35229492 3357537.24664307 18.25839424 213 103 112
245744.75268555 3357537.20562744 17.99692345 217 59 73
245741.05187988 3357537.67620850 18.52428436 120 17 21
245746.02954102 3357537.18957520 18.04421043 231 75 96
245744.60418701 3357537.48065186 18.09296417 79 91 89
245742.08251953 3357537.08013916 17.91378212 236 195 163
245741.37249756 3357537.82696533 18.03219986 77 4 13
245746.18292236 3357537.91943359 17.86105919 161 133 129
245742.59729004 3357537.45367432 18.93450928 237 206 116
245742.57086182 3357537.60620117 18.20435715 116 69 23
245746.06958008 3357536.87567139 17.87908173 232 189 172
245739.27484131 3357538.28479004 17.93922615 198 172 155
245739.50836182 3357538.17010498 17.94852257 213 179 154
245744.87078857 3357536.93157959 17.88223457 227 196 168
245744.21209717 3357536.72857666 17.89136124 244 223 204
245743.80938721 3357537.52661133 18.40098953 37 56 122
245745.55432129 3357537.06439209 17.91892624 241 195 162
245744.27593994 3357536.95208740 17.88028908 240 219 202
245745.47448730 3357537.49298096 17.99219131 124 41 51
245742.17315674 3357537.62786865 18.99068451 150 116 8
245741.51141357 3357537.89062500 17.94592857 64 21 30
245746.57171631 3357537.61633301 17.89269066 79 54 58
245742.05694580 3357538.22991943 17.91479874 90 87 96
245744.34088135 3357537.41259766 18.81418419 102 109 119
245744.41473389 3357537.41705322 18.35170364 145 51 69
245745.99957275 3357537.34698486 18.62065887 255 186 189
245741.35205078 3357538.34350586 17.90574646 95 84 88
245740.26953125 3357537.09655762 17.94578934 222 200 179
245742.17291260 3357538.12579346 17.91052055 75 69 71
245746.68682861 3357537.10253906 17.98349380 220 59 77
245740.45996094 3357537.67102051 18.77058601 194 203 208
245744.88854980 3357537.40057373 18.41179848 98 145 139
245740.61010742 3357537.66284180 18.45670700 227 168 172
245746.00744629 3357537.32238770 18.88613892 238 194 183
245744.05664063 3357537.44519043 19.11036682 49 100 179
245744.10839844 3357538.20281982 17.87887955 86 86 88
245745.29718018 3357537.11437988 17.94535065 217 109 96
245742.12768555 3357537.78771973 17.96229172 92 19 26
245744.10888672 3357537.41864014 18.81313896 93 114 169
245744.94110107 3357537.87530518 17.88854408 90 81 84
245743.30230713 3357538.19885254 17.93497276 82 82 84
245743.77795410 3357537.53790283 18.25082779 22 33 95
245744.02246094 3357537.37719727 18.38236046 100 117 173
245741.50256348 3357537.67480469 18.47160912 107 8 11
245741.58978271 3357537.50524902 18.17308235 197 40 61
245747.06158447 3357536.84771729 17.88556099 224 205 191
245744.50042725 3357537.37286377 19.13342667 202 244 242
245744.42596436 3357538.14422607 17.87709808 88 79 80
245744.07153320 3357537.36279297 18.31359863 139 143 191
245747.19097900 3357537.19329834 17.90603256 99 59 59
245744.56982422 3357537.24212646 18.02956200 219 69 78
245739.07708740 3357537.84014893 17.96138954 221 195 180
245745.77807617 3357537.40240479 18.43408012 113 32 51
245741.02856445 3357538.07470703 17.92446327 99 77 80
245743.85968018 3357537.50390625 18.56305695 34 53 119
245744.59045410 3357537.37225342 18.35981178 129 199 173
245741.98803711 3357537.40380859 18.05585289 219 31 66
245740.99298096 3357537.72564697 18.93202972 125 8 24
245746.53155518 3357537.80157471 17.86698723 98 79 81
245742.74627686 3357537.52148438 18.51992607 244 236 190
245743.68939209 3357537.60400391 18.05583763 67 19 45
245744.09545898 3357537.46185303 18.70097733 38 46 83
245740.09655762 3357537.65222168 18.45341110 115 167 181
245742.07556152 3357537.50842285 18.24137115 219 83 83
245745.17492676 3357537.23291016 18.10049629 239 191 179
245746.10205078 3357537.05883789 17.90939522 254 150 149
245739.12792969 3357538.37884521 17.94011307 187 168 151
245740.72186279 3357537.61419678 18.30846596 141 33 49
245739.16278076 3357537.42309570 17.96383095 224 187 179
245746.24737549 3357537.31457520 18.54047775 248 157 172
245741.91497803 3357537.65917969 18.13774109 226 31 61
245744.42095947 3357537.45324707 18.98528671 210 224 211
245741.08111572 3357537.59613037 18.94834328 219 85 92
245747.03857422 3357537.46087646 17.93828201 112 46 58
245742.43017578 3357537.58496094 18.36731720 125 77 5
245741.06378174 3357537.77825928 18.11436653 242 66 86
245742.39276123 3357537.56890869 18.77858353 125 81 18
245741.74743652 3357537.65661621 18.85524750 136 24 23
245741.49542236 3357537.39886475 18.02743912 206 60 79
245744.59417725 3357537.31646729 18.96360016 105 175 149
245745.66186523 3357537.65325928 17.92761421 83 40 49
245741.33544922 3357537.60736084 18.34795189 252 244 242
245742.75769043 3357537.89599609 17.92700195 79 66 73
245747.34851074 3357537.15405273 17.87042236 177 151 138
245741.23114014 3357537.69805908 18.88014984 126 17 23
245745.11437988 3357537.74890137 17.89051056 83 72 76
245739.38244629 3357538.47943115 17.93853569 233 207 190
245744.78533936 3357537.46710205 19.16976929 129 176 170
245742.34643555 3357537.83483887 17.96730804 74 39 46
245745.56604004 3357537.33245850 18.84724236 190 91 109
245743.98132324 3357537.48352051 19.10724640 22 75 155
245739.54431152 3357538.30279541 17.94453430 198 167 147
245741.93701172 3357537.63433838 18.22682381 249 35 73
245739.48577881 3357538.44866943 17.94156837 231 204 185
245740.06738281 3357538.23455811 17.94604492 174 145 129
245742.51165771 3357537.44158936 18.27476120 230 207 139
245742.41613770 3357537.55755615 18.61681175 125 81 10
245746.40197754 3357537.24731445 18.93807983 227 109 131
245743.70092773 3357538.15985107 17.89130592 85 80 84
245741.63269043 3357537.66125488 18.21145248 193 61 75
245744.11114502 3357537.44262695 18.57394981 24 31 75
245745.08221436 3357537.12170410 17.94149780 247 156 137
245746.08142090 3357537.34057617 18.64392471 246 184 187
245740.10437012 3357537.58343506 18.17500305 209 175 189
245744.07708740 3357536.92718506 17.88869667 245 214 196
245744.26336670 3357537.43218994 18.19041252 206 48 83
245746.08038330 3357536.87963867 17.87860489 231 188 169
245742.28576660 3357537.44097900 18.80768967 234 201 147
245745.84350586 3357537.47979736 18.04074860 117 6 23
245739.55493164 3357537.19891357 17.96359634 211 165 149
245741.81146240 3357536.91119385 17.91757774 218 182 156
245741.46215820 3357538.41583252 17.92939568 77 72 78
245745.58129883 3357537.38275146 18.25847626 145 24 39
245743.94445801 3357538.16302490 17.88765335 76 75 80
245747.51306152 3357537.59649658 17.86165619 152 135 127
245741.75372314 3357537.63763428 18.35651207 219 40 61
245745.39007568 3357537.12231445 17.96305847 224 103 92
245744.41210938 3357537.30682373 18.10001183 229 112 118
245743.59667969 3357537.58062744 18.17201996 50 21 75
245745.68463135 3357537.85803223 17.89004707 86 84 85
245740.31390381 3357537.95593262 18.00730896 81 25 34
245743.96435547 3357537.48516846 18.46786308 19 41 98
245740.33587646 3357537.73956299 18.57016754 66 106 116
245743.96258545 3357537.74737549 17.88130760 96 66 68
245743.92852783 3357537.48962402 18.57280540 34 52 114
245746.99554443 3357536.65411377 17.86652184 199 194 188
245744.81298828 3357537.43890381 19.01468658 50 89 84
245747.11859131 3357537.30688477 17.93043900 85 28 35
245744.72259521 3357537.47009277 18.85416222 64 108 111
245740.44549561 3357538.39666748 17.92201996 203 170 161
245745.75653076 3357537.29382324 18.23812294 224 159 155
245746.30645752 3357537.40820313 18.31282234 110 33 51
245745.72045898 3357536.75231934 17.88069344 236 212 200
245740.59082031 3357537.79864502 18.05178452 116 41 61
245741.42639160 3357537.26373291 17.93714905 252 185 158
245740.00299072 3357537.77789307 19.11119843 93 146 154
245747.52221680 3357537.54034424 17.86094666 193 171 160
245744.16400146 3357537.45471191 18.86597443 66 68 93
245741.68670654 3357538.35235596 17.92123413 80 75 81
245742.96746826 3357537.51251221 18.43737221 135 94 32
245745.41955566 3357537.31549072 18.42843246 201 131 139
245746.42559814 3357537.37780762 18.11556244 94 20 35
245743.99444580 3357537.40386963 18.80016327 72 97 151
245744.62200928 3357537.83721924 17.87910652 71 61 60
245744.02233887 3357537.46289063 18.62815475 28 45 101
245740.28613281 3357537.77154541 18.97016716 51 114 129
245740.07336426 3357537.69085693 19.16572571 104 178 179
245739.82580566 3357537.48748779 18.03468704 206 106 118
245741.24572754 3357537.70574951 18.99193573 134 7 16
245746.92871094 3357537.91174316 17.86672401 100 91 96
245741.63482666 3357537.66363525 18.16828537 177 51 63
245740.96582031 3357537.67883301 18.49315262 125 11 19
245740.64422607 3357537.24578857 17.93612480 228 183 152
245746.24206543 3357537.32110596 18.57088470 243 151 166
245744.08166504 3357537.44830322 18.61369514 24 38 85
245744.41680908 3357538.02111816 17.87083817 132 118 117
245745.06439209 3357537.43084717 18.30180168 45 134 128
245741.56427002 3357537.01879883 17.93150902 234 200 175
245747.30291748 3357537.01641846 17.87265205 196 167 153
245741.29003906 3357537.66766357 18.60123062 117 11 21
245744.93597412 3357537.31835938 18.37103462 198 225 218
245741.39288330 3357537.60021973 18.66552544 254 221 212
245742.37365723 3357537.26831055 17.93204498 241 155 132
245743.30041504 3357537.16235352 17.92250443 242 170 146
245740.90118408 3357537.49334717 18.09404182 213 52 68
245745.07073975 3357537.44268799 18.20978355 34 103 100
245739.23504639 3357537.63256836 17.96877670 237 200 182
245744.24383545 3357538.00378418 17.88782883 118 106 106
245747.41479492 3357537.76257324 17.85637665 93 87 89
245743.65551758 3357538.22204590 17.90075302 76 75 80
245746.91143799 3357536.68041992 17.87169456 206 199 189
245739.37500000 3357537.19848633 17.96155357 242 214 193
245741.72680664 3357537.55035400 18.78304672 214 121 113
245745.83355713 3357537.32043457 18.76692772 236 133 152
245744.10510254 3357537.41662598 18.82482719 96 118 176
245744.72290039 3357537.48181152 18.07351875 82 81 86
245742.26635742 3357537.58117676 18.41224670 136 78 4
245743.46075439 3357537.45904541 18.44633102 181 212 243
245740.67272949 3357537.61322021 18.30525589 99 24 44
245744.84942627 3357537.41497803 19.15509605 166 189 181
245742.70336914 3357537.48077393 18.81289291 170 122 48
245739.50964355 3357537.33966064 17.97129250 240 182 162
245745.98577881 3357537.50134277 18.00747490 90 10 23
245741.84808350 3357537.58123779 18.89333534 127 15 13
245744.00646973 3357537.41583252 18.70836067 69 92 146
245744.20703125 3357537.94085693 17.89010620 147 133 130
245741.74212646 3357538.11376953 17.91134453 84 82 85
245739.09893799 3357537.85345459 17.96114922 211 188 172
245744.46636963 3357537.35925293 19.02810669 169 214 211
245742.13189697 3357537.52929688 18.40364075 204 137 92
245740.91705322 3357537.69079590 18.56048203 118 11 17
245742.23712158 3357537.60028076 18.24096870 190 72 32
245742.31695557 3357537.87817383 17.95364189 64 45 51
245743.70324707 3357536.93060303 17.89659882 235 190 169
245743.60418701 3357537.52532959 18.43314743 35 68 145
245746.09405518 3357537.15484619 18.01024818 235 84 103
245746.40478516 3357537.60284424 17.88937378 72 37 43
245740.66876221 3357537.43969727 18.03476143 202 17 48
245742.14910889 3357537.42523193 18.92539787 212 183 107
245745.70526123 3357537.41204834 18.94857025 137 47 73
245746.17718506 3357537.08813477 17.94915390 213 79 88
245742.10504150 3357537.52917480 18.37045479 220 136 100
245742.24267578 3357537.40881348 18.98230553 231 195 117
245744.03167725 3357537.41534424 18.69993019 81 103 161
245743.99633789 3357537.81213379 17.88432693 92 71 68
245740.56054688 3357537.90130615 17.98579788 97 26 40
245746.09210205 3357537.34802246 18.74646568 201 116 139
245741.76275635 3357537.54168701 18.69677925 217 132 125
245744.28588867 3357537.39770508 18.53428841 178 172 184
245740.29370117 3357537.63861084 18.50168991 178 221 228
245742.55187988 3357537.50939941 18.52775574 182 132 59
245743.40075684 3357537.81683350 17.93388557 67 52 57
245742.40289307 3357536.95568848 17.90905190 229 185 160
245741.11743164 3357537.51336670 18.11333466 255 231 240
245743.00122070 3357538.12451172 17.92458725 83 82 87
245744.02124023 3357537.57373047 17.99590111 76 17 39
245746.05883789 3357537.33605957 18.86013985 232 183 169
245744.22613525 3357536.99243164 17.88240242 241 219 205
245742.25244141 3357537.43634033 19.07955360 246 232 143
245744.75689697 3357538.06719971 17.87869644 165 137 133
245745.46844482 3357537.38110352 18.17775536 187 48 69
245745.83789063 3357537.26245117 18.20491791 228 156 157
245741.56634521 3357537.02026367 17.93112755 234 200 175
245741.68994141 3357537.54962158 18.65384102 231 201 191
245741.97314453 3357537.31842041 17.95053291 226 102 94
245741.46649170 3357537.17730713 17.93067932 235 189 165
245747.44171143 3357537.23712158 17.86446953 184 160 148
245741.20013428 3357537.52258301 18.13396835 209 136 145
245746.24725342 3357537.38775635 19.06564140 140 48 63
245746.21325684 3357537.29656982 18.81123543 236 122 148
245746.18280029 3357537.26190186 19.08079910 234 141 160
245745.40423584 3357537.29211426 18.31178093 136 59 53
245743.68939209 3357537.57171631 18.12680817 64 37 78
245744.25500488 3357537.17993164 17.94728279 217 125 110
245739.94909668 3357537.35339355 17.96989059 241 191 164
245745.59045410 3357537.18420410 18.02216339 229 29 66
245742.60064697 3357537.27014160 17.94689178 222 114 101
245743.45239258 3357537.51153564 18.44046593 188 214 237
245741.27734375 3357537.12847900 17.93512344 238 196 171
245742.94543457 3357537.60748291 18.13768768 100 30 18
245741.76171875 3357537.88964844 17.91654968 71 50 57
245742.35412598 3357537.47735596 18.51539803 230 219 173
245744.84271240 3357537.37707520 18.73751640 106 131 125
245740.18060303 3357537.64935303 19.13006020 125 193 192
245744.97473145 3357537.53192139 17.95741272 69 23 34
245742.07702637 3357537.59051514 18.92523193 213 198 113
245742.21990967 3357537.04211426 17.90897560 238 205 174
245740.07879639 3357537.55718994 18.14134789 222 160 175
245743.47955322 3357537.35357666 18.24447060 155 81 134
245740.38165283 3357537.85186768 18.08690071 73 27 40
245740.92248535 3357537.17883301 17.93297386 243 209 181
245745.86627197 3357537.10241699 17.93706703 213 74 81
245744.72070313 3357537.50048828 18.02823830 69 42 51
245742.92724609 3357537.59765625 18.16615105 116 51 33
245742.49188232 3357537.41845703 18.13212013 229 188 134
245744.73242188 3357537.40075684 19.18221092 186 231 226
245745.08679199 3357537.52734375 17.96354866 63 22 30
245740.30639648 3357537.63928223 18.75162315 183 213 223
245740.97827148 3357537.67767334 18.42366600 123 8 15
245745.59155273 3357537.02520752 17.88439178 243 208 178
245747.10571289 3357537.47265625 17.90271759 81 45 55
245741.20550537 3357537.70001221 18.89536667 126 17 23
245745.78631592 3357537.88024902 17.88739395 88 82 82
245743.03216553 3357537.30889893 18.07264137 229 24 63
245740.20062256 3357537.88452148 18.12752724 88 30 45
245746.12390137 3357537.40869141 18.19668388 105 31 48
245741.95727539 3357537.27978516 17.92778778 237 171 137
245745.70196533 3357537.31768799 18.41165161 232 197 191
245745.58496094 3357536.86322021 17.88201523 238 212 195
245744.94708252 3357537.44677734 18.16185760 49 83 85
245746.98937988 3357537.10076904 17.93443298 167 52 59
245742.63000488 3357537.48583984 18.68452454 225 173 113
245744.64227295 3357537.44775391 18.39858246 46 90 93
245743.87890625 3357537.32855225 18.14877701 232 171 212
245742.86218262 3357537.36999512 18.18865967 232 153 76
245739.53912354 3357537.07226563 17.95707130 192 157 135
245739.74291992 3357538.17285156 17.95104980 215 179 165
245741.30303955 3357537.34521484 17.97456360 194 69 63
245740.80780029 3357537.70605469 18.70004845 120 20 20
245746.24243164 3357537.40106201 18.42448807 115 32 52
245740.85308838 3357538.12933350 17.92076683 111 81 83
245746.91040039 3357536.94329834 17.90238571 235 191 166
245744.42413330 3357537.18884277 17.94841766 228 75 80
245741.31353760 3357537.52374268 18.11529160 220 130 140
245741.72326660 3357536.93072510 17.91811943 220 183 157
245744.10723877 3357537.36785889 18.34042358 137 142 197
245742.30297852 3357537.36944580 18.00557709 203 61 75
245743.45501709 3357537.74713135 17.96331024 76 20 31
245740.69470215 3357537.67584229 18.52442551 172 66 70
245742.16754150 3357537.89611816 17.93356514 78 66 70
245741.97381592 3357537.49230957 18.20895195 222 42 79
245744.31854248 3357537.12915039 17.92842293 241 194 168
245744.51025391 3357537.49102783 19.13889694 87 145 133
245745.52795410 3357537.32196045 18.37574387 182 93 99
245740.04022217 3357537.71765137 18.66758919 215 249 251
245745.16546631 3357537.25170898 18.18498993 204 220 191
245741.87445068 3357537.45391846 18.12327576 222 22 69
245744.70623779 3357537.30438232 18.98499107 112 174 149
245746.24249268 3357537.39556885 18.46509743 120 33 52
245740.91217041 3357537.67272949 18.35640335 132 1 9
245741.50653076 3357537.55175781 18.28740120 226 108 122
245744.72320557 3357537.49346924 19.07864761 46 115 110
245745.90405273 3357537.31604004 19.11445045 231 128 157
245740.48229980 3357538.19024658 17.91871643 202 163 146
245744.20410156 3357537.81292725 17.89545631 99 79 78
245744.56451416 3357537.54583740 17.97275925 68 21 29
245739.59570313 3357537.72143555 18.05435944 232 0 39
245745.61993408 3357538.07556152 17.87711716 101 95 99
245742.35687256 3357536.85021973 17.91542435 230 194 170
245745.29864502 3357537.70831299 17.89902687 99 78 83
245739.95214844 3357537.50775146 18.07953262 196 77 97
245746.36798096 3357537.27526855 18.43775749 236 186 187
245743.49743652 3357538.26617432 17.92920494 87 88 92
245740.54992676 3357537.56402588 18.19857025 225 188 206
245743.34954834 3357537.32904053 18.13870811 233 52 103
245745.83020020 3357537.25988770 18.17858315 220 125 131
245746.58642578 3357537.08154297 17.96164894 222 66 80
245744.13543701 3357537.43640137 18.57383537 32 28 63
245742.86779785 3357537.60125732 18.17537308 112 61 30
245743.05865479 3357537.33911133 18.14716911 216 34 47
245745.65039063 3357537.76165771 17.89938164 87 78 83
245745.43603516 3357537.93139648 17.88383293 89 84 90
245744.18951416 3357537.75103760 17.90745926 95 64 70
245740.72991943 3357538.03179932 17.93568802 108 72 76
245742.97735596 3357538.07702637 17.92417336 78 76 81
245745.35949707 3357537.27453613 18.24997330 134 66 53
245742.02282715 3357537.44439697 18.13355827 226 47 79
245746.40698242 3357537.24877930 18.31297112 205 98 108
245740.59991455 3357537.74212646 18.15194702 101 57 80
245744.07019043 3357537.35986328 18.29911804 139 143 191
245743.93017578 3357537.02020264 17.89113808 241 199 174
245743.10614014 3357537.92657471 17.92000771 60 53 60
245745.78210449 3357537.29461670 18.29282951 237 211 198
245743.35125732 3357537.04064941 17.90537071 244 205 176
245738.98498535 3357538.44390869 17.94121170 205 189 173
245745.70989990 3357537.47863770 18.03490829 183 34 56
245741.41790771 3357537.83972168 18.01399612 78 7 15
245742.46228027 3357537.42730713 19.02553177 239 205 107
245739.46826172 3357537.91931152 18.01518250 195 48 66
245745.59191895 3357537.41491699 18.08863640 195 49 68
245747.04852295 3357536.53552246 17.84116364 234 234 226
245745.12817383 3357537.43432617 18.29116631 81 167 158
245744.42749023 3357538.08886719 17.87029266 77 65 65
245740.07147217 3357537.99371338 18.03600883 117 31 44
245744.59527588 3357537.48901367 19.11528587 46 127 112
245745.69616699 3357537.32171631 18.63424492 234 195 188
245740.04913330 3357537.49011230 18.06567192 194 62 85
245740.86175537 3357537.88903809 17.98534393 111 15 26
245744.30120850 3357537.42517090 18.94939232 93 101 120
245740.52447510 3357537.74700928 19.21134949 140 204 203
245744.23846436 3357537.37951660 18.43873787 133 131 155
245743.10278320 3357537.07293701 17.91275215 222 166 133
245744.05389404 3357537.68115234 17.90259743 69 23 33
245746.67669678 3357537.11334229 17.98964310 225 48 74
245743.93145752 3357537.60949707 17.95926476 75 17 32
245743.08642578 3357537.20477295 17.93901634 238 143 121
245741.04876709 3357537.59783936 18.99937820 236 96 109
245746.19024658 3357538.03527832 17.85986900 100 85 88
245745.99554443 3357537.31451416 19.09198952 197 109 131
245745.36639404 3357536.76251221 17.88437653 233 197 171
245740.25958252 3357537.23388672 17.94938087 235 197 174
245746.53399658 3357537.29998779 18.10327530 159 52 72
245741.67211914 3357536.97222900 17.92141342 227 193 166
245745.83209229 3357537.66735840 17.92514420 90 51 54
245743.24060059 3357538.07165527 17.92379951 79 77 82
245742.47674561 3357537.52648926 19.16483116 255 243 147
245743.30059814 3357537.59771729 18.14084244 115 23 48
245744.57928467 3357536.79016113 17.88541222 235 204 183
245747.06158447 3357537.56060791 17.87515831 86 56 66
245745.70214844 3357537.31829834 18.46542931 232 197 193
245744.60552979 3357537.31750488 18.95115852 105 178 149
245741.11798096 3357537.67266846 18.49038887 114 14 16
245745.11114502 3357537.43347168 18.29354858 59 146 138
245745.98132324 3357537.37249756 18.44361305 134 43 61
245745.76129150 3357536.71765137 17.87952232 238 218 207
245740.52288818 3357536.98370361 17.93484879 230 203 186
245743.39636230 3357537.62274170 18.09070587 133 6 36
245743.18066406 3357537.04534912 17.90639114 225 180 151
245741.69714355 3357538.21417236 17.90797424 83 82 88
245740.67626953 3357537.67388916 18.94288254 204 136 147
245747.25506592 3357536.65264893 17.85910988 225 224 219
245742.96197510 3357537.06213379 17.91823959 230 180 147
245747.10864258 3357537.94793701 17.86038017 104 102 107
245747.14886475 3357536.72814941 17.87149620 216 212 203
245740.78979492 3357537.73175049 18.89549637 110 13 24
245746.50018311 3357537.33380127 18.29219246 109 18 35
245740.16156006 3357538.00317383 18.02041054 93 28 36
245739.07104492 3357538.54467773 17.93979454 202 180 166
245745.65753174 3357537.40020752 18.82490349 134 42 67
245746.07525635 3357537.78125000 17.86271858 195 161 152
245741.27581787 3357536.94018555 17.92807579 255 232 208
245745.69799805 3357536.83148193 17.88193703 236 208 197
245744.41870117 3357537.41058350 18.22822762 188 72 93
245740.01196289 3357537.54687500 18.13190079 204 156 170
245745.93646240 3357537.35992432 18.58680916 147 71 83
245742.50354004 3357537.67095947 18.05835342 101 18 12
245739.65429688 3357538.49438477 17.94558144 207 176 156
245743.48931885 3357537.19299316 17.93916893 230 160 135
245740.87524414 3357537.16632080 17.93086624 246 212 184
245746.45788574 3357537.34582520 18.58868790 123 51 63
245746.04675293 3357537.35772705 18.50395203 209 128 145
245742.38714600 3357538.11566162 17.90551758 93 82 88
245740.11303711 3357537.93389893 18.08543015 115 32 50
245741.46661377 3357537.60137939 18.96343040 242 55 86
245742.81286621 3357536.88568115 17.91318130 228 184 159
245745.99090576 3357537.29608154 18.50119972 198 88 91
245746.54156494 3357537.41491699 17.98521423 128 32 46
245740.45965576 3357537.24713135 17.94318008 236 186 161
245746.36010742 3357537.40399170 18.16867256 105 31 48
245744.14477539 3357537.48730469 18.13207054 92 30 55
245740.09307861 3357537.62408447 18.35393333 102 152 163
245746.32531738 3357537.25933838 18.85711479 222 111 130
245739.59210205 3357538.07739258 17.98305893 133 45 43
245744.47821045 3357537.38879395 18.46703911 184 232 220
245745.70233154 3357536.80529785 17.88157082 236 208 197
245746.62237549 3357536.54052734 17.86118317 206 202 201
245747.54803467 3357536.53247070 17.76227570 235 231 230
245742.44494629 3357537.46289063 18.59685135 219 182 104
245746.19744873 3357537.34558105 19.09552956 211 123 135
245745.37481689 3357537.46057129 18.12786674 115 33 47
245744.05755615 3357537.99432373 17.89027405 107 100 94
245740.39910889 3357538.02679443 17.94931030 94 49 52
245740.14672852 3357537.10064697 17.94988823 237 210 189
245740.74548340 3357537.87841797 17.98347855 109 29 42
245744.60260010 3357537.37042236 18.34639549 129 199 173
245740.95556641 3357537.72656250 18.89899254 121 9 23
245739.93292236 3357537.95391846 18.08270454 195 42 70
245744.47186279 3357537.86999512 17.88708115 82 60 62
245742.75958252 3357537.61450195 18.10054398 114 58 31
245746.08642578 3357537.38629150 18.39842224 165 80 101
245739.98095703 3357537.91986084 18.10713959 183 46 72
245742.74926758 3357537.49761963 19.05322838 232 193 74
245740.04211426 3357537.53045654 18.10778046 209 115 133
245739.80340576 3357538.32250977 17.95119476 210 179 161
245744.18908691 3357537.90655518 17.88850784 108 89 85
245739.26812744 3357538.47552490 17.93878365 222 196 181
245741.34008789 3357537.35272217 17.98611832 192 67 61
245744.69494629 3357537.44769287 18.17191696 56 96 96
245740.73370361 3357537.62939453 18.40773392 139 53 54
245743.91296387 3357537.40979004 18.63204575 81 102 159
245741.54357910 3357538.21179199 17.89728928 80 74 78
245739.98797607 3357538.19030762 17.95238304 179 150 136
245746.20867920 3357537.37103271 18.58568382 176 87 105
245746.36993408 3357536.63464355 17.86761475 198 184 171
245746.42675781 3357537.14373779 18.08842278 236 83 103
245740.39733887 3357537.62915039 18.37755394 146 194 204
245741.92193604 3357537.52593994 18.52167130 187 77 64
245745.93463135 3357537.01367188 17.88483429 241 178 160
245746.23004150 3357537.80981445 17.86289978 169 134 132
245741.19274902 3357538.41925049 17.90214729 199 180 173
245744.40191650 3357537.34240723 18.15041733 220 134 137
245739.83752441 3357538.08715820 17.97652054 129 70 64
245742.25579834 3357537.50408936 18.42538643 229 195 149
245741.85382080 3357537.91522217 17.91959000 80 71 74
245745.80523682 3357537.45227051 18.07248688 135 14 33
245741.97039795 3357537.52319336 18.62714767 178 105 72
245743.26995850 3357537.19958496 17.93405724 233 153 130
245745.00463867 3357536.93927002 17.87938499 236 196 171
245746.35229492 3357537.19726563 18.13395309 242 110 124
245742.55682373 3357537.27319336 17.94665146 224 116 104
245740.64556885 3357537.71209717 18.84606361 191 143 133
245743.52709961 3357538.13037109 17.91592407 83 83 85
245746.00360107 3357537.29846191 18.49565506 198 88 91
245745.76733398 3357537.40808105 18.26984406 121 29 44
245746.88793945 3357537.02880859 17.92366982 232 124 122
245743.36090088 3357537.30480957 18.06502914 229 34 78
245744.62207031 3357537.36639404 18.28145409 144 202 177
245747.27233887 3357537.61663818 17.86700058 95 85 84
245739.76354980 3357537.59857178 18.07492065 229 98 129
245745.72491455 3357537.48663330 18.03064728 186 38 60
245739.99804688 3357537.71893311 18.88950539 174 202 206
245741.70043945 3357537.13220215 17.90835571 227 183 154
245745.58447266 3357537.32470703 18.69004059 204 128 130
245741.69818115 3357537.64782715 18.95518875 151 22 27
245741.67553711 3357536.91503906 17.92558861 221 187 159
245739.76483154 3357537.06213379 17.95983696 237 201 179
245744.04174805 3357537.47387695 19.02220345 13 49 123
245742.33264160 3357537.58276367 18.91044617 138 92 15
245746.83551025 3357537.36956787 18.00017929 181 43 68
245742.53765869 3357538.06518555 17.90957642 91 80 86
245746.42224121 3357537.33966064 19.16703033 210 102 134
245740.24945068 3357537.77789307 18.85492706 68 120 134
245743.26672363 3357537.70599365 18.00511360 74 13 29
245740.78088379 3357538.36749268 17.91023064 220 175 152
245740.43975830 3357537.40185547 17.97866249 186 53 58
245743.87866211 3357538.07873535 17.88987350 75 71 70
245740.85186768 3357537.62237549 18.92675972 199 53 66
245741.91815186 3357537.62640381 18.66011620 255 160 154
245744.32360840 3357537.41815186 18.91768646 101 109 120
245745.17938232 3357537.92901611 17.88697433 100 94 96
245739.52563477 3357537.52539063 18.02212334 207 15 36
245741.31976318 3357537.92333984 17.98097038 73 28 33
245745.87310791 3357537.94531250 17.86880493 99 90 93
245744.67675781 3357536.96734619 17.88108253 241 209 188
245745.70471191 3357537.21923828 18.07003021 226 34 71
245740.48510742 3357537.74816895 18.20575905 56 92 108
245744.45190430 3357537.42980957 18.26506996 158 75 91
245744.51324463 3357537.38635254 18.54295731 150 211 195
245741.61694336 3357538.03570557 17.90337753 78 76 79
245746.07403564 3357537.25927734 18.24709702 243 190 184
245747.53253174 3357537.92102051 17.84829712 103 94 99
245745.89208984 3357537.33074951 18.65657043 220 124 135
245745.03979492 3357536.80480957 17.87799454 216 180 156
245744.99877930 3357537.29156494 18.26567078 199 226 209
245742.74603271 3357537.57324219 18.39697075 233 221 181
245742.11511230 3357538.30883789 17.90949249 89 86 95
245741.39086914 3357537.66406250 18.63423538 114 17 26
245744.38891602 3357537.83013916 17.90604782 85 60 64
245742.22082520 3357537.57421875 19.07265091 249 236 108
245740.84552002 3357537.19445801 17.93231773 246 209 180
245740.18328857 3357538.44201660 17.93973732 208 181 172
245742.99035645 3357537.56756592 18.32285690 133 87 37
245743.46893311 3357537.31903076 18.08894157 226 45 96
245739.00061035 3357538.25061035 17.94160843 225 209 194
245746.50469971 3357537.28997803 18.89927101 127 74 82
245741.30474854 3357537.74267578 18.13406944 104 0 8
245739.81372070 3357538.47973633 17.94553947 211 180 162
245746.18743896 3357537.51202393 17.97828865 84 10 23
245742.65075684 3357538.13507080 17.92929840 102 96 100
245744.08264160 3357537.39904785 18.93812370 96 126 186
245740.23870850 3357537.77404785 18.37326431 59 102 121
245742.13366699 3357536.88049316 17.91364861 234 198 176
245745.32580566 3357537.92449951 17.88619614 76 74 75
245746.45153809 3357537.49414063 17.95370102 97 16 31
245742.01733398 3357537.38159180 18.02204704 218 35 65
245740.57781982 3357537.68713379 18.97378540 160 174 177
245745.22045898 3357536.93304443 17.89439964 240 206 179
245741.31927490 3357537.95361328 17.95785141 90 58 63
245747.58062744 3357537.49688721 17.85701370 197 173 161
245740.98028564 3357537.70288086 18.21924591 217 52 59
245743.23883057 3357537.56884766 18.19952011 115 34 75
245745.03485107 3357537.31945801 18.45124817 196 209 202
245742.67114258 3357537.34735107 18.05700874 215 61 59
245741.99700928 3357537.59692383 18.77959633 255 201 156
245741.03338623 3357537.62976074 18.76495934 181 73 70
245741.82305908 3357537.63488770 18.57808113 165 11 23
245741.19451904 3357537.62561035 18.63467789 255 231 227
245744.32824707 3357537.41625977 18.66836166 150 165 172
245744.84362793 3357537.40637207 19.03923416 120 139 135
245744.04364014 3357537.40960693 18.81116104 75 100 156
245742.16149902 3357537.59094238 18.60416222 137 84 6
245739.31170654 3357537.26446533 17.96349144 234 205 189
245741.97808838 3357537.60272217 18.42501831 230 53 63
245742.89501953 3357538.13775635 17.92884445 79 78 83
245746.83575439 3357537.54333496 17.91138077 110 54 67
245745.72912598 3357537.39141846 18.72653580 117 35 58
245746.00250244 3357537.34460449 18.74009132 204 103 119
245739.33227539 3357538.28948975 17.93905449 213 184 166
245742.64990234 3357537.58923340 18.33787346 123 79 16
245740.21508789 3357537.04003906 17.94621849 232 207 187
245743.97833252 3357537.16918945 17.92201996 248 172 156
245742.56939697 3357537.48986816 19.07901764 231 202 74
245743.64898682 3357537.38006592 18.46954155 73 87 175
245746.22833252 3357537.64733887 17.88955116 82 47 51
245744.97052002 3357537.26477051 18.13749695 224 214 189
245740.61157227 3357538.22387695 17.91208458 241 196 177
245741.31549072 3357537.17413330 17.93326759 238 192 159
245744.59442139 3357536.94409180 17.88184929 242 214 192
245740.45642090 3357538.16168213 17.92249680 213 176 160
245742.19610596 3357537.62786865 18.17259598 255 94 89
245745.04779053 3357537.82904053 17.88916206 91 79 83
245739.84002686 3357537.09130859 17.96332359 225 189 167
245743.85876465 3357537.55670166 18.10478210 58 40 78
245742.91687012 3357537.80816650 17.94504166 67 41 44
245744.08807373 3357537.46392822 18.72951317 37 45 84
245746.06152344 3357537.08563232 17.93316078 211 86 90
245743.68328857 3357538.17736816 17.89468765 83 81 86
245747.06683350 3357537.96380615 17.86123276 103 100 107
245746.50677490 3357537.30706787 18.47509956 149 78 92
245741.20703125 3357537.61010742 18.87154579 209 86 91
245743.86035156 3357537.45367432 18.94402695 56 95 160
245740.98333740 3357537.64154053 18.51047516 255 239 229
245745.82977295 3357537.24639893 18.10729027 227 103 111
245744.06256104 3357537.39282227 18.98702240 88 123 189
245741.53649902 3357537.64617920 18.98402596 216 29 60
245743.52374268 3357537.54199219 18.41724396 28 70 146
245739.70568848 3357537.70849609 18.08279610 223 3 41
245740.25323486 3357537.78320313 19.00910568 42 114 126
245744.10125732 3357537.45385742 18.31811142 52 29 75
245741.42059326 3357537.66186523 19.00620270 231 63 88
245741.24975586 3357538.18511963 17.90862465 94 82 86
245740.47393799 3357538.25213623 17.91828346 216 179 163
245741.18786621 3357537.70648193 19.01732445 140 8 22
245742.64758301 3357537.49920654 18.81757545 161 121 52
245746.08428955 3357537.55010986 17.94224167 76 8 19
245744.82672119 3357537.69628906 17.89217567 96 71 75
245740.69531250 3357537.51684570 18.12709808 202 32 68
245744.36163330 3357537.95288086 17.88480759 160 140 141
245744.28393555 3357537.41021729 18.60967827 135 160 180
245742.10528564 3357537.61352539 18.80294037 129 83 0
245746.59997559 3357537.74639893 17.86850548 79 64 69
245747.33349609 3357537.86230469 17.85579491 104 95 100
245743.52008057 3357537.37091064 18.36296654 118 107 173
245740.08306885 3357537.45776367 18.04366112 192 51 68
245739.11474609 3357537.65362549 17.96557617 242 213 197
245740.83703613 3357537.60803223 18.26751137 196 62 69
245739.21942139 3357537.42517090 17.96576500 227 193 183
245739.97235107 3357537.76708984 18.31686401 211 228 235
245741.22222900 3357537.59368896 18.93778038 212 77 84
245745.77941895 3357537.30834961 18.58113480 242 217 212
245739.13189697 3357537.74298096 17.96541023 234 202 187
245741.69622803 3357537.82116699 17.94808578 73 16 31
245741.54431152 3357537.56274414 18.47700119 248 223 226
245744.35913086 3357537.44433594 18.11858368 204 66 91
245742.49237061 3357537.43627930 19.01900482 242 210 107
245739.38262939 3357537.58410645 17.99133110 255 162 158
245742.32110596 3357538.30596924 17.89750099 86 78 89
245745.52386475 3357537.34643555 18.55093765 191 125 127
245745.95507813 3357537.35321045 18.62569237 221 150 156
245740.62060547 3357537.70532227 18.75630569 211 169 155
245741.30346680 3357537.67706299 18.46826744 112 13 18
245744.68725586 3357537.15930176 17.93397713 242 139 124
245744.73571777 3357537.44592285 18.18161201 56 94 95
245741.15600586 3357537.95440674 17.97719765 94 49 54
245746.62524414 3357536.83947754 17.88372993 234 205 187
245742.30609131 3357537.47576904 18.23246574 198 130 95
245746.42706299 3357536.64031982 17.86623764 212 198 185
245743.85162354 3357537.46112061 18.92024994 86 120 183
245740.46618652 3357537.61138916 18.29380798 127 164 183
245744.08966064 3357537.67736816 17.91070938 70 23 33
245743.87518311 3357537.87646484 17.88756752 175 146 140
245741.78558350 3357538.08880615 17.91442680 73 68 72
245742.32037354 3357537.59808350 18.24143219 147 68 9
245740.05200195 3357537.69586182 19.12389946 87 157 157
245741.82861328 3357537.53393555 18.74137115 209 91 87
245742.50335693 3357537.62915039 18.10427475 118 49 20
245740.57580566 3357537.70172119 18.80187416 200 169 149
245745.87939453 3357537.07440186 17.90471077 232 140 129
245742.25250244 3357537.58380127 18.69893837 128 86 4
245742.62127686 3357537.87097168 17.93366814 81 62 66
245739.53173828 3357537.05230713 17.95600319 200 165 145
245744.05285645 3357537.40917969 18.65574646 92 114 174
245740.24798584 3357538.32012939 17.93075943 198 170 158
245746.48779297 3357537.30499268 18.58540154 218 179 182
245743.95196533 3357537.48522949 18.64837837 34 49 104
245744.99450684 3357537.38879395 18.37652588 136 198 195
245745.82318115 3357537.31970215 18.75945663 233 137 151
245745.71722412 3357537.32458496 19.11623764 233 109 145
245747.20739746 3357537.79345703 17.86135483 89 83 87
245746.38696289 3357537.29467773 18.56688881 245 196 199
245742.10980225 3357537.77575684 17.96857643 92 19 26
245746.45349121 3357537.34448242 18.76244926 124 48 61
245745.81036377 3357537.27026367 18.20117569 224 148 148
245744.19744873 3357537.39520264 18.34892845 176 113 142
245739.66046143 3357538.16259766 17.94967461 219 180 165
245745.71795654 3357537.31695557 18.53839874 232 204 200
245740.44439697 3357538.15576172 17.92344666 213 176 160
245739.35876465 3357537.53790283 17.98003197 255 188 179
245740.16278076 3357537.59851074 18.18828392 179 178 186
245745.01153564 3357537.78918457 17.88999557 81 71 72
245745.83709717 3357536.73736572 17.87929726 236 214 201
245741.64434814 3357538.32818604 17.91709518 91 86 90
245739.13183594 3357538.12396240 17.94348717 209 190 175
245742.51397705 3357537.68475342 18.03835297 91 11 10
245744.14184570 3357537.32427979 18.18103600 174 90 113
245742.84082031 3357537.27056885 17.98334885 220 71 67
245746.05749512 3357537.14923096 18.00007820 224 62 83
245746.04937744 3357537.33422852 18.67223740 254 195 191
245747.58154297 3357537.92279053 17.84677696 98 93 97
245739.74047852 3357538.01959229 18.00348282 135 17 29
245746.09448242 3357537.39514160 18.36465836 134 49 70
245746.97076416 3357537.46795654 17.95165253 145 57 73
245745.76739502 3357536.64459229 17.87777138 233 213 204
245742.51708984 3357538.02117920 17.91557693 91 80 84
245742.57165527 3357537.50170898 19.10986710 243 218 89
245742.74951172 3357537.47802734 18.71658325 171 111 39
245744.50372314 3357537.34112549 19.01412201 126 183 174
245745.65167236 3357537.40246582 18.63835716 120 31 53
245744.84448242 3357537.33166504 18.31430244 199 234 214
245739.90112305 3357538.44049072 17.94531250 229 200 182
245742.64221191 3357538.20648193 17.93941689 95 90 94
245741.90332031 3357538.17047119 17.92049980 78 76 81
245740.45739746 3357537.39062500 17.97335052 224 116 106
245746.06494141 3357537.05322266 17.89920616 255 158 153
245741.04327393 3357537.62420654 18.38476563 249 229 218
245741.56079102 3357537.60791016 18.90991020 223 52 71
245745.99877930 3357537.34802246 18.61114693 255 186 189
245743.87512207 3357537.43817139 18.67447662 98 119 182
245740.12133789 3357537.61376953 18.25554276 120 150 158
245742.03228760 3357536.89434814 17.91654968 236 201 179
245746.42071533 3357537.25524902 18.92552948 228 110 132
245740.82183838 3357537.46569824 18.06842804 210 24 48
245739.32324219 3357538.38793945 17.93869591 201 176 156
245739.77313232 3357537.65570068 18.10054016 244 105 138
245742.94775391 3357537.33593750 18.12931824 218 44 45
245743.71844482 3357537.38574219 18.44435883 120 139 218
245743.63299561 3357538.23345947 17.90460014 69 68 73
245744.46582031 3357537.42138672 19.14139748 214 244 242
245742.51995850 3357537.55999756 19.18685913 255 241 127
245739.98669434 3357537.58148193 18.17999458 172 167 174
245746.78405762 3357536.69555664 17.87643623 220 209 205
245744.36364746 3357537.91156006 17.89081001 161 137 137
245740.50006104 3357537.68182373 18.89977646 187 198 200
245742.27050781 3357537.47662354 18.21775246 221 141 118
245741.55023193 3357537.78082275 18.01721764 100 14 27
245742.87677002 3357538.14776611 17.93234444 79 78 84
245739.92388916 3357537.25189209 17.96942520 228 193 165
245744.95861816 3357536.80493164 17.87751007 199 158 138
245741.59588623 3357537.62414551 18.96366692 196 27 46
245741.82342529 3357536.97216797 17.91566277 227 190 164
245746.33898926 3357537.38873291 18.57166100 113 36 52
245746.67803955 3357537.75457764 17.86944962 76 65 69
245745.28131104 3357537.94122314 17.88650513 95 91 90
245743.33868408 3357537.65979004 18.04389191 107 10 30
245741.75408936 3357537.56671143 18.92847824 172 39 42
245744.66040039 3357537.08264160 17.90595818 243 198 169
245744.87219238 3357538.04937744 17.88543701 82 63 59
245743.44714355 3357537.74713135 17.96417809 76 20 31
245740.56060791 3357537.69866943 19.19335747 167 220 226
245740.86193848 3357537.63189697 18.77441025 170 62 62
245745.78668213 3357537.35070801 19.17028427 236 127 159
245742.82916260 3357537.00000000 17.91337395 231 184 156
245745.82049561 3357537.32037354 18.66875458 250 190 198
245746.63812256 3357537.26867676 18.08115387 177 40 58
245742.73773193 3357537.48498535 18.65288162 171 110 45
245742.24121094 3357537.62249756 19.07192039 190 160 36
245741.31591797 3357537.67138672 18.52822685 112 11 19
245740.97552490 3357537.68829346 18.35769653 125 0 6
245743.62548828 3357538.06903076 17.89862442 79 70 71
245743.45300293 3357537.63061523 18.07168198 186 51 84
245743.73126221 3357537.37420654 18.36507225 116 135 211
245746.22924805 3357537.37554932 18.75868797 141 32 51
245740.70025635 3357537.40948486 18.00334167 188 17 36
245741.57849121 3357537.85388184 17.95217514 64 17 27
245743.16302490 3357537.66540527 18.03426170 92 25 43
245746.08197021 3357536.95770264 17.87864304 227 180 162
245746.38525391 3357537.67883301 17.87688828 77 58 60
245745.87164307 3357537.30255127 19.04995728 241 116 150
245741.76831055 3357537.53973389 18.67674637 217 132 125
245740.87011719 3357537.24371338 17.93273735 243 202 172
245743.54846191 3357537.58837891 18.16380692 73 21 67
245742.12908936 3357537.59997559 18.69824600 138 87 4
245743.82843018 3357537.89361572 17.88845062 210 183 174
245740.80047607 3357538.46301270 17.91211700 213 178 159
245740.36492920 3357537.25744629 17.94651031 227 180 154
245740.07080078 3357538.22442627 17.94508743 174 145 129
245739.20001221 3357537.77593994 17.96496201 205 178 157
245746.26763916 3357537.39843750 18.46529961 118 33 52
245744.32000732 3357537.78900146 17.91819763 94 67 74
245742.46203613 3357537.97332764 17.92883301 84 72 76
245746.17352295 3357537.32452393 18.52340126 233 117 140
245741.03863525 3357537.60534668 18.24980354 186 106 95
245741.72839355 3357537.64831543 18.46736145 141 0 8
245746.53051758 3357537.23187256 18.28697205 179 77 88
245740.87622070 3357537.69927979 18.63162804 119 19 19
245742.30981445 3357537.59387207 18.97076607 130 89 1
245741.96600342 3357537.61077881 18.52384377 232 75 82
245747.45666504 3357537.94732666 17.84991074 108 99 104
245746.35711670 3357537.40155029 18.21777916 107 33 50
245741.41052246 3357537.73284912 18.14230537 101 4 11
245744.55877686 3357537.44525146 18.23940659 76 84 86
245744.54980469 3357537.43743896 18.49848938 51 80 78
245746.51391602 3357536.72497559 17.86488533 226 205 188
245747.45935059 3357537.73663330 17.85643578 110 101 104
245743.48822021 3357537.58654785 18.24582672 71 36 100
245746.06652832 3357537.40240479 18.32810020 130 42 66
245739.35583496 3357538.00701904 17.97257423 221 183 162
245743.94830322 3357537.41479492 19.00533867 67 111 182
245745.87170410 3357537.26336670 18.26534081 243 216 209
245743.77770996 3357537.54772949 18.16004944 44 34 84
245741.52301025 3357538.37207031 17.92674828 88 82 92
245742.78613281 3357537.03680420 17.90900993 230 181 149
245741.06640625 3357537.48101807 18.06313133 231 120 136
245745.73779297 3357537.39233398 18.61314774 111 32 53
245746.42462158 3357537.24920654 18.33071709 195 94 102
245746.32952881 3357537.57501221 17.91606331 71 18 26
245745.76593018 3357537.48101807 18.04486656 173 31 53
245741.54248047 3357537.66223145 18.65111732 126 19 27
245739.33361816 3357538.28186035 17.93916512 216 185 165
245740.09735107 3357538.13946533 17.94639778 194 164 153
245742.39978027 3357536.88403320 17.91337395 228 188 163
245741.96508789 3357538.28265381 17.91874695 86 83 92
245741.70013428 3357537.55584717 18.86517906 205 71 70
245746.48535156 3357536.54711914 17.86454582 215 211 208
245742.79083252 3357537.47106934 18.53996849 225 202 150
245740.43634033 3357538.41851807 17.92278671 204 174 164
245740.70666504 3357537.73645020 18.13772011 142 29 49
245745.02648926 3357537.26538086 18.15312004 210 214 191
245744.51055908 3357537.45019531 18.74277496 51 75 75
245745.15234375 3357537.41986084 18.33801270 138 218 209
245742.41479492 3357537.56433105 18.52351952 125 81 8
245739.86376953 3357537.98687744 18.04682922 158 22 42
245744.43389893 3357537.46850586 19.07249832 221 239 227
245741.07446289 3357537.16741943 17.93348122 243 206 179
245743.84790039 3357537.41320801 18.59455490 67 82 141
245743.59564209 3357537.17163086 17.93128204 242 175 149
245742.14410400 3357537.48962402 18.21328926 218 97 88
245741.51019287 3357536.96649170 17.94180489 234 203 182
245745.31225586 3357538.01495361 17.88368416 91 87 88
245744.36541748 3357537.40527344 18.97049141 103 114 118
245743.94702148 3357537.54461670 18.10266685 53 37 74
245739.42120361 3357538.01818848 17.99137688 237 155 144
245742.15191650 3357537.60607910 18.79108810 131 87 0
245740.67504883 3357537.63842773 18.50979042 127 67 75
245744.82550049 3357537.37445068 18.93651009 118 137 131
245742.37573242 3357537.44561768 19.13056946 251 232 156
245741.13934326 3357538.42810059 17.90631676 193 170 164
245740.12329102 3357537.66088867 18.95252991 94 139 144
245746.26556396 3357536.86767578 17.87082863 211 175 151
245740.99206543 3357537.67449951 18.45617294 125 11 19
245739.14721680 3357538.38732910 17.93987083 187 168 151
245741.41870117 3357537.59045410 18.42107582 249 237 239
245740.79791260 3357537.42639160 18.02516365 199 23 43
245740.89923096 3357537.64013672 18.52778625 228 174 162
245745.83514404 3357537.39843750 18.40556908 112 31 50
245741.85241699 3357537.53326416 18.27006149 202 27 58
245742.66369629 3357537.42724609 18.27108002 227 208 139
245739.56768799 3357538.31036377 17.94507980 211 175 159
245742.42089844 3357537.75518799 18.00482368 102 7 13
245740.24218750 3357537.78558350 18.98435020 46 113 129
245746.57830811 3357537.19543457 18.13277817 230 74 95
245744.96636963 3357537.84851074 17.88898659 89 80 83
245739.39251709 3357537.14947510 17.95947075 251 220 199
245746.28759766 3357537.25500488 19.11042595 223 109 135
245747.24926758 3357537.97351074 17.85548973 82 77 81
245742.78759766 3357537.56219482 18.43648911 252 244 205
245740.94171143 3357537.64080811 18.52071190 255 232 220
245741.40087891 3357537.67248535 18.72642517 122 21 29
245741.31378174 3357537.91900635 17.98616791 73 28 33
245744.38153076 3357537.39678955 18.29956818 180 35 66
245746.22058105 3357537.26208496 18.22906113 241 175 179
245741.87139893 3357537.52825928 18.76401901 193 81 70
245740.65594482 3357537.37908936 17.96899033 225 100 98
245741.46887207 3357538.25476074 17.90447044 80 73 80
245741.34796143 3357537.38836670 18.01243973 196 53 57
245743.04675293 3357537.70751953 17.99551010 70 10 20
245746.02178955 3357537.32489014 18.90724182 231 189 175
245742.79760742 3357537.03436279 17.91043091 230 181 149
245743.91113281 3357538.00390625 17.89116859 181 168 162
245741.53839111 3357537.52166748 18.18791580 202 54 78
245745.61285400 3357537.37225342 19.13679123 229 114 145
245745.95025635 3357537.17657471 18.02701187 214 48 72
245740.11059570 3357537.80346680 18.45365334 66 106 114
245743.66961670 3357537.56646729 18.18539238 43 36 90
245744.28656006 3357537.30108643 18.07951927 222 47 76
245743.16656494 3357537.58276367 18.17171478 113 19 45
245741.01470947 3357537.68652344 18.37858009 122 0 4
245741.09783936 3357537.67407227 18.47373009 116 16 16
245746.98883057 3357537.23480225 17.98583603 195 51 74
245745.21960449 3357537.35809326 18.36520576 215 237 234
245742.15795898 3357537.45318604 18.80163765 224 184 122
245744.87506104 3357537.33612061 18.46430206 117 153 141
245745.47241211 3357537.31164551 18.35237694 152 55 62
245746.42913818 3357537.28649902 18.67311096 253 187 199
