246082.22070313 3357348.16540527 16.18063927 60 60 60
246081.84838867 3357357.45181274 17.82491875 32 36 45
246083.86511230 3357356.66476440 18.76890755 101 137 169
246083.19067383 3357357.05581665 15.09091949 50 52 64
246087.99768066 3357337.21868896 15.37793255 238 243 246
246082.55517578 3357348.58349609 15.80766678 58 58 60
246084.18688965 3357357.17083740 17.50505638 67 69 68
246082.77624512 3357348.63583374 16.49708748 46 47 49
246087.72521973 3357349.02993774 15.57737827 23 44 75
246082.95776367 3357357.23706055 17.26620293 32 37 41
246083.28710938 3357348.32965088 18.26192284 21 104 182
246081.54064941 3357351.23474121 20.51804733 43 60 50
246084.02526855 3357348.97351074 14.98975277 202 180 130
246087.72180176 3357348.37731934 15.42681694 30 49 81
246082.51806641 3357357.34274292 15.23809528 47 51 60
246087.93200684 3357351.68334961 17.16760635 16 39 71
246082.72680664 3357357.30273438 18.67907333 21 49 88
246085.17785645 3357351.19796753 18.60224342 95 130 162
246087.93994141 3357353.18713379 16.44149017 15 38 70
246087.90051270 3357353.27383423 15.94935513 14 36 73
246084.20861816 3357351.91168213 18.77024841 58 114 163
246082.19104004 3357350.75430298 18.74433899 36 69 110
246083.50891113 3357349.67776489 15.80114079 48 49 51
246087.78015137 3357346.35400391 15.59446621 173 171 174
246082.07373047 3357354.06707764 18.63757515 45 80 120
246087.99072266 3357353.81863403 17.62919426 28 49 76
246087.70471191 3357346.64129639 15.70182800 221 225 237
246084.11608887 3357358.28839111 14.97324181 88 91 100
246083.74707031 3357350.29846191 18.71102524 80 127 169
246083.50061035 3357357.30703735 18.00954056 24 42 52
246087.93823242 3357352.60122681 16.93010139 16 36 63
246083.27990723 3357357.23635864 17.59680176 37 43 43
246082.45129395 3357351.48532104 18.68308258 59 92 127
246086.35168457 3357353.71578979 18.44024086 89 131 169
246081.50341797 3357347.65298462 17.91544724 46 47 49
246083.16149902 3357357.10296631 16.72344017 26 31 37
246083.93798828 3357353.19268799 18.78899193 52 108 157
246085.49609375 3357348.26647949 18.50436974 43 106 173
246087.90722656 3357354.53643799 18.20837402 86 130 177
246086.86254883 3357357.16836548 15.55100536 50 51 56
246086.69079590 3357351.35440063 18.33337975 94 134 170
246086.01684570 3357356.65628052 18.64648819 97 142 184
246087.95678711 3357354.14184570 15.92773056 20 41 72
246086.69836426 3357354.61990356 18.44909859 63 117 163
246083.80419922 3357351.78735352 18.76281738 52 106 152
246086.06311035 3357356.11767578 18.59560204 99 144 186
246083.21496582 3357356.64041138 15.55551338 33 40 46
246083.58837891 3357354.70434570 18.77599335 60 117 160
246087.90515137 3357351.09158325 16.65630913 16 40 66
246081.04333496 3357355.81079102 18.89295197 29 59 93
246085.33227539 3357348.91894531 14.98086739 110 106 97
246086.81457520 3357357.82589722 15.20990181 76 70 72
246082.41333008 3357353.62142944 18.72059441 33 83 132
246081.45507813 3357357.51095581 17.94251251 25 37 51
246081.53552246 3357348.83380127 18.73550987 61 87 120
246081.21228027 3357353.64346313 18.75489616 30 57 84
246084.96618652 3357356.98989868 17.22395325 71 75 76
246087.17395020 3357356.96542358 16.83275795 33 37 38
246086.09570313 3357349.53518677 18.49050522 75 120 161
246082.64013672 3357358.23562622 15.11472893 68 70 82
246086.87768555 3357350.47790527 18.33751106 92 139 181
246087.85876465 3357352.48025513 15.92518997 15 36 67
246087.95581055 3357339.15170288 15.45137310 202 203 207
246087.79846191 3357350.28906250 15.23025417 20 40 67
246084.41210938 3357353.71337891 18.68022537 61 104 146
246087.55737305 3357354.86755371 18.24462318 87 129 171
246087.02868652 3357357.05346680 17.52661133 35 41 41
246087.79858398 3357344.37918091 15.38140869 205 212 220
246083.15588379 3357348.33612061 18.25321388 24 106 180
246083.29724121 3357352.81686401 18.72858238 66 104 143
246083.99572754 3357348.25488281 17.98504066 13 37 65
246085.38171387 3357351.19848633 18.57279205 103 136 169
246087.73132324 3357342.13601685 15.10427570 202 205 210
246083.44555664 3357355.63214111 18.80493546 69 116 160
246087.92932129 3357339.81094360 15.58637714 178 179 183
246087.52783203 3357344.44476318 15.06854534 204 211 217
246081.52624512 3357355.68649292 18.91142273 35 73 112
246083.49218750 3357356.49716187 18.81335449 104 147 182
246082.66137695 3357348.68292236 15.51369190 61 62 66
246085.98083496 3357356.87677002 16.94640541 37 40 47
246086.20520020 3357356.94915771 17.19002151 44 49 52
246085.08178711 3357355.72628784 18.67853928 96 144 190
246084.73925781 3357348.41525269 18.68343163 91 133 175
246081.31738281 3357355.71078491 18.91094780 33 67 104
246085.23120117 3357356.97912598 15.06754589 62 67 70
246082.75170898 3357353.80691528 18.71928406 47 94 136
246082.32043457 3357356.30401611 18.86100197 52 102 139
246081.64733887 3357353.38604736 18.69012451 40 67 97
246085.89160156 3357348.41134644 17.41460419 48 57 52
246085.55615234 3357357.09414673 17.84999657 33 50 68
246087.91748047 3357337.03900146 15.42488861 223 218 224
246087.55627441 3357347.18960571 15.26304436 188 182 182
246086.36938477 3357356.86187744 16.33003044 33 36 41
246087.71057129 3357346.95684814 15.66715622 159 160 164
246087.77734375 3357357.03787231 15.24886513 48 53 56
246088.05871582 3357355.02828979 17.99927902 23 51 88
246087.78527832 3357346.94232178 15.22175980 158 159 164
246081.39331055 3357352.26623535 18.65327072 31 58 87
246087.50537109 3357346.62097168 14.99368954 192 187 184
246087.78369141 3357348.86022949 17.20941925 28 48 72
246081.33691406 3357357.56491089 17.82473755 25 38 47
246081.70166016 3357348.46038818 18.61142540 55 105 166
246087.99768066 3357353.64755249 17.72045517 37 56 88
246085.67468262 3357356.91220093 17.05113602 30 38 40
246087.73669434 3357345.42776489 15.72607231 164 164 174
246083.63842773 3357353.45687866 18.77569580 31 95 143
246085.34704590 3357348.78854370 18.63891411 99 139 175
246087.80078125 3357346.71963501 15.14665031 176 177 181
246083.04748535 3357349.08328247 15.06381893 80 79 74
246088.04724121 3357338.72372437 15.29709435 235 236 241
246082.86096191 3357356.41137695 18.89839363 65 111 145
246083.76293945 3357350.49771118 18.75433350 51 109 155
246087.89379883 3357333.10278320 15.23473835 180 178 181
246081.20568848 3357357.62377930 17.71191597 28 38 48
246084.35900879 3357348.34899902 18.71323586 67 126 186
246084.28369141 3357348.98440552 16.64875221 40 43 50
246086.42858887 3357352.18457031 18.48724174 75 123 163
246087.74609375 3357347.63476563 15.72464943 143 143 143
246083.42797852 3357351.14559937 18.78105164 52 95 140
246087.85278320 3357350.84527588 17.84659767 34 50 84
246083.56140137 3357356.96612549 16.59416771 29 34 40
246087.75219727 3357342.03128052 15.92400646 193 196 203
246087.71679688 3357346.09655762 15.78033352 162 165 170
246088.02575684 3357354.91226196 16.60804749 22 42 79
246087.39562988 3357348.76119995 18.26247978 90 128 167
246084.88391113 3357348.26614380 18.27177238 43 113 183
246085.90856934 3357356.70678711 16.26178932 31 36 40
246084.73608398 3357355.99404907 18.73958588 99 143 188
246085.72485352 3357357.29681396 15.10755348 76 76 78
246087.81127930 3357349.90646362 16.50453949 24 44 69
246084.66113281 3357351.11624146 18.69622040 88 131 165
246084.12158203 3357356.85528564 16.62325478 33 40 50
246082.76757813 3357353.70236206 18.72636223 37 88 135
246087.84545898 3357357.04452515 17.33064461 35 38 43
246082.94616699 3357349.32873535 15.56240368 48 48 48
246081.32397461 3357356.75576782 18.81613922 40 70 108
246082.22448730 3357351.40884399 18.67982674 41 69 106
246087.69689941 3357346.45791626 15.18208122 140 140 140
246084.98266602 3357356.20977783 15.48999405 34 39 43
246087.75024414 3357344.76980591 15.25865555 213 216 225
246085.93725586 3357352.22708130 18.54113770 82 127 168
246083.76452637 3357357.19921875 18.80907249 98 138 173
246084.36376953 3357348.28842163 18.36189270 8 86 168
246083.41320801 3357356.57769775 15.72117329 29 36 44
246083.98657227 3357351.86926270 18.76788902 53 110 155
246084.47253418 3357349.58010864 14.96370697 165 143 104
246081.23522949 3357357.63385010 15.51397228 38 43 49
246085.19006348 3357356.99557495 17.31786537 74 80 80
246085.52343750 3357356.87179565 15.12194157 59 63 66
246087.41174316 3357358.11874390 15.00824833 110 119 118
246082.38439941 3357354.87460327 18.78586388 28 86 134
246085.49926758 3357357.01226807 17.38396454 71 72 76
246086.49597168 3357353.72180176 18.43726921 90 132 170
246084.00146484 3357349.60665894 15.30519199 206 195 201
246082.64123535 3357357.06396484 15.99865627 28 35 43
246081.95434570 3357357.35757446 18.55819893 24 53 87
246084.15795898 3357358.42144775 14.96281719 84 87 96
246082.69799805 3357349.50634766 18.82415581 55 108 150
246087.89721680 3357350.83932495 16.73857307 19 39 72
246083.22912598 3357354.43862915 18.76914406 63 111 151
246081.85327148 3357352.12915039 18.70084381 37 66 96
246081.28271484 3357354.95291138 18.99707413 30 54 90
246084.63928223 3357349.27557373 18.76847267 93 137 176
246087.90234375 3357340.23519897 15.23630142 203 204 209
246086.23303223 3357357.03576660 15.53813744 47 50 55
246082.73913574 3357350.22775269 18.70055389 62 96 134
246084.97753906 3357349.37686157 15.81698704 101 91 79
246088.04553223 3357354.89929199 16.91097641 20 43 77
246082.69506836 3357348.65515137 15.34700012 64 65 67
246084.15307617 3357356.52941895 15.93258476 30 37 45
246082.41015625 3357357.26110840 16.86263466 23 32 37
246082.77856445 3357357.15640259 16.66436195 25 30 36
246084.81628418 3357357.75503540 15.20015621 64 67 72
246085.38134766 3357351.44647217 18.55566978 109 147 183
246080.45556641 3357357.71017456 16.77105331 19 28 37
246087.86218262 3357337.13919067 15.39119148 241 240 246
246080.38781738 3357358.90655518 15.04452801 67 71 80
246087.78344727 3357350.61181641 15.52131081 16 35 68
246083.42993164 3357356.59332275 18.81512451 102 145 180
246085.88208008 3357349.77044678 18.46274757 93 129 165
246082.53222656 3357352.00039673 18.72244263 37 81 126
246087.88635254 3357333.71472168 15.51436520 176 173 180
246087.70996094 3357347.30694580 15.42531300 17 18 20
246086.27514648 3357348.73110962 16.33407974 114 107 91
246087.79846191 3357350.99304199 15.46950817 13 36 70
246082.68103027 3357352.48666382 18.73500824 48 89 133
246084.52099609 3357348.26385498 18.20981789 47 104 171
246081.25305176 3357357.58609009 15.54672718 37 41 50
246087.96435547 3357352.88360596 17.30657387 26 50 76
246087.83837891 3357352.02218628 15.66602993 11 37 74
246084.59069824 3357353.50347900 18.71339798 61 110 151
246081.51733398 3357357.44104004 18.19553185 38 55 83
246086.39538574 3357356.91476440 15.86806011 33 38 42
246088.00280762 3357356.73248291 18.24475861 90 125 157
246085.70617676 3357348.65179443 16.80844498 61 56 60
246087.85900879 3357350.89141846 17.81782913 34 50 84
246087.85766602 3357357.03811646 16.98303413 40 41 46
246086.09069824 3357348.30929565 17.61202621 53 62 59
246082.88195801 3357357.35385132 18.12415123 42 58 84
246087.72705078 3357342.44619751 15.01111603 166 169 176
246084.05737305 3357349.23541260 16.31457520 42 46 47
246086.42687988 3357352.51315308 18.48869896 97 132 170
246085.03649902 3357356.42993164 16.24566841 32 37 43
246081.91955566 3357357.45614624 17.73232079 36 43 51
246082.59802246 3357348.14056396 17.74699783 41 45 48
246081.83227539 3357350.80685425 21.32291412 103 122 77
246087.37487793 3357348.67126465 18.25821114 89 126 168
246083.97045898 3357357.27395630 18.32899284 40 68 115
246083.96728516 3357354.94827271 18.72175217 75 124 167
246086.80920410 3357349.58258057 18.34428215 77 122 163
246087.21728516 3357356.94375610 16.08358383 36 39 44
246084.51513672 3357350.84677124 18.73274422 48 99 142
246087.74084473 3357348.90142822 16.44843864 21 43 67
246087.80895996 3357343.39471436 15.18549919 99 102 107
246084.74121094 3357358.09243774 15.23228455 150 45 52
246083.13269043 3357348.63851929 15.02052593 108 98 96
246087.65576172 3357341.64453125 14.99194241 85 88 93
246087.90234375 3357351.35183716 16.61094856 19 40 71
246086.74621582 3357356.94097900 16.94022179 33 37 38
246083.73034668 3357349.80010986 15.24716663 96 89 79
246082.90893555 3357349.26394653 15.62732601 46 46 46
246087.96386719 3357353.08273315 17.07741165 24 45 76
246085.57849121 3357349.92642212 18.48798370 119 151 189
246088.02868652 3357354.91131592 16.16380692 20 42 81
246083.74157715 3357353.49795532 18.76946259 36 97 144
246083.19067383 3357349.91262817 15.31200314 65 64 62
246087.86743164 3357344.31393433 15.21337509 195 202 208
246084.63903809 3357348.56835938 17.27280617 43 44 38
246082.09155273 3357350.81088257 18.74439430 40 72 113
246087.89318848 3357353.38830566 15.28972626 9 32 64
246087.23706055 3357352.84381104 18.33305550 93 136 178
246086.54064941 3357353.01037598 18.50276184 89 136 178
246087.75231934 3357346.05593872 15.33078384 197 201 212
246087.77258301 3357341.36184692 15.83912754 255 255 255
246085.88366699 3357348.92959595 16.11081696 126 117 102
246083.66015625 3357353.22427368 18.79227448 53 106 156
246083.11523438 3357356.10324097 18.88146973 55 108 150
246082.21154785 3357357.26025391 18.77713394 73 109 145
246087.92785645 3357336.94442749 15.37631416 244 245 249
246084.53149414 3357357.07217407 17.44900703 51 55 56
246085.11669922 3357350.16354370 18.55770493 90 126 160
246087.58081055 3357355.89059448 18.29878807 88 140 188
246083.42871094 3357348.68920898 16.99637794 35 34 39
246082.00817871 3357355.48483276 18.87757492 45 88 130
246084.65771484 3357356.75897217 18.78725624 106 142 178
246083.96203613 3357349.55364990 15.11083984 160 48 46
246087.92211914 3357351.60083008 17.33527565 29 50 79
246082.75463867 3357356.07641602 18.87632179 46 100 144
246086.40039063 3357358.34112549 14.98342228 109 110 114
246082.67089844 3357356.44314575 18.88409424 63 107 142
246083.86901855 3357348.86203003 18.78793907 105 139 184
246081.66882324 3357351.07785034 20.68539238 43 60 42
246084.22961426 3357358.43893433 14.96364689 92 92 102
246086.72106934 3357348.58068848 18.39214897 90 129 170
246083.77294922 3357357.48428345 14.99060822 75 79 90
246084.84777832 3357357.16223145 18.60955048 22 59 101
246082.15673828 3357358.74462891 14.95124817 89 91 104
246083.08386230 3357348.84573364 15.02448463 97 92 88
246087.74401855 3357346.76907349 15.74310303 142 143 147
246085.20971680 3357349.33724976 18.69739723 90 139 179
246081.03356934 3357351.95050049 18.60458183 32 55 87
246085.58166504 3357349.07589722 16.07493210 135 127 104
246087.84143066 3357342.42575073 15.38975525 186 188 200
246084.62219238 3357356.05599976 15.47092533 35 40 44
246080.81542969 3357356.24557495 18.80364609 32 59 88
246085.80590820 3357349.88116455 18.45411491 98 131 166
246081.90979004 3357352.02548218 18.69569016 40 69 103
246080.39794922 3357357.67495728 16.66819763 20 29 38
246083.56677246 3357358.34628296 14.95899105 106 108 121
246081.96496582 3357350.25686646 18.70467758 39 63 97
246085.38928223 3357349.10488892 18.66777039 94 136 176
246084.01000977 3357348.97924805 16.66819954 30 34 37
246081.99157715 3357351.59887695 18.65887833 41 70 104
246087.04858398 3357355.18286133 18.28721237 94 134 169
246082.75646973 3357354.00393677 18.70676422 56 98 138
246086.41223145 3357355.34503174 18.42117882 98 137 180
246083.11596680 3357355.78573608 18.84687614 54 111 156
246087.60424805 3357357.05813599 17.51791954 38 39 43
246084.79602051 3357348.56683350 17.26199913 40 40 40
246083.79614258 3357356.52914429 15.82984161 29 36 44
246087.80224609 3357350.77597046 15.85870552 15 37 76
246084.14672852 3357349.05679321 14.97594833 210 188 139
246087.03076172 3357354.58731079 18.36624908 79 131 178
246087.00378418 3357348.14752197 18.01770592 60 89 123
246080.64868164 3357357.72106934 16.85055161 22 31 38
246082.13500977 3357353.45556641 18.73159218 44 81 123
246083.62646484 3357356.40936279 15.51663113 36 43 51
246088.11071777 3357355.69787598 17.83483315 42 61 93
246083.03576660 3357356.27014160 18.90370750 59 111 148
246087.96142578 3357335.59689331 15.23103428 185 192 202
246087.73596191 3357356.80023193 18.29416466 112 152 187
246086.95898438 3357357.12240601 18.33642197 21 55 93
246087.82446289 3357352.69479370 18.18370247 93 128 166
246082.33947754 3357357.19265747 16.32927322 26 31 37
246086.79431152 3357357.08142090 15.67999840 44 49 52
246087.90307617 3357350.73733521 17.35723495 26 46 81
246082.22570801 3357355.18722534 18.83133125 47 95 135
246086.87670898 3357349.33154297 18.40292168 78 129 174
246088.03613281 3357354.78060913 17.61545944 24 43 75
246085.20275879 3357356.81356812 16.91203880 58 62 65
246086.01074219 3357348.68838501 18.52177620 84 126 164
246082.98254395 3357348.87121582 15.07192326 78 80 79
246086.86889648 3357352.86767578 18.41402245 88 133 174
246086.21728516 3357354.80517578 18.50455856 83 130 176
246081.70251465 3357357.52447510 15.34877110 50 53 62
246087.86230469 3357350.46051025 16.62818527 20 43 77
246087.83605957 3357337.34005737 15.76653862 206 205 211
246085.68273926 3357357.29635620 15.10210514 74 74 76
246083.33239746 3357357.24267578 17.63467216 37 46 45
246084.51562500 3357357.10549927 17.59016418 48 54 54
246084.69824219 3357356.68844604 18.78751183 95 133 172
246088.07592773 3357355.40286255 17.50681877 27 47 72
246082.85388184 3357351.40960693 18.71874428 52 90 129
246083.09020996 3357355.61978149 18.82383537 52 104 151
246083.38061523 3357349.97338867 15.29852962 77 78 72
246084.31567383 3357356.92639160 16.87482834 31 35 46
246087.86730957 3357350.82189941 16.37741661 16 40 76
246082.32519531 3357357.67843628 15.11542225 58 60 72
246087.85717773 3357337.68902588 15.41031647 207 206 212
246083.11035156 3357348.50079346 15.02715397 100 94 94
246081.77111816 3357357.65600586 15.26958656 50 53 62
246082.35656738 3357349.26858521 18.84848976 52 95 138
246087.98132324 3357340.49453735 15.42735958 237 236 242
246086.52612305 3357348.40817261 17.30268860 95 88 78
246087.61499023 3357348.17864990 17.64954376 75 91 104
246087.73937988 3357348.58178711 16.63887024 23 45 69
246088.00000000 3357336.93801880 15.42289448 215 218 223
246085.50183105 3357349.27627563 15.67619419 116 109 91
246087.92260742 3357352.63806152 16.63463593 15 36 63
246083.27209473 3357349.97827148 15.25941086 79 75 74
246087.60351563 3357354.95333862 18.22901154 86 128 166
246087.82202148 3357333.33181763 15.57618427 95 98 103
246082.67529297 3357357.02297974 15.49114895 43 45 57
246087.55688477 3357340.69372559 15.00468540 158 161 166
246083.43627930 3357348.93753052 18.82335281 91 131 180
246085.88281250 3357351.29376221 18.51013947 95 130 168
246087.92163086 3357335.31799316 15.40477371 209 210 214
246087.88427734 3357334.00729370 15.32670307 235 235 245
246081.17285156 3357354.25329590 19.12559128 25 48 79
246087.23596191 3357356.93960571 16.19549942 32 35 40
246081.80834961 3357351.80627441 18.67597961 44 69 100
246087.83813477 3357349.67886353 17.22447586 24 44 71
246087.78430176 3357348.37814331 17.82572365 30 47 75
246082.56237793 3357352.84356689 18.71982956 65 97 136
246085.99548340 3357349.33282471 18.57326317 96 141 183
246085.28698730 3357349.08462524 14.98784733 108 103 97
246087.71057129 3357333.28311157 15.04463005 149 147 148
246087.92333984 3357336.36834717 15.81166840 152 156 159
246086.84301758 3357348.57791138 18.36607742 83 125 165
246087.74865723 3357339.27005005 15.09638691 109 110 115
246087.71911621 3357346.12503052 15.74814892 146 149 154
246087.80737305 3357353.97271729 18.12966347 84 116 155
246083.90051270 3357348.62304688 17.18696785 33 34 38
246085.17517090 3357356.66760254 15.11787319 46 51 55
246087.84045410 3357333.63973999 15.29084015 171 171 173
246081.90307617 3357356.97024536 18.83043671 51 90 129
246083.48217773 3357358.34457397 14.98100662 103 105 118
246083.45983887 3357350.35107422 18.73224640 50 107 152
246087.83447266 3357350.79476929 16.11535835 17 41 77
246088.14233398 3357356.63684082 17.98004341 37 57 84
246087.69372559 3357352.52182007 18.20986938 101 135 172
246081.57055664 3357354.02099609 18.70973969 38 68 102
246085.14416504 3357349.69070435 18.63140678 83 125 163
246083.58166504 3357356.74813843 16.08925056 27 34 42
246082.09814453 3357357.45214844 15.22350407 50 52 64
246084.07751465 3357348.80947876 16.91007423 39 42 47
246087.81738281 3357349.34463501 17.21928978 23 42 72
246082.37231445 3357357.36682129 17.65004921 33 38 42
246084.15649414 3357354.53924561 18.74748230 96 144 190
246083.09252930 3357350.85919189 18.81162071 40 88 134
246085.11206055 3357350.54443359 18.62492371 93 138 180
246082.27294922 3357350.49517822 18.72384644 43 73 111
246087.79528809 3357348.68725586 18.13781166 90 111 138
246087.66894531 3357333.70065308 15.05974579 95 99 102
246087.86547852 3357349.61096191 17.75985909 30 45 78
246087.62268066 3357348.68768311 18.20133018 120 146 179
246087.72729492 3357341.65130615 15.02698421 185 188 193
246085.23388672 3357356.32366943 15.75035191 33 36 41
246085.13964844 3357348.92144775 16.51374435 118 110 108
246080.01062012 3357357.42776489 15.28115559 34 41 49
246085.88659668 3357350.90933228 18.54566193 75 122 164
246083.20104980 3357348.76620483 16.75817108 40 39 44
246081.64868164 3357357.48910522 17.14716530 30 37 45
246081.94628906 3357350.09054565 18.72349548 36 60 94
246087.90783691 3357357.02447510 15.57068920 55 64 73
246087.38623047 3357356.99490356 16.92380524 39 43 46
246087.86291504 3357352.69644165 15.87001324 13 34 65
246087.73815918 3357349.36886597 15.54382229 15 40 71
246082.59619141 3357348.82946777 18.78380966 100 133 174
246087.62353516 3357343.48449707 14.97306442 113 117 118
246084.47827148 3357348.70526123 14.98046112 116 112 101
246085.09582520 3357350.90396118 18.65277863 82 127 168
246087.36230469 3357357.06872559 15.27779770 58 59 61
246082.90649414 3357349.22778320 15.40693092 55 55 55
246084.07885742 3357349.65652466 15.76191807 69 60 51
246087.82226563 3357345.61431885 15.28985023 170 171 175
246087.92736816 3357352.26831055 17.40478897 25 42 72
246087.74658203 3357345.06631470 15.32723618 218 227 236
246086.90087891 3357357.08642578 17.82979584 29 39 48
246084.57226563 3357354.03329468 18.62144661 112 141 175
246080.08154297 3357357.50228882 15.24840355 34 41 49
246082.79785156 3357350.13824463 18.71443176 63 99 135
246081.61022949 3357356.18002319 18.86037827 42 77 117
246087.72119141 3357334.59591675 15.09924507 119 122 127
246083.34533691 3357357.09182739 16.82125473 28 32 41
246085.74975586 3357356.38809204 18.68019295 110 149 190
246083.28967285 3357353.63952637 18.74240494 50 104 151
246087.75805664 3357347.81967163 15.45587635 177 169 167
246084.24096680 3357349.01675415 18.77000618 96 138 180
246088.02062988 3357336.40661621 15.25623894 185 193 196
246086.14965820 3357356.86175537 16.88227844 40 45 48
246082.56225586 3357354.72647095 18.78398514 39 95 142
246086.37084961 3357353.43688965 18.48311424 70 119 162
246087.75830078 3357349.54916382 15.24431229 13 37 65
246087.91662598 3357353.33700562 18.17800903 55 100 141
246084.84216309 3357350.12219238 18.59304619 102 140 176
246087.82629395 3357341.78338623 15.12924576 146 149 154
246082.57629395 3357348.63467407 18.76111984 99 136 178
246084.22912598 3357357.25872803 18.25539589 40 73 114
246087.95788574 3357353.90597534 16.13193130 14 33 63
246081.55822754 3357357.11734009 18.74626160 53 83 117
246085.72644043 3357356.75613403 15.20082760 48 52 55
246083.85668945 3357348.75073242 17.00003052 32 36 39
246086.58459473 3357348.26156616 17.69763374 56 55 60
246083.43664551 3357356.56314087 15.12965488 46 50 59
246082.36584473 3357348.28027344 16.34568596 59 59 59
246087.72241211 3357348.95175171 15.63585186 25 44 76
246082.84179688 3357349.11386108 15.51170349 52 52 52
246082.27893066 3357349.58898926 18.78833580 31 69 108
246081.10253906 3357358.10345459 15.33793068 52 56 67
246084.17785645 3357354.89947510 18.72625732 81 129 175
246087.85021973 3357337.30093384 15.72323895 226 221 227
246085.31591797 3357348.69192505 18.63200188 95 138 173
246087.99804688 3357354.54580688 16.17639923 17 39 76
246087.78552246 3357343.57965088 15.37887192 197 197 205
246087.08190918 3357357.10510254 18.35477829 50 83 124
246081.56127930 3357357.50598145 17.09966278 31 35 44
246084.74328613 3357357.37210083 15.14350414 65 66 71
246085.46716309 3357348.87576294 14.97173214 102 99 90
246082.84472656 3357352.03820801 18.75474930 39 90 137
246087.90686035 3357351.18408203 16.66248703 13 37 63
246081.85437012 3357357.08218384 18.78326607 52 88 120
246087.02636719 3357354.16314697 18.31970024 94 133 174
246087.63891602 3357350.93154907 18.21177292 91 137 173
246085.45983887 3357357.01651001 17.43516541 70 74 75
246087.85754395 3357333.55773926 15.58164597 96 97 99
246082.47021484 3357358.71203613 14.95995426 86 88 101
246087.82324219 3357344.14834595 15.28563309 220 223 228
246082.56481934 3357353.41629028 18.74085808 42 90 136
246081.55065918 3357355.65454102 18.91310692 36 74 113
246085.76916504 3357348.31304932 17.64129639 44 47 54
246085.20214844 3357356.14141846 18.72282982 95 139 184
246086.94165039 3357354.43969727 18.38530159 90 139 182
246087.78930664 3357345.77691650 15.30441380 178 179 184
246087.83959961 3357352.09524536 15.48443127 11 35 69
246080.87512207 3357357.77169800 17.33389282 24 37 45
246087.90515137 3357351.69607544 17.55214882 33 46 78
246081.54956055 3357351.62350464 18.63189888 39 65 98
246085.68066406 3357357.18746948 15.11690331 73 74 78
246085.67602539 3357357.68252563 15.02043247 91 95 96
246082.68017578 3357348.54074097 15.23808193 70 72 71
246081.96960449 3357354.70178223 18.81484222 43 78 120
246083.07922363 3357357.99291992 15.37308884 62 62 72
246080.84680176 3357357.60754395 17.99055099 25 38 47
246083.34631348 3357350.86050415 18.82866096 34 86 134
246086.84118652 3357357.00683594 15.83692741 34 39 42
246087.95458984 3357339.61712646 15.48313141 200 201 206
246086.81225586 3357352.89395142 18.42954636 87 132 174
246087.73229980 3357342.20147705 15.86645222 186 189 198
246085.91589355 3357348.31896973 18.49835205 81 133 181
246082.22412109 3357357.22384644 16.33068848 23 28 34
246082.99548340 3357349.36126709 15.30721474 50 52 51
246083.61926270 3357350.56350708 18.78375244 43 104 151
246082.10644531 3357347.93298340 17.00297737 52 52 52
246086.83032227 3357348.36520386 17.39918709 87 83 71
246087.98681641 3357340.11062622 15.32977104 152 153 157
246084.74768066 3357357.82199097 15.26719856 71 66 72
246081.65612793 3357357.51840210 17.69190407 28 38 47
246083.30285645 3357357.51977539 15.02059269 63 65 77
246087.82958984 3357350.73278809 18.04281425 20 49 89
246087.95727539 3357353.50512695 16.44438553 22 41 73
246087.37988281 3357357.06777954 17.48578262 32 38 38
246088.04321289 3357354.90286255 16.80568314 21 44 76
246084.56640625 3357356.06207275 15.67066097 32 37 41
246084.23010254 3357357.01776123 17.08893776 34 39 43
246083.06884766 3357355.88092041 18.85785866 55 112 155
246085.47839355 3357356.97967529 17.25412750 70 75 78
246086.92932129 3357354.23437500 18.35928345 94 137 179
246088.03967285 3357354.79867554 17.97936249 27 53 88
246086.92236328 3357351.12533569 18.29313087 91 129 165
246081.88110352 3357349.95147705 18.74513435 30 54 88
246087.84375000 3357335.28665161 15.24821091 231 231 231
246084.16442871 3357352.09875488 18.78535080 39 99 149
246082.32141113 3357357.23162842 16.58597374 20 31 37
246087.99145508 3357334.63555908 15.15181541 229 237 240
246086.49548340 3357356.88436890 16.26261520 32 37 40
246082.04150391 3357357.29049683 16.46258545 24 29 35
246087.96569824 3357338.24765015 15.52674675 205 202 211
246081.17004395 3357358.11346436 15.34879494 53 57 68
246084.19567871 3357356.65975952 15.06774139 44 49 55
246085.02490234 3357356.35455322 15.27076435 31 38 44
246087.88037109 3357350.97729492 17.61026764 31 52 83
246085.96447754 3357356.82855225 15.40658092 47 51 54
246085.00085449 3357354.91192627 18.64983749 85 127 169
246083.25317383 3357348.36489868 17.55969238 33 32 40
246087.80383301 3357357.04956055 17.52635956 31 35 38
246085.80773926 3357348.66500854 18.56058311 98 138 174
246085.27148438 3357352.05599976 18.65712547 73 124 169
246081.30273438 3357354.70782471 19.02102470 31 57 92
246087.85095215 3357352.47116089 15.68323421 11 35 63
246086.64758301 3357351.93997192 18.43717384 83 134 177
246087.83544922 3357350.12591553 16.62544823 21 40 72
246083.80065918 3357357.52160645 14.99137211 69 71 83
246087.87634277 3357357.03826904 17.04558372 33 36 45
246087.22631836 3357354.10662842 18.25820541 97 135 172
246080.88098145 3357348.41250610 18.28201485 4 44 103
246080.51037598 3357358.38400269 15.06340408 59 66 74
246087.84948730 3357352.33468628 15.89651585 12 37 68
246082.82299805 3357348.76831055 15.16138840 67 69 68
246087.79064941 3357337.60559082 15.74577236 226 221 228
246087.37817383 3357348.24832153 18.21517754 66 117 170
246082.23022461 3357357.18942261 15.79541683 27 34 42
246081.84594727 3357355.31683350 18.88976860 39 76 118
246087.93017578 3357352.20916748 18.04694557 29 53 79
246087.79211426 3357348.42666626 15.06878948 51 57 71
246087.03393555 3357352.95590210 18.38580704 90 137 179
246082.83593750 3357349.11306763 15.58962250 48 52 51
246082.57873535 3357348.76718140 18.77619171 101 136 178
246088.09863281 3357355.51589966 17.20957756 33 52 85
246082.90490723 3357349.26306152 18.82777214 105 143 180
246084.42333984 3357357.08615112 18.77754784 99 136 178
246087.60266113 3357341.99111938 15.01837540 88 92 95
246083.10095215 3357357.93194580 15.34552288 61 61 71
246086.38916016 3357350.00131226 18.33066177 103 137 172
246087.79992676 3357350.97515869 15.73217297 13 37 73
246086.69177246 3357356.96731567 17.13022614 38 44 44
246085.71850586 3357351.78506470 18.56144714 97 144 186
246081.13427734 3357357.65014648 17.29421616 30 41 47
246086.50610352 3357356.88381958 16.28120613 31 36 39
246087.87036133 3357350.68377686 16.53522110 13 37 75
246081.77246094 3357348.36807251 18.32608032 6 79 156
246085.03649902 3357348.89001465 14.99489021 103 96 90
246087.78332520 3357343.48358154 15.53929710 123 124 129
246081.67700195 3357358.23062134 15.06725502 96 65 71
246085.34399414 3357349.31277466 18.67133522 89 134 175
246086.74877930 3357353.35107422 18.43046951 66 115 158
246086.60925293 3357352.56137085 18.44801521 95 135 171
246083.09521484 3357350.64520264 18.77381706 44 96 143
246085.14074707 3357348.84664917 16.64449120 102 86 86
246087.78613281 3357348.64987183 15.07513809 37 44 52
246083.11450195 3357352.62881470 18.74947739 57 98 142
246085.18896484 3357349.33868408 15.80851460 167 152 129
246082.32482910 3357349.60968018 18.78954506 28 70 112
246084.26184082 3357352.40499878 18.72563362 60 104 149
246082.46850586 3357356.04324341 18.86209297 41 95 139
246087.77380371 3357348.96572876 18.15000534 73 107 142
246084.44982910 3357357.05734253 17.36253357 51 55 56
246082.76647949 3357358.26229858 15.16480732 74 74 86
246083.84289551 3357353.17733765 18.78649330 50 106 153
246084.60742188 3357354.89627075 18.68027496 91 136 178
246084.01721191 3357357.26647949 17.98707390 22 39 57
246087.75732422 3357348.76913452 16.80106735 22 42 69
246085.81799316 3357356.61886597 15.75410748 32 35 40
246085.89807129 3357353.36428833 18.54859543 69 117 163
246086.93493652 3357354.12918091 18.34171486 94 136 178
246085.63085938 3357348.57641602 17.02809906 85 84 82
246084.13146973 3357348.97253418 18.76812935 99 138 179
246087.96264648 3357353.74880981 16.31844902 21 42 73
246087.87963867 3357343.06359863 15.88375378 112 112 114
246087.24816895 3357350.83670044 18.28514671 79 131 170
246081.83886719 3357352.73150635 18.69922066 37 67 101
246087.42504883 3357357.06509399 17.44534111 34 38 41
246087.90979004 3357333.68551636 15.87781525 202 201 207
246087.87487793 3357335.40484619 15.28212357 244 244 254
246087.90368652 3357341.00543213 15.40590668 128 129 134
246087.91333008 3357336.13027954 15.69032001 160 164 167
246087.89294434 3357340.09762573 15.67855835 100 99 104
246084.34082031 3357348.91534424 16.75417709 38 41 46
246086.87927246 3357348.47875977 16.35523987 128 116 104
246084.89306641 3357356.30715942 15.27527523 34 39 43
246082.17517090 3357353.40173340 18.74285698 42 76 114
246083.18127441 3357356.65139771 18.87915230 62 107 146
246087.85180664 3357350.65066528 16.33033752 18 40 77
246085.07714844 3357356.70617676 16.69610023 66 74 76
246081.38378906 3357357.43899536 18.25198555 34 53 83
246082.45996094 3357350.56335449 18.73527145 40 75 117
246087.69873047 3357348.23178101 15.92507458 49 66 84
246087.91931152 3357352.09909058 17.28663254 19 42 76
246084.32885742 3357357.23373413 17.93404770 34 46 60
246085.38012695 3357357.97952271 14.97385693 95 98 103
246085.91198730 3357354.81338501 18.54265594 72 123 168
246084.13793945 3357352.41915894 18.73698044 53 104 151
246084.82312012 3357356.59698486 16.55834007 45 50 56
246084.49230957 3357356.34069824 15.13042355 40 45 49
246085.91491699 3357350.61068726 18.51054573 90 137 181
246087.87036133 3357344.15493774 15.18229008 193 198 204
246084.26403809 3357348.28820801 18.35434723 9 86 166
246084.44274902 3357357.68283081 15.24836349 69 69 77
246087.92309570 3357352.34188843 17.87742043 34 55 82
246087.83618164 3357350.01544189 16.79717636 20 39 69
246087.04504395 3357350.60900879 18.33097267 91 139 185
246084.74694824 3357357.16375732 18.63895226 41 79 118
246086.04162598 3357356.75866699 16.26422882 28 33 37
246083.90356445 3357348.26257324 17.91442299 16 29 46
246085.16528320 3357357.75375366 15.07688046 78 79 84
246082.94934082 3357348.44848633 17.08933640 38 39 43
246083.99792480 3357349.28747559 18.79210281 91 135 182
246083.86633301 3357353.98461914 18.67438889 93 121 158
246086.72863770 3357351.65069580 18.37287521 84 132 170
246087.77172852 3357350.07598877 15.81929111 15 39 67
246087.64233398 3357342.98672485 14.98313141 94 99 102
246083.24658203 3357351.51278687 18.70932770 75 110 150
246082.69995117 3357354.17218018 18.69464111 72 111 152
246087.22302246 3357353.61248779 18.25319862 78 118 154
246081.39855957 3357355.25567627 18.97579193 35 63 100
246085.61401367 3357348.22851563 17.90361786 15 35 60
246084.28356934 3357356.10729980 18.74764824 96 138 180
246081.97973633 3357355.15200806 18.85888672 38 82 119
246085.99682617 3357349.90423584 18.41482544 99 132 167
246084.89794922 3357358.18859863 15.02102089 100 81 85
246085.09887695 3357352.92114258 18.67050362 96 138 178
246087.88427734 3357343.15127563 15.79371166 150 157 173
246086.65759277 3357357.01293945 17.43712425 39 45 43
246085.63708496 3357354.70794678 18.58603668 64 118 165
246082.27941895 3357357.20388794 16.29232216 26 31 37
246082.61694336 3357357.10079956 15.39025021 44 46 58
246087.83825684 3357349.55749512 17.36792183 27 48 79
246086.90637207 3357353.65805054 18.32287598 91 129 166
246081.71008301 3357352.46554565 18.69868088 36 65 99
246086.69812012 3357349.17092896 18.45589828 89 133 178
246085.81323242 3357357.26431274 15.12847233 76 77 79
246082.73876953 3357354.86831665 18.80000114 43 97 143
246087.96374512 3357338.49789429 15.54519463 174 173 179
246083.29663086 3357348.28323364 17.75602531 32 36 39
246086.51062012 3357357.18966675 15.56501865 54 55 59
246088.04797363 3357355.07162476 16.32500267 21 41 74
246083.81384277 3357350.99853516 18.77467728 50 104 151
246082.64599609 3357358.36059570 15.05189228 75 77 89
246087.51501465 3357352.77261353 18.26986313 93 132 171
246087.90979004 3357350.79681396 17.00349045 21 44 76
246087.89648438 3357351.85482788 17.72525787 38 54 80
246087.59631348 3357340.50250244 14.96735764 102 106 109
246082.90136719 3357355.79238892 18.84002304 49 106 151
246086.05700684 3357352.36840820 18.51224327 81 126 165
246082.29174805 3357348.28720093 18.13678551 37 71 117
246087.83398438 3357343.42987061 15.62257195 149 149 157
246087.62634277 3357334.66317749 15.02876282 117 117 125
246083.29675293 3357357.28701782 17.81810951 32 42 44
246086.58715820 3357355.88900757 18.46978188 93 145 192
246088.01428223 3357338.10311890 15.34931469 219 217 220
246082.98852539 3357349.47805786 15.39527321 50 52 51
246086.06567383 3357348.77911377 16.33908272 119 107 93
246084.48999023 3357351.50643921 18.68493652 108 143 181
246086.60852051 3357351.46600342 18.36816216 85 129 168
246083.31726074 3357353.64965820 18.74346161 46 98 145
246087.86950684 3357336.11087036 15.83467197 194 187 195
246081.59777832 3357352.69525146 18.70053101 37 63 96
246087.81774902 3357349.20523071 17.45734024 28 45 75
246086.37194824 3357357.46063232 15.41764164 69 69 71
246081.32202148 3357353.46585083 18.69642639 35 63 87
246087.91528320 3357353.31494141 16.09148788 15 37 74
246085.13635254 3357349.11837769 14.97912788 96 87 82
246083.41076660 3357349.00930786 16.48981857 41 42 44
246082.53515625 3357348.20874023 17.01667976 52 54 53
246081.79846191 3357351.96560669 18.68697166 44 71 101
246084.78283691 3357354.14022827 18.61058807 99 135 169
246087.49133301 3357353.70120239 18.19038010 122 157 189
246087.90295410 3357352.89273071 16.19385910 18 39 70
246087.44384766 3357358.15762329 15.00548458 112 122 123
246082.96520996 3357348.45379639 18.77287102 86 130 179
246081.78332520 3357350.17004395 18.76123238 37 64 94
246086.71533203 3357350.37777710 18.34914398 86 134 172
246088.14001465 3357355.83697510 17.41596985 27 50 81
246081.19763184 3357355.52859497 18.95145607 27 57 93
246081.63513184 3357348.40945435 18.42636299 9 86 164
246081.40637207 3357354.60552979 18.97307396 34 60 93
246085.63769531 3357350.19360352 18.47479820 94 138 175
246082.82263184 3357353.77874756 18.72276688 45 92 134
246086.67639160 3357356.88418579 16.64290810 31 36 39
246086.54162598 3357356.87500000 16.41462135 34 37 42
246086.09936523 3357354.40774536 18.55220985 93 141 187
246084.15710449 3357348.25595093 17.99793243 10 42 80
246085.91308594 3357350.30056763 18.45289230 100 143 185
246082.75659180 3357353.50622559 18.73867607 35 89 136
246085.36645508 3357357.05847168 18.74667358 111 144 179
246085.16577148 3357348.22311401 18.05226326 65 101 149
246085.36840820 3357356.50708008 16.19666862 31 36 40
246087.78088379 3357348.81347656 17.22043610 26 46 70
246086.98449707 3357353.79647827 18.27040863 96 130 168
246082.01965332 3357356.31036377 18.86072540 47 92 133
246081.40332031 3357357.21838379 18.68086815 51 78 105
246087.73937988 3357345.91290283 15.90406513 197 197 205
246087.97009277 3357353.87240601 16.55407715 19 40 71
246083.89306641 3357358.28005981 14.95892715 99 101 114
246084.44909668 3357348.42837524 17.50884819 37 41 44
246081.00085449 3357354.39916992 19.39136505 32 51 68
246087.75402832 3357349.68493652 15.93389416 14 39 70
246080.89562988 3357353.11544800 18.62714386 36 57 84
246088.11999512 3357356.78771973 16.74316025 43 62 95
246085.97155762 3357354.17550659 18.51003647 93 136 178
246086.18139648 3357355.01788330 18.46001053 84 126 166
246082.82556152 3357357.24002075 15.17117310 51 54 63
246085.30004883 3357348.23339844 18.00215530 44 80 130
246083.44140625 3357349.83169556 15.60353279 53 54 56
246083.89929199 3357356.22766113 15.14481068 38 42 51
246087.75317383 3357349.62887573 15.29755116 15 36 67
246085.47778320 3357348.23339844 18.09100342 76 126 189
246088.03454590 3357335.80053711 15.14103127 184 191 199
246087.78039551 3357346.17062378 15.77511120 181 179 180
246087.02697754 3357348.14996338 18.07284927 58 91 132
246084.53527832 3357356.72009277 15.07360268 50 53 58
246083.54589844 3357353.81875610 18.71085739 67 112 153
246084.02941895 3357358.47985840 14.96258354 89 92 101
246080.55920410 3357357.72198486 15.28139877 44 51 57
246087.85534668 3357338.40332031 15.16466141 220 219 224
246083.15551758 3357354.06958008 18.71175766 72 114 156
246087.74475098 3357345.42019653 15.56643391 141 140 148
246084.57617188 3357356.01034546 18.75349426 97 141 186
246085.28137207 3357356.10400391 18.71234512 94 141 185
246082.80810547 3357350.78698730 18.78367424 45 91 140
246084.13281250 3357356.31488037 15.54887486 33 41 44
246087.72619629 3357346.41183472 15.56681442 158 161 168
246087.90661621 3357351.31777954 16.64861870 20 39 69
246084.07336426 3357349.43539429 18.79211235 94 140 189
246081.23718262 3357355.56912231 18.93463707 28 58 94
246088.00000000 3357354.39245605 17.17603302 24 47 81
246084.35388184 3357350.47552490 18.70072365 97 145 185
246081.83508301 3357355.37484741 18.89455414 41 76 118
246087.55358887 3357356.95721436 16.09680557 38 42 45
246081.79260254 3357354.04211426 18.69636536 40 74 112
246087.92785645 3357336.11117554 15.41368484 241 242 246
246086.47143555 3357357.24838257 15.52914906 54 58 61
246084.40051270 3357349.22564697 16.29791832 59 59 57
246081.68347168 3357356.02581787 18.86190987 35 78 121
246081.89013672 3357357.39837646 18.31913185 36 59 90
246084.98486328 3357357.15551758 17.95872307 41 53 79
246085.65014648 3357356.80233765 15.16176510 51 55 58
246087.75256348 3357348.47369385 15.14812279 27 38 58
246082.88574219 3357357.35369873 18.30050468 39 54 95
246087.97595215 3357340.47875977 15.30066586 214 213 218
246086.15209961 3357357.09963989 18.56952477 96 131 169
246083.05053711 3357357.16329956 16.92108345 29 34 40
246086.73229980 3357350.98620605 18.35732460 91 133 171
246088.04016113 3357336.49490356 15.18700218 219 227 230
246087.91406250 3357356.14010620 18.24496460 108 152 191
246088.07568359 3357355.44677734 17.93339157 25 59 94
246087.56140137 3357355.19366455 18.21471024 95 137 177
246085.97998047 3357348.26602173 17.76807785 40 47 63
246085.63513184 3357357.94763184 14.99818325 89 92 97
246087.14172363 3357349.44940186 18.31668091 65 114 157
246084.35546875 3357353.08938599 18.76560211 60 112 160
246082.81201172 3357357.43075562 15.18425274 55 57 69
246082.98266602 3357348.55114746 18.78542328 94 132 177
246081.51525879 3357356.65640259 18.83856583 48 77 117
246086.00122070 3357356.75234985 16.35850334 29 37 40
246084.39404297 3357357.00100708 17.09797096 31 34 39
246083.23364258 3357348.97525024 16.42346001 38 38 40
246087.75488281 3357345.36868286 15.38660622 228 233 239
246087.90820313 3357351.23477173 17.52931213 26 47 74
246080.63085938 3357357.51690674 16.34473610 23 32 39
246084.52343750 3357349.27182007 16.14095116 83 76 70
246085.33410645 3357352.84667969 18.64315033 100 140 176
246082.30493164 3357352.50949097 18.71366119 44 79 119
246087.76672363 3357348.97988892 16.76342773 22 42 69
246087.87548828 3357335.29147339 15.29892159 247 247 247
246082.88867188 3357348.94573975 16.13135719 43 43 45
246084.61938477 3357356.17514038 18.76966095 99 141 183
246087.96520996 3357353.24517822 16.93529129 21 41 74
246085.97351074 3357353.06753540 18.56896591 89 136 182
246082.99841309 3357357.62863159 15.15423965 57 59 71
246086.66699219 3357348.79656982 18.42635918 83 125 163
246083.75585938 3357357.22659302 17.65385628 41 45 44
246084.60058594 3357353.99478149 18.61400795 118 146 183
246084.48437500 3357353.69036865 18.67916107 74 118 155
246084.20275879 3357354.84262085 18.73429108 70 121 166
246080.39770508 3357358.85104370 15.04616356 66 70 81
246084.46691895 3357349.06643677 18.75820732 95 137 175
246081.88806152 3357348.41210938 18.59372330 36 97 164
246087.60192871 3357344.33135986 15.09497643 201 208 214
246087.86645508 3357346.65847778 15.09809113 203 204 206
246087.71728516 3357348.61352539 18.18630791 83 107 141
246087.95300293 3357354.18035889 15.84817886 22 43 74
246083.00463867 3357351.15374756 18.76519394 44 83 126
246086.41857910 3357348.68930054 16.33951378 107 101 87
246087.59252930 3357349.21273804 18.25380898 82 131 174
246084.68078613 3357356.44967651 16.34738541 29 32 39
246085.36340332 3357354.60623169 18.62775230 90 142 189
246085.83032227 3357348.90362549 15.17629337 102 100 88
246086.13122559 3357348.75903320 16.35381126 120 108 94
246084.63745117 3357356.84451294 15.09096432 53 56 61
246085.31787109 3357349.35293579 15.71107864 118 111 93
246081.65771484 3357351.21859741 20.69023895 60 74 59
246085.53894043 3357350.36788940 18.51830673 96 138 180
246080.62182617 3357357.88296509 17.28937340 24 31 39
246087.78540039 3357348.98019409 17.05189705 24 44 71
246081.40173340 3357352.90325928 18.66371918 35 60 91
246087.64453125 3357355.36688232 18.21306610 101 144 187
246085.86267090 3357348.24407959 17.84437561 29 44 73
246087.92578125 3357334.92599487 15.47122478 246 246 246
246085.73217773 3357353.44454956 18.56990623 76 127 172
246085.60754395 3357349.20971680 15.71192455 113 107 91
246084.68127441 3357358.53988647 14.97907162 88 89 94
246082.13867188 3357353.29754639 18.75303078 47 77 113
246085.52075195 3357348.48672485 17.29144096 49 50 45
246083.35754395 3357357.23376465 17.60161972 34 43 42
246084.19519043 3357353.96386719 18.64584160 132 161 193
246086.93591309 3357349.86206055 18.25257683 99 133 161
246087.85485840 3357349.99465942 17.16566658 20 40 67
246083.39685059 3357356.21795654 18.85392570 99 142 177
246087.84558105 3357342.19552612 15.29562378 184 188 197
246086.04089355 3357357.65295410 15.12767887 85 89 90
246082.85119629 3357348.33795166 17.17576027 40 41 43
246084.00292969 3357348.87286377 16.82193184 38 41 46
246087.91503906 3357340.51541138 15.22575951 185 186 188
246080.20324707 3357358.09188843 15.04042053 60 55 61
246087.93334961 3357351.52880859 17.19363976 22 45 76
246081.41918945 3357357.55639648 17.78197289 27 40 48
246083.97656250 3357356.96539307 16.83790588 32 39 47
246080.76135254 3357357.55633545 16.48424530 26 33 41
246087.75805664 3357349.59136963 16.06669807 16 40 74
246080.13793945 3357357.43380737 15.84170341 22 29 39
246086.56579590 3357356.58929443 18.54158783 106 148 190
246086.25891113 3357349.85134888 18.37386131 101 133 171
246083.14672852 3357348.68606567 15.01745605 110 100 98
246085.06628418 3357355.71075439 18.67796707 95 141 190
246085.63903809 3357348.22644043 18.10753822 78 129 195
246087.83264160 3357342.08795166 15.70436573 193 196 205
246084.45422363 3357356.94805908 17.10152435 41 45 48
246088.05395508 3357354.93402100 17.34517479 23 46 77
246087.79895020 3357343.33038330 15.77231789 135 140 143
246082.20483398 3357354.00479126 18.65496063 45 84 125
246086.88610840 3357358.37200928 14.99792862 99 104 107
246085.52868652 3357349.36883545 15.41308022 91 87 75
246086.41186523 3357348.92007446 18.48857880 91 133 173
246082.82934570 3357348.62927246 16.61796951 44 44 46
246087.70214844 3357353.42660522 18.19658089 83 130 172
246081.82751465 3357358.24014282 14.95847034 90 78 88
246086.83764648 3357353.32785034 18.41490555 65 114 155
246084.32592773 3357357.34960938 15.09782219 64 65 70
246086.64868164 3357357.04275513 17.65405655 34 39 42
246087.07055664 3357348.38864136 18.29870033 75 120 162
246087.72937012 3357349.11303711 15.80792713 20 44 78
246088.13476563 3357356.83932495 17.98075485 43 64 95
246087.78039551 3357334.40151978 15.13838768 111 112 117
246085.11108398 3357353.99334717 18.56308746 93 126 161
246087.58349609 3357358.30471802 14.99412060 101 110 109
246087.79064941 3357333.70587158 15.18870544 43 48 51
246082.73962402 3357348.83657837 18.78927422 107 140 181
246081.68151855 3357353.66091919 18.68387032 33 67 102
246087.83642578 3357337.42889404 15.52057648 234 235 239
246082.93090820 3357348.85571289 15.10165215 71 75 76
246082.94165039 3357357.14590454 16.74819756 27 32 38
246087.81762695 3357334.95211792 15.18503666 119 109 117
246084.35766602 3357352.39138794 18.72204399 64 107 152
246087.79345703 3357349.21136475 15.07567215 23 35 49
246083.50903320 3357357.29150391 17.92515564 25 40 45
246086.47253418 3357356.89721680 15.97666836 31 36 39
246083.54589844 3357349.43634033 18.83401680 100 144 193
246084.21228027 3357357.24642944 18.41567421 33 70 112
246085.53930664 3357348.23532104 18.32761192 33 100 171
246087.77905273 3357350.47088623 15.67481232 13 35 72
246087.80847168 3357343.28485107 15.76334286 158 163 166
246087.96398926 3357356.78997803 18.24762726 104 144 180
246087.89880371 3357351.43951416 16.57538223 16 35 68
246087.75537109 3357348.89321899 16.66896629 21 41 68
246085.83312988 3357357.39260864 15.09629917 79 80 82
246083.16186523 3357356.69012451 15.26388550 41 44 51
246082.00891113 3357347.93627930 18.04761124 41 39 44
246082.63806152 3357356.22229004 18.87252808 50 104 140
246081.91418457 3357357.29125977 15.53570175 34 39 45
246081.64111328 3357347.67440796 17.88228035 47 49 46
