246108.20080566 3357409.84832764 17.13868332 178 211 226
246105.82629395 3357399.35379028 16.73981857 65 78 95
246104.20080566 3357398.79782104 15.90076256 146 144 119
246104.45629883 3357398.53637695 16.09197998 141 141 141
246108.17687988 3357409.03948975 15.26711082 236 217 219
246108.19616699 3357409.67904663 17.23028755 175 233 247
246104.29919434 3357399.58840942 14.91642761 129 131 130
246104.55383301 3357398.65841675 16.08591080 148 148 146
246108.18457031 3357408.00656128 17.55479622 195 235 245
246104.66650391 3357398.83230591 17.10709763 46 102 179
246105.38806152 3357398.04534912 17.17394447 55 90 132
246105.37658691 3357400.07458496 14.78085327 171 171 171
246104.15222168 3357398.03231812 16.93705177 70 135 199
246104.79479980 3357398.40002441 17.44782448 133 174 202
246104.14538574 3357399.55337524 14.90005493 117 116 114
246108.18225098 3357408.95910645 15.49735260 201 176 171
246108.12145996 3357404.84054565 15.20142937 201 217 230
246104.59924316 3357399.21954346 16.79444695 51 97 174
246108.13720703 3357403.83892822 17.66318512 254 255 255
246108.22241211 3357409.58084106 16.40096664 226 224 212
246105.66101074 3357400.48165894 16.85025024 34 92 176
246108.30029297 3357404.32876587 17.41905022 213 213 225
246104.76989746 3357399.53680420 16.82434845 54 114 187
246104.78076172 3357400.30374146 17.36632347 133 174 204
246108.15734863 3357405.15600586 16.13209343 204 220 233
246103.93896484 3357400.13473511 16.63601685 111 124 156
246108.21069336 3357410.15176392 16.83599663 224 241 249
246105.31188965 3357398.10751343 16.69999504 145 154 163
246104.21337891 3357400.68902588 16.95343971 112 165 215
246104.28857422 3357400.15872192 15.38714314 91 97 95
246105.23925781 3357398.32897949 17.26587105 45 89 154
246104.27258301 3357400.67794800 15.31957531 152 148 139
246108.13500977 3357405.30502319 15.05755424 196 225 233
246104.99597168 3357398.08517456 14.77489758 119 121 118
246105.28845215 3357400.91699219 16.65403748 164 172 174
246104.43444824 3357400.99932861 16.66205025 121 153 192
246105.47998047 3357397.93563843 14.75833321 174 173 171
246108.37084961 3357405.75296021 17.56819725 115 113 114
246104.53173828 3357397.60928345 16.91701508 99 125 152
246105.05786133 3357399.78775024 17.01742554 53 127 192
246108.20886230 3357404.71774292 16.83430672 206 219 235
246108.17077637 3357408.78976440 15.15073681 213 211 198
246104.17932129 3357399.76651001 14.89973640 118 120 117
246104.88317871 3357398.89282227 14.74176598 124 124 124
246104.93212891 3357397.91290283 17.19615364 71 128 181
246108.26354980 3357404.15435791 14.80354977 57 57 65
246108.22424316 3357403.74209595 17.17270660 186 201 220
246108.13061523 3357405.47607422 14.92291355 198 235 243
246105.49841309 3357398.56442261 16.83867645 71 99 123
246108.25402832 3357410.45123291 15.67267418 237 235 240
246108.18798828 3357408.96313477 16.54283714 182 230 240
246108.21032715 3357408.11859131 14.79215240 106 113 119
246103.91687012 3357397.87121582 14.76759911 92 93 95
246105.04675293 3357398.65060425 14.78683281 183 182 180
246108.18945313 3357408.95034790 15.87901688 232 107 87
246108.25781250 3357404.88470459 16.80624771 196 214 228
246105.98303223 3357400.76654053 14.80049896 118 160 185
246104.98107910 3357399.51565552 14.79909706 83 84 88
246104.66882324 3357400.10317993 16.01939392 92 108 131
246105.08105469 3357399.23092651 16.80842018 58 104 181
246104.36645508 3357400.63278198 16.21699333 119 151 176
246104.78747559 3357398.25851440 16.38352394 172 171 167
246106.04174805 3357400.85195923 14.75191307 51 67 83
246105.64904785 3357399.00613403 16.90906143 49 90 142
246108.15771484 3357407.57943726 14.75474262 205 237 232
246103.87255859 3357397.43011475 14.77161598 100 100 100
246108.26293945 3357408.11477661 14.76298618 93 98 102
246108.21728516 3357410.29641724 16.81996918 232 242 251
246108.21276855 3357408.91781616 16.21973038 204 206 201
246104.09667969 3357400.19097900 15.42259121 171 177 141
246108.33251953 3357410.35116577 16.07059479 207 216 223
246108.19384766 3357405.21618652 14.98804092 159 161 174
246104.16064453 3357400.21914673 15.38457012 140 143 122
246103.92456055 3357400.83679199 16.49301338 80 88 101
246103.99316406 3357398.94180298 16.19636154 114 114 112
246108.19238281 3357409.12313843 15.91990852 208 174 172
246108.16882324 3357408.59671021 15.61831570 207 209 196
246104.55273438 3357400.86242676 17.11816216 64 123 199
246105.00964355 3357397.37915039 14.76823521 118 119 114
246108.14428711 3357406.56140137 14.71023369 206 237 242
246103.99963379 3357397.79229736 16.78038406 82 123 175
246105.39855957 3357400.74221802 14.76860523 134 134 136
246105.73388672 3357400.92080688 14.74666691 66 64 69
246108.32666016 3357408.67474365 17.57735443 137 127 128
246108.28430176 3357407.86337280 14.91633797 171 182 186
246105.02636719 3357399.64974976 16.07786751 182 179 170
246108.17260742 3357406.76550293 17.54467773 170 211 231
246103.92858887 3357400.96200562 16.67766762 88 130 188
246104.20251465 3357400.45623779 15.72877502 127 133 149
246104.35314941 3357400.28045654 15.84680367 131 141 150
246103.87475586 3357397.42196655 14.77303982 102 100 101
246108.13159180 3357405.77816772 14.93238735 204 236 247
246105.06176758 3357397.67852783 14.76346779 121 121 119
246108.19055176 3357408.89480591 14.84450722 194 198 199
246104.15954590 3357399.18859863 15.75649261 149 144 125
246104.15844727 3357398.00387573 16.94277191 69 134 200
246104.30419922 3357399.44613647 16.81033516 34 75 139
246108.27465820 3357410.50588989 16.79279137 245 239 241
246105.07019043 3357398.20660400 16.54004288 180 176 173
246105.47399902 3357398.86325073 17.06352043 34 83 142
246108.20410156 3357409.06054688 16.46062660 215 241 238
246104.70812988 3357399.39770508 16.77732468 15 55 127
246105.34375000 3357398.31622314 17.18010521 42 87 152
246105.37219238 3357397.92474365 17.19228363 53 85 126
246105.22314453 3357401.10025024 14.74330902 82 82 80
246104.19482422 3357400.09729004 16.97847748 95 149 195
246105.21594238 3357400.41284180 16.40178871 93 102 119
246105.44812012 3357397.97463989 17.10336494 55 80 110
246105.34094238 3357400.45037842 14.77043915 116 119 124
246108.31506348 3357410.12594604 17.54012299 255 254 255
246104.47790527 3357397.60879517 16.92387199 98 120 143
246108.20874023 3357409.21893311 16.34943390 214 210 201
246108.18322754 3357409.63186646 16.29385567 245 237 234
246108.18200684 3357409.33758545 17.06943130 161 229 248
246105.50769043 3357400.62039185 14.76939678 102 116 125
246104.14208984 3357399.62719727 16.87745094 60 113 181
246108.39672852 3357407.00991821 17.60308838 92 94 93
246108.21655273 3357410.35693359 16.24183846 221 239 239
246104.58044434 3357399.24490356 15.83924389 189 189 181
246104.08520508 3357401.13418579 16.83603287 83 151 216
246105.24255371 3357400.62222290 16.49825859 120 132 146
246104.59301758 3357398.89761353 15.98211479 155 155 153
246104.62854004 3357400.19384766 14.88308430 114 121 129
246108.19250488 3357408.95703125 16.11350441 205 147 146
246105.54711914 3357399.75885010 16.98032761 59 108 177
246104.33935547 3357398.23049927 17.09608078 60 137 205
246108.12182617 3357404.73226929 15.19858932 233 237 248
246105.32604980 3357400.37194824 14.76360989 96 104 107
246108.12805176 3357406.18270874 17.54868317 165 212 232
246108.35083008 3357410.42184448 16.19043922 199 208 217
246108.27490234 3357403.93179321 17.38254738 178 179 184
246105.09960938 3357398.80554199 17.10849380 49 102 182
246104.93591309 3357401.05401611 14.82817936 77 77 75
246108.20483398 3357407.61950684 17.57763672 228 248 255
246108.21093750 3357409.81228638 15.10276031 216 222 234
246105.27526855 3357397.53991699 14.76295376 175 172 167
246104.04626465 3357401.15792847 16.37866211 26 62 122
246104.31457520 3357400.43368530 15.38167381 131 123 120
246105.82348633 3357399.81661987 16.70319748 26 44 80
246105.04089355 3357400.13858032 14.82915878 111 112 116
246105.76306152 3357400.86926270 14.75040340 63 63 71
246104.99414063 3357399.79357910 16.05964851 166 165 160
246108.14648438 3357404.85620117 17.62405777 252 255 255
246108.14111328 3357405.05999756 14.71905422 218 218 226
246103.96850586 3357400.60449219 15.05552864 86 86 76
246105.41552734 3357398.64511108 17.05160522 45 88 143
246103.95397949 3357399.57192993 16.29261971 126 122 123
246108.16674805 3357408.63525391 17.31252098 158 214 239
246104.76892090 3357400.48294067 16.36764717 133 151 163
246108.47863770 3357409.53424072 14.60737514 35 39 42
246105.23876953 3357400.92559814 14.75011826 78 80 79
246103.92663574 3357397.43807983 14.78719330 99 99 99
246105.31933594 3357399.05914307 16.92583656 52 110 184
246108.23925781 3357408.79888916 16.48290253 201 206 199
246104.01013184 3357400.64660645 15.20957088 65 63 42
246103.87475586 3357400.85748291 14.99802017 77 81 82
246108.18847656 3357409.81195068 16.11837769 236 235 233
246108.28613281 3357410.40032959 15.60401726 170 174 183
246104.15173340 3357398.02023315 16.41727257 151 151 153
246104.09936523 3357399.25018311 15.99802399 127 120 110
246104.20446777 3357401.09341431 16.90727234 86 146 216
246108.20019531 3357409.06979370 15.80521107 209 87 82
246105.17358398 3357398.27328491 14.77256393 121 120 118
246104.99597168 3357399.32971191 16.77604294 52 92 164
246108.28540039 3357410.13525391 16.11314011 213 224 226
246108.19848633 3357409.22973633 16.07814980 221 201 194
246103.96728516 3357400.41561890 16.72712517 123 149 182
246104.35974121 3357400.21331787 15.79938507 90 77 68
246108.47021484 3357410.74172974 14.65372753 88 92 95
246108.12304688 3357403.76406860 15.62530041 227 234 242
246108.28759766 3357410.19161987 15.99759960 209 219 221
246105.41247559 3357400.72589111 16.59652710 118 135 153
246104.38012695 3357400.65441895 14.99378109 94 93 91
246104.60961914 3357400.39761353 16.18799400 129 147 157
246104.54980469 3357397.54306030 14.75266457 102 102 102
246104.90563965 3357398.69699097 14.75622749 180 180 182
246105.47131348 3357398.90341187 16.48265648 126 135 134
246104.01928711 3357397.38589478 14.81988430 96 96 96
246108.34497070 3357407.69482422 14.79338837 110 115 121
246108.22644043 3357410.07751465 16.88227272 214 227 233
246104.92517090 3357398.74655151 14.75393486 176 176 178
246105.19970703 3357398.65856934 17.21531296 33 82 161
246108.20812988 3357409.65536499 14.70962334 203 203 215
246104.12841797 3357400.82608032 16.13651085 46 53 59
246103.87805176 3357399.64010620 14.75108719 109 109 107
246104.77221680 3357400.91482544 16.95093536 87 130 185
246105.24194336 3357398.76397705 17.15298462 61 110 187
246108.13598633 3357404.79339600 15.13561821 215 219 228
246104.86425781 3357400.83895874 14.83807087 64 66 65
246105.69616699 3357400.85592651 16.85871506 54 100 188
246105.31298828 3357399.64987183 14.77578831 130 129 127
246104.16442871 3357399.89871216 15.47984409 203 199 187
246108.43029785 3357408.05682373 17.54630089 88 76 86
246105.72058105 3357399.98516846 16.86903763 59 106 178
246104.06066895 3357400.17462158 16.25639153 132 113 109
246104.00366211 3357398.13067627 14.75373554 97 98 100
246108.11633301 3357404.32101440 15.52977085 151 149 163
246104.35083008 3357400.14993286 15.71133518 108 100 87
246108.27062988 3357408.86746216 16.75734901 192 202 201
246108.17504883 3357408.85330200 15.14183331 210 208 195
246104.07067871 3357399.17553711 14.75424290 118 117 115
246104.77380371 3357398.56225586 16.23776436 163 162 160
246108.16271973 3357407.10211182 14.75299168 196 228 243
246108.22973633 3357409.01687622 16.62892723 198 207 202
246108.15783691 3357406.86236572 14.95933342 198 233 239
246103.92907715 3357398.38064575 16.72452545 165 174 203
246104.11938477 3357400.28738403 15.36257362 120 126 92
246108.19726563 3357403.81701660 15.42904758 157 157 167
246108.18273926 3357409.74801636 14.79624748 220 224 233
246108.25244141 3357409.99008179 16.08979988 214 219 223
246108.22460938 3357409.10803223 14.76700783 105 110 116
246108.30383301 3357407.81945801 14.92169666 175 185 187
246108.13610840 3357405.06658936 16.11316872 208 224 237
246103.76220703 3357399.67535400 14.72618294 99 99 101
246104.20568848 3357401.11853027 16.88431740 76 134 207
246108.17517090 3357408.84158325 17.37938499 164 202 221
246108.20581055 3357409.91366577 17.26487350 155 228 247
246104.18273926 3357398.19702148 16.96264076 92 153 210
246108.27770996 3357410.35592651 15.07536221 129 131 144
246105.10290527 3357399.80746460 17.03552818 60 131 195
246108.22473145 3357405.84280396 17.61845779 254 245 248
246104.58105469 3357397.78994751 17.13442612 77 125 173
246108.32641602 3357405.01458740 16.78486252 196 209 225
246105.45617676 3357400.87960815 17.02756500 45 102 181
246108.21301270 3357404.69564819 16.88137627 204 217 233
246105.23205566 3357398.03799438 14.75412083 153 153 151
246108.15393066 3357404.11477661 15.52743053 184 175 192
246105.20617676 3357400.02194214 17.18232155 105 152 206
246105.44946289 3357397.75659180 17.13365746 114 142 163
246104.95007324 3357400.49618530 17.36990356 81 130 196
246104.60595703 3357400.74060059 17.22493172 63 120 191
246105.72387695 3357399.51950073 14.79212475 80 80 80
246108.21862793 3357405.08395386 16.48685455 199 213 224
246104.05908203 3357401.06115723 16.36407089 125 141 156
246105.02258301 3357400.53402710 14.82181454 122 126 127
246104.21667480 3357400.61773682 16.06637001 114 124 116
246108.18066406 3357403.93692017 15.95329285 187 179 190
246108.19177246 3357409.25515747 14.85693741 211 214 221
246105.60351563 3357398.56182861 14.78835487 174 167 159
246104.18237305 3357400.50891113 15.72830391 125 133 144
246105.38916016 3357402.05050659 14.66661739 191 190 185
246105.01721191 3357399.58380127 14.80241489 79 80 84
246103.98632813 3357397.72052002 14.77945232 104 106 105
246108.32800293 3357407.68441772 14.90339279 156 166 168
246104.17639160 3357400.53314209 15.72837734 125 132 142
246104.38977051 3357397.69915771 14.76560116 111 111 109
246108.17260742 3357409.05197144 15.06225681 190 209 224
246104.07580566 3357399.95477295 16.86235046 41 121 182
246103.97302246 3357397.69241333 16.62704468 120 136 162
246108.14013672 3357404.37994385 16.34864044 199 167 172
246108.24316406 3357410.12261963 15.31430340 193 200 208
246108.18835449 3357408.41812134 15.44709301 206 208 197
246108.19201660 3357409.83270264 16.06847763 229 233 236
246108.29150391 3357407.87442017 14.88108349 170 179 184
246103.93286133 3357398.91101074 16.73802567 70 122 179
246104.63220215 3357398.96618652 16.95211411 47 102 182
246105.62854004 3357400.09725952 16.46197891 136 137 131
246104.43078613 3357400.02285767 14.91161251 117 121 120
246108.36169434 3357407.72616577 15.15291691 203 212 211
246104.25659180 3357400.91894531 16.40476990 112 156 195
246104.15686035 3357400.55850220 15.63895798 127 132 138
246108.19213867 3357409.10290527 15.93945217 201 168 163
246105.40319824 3357399.49771118 16.85858917 63 121 194
246108.15588379 3357408.48767090 17.29343224 172 211 228
246104.30285645 3357400.22943115 15.36942291 93 99 99
246104.77893066 3357400.30853271 14.86615753 117 124 132
246104.79187012 3357399.23089600 15.94268131 159 158 153
246105.22363281 3357399.90829468 16.20356560 170 171 163
246105.61303711 3357400.61151123 14.80396080 83 134 165
246104.25134277 3357398.12796021 17.02143097 105 167 224
246104.95788574 3357399.04635620 14.75387955 97 97 97
246105.65808105 3357400.20913696 16.86534691 42 98 181
246108.21752930 3357410.38436890 15.61265182 234 229 233
246105.55322266 3357397.94601440 16.95630074 66 85 99
246104.45312500 3357399.95394897 15.57934093 151 160 155
246108.12670898 3357404.05450439 15.18159771 127 125 138
246108.17834473 3357403.90054321 15.50194359 173 167 177
246104.64904785 3357398.89031982 16.01991844 152 152 152
246104.31909180 3357398.96307373 17.01213837 39 97 170
246104.87731934 3357399.61712646 16.88709450 46 116 186
246108.32165527 3357408.59680176 17.57821274 139 132 126
246105.36804199 3357399.81219482 16.28976631 170 170 158
246105.82031250 3357400.20007324 16.73459244 35 54 96
246103.85559082 3357400.85531616 14.97550201 81 85 84
246104.73864746 3357398.83142090 14.72480774 165 165 167
246108.18237305 3357409.71578979 14.81333923 217 224 232
246108.11828613 3357404.84524536 16.35011673 197 235 238
246105.80590820 3357399.42214966 16.67031097 55 73 93
246105.45898438 3357400.78692627 14.75965881 127 129 128
246104.79711914 3357397.61856079 16.97536659 99 134 176
246104.13452148 3357401.10922241 16.47083092 96 141 198
246105.16198730 3357398.24591064 16.56510544 162 166 169
246108.19543457 3357408.76144409 15.99340916 213 208 202
246108.30944824 3357405.41748047 16.06855774 194 208 221
246104.34692383 3357400.88821411 15.11346436 113 114 116
246108.23034668 3357410.08615112 15.29078579 191 195 204
246103.95288086 3357398.59927368 16.74614143 156 170 205
246105.56030273 3357400.29376221 16.92738914 44 103 181
246108.26538086 3357410.52963257 16.31796646 214 223 230
246108.16577148 3357407.30282593 14.69654751 202 231 235
246104.60937500 3357399.21145630 16.79832840 53 100 178
246108.16467285 3357408.68350220 16.27029037 179 233 243
246105.30859375 3357400.21591187 17.14764214 50 107 178
246104.43713379 3357399.65036011 15.65034676 170 175 169
246104.42443848 3357400.46282959 16.11153603 125 144 159
246104.89025879 3357399.74710083 16.97360039 50 121 187
246105.01794434 3357399.37194824 16.06087303 179 176 169
246104.16296387 3357399.93630981 15.50665665 181 178 163
246108.18164063 3357409.79821777 16.76071548 173 180 188
246108.18261719 3357408.96228027 15.70624542 197 168 164
246105.01440430 3357397.65542603 16.93056870 137 142 146
246104.22692871 3357400.43417358 16.96926498 104 151 207
246108.44177246 3357408.92849731 14.63471889 48 49 54
246105.60253906 3357399.39581299 16.84549141 0 37 119
246104.55590820 3357398.38604736 17.28102112 157 192 220
246104.31933594 3357398.29064941 17.07797813 65 139 202
246104.07946777 3357398.00238037 16.43872070 151 149 154
246108.15234375 3357406.92953491 15.15050983 211 230 237
246105.18371582 3357399.70297241 16.17149734 180 181 167
246104.80749512 3357398.00894165 14.80926037 122 122 122
246108.14733887 3357406.84222412 15.25588131 220 231 237
246104.71520996 3357398.25399780 17.40393639 155 200 233
246108.21618652 3357409.42391968 16.40015221 219 212 204
246108.39392090 3357408.11163330 14.69074535 45 50 53
246104.34667969 3357400.14196777 15.66583252 97 91 77
246108.18444824 3357409.73178101 16.90035629 166 177 183
246104.76000977 3357399.27575684 15.91282368 177 177 169
246105.67504883 3357400.30380249 16.54042244 84 91 107
246103.97485352 3357400.17999268 16.42900085 116 90 103
246108.19470215 3357408.61260986 14.77603722 176 170 174
246108.43884277 3357407.92385864 15.59401894 190 196 196
246103.80554199 3357399.17953491 14.70750046 113 112 110
246108.21166992 3357409.90002441 15.36495113 213 222 231
246104.60986328 3357397.58001709 16.85432053 106 115 124
246105.01574707 3357398.83645630 14.76430702 138 138 138
246108.17407227 3357409.41156006 16.90131378 198 235 241
246103.97741699 3357398.45932007 16.28959465 179 171 169
246104.81884766 3357397.83493042 16.64173698 149 151 146
246104.00244141 3357397.74658203 16.79290009 72 115 168
246104.65881348 3357397.81414795 14.78072548 116 118 117
246105.39819336 3357399.75122070 16.31328773 166 166 154
246108.12219238 3357405.15850830 15.99325085 208 244 244
246108.14916992 3357404.39962769 15.81460953 168 171 186
246104.17736816 3357399.86215210 15.48097706 204 202 190
246108.37475586 3357404.09487915 14.80269623 32 32 34
246105.08264160 3357400.19122314 14.82118320 109 110 114
246108.18920898 3357409.16751099 15.10482311 198 205 221
246108.17639160 3357409.87252808 16.74303818 54 63 106
246104.78417969 3357400.91525269 16.93741608 87 130 185
246104.49902344 3357400.01473999 17.17771912 93 145 192
246104.43652344 3357399.36834717 15.73118019 182 183 177
246104.10852051 3357397.38656616 14.82947826 106 106 106
246104.52246094 3357398.28250122 14.83943081 118 118 120
246105.28894043 3357398.97396851 16.98661613 56 112 186
246105.32629395 3357400.72314453 16.56760216 136 150 163
246103.90832520 3357400.90335083 15.01916695 69 73 76
246104.62438965 3357398.35415649 16.26185799 162 158 157
246108.11657715 3357404.79431152 16.07336044 218 229 231
246108.24645996 3357410.11929321 16.55871964 166 179 185
246104.98205566 3357398.11611938 14.77902317 120 122 119
246104.78173828 3357400.08666992 17.22294617 71 137 198
246105.59130859 3357400.33615112 14.79039001 156 213 243
246104.33898926 3357399.72406006 16.92892075 35 111 171
246104.02087402 3357399.13653564 16.15051842 125 120 117
246104.27978516 3357398.76687622 14.77112198 169 167 168
246108.28137207 3357410.17532349 16.43540382 218 225 231
246108.11828613 3357403.76858521 15.57201099 224 227 236
246104.08044434 3357397.71499634 16.89441109 92 152 212
246108.38513184 3357404.75894165 17.35111809 191 205 218
246104.32165527 3357400.33465576 14.94352341 118 127 126
246104.51293945 3357398.74133301 17.18681908 106 160 222
246104.66333008 3357397.73840332 17.08696175 75 122 168
246108.25183105 3357405.07110596 14.87204170 138 143 146
246108.20275879 3357409.11331177 16.48115730 229 244 237
246105.03686523 3357398.20578003 16.52491188 180 176 173
246104.80371094 3357398.30706787 16.36792183 176 172 169
246104.02111816 3357397.98275757 16.45902443 154 154 164
246108.32373047 3357409.32534790 17.09754753 193 205 205
246108.29992676 3357410.29626465 15.89816475 220 226 226
246104.36657715 3357398.48086548 17.11645699 99 154 208
246108.11804199 3357405.12680054 16.27640343 191 234 240
246105.04248047 3357397.75805664 16.75259399 139 141 138
246105.46008301 3357398.55285645 16.60282898 124 140 156
246108.19323730 3357404.22476196 16.21708107 224 217 225
246108.20019531 3357409.71163940 17.37458420 158 220 245
246105.10485840 3357399.03521729 16.88509178 48 103 183
246108.39733887 3357408.18579102 16.53042603 175 178 167
246108.18237305 3357405.04211426 16.37631798 204 218 229
246108.18676758 3357409.11810303 17.04218864 193 213 220
246105.47583008 3357397.97698975 16.79370308 106 123 130
246108.12866211 3357405.09024048 15.06895542 190 196 208
246105.55297852 3357400.16693115 14.76074600 128 132 135
246108.20312500 3357409.24157715 15.95216846 237 155 159
246108.26147461 3357404.06481934 17.30042648 219 223 235
246108.15551758 3357406.92565918 15.07308865 202 227 234
246104.06945801 3357400.25274658 14.97564220 119 125 99
246104.58666992 3357399.67507935 15.71877193 174 176 175
246104.27343750 3357400.95373535 15.07439041 85 85 85
246104.86059570 3357400.46337891 16.39886665 138 151 160
246104.17236328 3357398.42636108 14.75440598 104 105 109
246108.25000000 3357408.82696533 16.65915871 192 203 197
246108.33666992 3357408.20407104 16.41471100 161 161 151
246105.17065430 3357397.35934448 14.76013660 125 124 119
246104.52209473 3357400.79174805 17.18370628 77 132 197
246103.90637207 3357398.12487793 14.74946690 101 102 104
246108.23120117 3357408.21618652 15.38711071 139 145 145
246105.32739258 3357399.91607666 17.11447525 115 158 211
246103.99377441 3357401.15896606 16.47968292 75 101 134
246104.71984863 3357399.37600708 14.80397797 105 109 110
246104.71557617 3357399.29351807 16.77656364 50 93 171
246108.17810059 3357409.13925171 14.74969292 225 230 234
246105.55847168 3357398.02822876 16.91454124 83 103 112
246108.26000977 3357410.15402222 15.38339520 199 204 210
246108.26110840 3357404.22250366 17.24404907 222 228 242
246108.26208496 3357403.89416504 16.80768013 114 101 110
246108.41772461 3357408.50326538 16.71098137 157 169 167
246104.54382324 3357398.87298584 15.96543884 153 153 153
246108.18176270 3357404.07052612 15.92084694 178 176 190
246108.22900391 3357409.19171143 16.70746613 205 212 205
246108.16137695 3357406.46087646 17.57520103 208 222 235
246108.18688965 3357406.46667480 17.60598564 208 222 235
246105.30529785 3357398.84902954 17.10898399 75 123 197
246104.31140137 3357400.47869873 15.93210697 125 135 127
246108.23876953 3357403.90640259 16.57761765 121 101 110
246105.76306152 3357399.60147095 14.79138279 83 83 85
246104.71301270 3357397.68051147 17.03276253 100 137 179
246108.12048340 3357404.96948242 15.53900242 191 214 228
246104.45837402 3357398.66329956 16.02555275 146 146 144
246103.92663574 3357400.66567993 16.46010971 91 91 93
246103.94482422 3357399.82223511 16.26122284 165 153 139
246104.98608398 3357398.77661133 16.24083710 159 161 156
246105.42639160 3357398.00708008 14.74317741 179 178 174
246103.89501953 3357398.38265991 16.64086914 201 198 217
246104.20141602 3357398.19863892 16.30943680 152 148 145
246108.17736816 3357409.55187988 16.40698624 236 232 220
246108.16003418 3357403.74096680 16.31132126 229 243 255
246105.21350098 3357400.81082153 14.76888943 36 38 37
246108.17187500 3357407.28024292 17.53016281 156 212 229
246105.52868652 3357399.03558350 16.49960518 104 118 118
246108.21447754 3357410.12332153 15.07507038 184 188 199
246105.01928711 3357400.38168335 14.82661152 108 114 114
246104.42199707 3357397.98226929 17.16498756 84 144 204
246108.29516602 3357404.71499634 14.76547623 52 53 57
246105.58679199 3357399.59140015 14.76527214 104 103 101
246105.32470703 3357399.94995117 17.12655258 98 138 190
246105.50292969 3357398.66955566 16.83460999 81 106 126
246104.13854980 3357400.70501709 15.45027256 188 186 171
246105.35913086 3357399.65997314 14.77113152 141 140 138
246103.89208984 3357400.88555908 16.61006546 133 150 176
246108.18115234 3357409.30773926 16.64019012 205 207 194
246108.23181152 3357408.22012329 15.41789341 143 147 148
246108.21459961 3357403.90811157 15.07531261 112 112 120
246108.19677734 3357408.64309692 15.97667313 205 206 198
246105.37121582 3357398.87045288 14.81689739 190 181 174
246104.43579102 3357401.05126953 16.84297943 91 140 207
246105.59716797 3357399.64871216 14.76215839 106 106 104
246104.10925293 3357400.14694214 15.43299007 195 199 174
246103.81066895 3357400.54830933 14.90327740 108 109 103
246105.47302246 3357397.42755127 14.75458813 185 184 179
246108.19750977 3357409.45587158 16.27297401 221 201 194
246104.71472168 3357399.69003296 14.83988094 124 128 129
246104.21838379 3357399.26168823 15.66472149 178 177 172
246105.05187988 3357398.14068604 14.77119255 119 119 117
246108.15380859 3357404.88412476 15.03581429 201 208 218
246108.27856445 3357407.52819824 17.59044266 138 144 144
246104.15258789 3357400.56863403 15.62687874 126 129 136
246104.83374023 3357398.59292603 14.75729942 168 168 168
246108.18701172 3357404.41177368 16.04088211 168 172 184
246108.21191406 3357410.16381836 16.88989258 208 231 239
246105.72424316 3357400.20794678 16.57056236 91 97 109
246108.13171387 3357403.74963379 15.68264866 220 229 236
246104.07067871 3357400.83972168 15.42034531 174 162 138
246108.19885254 3357410.22082520 15.59044552 220 215 219
246108.36914063 3357405.68807983 15.30142117 55 58 65
246108.18701172 3357409.55096436 15.14996147 196 204 217
246108.21020508 3357408.80072021 17.57441902 207 227 236
246108.31457520 3357409.64257813 17.18904877 202 215 221
246108.27307129 3357403.82348633 16.83736038 104 103 111
246108.13574219 3357403.73544312 16.98073387 205 228 246
246103.94616699 3357399.28784180 16.80027390 69 117 179
246105.04187012 3357399.28186035 16.79199028 60 99 176
246108.21252441 3357410.13128662 15.04131699 186 190 201
246108.18041992 3357409.27352905 15.39064407 205 201 202
246108.24597168 3357403.97528076 16.86646271 200 192 207
246108.23669434 3357404.02960205 17.62581825 140 141 145
246105.11914063 3357399.94338989 17.13018990 59 130 196
246108.23925781 3357410.01171875 17.06351471 205 221 221
246104.22790527 3357400.40850830 15.59164429 109 113 88
246108.19226074 3357410.22695923 15.33655739 210 210 218
246108.32971191 3357410.49600220 17.53231621 188 189 194
246108.23120117 3357410.51556396 15.27208328 200 209 216
246103.85546875 3357401.02279663 14.95142460 101 102 104
246108.22302246 3357409.36898804 16.65819359 209 211 206
246108.26208496 3357410.06863403 16.41555405 211 223 223
246108.16625977 3357408.38677979 14.75690365 207 230 248
246103.97009277 3357400.76803589 15.17217445 81 81 71
246108.11767578 3357405.55599976 17.58099556 184 214 240
246104.87255859 3357398.04162598 17.29554939 65 135 195
246108.22167969 3357409.52371216 16.44506454 228 224 213
246104.74877930 3357398.98037720 14.73765850 111 111 111
246108.16821289 3357409.47253418 16.78872108 213 226 219
246108.35156250 3357408.00424194 15.48807049 193 195 194
246104.82434082 3357399.12701416 16.83919144 50 102 178
246105.11120605 3357398.26715088 14.77473354 119 119 117
246108.20568848 3357409.33444214 16.17008972 215 204 198
246108.21191406 3357408.39724731 16.28006935 207 211 197
246104.18627930 3357400.30145264 16.93721008 94 142 191
246104.74926758 3357399.75674438 15.88477039 157 159 156
246105.33923340 3357398.46142578 17.15412140 45 85 146
246104.43041992 3357398.43911743 14.81581402 121 121 123
246105.71008301 3357399.18093872 14.77351665 102 98 95
246108.29321289 3357408.23873901 16.29823303 174 176 165
246104.00817871 3357398.68045044 16.81283379 93 140 192
246105.17626953 3357398.80703735 17.11822701 60 111 190
246104.21411133 3357397.85946655 16.52136230 153 158 162
246108.31201172 3357407.96154785 15.18235588 176 184 186
246108.22607422 3357410.51126099 15.25909805 207 214 220
246108.15808105 3357405.16424561 14.98414707 208 229 234
246104.97766113 3357397.93817139 16.62515640 154 154 152
246108.25341797 3357409.99578857 16.04725838 214 219 223
246108.28320313 3357410.48770142 15.64729595 205 208 215
246105.20312500 3357398.12362671 16.64159584 156 160 163
246104.21972656 3357400.59375000 15.96431255 117 139 160
246108.23596191 3357408.36160278 16.06325340 188 191 180
246108.12438965 3357404.76525879 16.80074310 238 239 241
246104.07751465 3357398.16384888 14.75883961 102 103 105
246104.76684570 3357398.24621582 16.37978172 170 169 165
246108.17211914 3357408.20223999 14.72212791 192 225 234
246108.17395020 3357408.70352173 15.23603535 211 207 195
246104.56481934 3357400.38348389 14.87082195 116 140 166
246108.22302246 3357409.81826782 16.28012085 215 220 214
246105.40502930 3357397.48605347 14.75762177 182 181 176
246108.28869629 3357410.35958862 15.56584644 155 159 168
246108.18701172 3357409.31979370 14.92913246 222 225 232
246108.13317871 3357405.83639526 14.91846657 204 234 244
246108.18347168 3357409.04019165 15.43085098 200 182 178
246108.20324707 3357407.70220947 17.58856773 235 255 255
246105.25976563 3357398.35293579 16.56275749 155 160 164
246103.95654297 3357397.80749512 16.58670807 154 166 190
246104.55029297 3357398.11148071 16.38389587 166 165 161
246104.95703125 3357398.45721436 17.40790176 45 88 156
246103.98327637 3357398.98171997 16.82925415 110 162 201
246104.57568359 3357398.63790894 17.29191399 121 170 229
246108.23510742 3357403.90945435 17.64729691 148 148 156
246104.56701660 3357401.02200317 16.77627754 93 138 195
246105.79992676 3357399.25796509 16.84039116 67 97 151
246105.06286621 3357398.38317871 17.40587425 42 83 149
246108.12304688 3357404.74285889 15.35441208 230 237 245
246104.46850586 3357398.24511719 17.20731735 73 139 197
246105.09838867 3357399.83312988 14.81686115 214 213 211
246104.11108398 3357400.47982788 15.19382095 112 118 84
246108.21826172 3357409.46221924 16.41514969 223 219 208
246108.22729492 3357404.01623535 14.91650105 81 82 87
246104.14379883 3357400.73013306 16.15013123 81 88 96
246108.19482422 3357409.14175415 16.07097435 201 173 169
246104.69238281 3357400.49130249 16.32310867 133 152 167
246104.90539551 3357398.23873901 16.44791603 184 180 177
246104.08251953 3357400.45532227 16.24407578 82 80 81
246108.13952637 3357403.72933960 15.39209270 222 226 237
246104.22277832 3357400.50119019 15.44021416 135 131 122
246108.23046875 3357410.25677490 14.86826038 210 207 218
246108.19653320 3357409.76705933 15.96278572 218 221 228
246108.19592285 3357409.23330688 15.44707966 248 209 210
246104.43334961 3357397.81848145 16.55128288 157 158 153
246108.30114746 3357409.04217529 16.92074203 191 201 200
246104.20861816 3357400.05206299 16.99567986 103 155 195
246108.36096191 3357409.74032593 17.56261444 166 168 180
246108.19946289 3357409.43896484 16.26489830 222 197 193
246104.41589355 3357401.14129639 14.82497978 108 109 103
246104.37939453 3357401.06121826 14.83115101 100 99 94
246105.73754883 3357401.01553345 16.83625603 77 112 176
246108.18664551 3357409.13073730 16.96302795 192 207 204
246108.11157227 3357404.75784302 17.27464104 247 242 246
246103.82556152 3357397.70541382 14.75353813 107 108 110
246104.16027832 3357398.33142090 16.24177742 160 157 152
246108.18493652 3357409.53094482 15.24946690 206 216 226
246108.15917969 3357403.73019409 16.71726227 221 238 254
246104.29345703 3357400.52456665 15.13173389 113 114 108
246104.33703613 3357400.44192505 15.29071522 81 81 79
246104.17956543 3357399.53881836 15.86884785 92 89 80
246108.22094727 3357408.65805054 16.24398422 200 210 199
246108.40844727 3357405.15814209 14.89490795 21 22 26
246105.06604004 3357400.64950562 17.25738144 79 132 198
246108.24194336 3357408.87265015 14.70900154 164 164 164
246108.16406250 3357405.42605591 15.01810455 139 146 162
246105.50512695 3357399.81771851 17.01519203 56 103 173
246105.96435547 3357400.77612305 14.80375862 118 160 185
246108.16369629 3357406.70767212 17.55206680 156 204 227
246104.04992676 3357399.98294067 16.83240318 48 124 184
246104.66760254 3357399.77883911 15.77937698 192 195 188
246104.88586426 3357398.50408936 17.38989830 91 123 172
246108.18505859 3357409.33245850 15.51071930 204 148 157
246104.64611816 3357398.25857544 17.37029648 173 210 228
246108.13610840 3357404.16555786 14.99119949 163 165 178
246104.69140625 3357399.77600098 16.99245453 53 124 186
246105.75341797 3357399.31875610 16.85956001 45 83 145
246103.87585449 3357400.88641357 15.00048447 77 81 82
246108.34472656 3357408.75628662 14.63590813 67 68 73
246108.23095703 3357405.61502075 15.65424919 183 195 207
246108.17102051 3357408.71734619 17.41909790 155 211 238
246104.00488281 3357400.52853394 16.31543732 141 137 136
246108.15197754 3357408.20062256 17.31197739 169 219 242
246105.17370605 3357398.34863281 17.31802940 41 85 150
246108.20043945 3357409.48757935 16.02680588 232 206 205
246105.11608887 3357398.28073120 14.77520847 117 117 115
246104.92236328 3357400.83267212 17.08136749 85 132 184
246108.23645020 3357408.98104858 14.76161480 166 170 173
246104.29772949 3357399.91085815 15.63337994 68 62 48
246104.78759766 3357399.97921753 15.97623920 106 111 114
246104.22790527 3357400.32955933 16.97538376 88 140 190
246105.34240723 3357400.10092163 17.12761879 56 104 176
246105.28454590 3357400.63357544 14.78278542 73 74 78
246104.03833008 3357398.73583984 16.84793854 90 146 197
246108.22949219 3357410.13357544 15.17635822 183 192 201
246104.16748047 3357400.68933105 16.12678528 108 113 117
246104.27868652 3357399.71072388 15.78449535 128 123 104
246104.00268555 3357399.29904175 14.76918888 96 95 93
246108.15747070 3357404.40512085 14.85504723 152 154 166
246108.18981934 3357409.39746094 14.83764458 206 211 217
246104.39538574 3357398.45498657 17.14163780 127 178 225
246108.32812500 3357410.46466064 14.88015747 200 204 216
246105.53894043 3357398.77343750 16.71245575 85 100 129
246104.99719238 3357398.71142578 14.77129364 183 183 183
246108.30847168 3357408.18270874 17.59820557 114 112 117
246105.82678223 3357399.41354370 16.82305527 44 60 93
246108.20239258 3357409.35754395 16.10047913 232 195 202
246108.34582520 3357410.39196777 14.80628014 124 126 139
246108.29516602 3357408.22314453 16.15998650 178 180 169
246105.57055664 3357398.84442139 16.65653992 90 100 125
246108.16943359 3357408.74295044 15.27853680 214 206 195
246104.28088379 3357399.60144043 16.85611343 47 115 178
246108.15893555 3357407.41995239 14.73378754 202 233 235
246108.23864746 3357409.94024658 15.96098042 210 218 220
246108.21691895 3357403.73861694 17.09990120 200 216 231
246104.13952637 3357398.13369751 16.92840004 89 148 204
246104.34570313 3357400.56671143 15.28231049 140 135 129
246108.20117188 3357409.53982544 17.50514793 158 210 232
246108.21875000 3357410.38272095 16.31835938 222 240 242
246108.17639160 3357409.00860596 15.42933655 192 87 91
246108.16491699 3357408.09777832 15.13512325 199 227 239
246104.77429199 3357397.65618896 17.01080322 103 138 180
246108.22424316 3357403.76663208 17.46534157 181 192 210
246105.45849609 3357397.92504883 14.75146866 179 178 176
246104.37561035 3357400.23370361 15.53131676 85 116 145
246105.20935059 3357399.55975342 16.18789673 181 178 169
246104.82238770 3357399.22799683 15.95791626 175 174 169
246108.41601563 3357407.31628418 15.10546398 171 183 183
246108.41906738 3357410.27618408 17.40083122 168 168 176
246108.21789551 3357410.28173828 16.93645859 222 242 251
246108.33898926 3357410.58843994 17.41921806 194 216 239
246108.25195313 3357403.84494019 16.59115982 141 135 145
246108.21337891 3357409.85327148 15.45442200 209 220 226
246105.22448730 3357398.27801514 16.58009338 157 162 168
246108.13159180 3357404.80111694 15.15944672 215 219 228
246105.37084961 3357397.55435181 14.76101685 181 180 175
246104.73547363 3357399.87228394 17.07443047 86 151 209
246108.17663574 3357409.42541504 15.12929821 218 224 236
246104.22338867 3357401.09881592 14.84479332 85 87 84
246108.28198242 3357410.28033447 15.42330742 212 216 225
246105.83264160 3357399.80249023 16.73712158 22 44 85
246104.91003418 3357399.73681641 16.96874237 50 121 187
246104.23132324 3357397.62429810 16.67209625 156 166 176
246104.30895996 3357400.40274048 14.98616219 116 124 127
246108.23303223 3357410.61019897 14.65821266 116 119 128
246108.11914063 3357405.09036255 15.95857334 207 223 238
246104.81152344 3357397.64050293 16.80294418 120 120 120
246108.25012207 3357405.29672241 14.96238136 98 102 113
246104.78845215 3357400.25668335 17.33095169 92 140 189
246108.16235352 3357406.91882324 17.56020737 149 205 232
246108.32446289 3357409.49905396 17.17342567 199 210 212
246104.50073242 3357400.33856201 16.05805397 128 141 149
246105.56909180 3357399.64035034 14.75854969 126 128 123
246105.24414063 3357398.55065918 17.23035431 43 88 155
246108.28417969 3357408.92126465 16.82949829 191 201 200
246108.17004395 3357408.77160645 15.63813400 212 202 190
246104.80297852 3357399.63470459 14.81997204 107 108 110
246103.92639160 3357399.22268677 16.42070198 128 130 143
246108.22314453 3357410.33807373 17.15559769 198 233 252
246105.64062500 3357400.14810181 16.47535515 132 132 130
246105.48583984 3357400.17745972 14.75669289 148 148 148
246104.21203613 3357398.74182129 16.99870872 64 135 191
246108.14489746 3357405.09329224 15.08280277 205 219 230
246105.21826172 3357400.49093628 16.43531036 95 106 124
246103.90026855 3357399.04879761 16.70673943 64 115 170
246108.29174805 3357410.59356689 17.41695023 178 214 240
246108.14843750 3357404.96078491 16.26715660 205 222 232
246104.93078613 3357398.81747437 17.09812927 43 98 178
246108.20483398 3357409.79385376 16.58105469 172 185 194
246104.56921387 3357397.72253418 14.76239967 121 121 119
246104.03320313 3357399.15853882 14.74285126 115 115 113
246108.24194336 3357408.99093628 17.57801247 248 255 255
246104.07153320 3357400.99047852 16.31852913 118 132 141
246104.42797852 3357399.48181152 16.80753326 68 106 171
246108.16650391 3357404.00869751 16.34680176 148 133 140
246108.27868652 3357410.51632690 15.20109749 187 196 203
246104.63183594 3357398.22912598 17.35401535 154 198 223
246105.87426758 3357400.74948120 14.81162453 107 167 203
246103.93969727 3357400.45672607 14.97547054 94 99 79
246104.07714844 3357399.07119751 14.74239445 121 121 121
246105.00781250 3357398.50787354 16.37317848 173 172 167
246105.09350586 3357400.83648682 14.78621101 49 50 55
246105.69641113 3357400.03338623 16.87345886 53 103 176
246108.22241211 3357409.82531738 16.24204063 213 218 211
246108.13818359 3357404.60070801 15.94869137 212 219 229
246108.12426758 3357404.61965942 15.87372971 205 215 227
246105.11779785 3357400.33099365 17.28444862 66 111 179
246103.91296387 3357400.66888428 16.49815750 127 128 130
246108.18261719 3357404.63757324 16.80477905 205 218 235
246104.59362793 3357400.85232544 16.56072235 127 161 189
246108.24218750 3357403.98141479 16.96648788 176 178 191
246108.18652344 3357409.47631836 14.83487797 223 231 234
246105.74267578 3357400.01834106 14.77130413 85 89 90
246108.31079102 3357405.07385254 14.88229275 73 77 78
246104.05029297 3357400.23837280 16.27947235 113 99 96
246104.29992676 3357400.42422485 15.01509762 118 120 119
246108.23449707 3357409.24096680 16.77607918 195 204 199
246105.45983887 3357398.45162964 16.95064735 60 92 115
246108.19335938 3357409.32992554 14.85275841 220 224 227
246108.31030273 3357405.66635132 15.28154659 88 92 101
246108.24438477 3357404.17160034 14.80296993 56 57 62
246108.28662109 3357410.12335205 16.34164238 213 220 226
246104.41076660 3357400.71453857 14.95586491 118 114 102
246105.57006836 3357399.06988525 16.96135521 36 93 162
246104.77990723 3357400.52893066 14.85863400 116 123 133
246103.76354980 3357397.94888306 14.75301838 95 96 98
246108.16259766 3357403.74493408 17.23937607 204 225 244
246108.12390137 3357404.99090576 15.99905872 213 242 246
246108.19689941 3357408.66360474 15.98161983 205 206 198
246104.02917480 3357400.05065918 16.29605484 113 93 92
246104.27929688 3357399.49862671 15.61457825 178 180 175
246105.11059570 3357399.12683105 16.16351700 167 168 160
246108.20495605 3357408.86557007 14.78876591 166 170 171
246104.72070313 3357400.35864258 14.87100410 130 138 151
246108.17724609 3357408.92733765 17.44283295 178 209 230
246108.14221191 3357405.04687500 15.09799957 207 219 231
246108.26416016 3357410.33843994 15.00259781 167 167 179
246108.19384766 3357409.16479492 16.59792137 244 255 244
246105.10681152 3357400.55187988 14.80827427 100 101 103
246103.91955566 3357400.33850098 14.90276146 101 107 95
246105.53942871 3357400.71917725 14.76319313 123 128 132
246104.91870117 3357399.36672974 14.79080200 94 95 99
246108.27526855 3357404.95782471 17.59225655 207 202 209
246108.20629883 3357409.96298218 17.19493294 167 232 250
246103.89074707 3357398.46777344 16.59745598 150 147 164
246108.16540527 3357405.54284668 15.71695614 197 217 228
246108.25244141 3357410.52001953 16.14881134 245 254 251
246105.29577637 3357400.38549805 17.14729118 52 109 180
246105.38305664 3357399.87243652 14.78225136 138 137 135
246104.27453613 3357400.07135010 15.56651783 143 144 110
246108.39233398 3357410.54284668 17.45183563 198 206 219
246104.46569824 3357399.27322388 14.80731583 110 111 115
246105.06567383 3357399.63067627 14.80322838 66 67 71
246104.72399902 3357400.38183594 17.41448212 134 178 203
246105.65954590 3357399.25436401 14.77213192 100 96 93
246105.20983887 3357399.45065308 16.19236565 179 179 169
246103.97277832 3357397.35494995 14.80869770 98 98 98
246108.13281250 3357405.45657349 14.88716030 199 236 244
246104.04455566 3357399.69842529 16.06380463 137 131 107
246108.19299316 3357409.22427368 16.51156235 239 245 231
246104.38293457 3357397.81890869 14.77132130 113 115 114
246108.19433594 3357409.40628052 15.73105431 212 198 197
246104.34753418 3357400.52041626 15.28409863 120 115 109
246108.32714844 3357410.47976685 15.87592125 175 176 180
246105.44689941 3357397.44369507 14.75498199 194 191 184
246108.25097656 3357410.48022461 15.99541378 248 252 251
246103.94079590 3357398.12127686 16.74043655 160 174 201
246104.70996094 3357397.58929443 14.75028992 126 128 127
246104.02209473 3357398.19686890 16.34235382 114 99 94
246108.29431152 3357410.21762085 16.03805351 209 219 221
246108.37902832 3357407.60913086 17.59779358 120 124 125
246104.29907227 3357400.37615967 15.86004925 129 141 157
246108.40332031 3357406.29830933 17.58058357 26 26 28
246108.19677734 3357408.98419189 16.27379036 229 249 247
246105.44226074 3357398.02514648 17.09751129 53 77 103
246105.05688477 3357398.02374268 14.76420403 121 121 119
246103.79992676 3357400.01144409 14.70653343 111 111 113
246108.18371582 3357408.59500122 15.19485092 203 205 192
246105.14038086 3357401.05444336 14.77429962 78 79 74
246104.36450195 3357399.86505127 15.55401802 147 156 151
246108.10729980 3357404.40902710 17.20353127 239 229 227
246105.53125000 3357399.93365479 14.76526260 162 164 161
246104.85119629 3357399.27169800 15.95671272 177 176 171
246103.92028809 3357401.10006714 14.94029713 89 91 88
246105.71313477 3357399.35855103 14.78717899 89 87 88
246104.65478516 3357399.54785156 16.82048416 61 116 181
246108.27917480 3357404.47964478 17.26388168 225 225 237
246108.13354492 3357404.26486206 15.63563728 171 168 185
246103.94494629 3357398.82672119 16.31988144 130 129 134
246108.17077637 3357405.27438354 16.05436707 198 214 229
246105.29040527 3357398.89013672 16.36690521 149 153 152
246104.23022461 3357400.53637695 15.92261887 123 140 158
246105.35803223 3357398.17294312 14.75943565 186 187 182
246104.69506836 3357400.35800171 16.21492958 134 151 159
246103.88024902 3357400.51345825 14.94284344 106 109 98
246108.18957520 3357409.54504395 16.29059219 234 225 218
246108.13903809 3357405.78417969 17.59539223 210 231 248
246108.19714355 3357409.14926147 17.52387428 189 224 246
246108.38586426 3357409.60498047 17.45637131 156 161 165
246108.38476563 3357409.18252563 17.13582039 190 201 203
246108.22314453 3357408.85140991 16.31785774 203 210 203
246104.36914063 3357399.46621704 15.66725254 175 178 171
246105.14831543 3357399.16949463 16.82935143 55 104 181
246108.27270508 3357408.74633789 16.67078400 187 198 194
246108.21838379 3357404.83706665 16.70974922 201 217 233
246105.42285156 3357398.41653442 16.63014221 133 147 158
246104.44628906 3357400.98303223 16.64692497 124 152 189
246104.19494629 3357397.88140869 14.77931690 103 105 104
246104.17358398 3357400.51483154 16.15098381 80 82 79
246104.09484863 3357400.01187134 16.14613914 99 76 62
246104.21313477 3357398.62817383 16.99958801 77 144 199
246108.20092773 3357409.70120239 15.03855896 220 228 239
246104.45458984 3357400.20281982 17.19754219 93 144 189
246104.86437988 3357400.22293091 14.85536289 122 125 130
246104.14880371 3357400.32406616 15.33260441 115 119 94
246108.26965332 3357409.95147705 17.55858040 248 255 255
246108.25634766 3357410.11145020 15.44872284 211 216 222
246108.21447754 3357409.67895508 15.98355675 213 213 211
246104.76574707 3357398.64349365 16.19703484 158 157 155
246104.48681641 3357398.86691284 15.93414593 148 148 146
246104.73388672 3357400.72994995 16.54687119 138 166 188
246104.99975586 3357398.74130249 14.76943302 177 177 177
246108.16552734 3357408.60388184 17.34879303 157 212 233
246104.87939453 3357399.12420654 16.83946228 52 104 180
246108.26171875 3357405.03210449 14.83654594 123 127 130
246104.63366699 3357399.38424683 15.81804848 181 181 173
246103.91223145 3357399.61828613 14.76346493 104 104 102
246108.12573242 3357404.32809448 14.93503666 177 178 196
246104.81311035 3357398.06286621 14.81142902 122 122 120
246104.17358398 3357398.95007324 16.97046280 73 137 198
246104.32067871 3357397.57812500 16.70182991 189 193 202
246108.21972656 3357408.38790894 16.09571838 197 200 189
246105.53295898 3357398.97866821 16.51467705 98 109 111
246108.25732422 3357407.94293213 14.86547852 136 149 157
246108.17480469 3357403.73123169 15.58221817 205 209 218
246105.36657715 3357399.29202271 14.75108051 147 147 145
246108.39880371 3357405.52551270 15.95388031 189 199 211
246108.36877441 3357406.46023560 17.58564377 118 119 124
246104.91101074 3357400.15228271 16.17879486 79 94 117
246103.96777344 3357399.28311157 16.30540276 122 120 121
246104.04711914 3357399.77191162 16.84955788 65 130 188
246108.18603516 3357409.31304932 15.61412239 206 194 194
246105.72106934 3357399.77679443 16.53992081 102 106 115
246108.22814941 3357404.59249878 17.60752869 217 221 222
246108.22180176 3357410.49829102 14.91535950 218 231 240
246103.85400391 3357398.05691528 14.75641823 98 99 101
246104.52062988 3357399.79043579 16.99879646 56 123 191
246103.94824219 3357397.86212158 16.57334518 167 178 196
246103.99877930 3357401.18466187 16.49086952 91 120 152
246108.38122559 3357404.78918457 17.47622108 180 184 195
