246121.44616699 3357532.11395264 15.59903049 128 128 128
246120.13378906 3357532.08917236 13.71122837 218 217 212
246121.47131348 3357533.38055420 13.69544220 196 195 190
246121.09069824 3357531.54516602 13.67977905 206 205 201
246120.00573730 3357532.71960449 15.82073402 76 158 198
246122.50073242 3357531.76739502 15.90875816 41 179 241
246122.00927734 3357531.44531250 15.87407017 16 159 229
246120.70788574 3357532.80718994 16.14045906 42 206 243
246120.82434082 3357533.49218750 15.54752064 128 128 128
246123.32507324 3357532.61267090 15.52533436 80 74 60
246120.97192383 3357532.34014893 13.66062069 197 196 194
246123.57116699 3357533.19097900 13.91141891 114 117 70
246121.22412109 3357532.38952637 16.21243095 197 223 246
246123.56640625 3357532.64080811 13.95761108 111 116 76
246121.99621582 3357534.12341309 15.71301270 184 189 185
246120.46435547 3357531.52233887 13.67079353 214 210 207
246121.46484375 3357532.76452637 13.71430683 205 204 200
246120.70971680 3357533.13525391 15.58195877 128 128 128
246120.49890137 3357532.58496094 16.12707329 54 219 247
246123.30432129 3357533.60504150 15.05653095 60 64 47
246121.15625000 3357532.05725098 16.05240440 188 228 238
246123.15002441 3357533.87127686 15.44296551 69 89 90
246123.77648926 3357533.50384521 14.39568233 96 101 60
246122.13854980 3357532.16821289 16.09611511 35 165 241
246120.40808105 3357534.11090088 13.68936729 190 191 186
246123.00744629 3357532.14630127 15.48553181 155 154 150
246120.47631836 3357532.04791260 15.98476601 62 180 206
246121.64099121 3357533.02960205 15.49021626 128 128 128
246121.25842285 3357532.16589355 16.10749435 248 229 249
246122.87072754 3357533.68029785 15.93387222 12 126 214
246120.44494629 3357532.32208252 15.71757412 128 128 128
246122.69763184 3357531.97406006 13.67345142 177 177 167
246120.39111328 3357532.76159668 13.63993263 205 204 199
246121.00524902 3357531.92773438 15.71326733 129 127 130
246121.53796387 3357533.62988281 13.70654869 193 192 187
246122.41564941 3357534.04919434 15.79497337 137 190 204
246121.36682129 3357531.60931396 15.75136852 172 183 187
246123.72436523 3357533.59277344 14.56189823 78 86 47
246122.05993652 3357532.62701416 15.48342228 128 128 128
246122.66918945 3357533.30786133 15.41189861 80 82 58
246123.61975098 3357532.61334229 14.01346588 103 107 70
246123.10229492 3357533.01171875 13.63803959 149 148 144
246121.32324219 3357532.57977295 15.56525040 128 128 128
246120.18933105 3357532.22009277 16.00831032 84 174 198
246123.26013184 3357533.73278809 15.84908199 86 190 253
246122.34997559 3357532.48400879 15.39105511 132 200 247
246120.08776855 3357532.86248779 15.88415813 120 187 232
246120.69628906 3357532.83886719 13.61516857 224 223 218
246122.18005371 3357531.65972900 15.56773090 105 133 154
246123.29968262 3357533.80889893 15.12910843 54 60 46
246120.29833984 3357532.33752441 16.05265045 52 193 223
246122.96435547 3357531.80596924 14.91221809 55 61 49
246122.95056152 3357533.05017090 13.63739395 158 158 148
246122.66625977 3357531.73455811 15.25575066 114 137 151
246122.37377930 3357533.54681396 15.55044937 129 129 129
246121.84741211 3357531.50384521 13.68716431 204 202 203
246121.35864258 3357532.70135498 15.54935932 128 128 128
246123.52001953 3357532.99572754 15.49812794 43 46 35
246122.55615234 3357532.27618408 15.93939304 25 172 223
246122.45764160 3357532.75280762 16.02772522 73 132 188
246121.40197754 3357533.17749023 15.50621319 128 128 128
246120.55102539 3357533.19946289 15.92914104 198 249 253
246123.08374023 3357531.54260254 14.66240501 81 85 71
246123.24438477 3357532.54278564 13.85325241 128 129 95
246121.47717285 3357533.62744141 15.48295975 128 128 128
246122.62658691 3357532.66455078 15.95101547 101 194 237
246121.66857910 3357531.97363281 13.70359898 192 191 187
246121.26928711 3357533.73968506 16.10575485 18 113 205
246123.03088379 3357532.60430908 13.71095276 177 176 171
246122.10729980 3357532.37548828 13.66920853 151 150 146
246122.22790527 3357533.63879395 13.59982109 162 161 156
246122.27343750 3357533.73889160 13.59504604 172 173 167
246121.80175781 3357532.42681885 15.53048801 128 128 128
246120.17907715 3357533.19818115 15.82828999 138 201 219
246123.32360840 3357533.93328857 15.72245407 14 60 110
246121.77539063 3357532.96490479 13.78965950 190 191 186
246122.96765137 3357531.02026367 13.83572292 130 124 98
246123.09423828 3357531.40905762 14.95717335 81 88 72
246121.72497559 3357531.83129883 13.71973038 189 188 184
246121.81958008 3357531.62622070 15.62674427 128 128 128
246121.71752930 3357531.88970947 13.70742035 201 200 196
246120.38623047 3357531.63232422 13.67528534 221 217 214
246123.05859375 3357532.69580078 15.03023624 180 220 219
246123.75634766 3357533.55346680 14.45865536 82 89 47
246122.95410156 3357531.65270996 14.95499229 65 69 55
246123.19848633 3357533.21899414 15.12896538 85 88 61
246121.19970703 3357532.27990723 15.60820580 128 128 128
246121.58496094 3357531.41961670 13.70377254 203 198 195
246122.34204102 3357533.13616943 15.45800209 129 130 125
246120.64550781 3357532.43652344 16.12016487 15 180 228
246120.43627930 3357532.42346191 16.07815361 50 210 246
246122.42968750 3357532.07928467 15.37334442 114 163 206
246121.62963867 3357531.60681152 15.94907475 7 155 225
246123.54968262 3357533.62573242 14.85077381 66 72 44
246121.73010254 3357533.59826660 15.50548077 128 128 128
246120.75097656 3357531.95538330 13.66591167 204 199 196
246123.48413086 3357532.42395020 14.62408066 78 89 83
246122.90490723 3357531.89129639 14.96659565 52 63 65
246123.53625488 3357533.64630127 15.62132645 20 30 42
246123.21301270 3357533.89874268 15.38283062 48 68 77
246122.66455078 3357532.71325684 15.21843910 158 214 247
246123.04724121 3357531.49578857 15.33646107 96 102 64
246122.63769531 3357533.33428955 15.43954277 78 81 54
246123.03149414 3357531.48101807 15.06118488 116 122 86
246123.41223145 3357532.65966797 14.82813740 97 113 112
246122.12707520 3357532.53680420 16.16456032 114 184 236
246122.95971680 3357532.25195313 13.77876282 160 160 148
246120.75451660 3357533.64288330 15.97048473 4 187 245
246120.81909180 3357532.05261230 16.01192474 26 181 227
246121.26965332 3357531.45965576 13.69706440 210 209 205
246121.10632324 3357534.25531006 15.49537945 76 167 224
246122.65783691 3357532.50323486 15.21727943 184 239 242
246121.92346191 3357532.69067383 13.74656200 180 179 175
246122.68078613 3357532.53271484 13.69307137 157 157 149
246122.64270020 3357532.67816162 15.22815514 156 212 247
246120.28894043 3357533.62298584 15.69988728 173 188 185
246120.67919922 3357534.11035156 15.52417374 128 128 128
246123.35961914 3357531.96649170 14.48651505 83 82 61
246120.12866211 3357532.18658447 15.81862926 166 172 170
246120.96520996 3357533.27282715 16.13091278 206 137 166
246121.49609375 3357532.50085449 16.31860733 0 172 238
246120.87292480 3357533.94305420 13.68983555 190 189 184
246120.48925781 3357532.01129150 15.82618332 177 188 184
246122.35949707 3357533.01928711 15.40411568 69 74 44
246123.08264160 3357531.54296875 14.66668797 81 85 71
246122.00854492 3357533.26477051 16.27807045 19 108 192
246121.76928711 3357533.97235107 15.91599941 159 237 255
246121.96435547 3357532.25732422 13.68254375 174 173 171
246123.05212402 3357531.39447021 13.84863186 140 138 115
246122.95739746 3357533.41040039 15.33467960 71 75 48
246121.48840332 3357532.89575195 16.60731888 156 250 255
246121.52209473 3357531.88800049 13.75706577 177 176 172
246122.40576172 3357532.18951416 13.68888092 159 159 151
246121.10205078 3357532.28741455 15.61767197 128 128 128
246122.53039551 3357531.31121826 15.76585102 91 121 145
246120.28344727 3357533.30224609 15.61651707 127 128 130
246121.37805176 3357533.17065430 13.67915058 185 186 181
246121.77209473 3357533.29943848 16.33334732 14 113 196
246122.33007813 3357532.94732666 16.13108063 37 136 203
246121.52844238 3357532.88482666 15.51321697 128 128 128
246122.14904785 3357534.04162598 15.89229965 49 168 208
246122.73217773 3357532.71405029 15.18623924 165 219 247
246123.13354492 3357532.37573242 15.51768589 66 63 72
246121.74548340 3357533.47583008 16.20044136 193 195 246
246121.58605957 3357533.28356934 16.39990616 18 120 204
246120.42932129 3357532.44647217 13.63536358 196 195 191
246121.58276367 3357532.56921387 16.34210587 3 161 234
246122.85522461 3357533.69744873 13.60200882 159 158 154
246122.86804199 3357532.28302002 15.10686588 100 122 120
246121.51574707 3357533.44622803 15.47739029 128 128 128
246123.07800293 3357531.42102051 15.04113770 107 113 85
246120.93298340 3357532.78070068 13.63335133 209 208 203
246123.57788086 3357532.85467529 14.77195168 92 111 115
246120.27478027 3357533.63043213 13.67914772 185 184 180
246121.30065918 3357532.55670166 16.34538841 1 180 238
246122.29821777 3357531.68615723 15.96769524 16 140 212
246120.53564453 3357532.12487793 15.74006176 128 128 128
246120.88183594 3357533.85363770 15.96990967 27 170 200
246121.62060547 3357533.23437500 15.47956371 128 128 128
246122.01782227 3357532.68011475 16.26506805 20 133 203
246123.67297363 3357533.46868896 13.94997501 103 106 61
246121.62255859 3357531.66363525 15.65892982 128 128 130
246122.35083008 3357532.64208984 16.06681061 202 180 219
246122.23730469 3357532.18475342 15.49320221 121 194 235
246123.73657227 3357533.63317871 14.62287331 75 81 45
246120.70117188 3357532.79986572 13.61584568 213 212 207
246121.84851074 3357533.71771240 13.64779472 187 186 181
246122.36865234 3357533.37170410 16.14604950 14 116 198
246122.11962891 3357532.60192871 15.47969627 129 127 128
246122.01525879 3357532.94140625 13.77292919 177 178 173
246122.98278809 3357533.16613770 15.88148499 13 146 223
246120.35388184 3357533.62231445 13.67483044 207 208 202
246121.78088379 3357532.52111816 16.31607628 77 203 244
246122.58898926 3357532.87426758 15.25776863 115 170 226
246122.54541016 3357532.61779785 15.97533131 150 221 249
246120.65747070 3357532.78143311 16.13983727 42 207 239
246121.05676270 3357534.27655029 15.49133587 54 135 191
246121.86828613 3357533.05993652 15.46432686 128 128 128
246121.12780762 3357533.91705322 13.71229649 191 190 185
246122.51342773 3357531.55181885 15.44067669 103 129 144
246122.32189941 3357532.62530518 15.39739037 137 193 250
246122.68481445 3357532.33459473 15.89224339 69 181 231
246120.32836914 3357532.40942383 13.64279175 192 193 187
246120.67309570 3357533.34063721 15.95569515 113 177 204
246122.52172852 3357531.14739990 13.78441334 198 195 190
246123.35095215 3357531.96215820 14.00363731 164 170 160
246121.37963867 3357532.50366211 13.70015049 191 190 188
246122.45788574 3357532.90454102 13.70347023 181 180 175
246121.66455078 3357531.23394775 13.67414951 188 187 183
246122.96154785 3357532.80621338 15.07874775 184 234 233
246122.99658203 3357532.90716553 13.65646267 146 145 140
246121.81811523 3357533.26324463 13.69232845 190 189 184
246121.70654297 3357531.68322754 16.01834297 10 167 244
246121.79736328 3357531.62951660 13.71448517 194 193 189
246121.89624023 3357532.48846436 13.70816708 182 181 177
246122.04101563 3357532.18750000 16.13669205 22 154 226
246123.32580566 3357532.62731934 14.88343811 90 106 103
246120.09851074 3357533.05084229 15.78367519 214 231 241
246122.40124512 3357532.35180664 16.00787354 24 156 218
246121.88378906 3357532.62304688 16.31201553 73 200 251
246123.31469727 3357533.61096191 13.64895344 158 155 148
246122.66186523 3357531.04144287 13.81914425 159 157 134
246120.62646484 3357531.93914795 15.79281616 103 156 188
246120.59594727 3357533.13531494 13.65552235 181 180 175
246122.74548340 3357532.52966309 15.88883591 53 175 222
246122.07507324 3357534.17352295 15.80731201 162 192 203
246120.53442383 3357533.18743896 13.66758251 199 198 193
246121.08996582 3357531.87268066 15.71181965 128 128 128
246123.62145996 3357532.69366455 14.00595093 104 109 69
246122.30261230 3357531.02612305 13.70388603 189 185 182
246121.21228027 3357532.58978271 16.34588432 7 191 245
246120.23010254 3357532.56939697 13.65176201 211 210 205
246121.63964844 3357532.95471191 13.75921345 186 185 181
246120.39721680 3357533.71643066 15.83968163 3 158 238
246120.37341309 3357531.93426514 13.68084240 217 216 212
246120.96374512 3357532.17193604 13.66990471 208 207 205
246122.46386719 3357532.47607422 15.99407673 52 147 201
246121.77514648 3357532.81103516 16.48801231 22 152 214
246121.86132813 3357534.14605713 15.87803268 17 159 209
246122.18310547 3357532.38269043 16.09756470 42 155 221
246123.49267578 3357533.44732666 13.77802849 165 164 143
246121.99096680 3357533.76214600 15.99355984 91 152 209
246123.53576660 3357533.70086670 15.65196991 18 31 40
246122.45935059 3357531.88726807 15.93938351 30 170 229
246121.59582520 3357531.89459229 15.60534382 129 127 128
246121.33544922 3357533.95373535 15.52409267 128 128 128
246123.04077148 3357532.04943848 13.82370377 158 161 142
246120.96374512 3357533.48968506 16.09254837 21 202 249
246121.48242188 3357532.64691162 16.40903854 1 164 241
246122.81054688 3357533.06378174 15.22417164 73 73 47
246120.59460449 3357533.42871094 15.91721821 157 252 255
246121.01770020 3357532.12487793 15.66865158 128 128 128
246120.57153320 3357533.06964111 13.64994907 187 184 179
246120.43786621 3357533.89324951 13.67191982 200 199 195
246121.85412598 3357531.78735352 15.58906078 128 128 128
246122.45288086 3357531.47595215 13.68837929 166 163 154
246121.72387695 3357531.28192139 13.67473602 181 180 176
246120.70153809 3357531.63269043 13.66469193 209 210 205
246120.41943359 3357534.05462646 13.68176937 196 197 192
246121.18518066 3357531.49957275 13.68534470 203 202 198
246121.08105469 3357532.31488037 16.13664436 135 215 240
246121.75402832 3357532.18554688 13.70046139 187 186 182
246122.44409180 3357531.50585938 15.90307713 65 131 183
246120.97058105 3357533.42553711 13.68661785 202 203 197
246121.84997559 3357532.12561035 16.15071106 6 181 238
246120.05664063 3357532.70788574 15.89170074 32 156 216
246120.99316406 3357533.92669678 13.68641281 195 194 189
246120.35339355 3357532.13220215 16.00021362 81 191 216
246121.10278320 3357532.68237305 16.33469009 100 235 254
246123.35083008 3357533.00878906 15.60564899 64 64 54
246121.51025391 3357533.25305176 16.45040512 4 113 195
246120.41284180 3357532.56597900 16.11127281 49 222 252
246120.69274902 3357533.40148926 15.56709480 128 128 128
246121.65759277 3357532.36950684 15.55132103 128 128 128
246120.73254395 3357533.96130371 15.52787304 129 127 128
246122.87414551 3357532.19494629 15.67070198 136 164 203
246120.09826660 3357532.14776611 13.70312119 220 219 214
246121.17260742 3357532.08215332 13.71256351 215 214 212
246120.52331543 3357533.26940918 15.59323692 128 128 128
246121.35607910 3357531.79571533 13.76537323 194 193 191
246123.07385254 3357531.32598877 13.85634613 140 134 110
246120.75109863 3357532.82373047 15.60068226 128 128 128
246122.62097168 3357531.43170166 15.70959091 144 158 171
246120.25561523 3357532.72601318 13.65091133 203 202 197
246122.84606934 3357531.59124756 15.29867077 116 123 115
246122.96740723 3357532.00640869 15.46467209 118 118 126
246120.98388672 3357533.99743652 13.72148132 186 185 180
246121.02832031 3357534.01080322 15.50990582 128 128 128
246122.54602051 3357531.81799316 13.64516830 146 146 136
246120.10766602 3357532.84173584 15.67121029 138 164 189
246120.61267090 3357532.44201660 16.11560822 20 175 219
246120.02026367 3357532.47937012 15.85734463 58 163 218
246123.42492676 3357533.56628418 13.71354294 209 209 199
246122.40832520 3357532.38970947 16.00843811 23 149 207
246120.11621094 3357532.63323975 13.66081047 206 205 200
246120.52478027 3357533.21832275 13.67214680 195 194 189
246122.53784180 3357532.71203613 15.27882004 134 184 235
246121.50134277 3357531.76635742 15.65821362 128 128 128
246121.39501953 3357532.55010986 15.56070900 128 128 128
246122.09289551 3357531.49084473 13.67896366 220 219 215
246120.76464844 3357532.93682861 15.58856487 128 128 128
246120.47082520 3357534.05474854 15.57352448 169 192 200
246121.66857910 3357533.57556152 16.14645958 187 182 204
246123.00622559 3357533.81628418 15.54791641 81 92 75
246122.83264160 3357531.89331055 15.07269382 64 82 96
246123.62573242 3357533.17510986 14.69426250 57 69 49
246120.03112793 3357531.82275391 13.68374729 210 207 202
246123.26513672 3357531.49218750 13.89559078 159 157 144
246120.24926758 3357532.31744385 15.75201225 127 129 128
246123.14562988 3357533.01190186 15.76077461 162 177 196
246123.40368652 3357532.85723877 14.86904144 177 193 182
246122.42553711 3357531.77825928 15.40326786 87 142 181
246121.85400391 3357531.94873047 15.57290459 128 128 130
246122.09509277 3357532.45410156 13.66910934 167 166 162
246122.68566895 3357531.99963379 15.21258068 133 172 201
246123.12243652 3357531.25531006 13.86022568 135 129 103
246122.56311035 3357532.73211670 13.68456936 149 149 141
246121.46496582 3357531.57293701 15.76658535 148 171 185
246121.78002930 3357531.89172363 16.08563042 6 175 240
246121.98083496 3357533.68908691 15.58800888 128 128 128
246123.23059082 3357532.28283691 15.46586800 171 171 161
246121.80627441 3357533.72076416 16.03237152 220 239 255
246122.63220215 3357531.51525879 15.75093746 107 145 184
246122.29150391 3357532.76013184 16.12553787 180 160 188
246122.88269043 3357533.10858154 13.63267899 165 163 151
246120.73730469 3357531.82470703 15.82373810 66 154 225
246121.71301270 3357533.02923584 16.57102013 22 119 196
246122.56335449 3357532.34649658 13.69819450 149 148 143
246122.77697754 3357532.55798340 15.16161728 185 235 236
246121.03613281 3357533.51287842 16.12839508 6 196 248
246122.59973145 3357533.25872803 15.41809559 59 62 35
246122.19531250 3357532.02124023 16.05749702 31 159 230
246123.29846191 3357531.92419434 14.50783348 84 83 62
246122.31994629 3357532.32196045 15.42557621 127 206 249
246121.22863770 3357532.42364502 15.59078217 128 128 128
246120.52807617 3357533.17901611 15.59839153 127 129 128
246120.73095703 3357531.59613037 13.66449165 203 202 198
246120.30883789 3357531.77691650 13.68034267 206 205 201
246121.16149902 3357533.11773682 15.53534126 128 128 128
246120.56799316 3357532.00042725 15.76949692 126 161 181
246122.14831543 3357533.84136963 15.95071220 13 130 200
246120.55712891 3357531.48583984 13.66833210 219 216 211
246122.91662598 3357533.08251953 15.18604279 88 91 64
246120.39611816 3357532.38488770 13.63946915 191 190 186
246122.33532715 3357533.38366699 13.67088509 178 179 171
246123.41442871 3357532.55615234 14.77682400 93 108 103
246122.42675781 3357533.52270508 15.53690147 128 128 128
246121.69030762 3357532.28918457 16.21467400 5 174 241
246122.64294434 3357531.21569824 13.80739784 165 163 151
246122.45715332 3357532.65747070 13.67597103 148 148 140
246121.36743164 3357533.19403076 16.44262123 26 191 239
246122.82275391 3357531.06756592 13.83869171 127 122 90
246122.45764160 3357532.83648682 16.04108810 107 187 248
246121.10925293 3357532.46966553 13.66699123 214 213 211
246120.99877930 3357533.11132813 13.66422462 201 200 196
246123.52050781 3357533.63867188 14.87646008 66 72 46
246121.14843750 3357531.54931641 13.68787289 195 194 190
246122.41015625 3357532.43408203 15.35497952 157 226 255
246122.66259766 3357532.98535156 13.65611649 161 161 153
246122.70117188 3357531.30487061 13.80742836 147 145 133
246122.75769043 3357532.25531006 13.69879818 154 154 146
246121.59020996 3357531.72076416 13.80738068 204 203 199
246121.17321777 3357531.52813721 13.68797874 197 196 192
246121.19812012 3357531.51086426 13.68867970 192 191 187
246122.13513184 3357531.53680420 15.58475113 121 131 133
246120.36926270 3357532.43182373 15.70834541 128 128 128
246120.65368652 3357531.91711426 15.87318897 66 156 209
246123.32678223 3357533.35296631 15.03372192 75 79 52
246122.94775391 3357533.52874756 13.59136295 172 173 167
246123.30773926 3357531.59149170 14.13498497 129 136 142
246121.47741699 3357533.96875000 13.70006561 182 181 176
246122.77746582 3357532.38745117 13.69939995 155 154 149
246123.14294434 3357533.21984863 13.61139297 167 166 161
246122.63500977 3357531.61529541 15.34435081 127 142 147
246121.93383789 3357532.16253662 13.69057083 182 181 179
246121.78649902 3357533.83282471 15.58546543 128 128 128
246123.45812988 3357533.71362305 14.96331978 62 67 44
246122.96093750 3357532.96539307 15.86447716 21 147 223
246122.47509766 3357533.60156250 16.03650093 24 131 209
246120.77514648 3357532.00079346 15.99083328 20 168 216
246120.84191895 3357533.84838867 15.52338982 129 127 128
246120.61865234 3357533.52282715 13.66678905 213 214 208
246121.13818359 3357532.57495117 16.31385612 16 192 242
246120.91894531 3357531.77471924 15.91472149 19 150 204
246121.81433105 3357533.91223145 15.93353081 103 177 212
246122.09631348 3357531.91546631 13.65324974 202 201 197
246121.93798828 3357533.86163330 15.62785912 128 128 128
246120.38879395 3357533.91821289 13.66682529 197 196 192
246120.21252441 3357533.33050537 15.70569038 180 189 184
246120.41821289 3357532.42260742 15.70358086 128 128 128
246122.20947266 3357532.51873779 16.11291504 171 189 239
246122.81018066 3357531.76910400 15.62172699 173 192 199
246123.30529785 3357533.15496826 15.04836273 87 91 66
246121.54809570 3357534.21881104 15.86507320 14 153 218
246121.50549316 3357531.85772705 15.63385582 127 129 126
246120.54626465 3357533.15899658 13.66307831 189 188 183
246122.29077148 3357534.01257324 15.71744251 151 156 136
246123.24182129 3357532.93859863 13.73410320 187 187 175
246122.63012695 3357533.59967041 15.52500629 128 128 128
246120.51025391 3357532.61309814 15.65076828 128 128 128
246121.60949707 3357533.70153809 13.69853020 189 188 183
246121.76757813 3357532.47949219 15.52880001 128 128 128
246121.36975098 3357531.79254150 15.98497963 15 159 220
246122.54333496 3357531.57312012 15.41066265 106 128 139
246121.32458496 3357532.54211426 13.68950367 194 193 191
246120.75488281 3357532.64935303 13.63253975 211 210 205
246121.46350098 3357533.93420410 15.54181480 128 128 128
246121.04919434 3357531.73284912 15.76828194 174 205 233
246122.69934082 3357532.62829590 15.20010567 181 238 249
246122.82153320 3357533.60534668 15.97020817 9 130 213
246121.74743652 3357531.91406250 13.70264149 195 194 190
246122.58081055 3357532.00946045 13.66342735 144 144 136
246121.24682617 3357534.16217041 15.55523491 128 128 128
246120.54956055 3357532.34033203 16.07670593 22 180 225
246121.00476074 3357533.08563232 13.66162109 209 208 204
246120.92077637 3357534.06097412 13.75348377 193 192 187
246122.71264648 3357532.01495361 13.67713737 165 165 155
246121.38317871 3357533.36407471 16.35560226 10 120 195
246120.50805664 3357534.21820068 15.57167435 171 194 200
246120.44970703 3357533.59442139 13.67183495 207 208 202
246122.35412598 3357533.67401123 15.58343220 128 128 128
246121.97033691 3357533.59259033 16.08563614 138 73 115
246121.99414063 3357532.55743408 13.69099903 164 163 159
246121.74121094 3357532.48602295 13.70458221 176 175 171
246120.85156250 3357532.97241211 13.63282013 218 217 213
246121.19726563 3357532.89898682 16.39438057 90 232 252
246122.91577148 3357531.56237793 15.27399540 111 116 96
246121.22778320 3357531.81890869 13.73100853 189 189 187
246121.03991699 3357533.47076416 15.52610111 128 128 128
246120.33532715 3357533.21588135 15.61644077 128 128 128
246121.99414063 3357532.87457275 13.78026676 165 166 161
246120.93395996 3357533.92205811 15.97102356 14 163 205
246122.23376465 3357531.22082520 13.68566513 195 192 185
246123.66430664 3357533.50830078 15.50332165 24 30 18
246121.68481445 3357534.02618408 15.90524960 16 135 203
246122.68273926 3357531.48822021 15.65721416 228 228 230
246122.13830566 3357531.67779541 15.57029533 124 129 135
246122.75061035 3357532.63739014 13.68408203 155 155 147
246122.90124512 3357531.11132813 13.84531021 136 133 102
246121.50219727 3357533.71520996 13.71035957 196 195 190
246120.57287598 3357534.46484375 15.76162910 95 221 246
246122.57678223 3357531.70062256 13.66623783 171 171 163
246120.21313477 3357532.74798584 16.00286674 3 172 241
246121.42907715 3357531.85650635 16.01740456 29 161 210
246121.74340820 3357532.68017578 13.77113914 185 184 180
246123.00610352 3357531.27062988 13.85962296 134 130 101
246122.21032715 3357533.74664307 15.99443245 14 129 209
246122.05883789 3357533.74945068 15.99442959 7 95 166
246120.84838867 3357532.91015625 16.19322014 140 208 227
246121.88012695 3357532.61242676 13.73184490 182 181 177
246123.28881836 3357532.20947266 14.71042156 66 77 69
246122.39697266 3357533.88555908 15.91808796 51 168 221
246121.02990723 3357531.58422852 13.67764854 208 207 203
246121.97912598 3357533.85418701 15.94620132 66 128 179
246121.74023438 3357532.79400635 13.78499222 185 184 180
246120.65222168 3357532.26641846 13.65596390 204 203 199
246120.63073730 3357533.18286133 13.65695000 179 178 173
246121.06384277 3357533.48101807 16.14735794 11 198 251
246123.26928711 3357533.69342041 15.12193871 58 64 52
246122.98498535 3357533.27368164 15.25268269 71 74 47
246121.41076660 3357532.25653076 13.69928646 186 185 181
246123.04858398 3357531.51098633 14.81173706 122 126 112
246122.99987793 3357531.54919434 15.17690372 104 110 72
246121.01599121 3357533.41168213 16.13044930 31 182 227
246121.93579102 3357533.08099365 15.45588303 128 128 130
246122.43933105 3357532.20898438 15.35537624 183 242 255
246123.29821777 3357532.60968018 13.86601543 117 118 84
246120.54162598 3357531.56884766 13.66898441 220 216 213
246123.28955078 3357532.17114258 13.95111179 112 109 74
246122.17529297 3357533.79272461 15.63799191 128 128 128
246123.34008789 3357531.81298828 14.31014919 65 62 45
246121.28063965 3357531.86712646 15.67913723 128 128 128
246122.35876465 3357533.65216064 15.57759857 128 128 128
246122.09948730 3357534.14300537 15.87210274 107 202 224
246121.65576172 3357533.29760742 15.47189999 128 128 128
246120.89855957 3357532.39123535 15.62856102 128 128 128
246121.23742676 3357532.01135254 13.72722721 212 211 209
246123.32739258 3357533.57952881 15.02445126 60 65 45
246120.22790527 3357532.64508057 16.04799461 7 179 245
246120.73669434 3357533.04760742 15.58458519 128 128 128
246122.22424316 3357532.38421631 16.08132362 44 154 217
246120.36059570 3357532.92932129 16.00576210 6 180 241
246121.46130371 3357533.77038574 16.05088997 19 129 216
246122.36096191 3357532.10406494 15.41727352 152 210 250
246120.56677246 3357533.29974365 15.91182423 203 255 255
246122.52746582 3357532.96356201 13.68593121 176 175 170
246120.39440918 3357532.66656494 13.63902569 201 200 196
246122.89331055 3357532.16009521 15.03769970 89 105 102
246122.01379395 3357534.05792236 15.89279842 32 169 213
246123.39404297 3357533.13793945 15.60834789 63 58 54
246120.62109375 3357532.90539551 15.60610867 128 128 128
246120.56970215 3357533.88934326 15.86565113 5 189 249
246122.56567383 3357532.85156250 13.67992020 153 153 145
246121.25390625 3357532.18847656 15.61168671 128 128 128
246123.37145996 3357531.98437500 14.03342438 123 127 113
246120.97863770 3357531.52496338 13.66983414 208 207 203
246120.20861816 3357532.44476318 13.65247631 210 211 205
246123.69970703 3357532.85382080 14.18290520 99 103 66
246123.34094238 3357531.95654297 14.49646664 83 82 61
246122.85754395 3357533.67749023 13.60011005 159 160 154
246120.76037598 3357533.18212891 16.03289604 224 233 250
246122.33166504 3357533.82495117 15.62247276 128 128 128
246120.76770020 3357532.06610107 16.01271629 29 177 223
246121.92187500 3357533.61419678 15.55322552 128 128 128
246122.82360840 3357531.95770264 15.06080914 71 88 104
246123.05725098 3357533.03527832 15.83356571 112 166 213
246121.44287109 3357532.49414063 16.31501389 3 172 237
246123.64648438 3357533.13037109 13.99362469 101 104 57
246122.49133301 3357531.54418945 13.68194103 176 173 164
246123.65588379 3357533.37628174 14.60557938 68 76 37
246123.14221191 3357531.69073486 14.55612755 88 87 66
246122.29565430 3357532.29974365 13.68158150 157 156 152
246123.05004883 3357531.46697998 15.22266102 96 103 61
246120.13659668 3357532.31878662 13.65699959 203 204 198
246120.21081543 3357532.36059570 16.03004074 40 185 238
246121.67065430 3357532.48199463 13.70215225 181 180 176
246120.73095703 3357532.18951416 13.66817284 216 215 213
246121.85278320 3357531.25750732 13.67756939 186 185 180
246120.40478516 3357532.41400146 13.63718319 188 187 183
246121.40673828 3357532.65020752 13.69872952 206 205 201
246120.71911621 3357533.00323486 15.58920956 128 128 128
246123.07373047 3357533.68444824 15.31953430 68 75 68
246123.25769043 3357533.34368896 15.76695538 0 68 127
246121.40966797 3357532.80029297 13.70092773 207 206 202
246120.46154785 3357533.24481201 13.67932796 190 189 185
246122.86608887 3357531.06494141 13.84004307 134 131 98
246120.20776367 3357532.44226074 13.65253067 210 211 205
246122.44274902 3357531.37603760 15.58827591 94 131 158
246122.20764160 3357532.00354004 13.67062664 170 169 165
246122.61096191 3357532.98571777 15.99877071 16 138 211
246121.87536621 3357533.13452148 16.42010117 6 90 176
246122.57104492 3357533.91882324 15.72893143 148 160 148
246121.83886719 3357533.46057129 13.66270351 186 185 180
246122.78088379 3357532.20251465 15.14344597 87 108 109
246123.52893066 3357533.03875732 14.82759953 69 79 71
246122.98693848 3357533.29272461 15.89589787 9 151 227
246121.42968750 3357533.41418457 15.48848343 128 128 128
246120.46826172 3357534.06848145 15.75660706 33 187 241
246120.35937500 3357532.45098877 15.70630264 128 128 128
246122.65368652 3357532.11553955 13.67646694 162 162 152
246120.13940430 3357531.69091797 13.68200016 223 220 215
246121.66333008 3357533.84674072 15.98040676 11 119 184
246121.01660156 3357532.20611572 16.08703041 66 184 224
246120.57397461 3357532.94732666 13.63472843 193 190 185
246121.55212402 3357532.67791748 15.53146553 128 128 128
246123.05639648 3357531.58709717 13.82921696 147 143 118
246122.36022949 3357531.85784912 15.43957615 107 160 210
246120.82189941 3357533.42358398 16.02490425 121 205 239
246120.87158203 3357532.68347168 13.63512802 197 198 193
246121.71655273 3357533.91491699 13.64733124 167 166 161
246120.44152832 3357533.39166260 13.67944908 210 209 205
246120.26354980 3357532.64019775 13.64969254 204 203 199
246121.54113770 3357532.31835938 16.22812462 77 187 220
246120.42456055 3357533.78149414 15.57163906 124 128 131
246121.07836914 3357533.12359619 16.25163460 113 209 234
246120.99670410 3357533.92913818 13.68766499 195 194 189
246122.32006836 3357533.47497559 16.12038994 16 119 198
246122.95764160 3357532.35217285 13.74425793 160 157 152
246122.59082031 3357532.81542969 13.67989254 151 151 143
246120.27209473 3357532.78973389 15.65586090 128 128 126
246121.72827148 3357533.39221191 16.26514053 26 108 190
246121.72448730 3357532.28863525 15.55242252 128 128 128
246120.18920898 3357532.64868164 13.65541744 201 200 195
246120.84008789 3357533.77008057 15.52847576 128 128 128
246123.42102051 3357533.43432617 14.91538525 66 70 45
246122.67150879 3357531.84893799 15.23906136 87 115 137
246120.39916992 3357532.16577148 16.01127625 51 180 211
246120.16149902 3357532.31805420 15.76799393 127 127 125
246123.07763672 3357533.44598389 15.29878807 77 81 54
246122.56311035 3357531.48937988 15.82359219 65 121 168
246122.88867188 3357533.23223877 15.92606640 9 146 226
246123.20080566 3357532.30841064 15.48237419 164 163 161
246122.46765137 3357533.15051270 16.08691978 14 131 210
246122.58471680 3357532.62902832 15.96206093 128 210 248
246120.01989746 3357532.29321289 15.77581406 122 169 197
246120.99243164 3357534.17535400 15.89834309 26 147 202
246120.85351563 3357533.62463379 15.53615856 128 128 128
246122.81164551 3357532.73486328 15.14878559 175 228 246
246121.66516113 3357533.16369629 16.49467468 11 103 188
246120.34484863 3357532.64965820 15.67365837 128 128 128
246120.16296387 3357532.34826660 15.99546432 43 180 232
246121.26257324 3357533.96606445 13.73757172 196 195 190
246121.65222168 3357531.62817383 15.97588444 12 168 242
246122.69262695 3357533.50195313 16.03408623 36 146 223
246120.84082031 3357534.00030518 13.70385361 201 200 195
246121.23144531 3357532.08020020 16.07187653 168 194 207
246120.51403809 3357534.38647461 15.71576691 45 140 168
246123.28356934 3357531.71118164 13.95570087 172 186 186
246122.07214355 3357533.42871094 16.17765045 17 105 195
246120.49108887 3357531.50762939 13.66964436 214 213 209
246120.78198242 3357532.32043457 13.65530682 214 213 209
246120.29296875 3357531.97784424 13.68392849 207 206 201
246120.95434570 3357532.50250244 16.20861244 34 207 249
246121.53234863 3357532.84436035 13.73301888 183 182 178
246121.65527344 3357531.54870605 15.71627045 197 174 190
246123.63903809 3357533.44561768 15.51247597 28 33 27
246123.30383301 3357533.34722900 13.66478443 147 146 141
246121.50610352 3357533.37011719 16.34246254 10 119 201
246120.34167480 3357532.51831055 16.09243202 49 219 254
246120.23217773 3357532.13391113 15.90314293 156 189 194
246120.94262695 3357532.83984375 15.57902527 128 128 128
246123.75549316 3357533.48156738 14.43002033 91 98 56
246120.68737793 3357533.91479492 15.89515686 15 202 253
246122.41357422 3357531.99865723 15.39129639 99 150 197
246122.48596191 3357533.22814941 16.09140396 16 131 211
246122.38940430 3357532.94573975 16.09497643 27 130 199
246120.05273438 3357532.50683594 15.72292042 50 145 193
246123.08862305 3357532.41790771 13.79433823 159 156 137
246122.80712891 3357531.54541016 15.35724354 131 138 131
246121.06872559 3357531.57275391 13.68099499 205 204 200
246122.77355957 3357531.26177979 13.82837868 150 148 125
246120.95373535 3357533.38024902 13.68223286 202 203 197
246122.29211426 3357531.70928955 15.49851036 97 163 211
246123.02575684 3357532.15100098 13.83232212 149 148 128
246121.18347168 3357533.68328857 13.71324444 196 195 190
246120.94421387 3357533.56134033 16.07286453 15 201 250
246121.98535156 3357533.27093506 15.46904373 128 128 128
246123.20288086 3357531.73254395 13.89335155 153 157 143
246123.02563477 3357531.47875977 15.27204132 99 105 67
246121.18371582 3357531.35815430 13.67739201 188 187 183
246122.47546387 3357532.04797363 15.95111275 26 173 227
246122.42211914 3357532.71356201 15.33402538 126 178 238
246121.11157227 3357532.68487549 16.33873749 94 233 252
246123.41467285 3357532.36950684 14.66747761 63 78 71
246122.94873047 3357533.73803711 15.50732231 79 86 68
246121.98291016 3357532.53845215 13.69468307 164 163 159
246122.86779785 3357532.62231445 15.11968422 184 234 235
246122.85620117 3357532.23364258 15.09648228 90 111 106
246121.81677246 3357533.40679932 13.67016220 191 190 185
246121.26721191 3357532.03167725 16.05916977 164 194 220
246120.81201172 3357533.41156006 13.67634201 201 202 196
246121.02319336 3357531.76501465 15.76412010 167 200 233
246121.25646973 3357533.40521240 15.50733757 128 128 128
246122.87561035 3357532.15600586 15.60712051 121 145 179
246122.20434570 3357533.02178955 16.21800995 11 117 191
246122.91943359 3357533.72686768 15.52122498 82 88 62
246121.39331055 3357532.46728516 13.70438385 193 192 190
246123.72814941 3357533.36383057 14.46596432 86 93 52
246123.06066895 3357530.86578369 13.82758999 134 124 97
246121.36938477 3357534.17492676 15.87891197 7 143 219
246121.38476563 3357533.83990479 15.50974083 128 128 128
246121.69079590 3357532.90447998 16.59714127 8 109 177
246123.21020508 3357532.22680664 15.45238304 171 171 159
246121.30712891 3357531.92266846 15.65922165 128 128 128
246120.42614746 3357532.68084717 13.63649178 201 200 196
246120.64941406 3357534.28112793 15.80395699 21 205 255
246120.53417969 3357531.91925049 13.67494392 204 203 199
246121.37902832 3357533.29528809 15.50125885 128 128 128
246123.37597656 3357532.49035645 13.90454674 117 117 81
246122.90344238 3357531.36608887 13.83953285 124 120 91
246121.78381348 3357532.91912842 16.52362633 3 114 185
246122.79956055 3357533.49194336 15.44706440 69 74 44
246121.40771484 3357531.62640381 13.76394844 209 205 204
246120.16955566 3357532.75555420 13.65766335 198 197 192
246121.47180176 3357533.39013672 16.33465767 14 119 200
246122.67773438 3357533.71594238 13.59076309 145 146 140
246122.49951172 3357533.60260010 16.03148270 26 132 210
246122.98828125 3357532.88372803 15.84356785 37 145 209
246122.15270996 3357531.25292969 13.68375111 184 181 174
246123.10705566 3357533.47357178 15.27927494 75 79 52
246121.55603027 3357532.65588379 16.41602325 0 164 235
246121.95336914 3357534.09844971 15.88591766 25 162 208
246123.11645508 3357531.90704346 14.76852036 75 79 65
246122.39416504 3357533.41448975 13.66090393 177 176 171
246122.97644043 3357533.01654053 13.64059734 155 154 149
246123.37902832 3357532.69079590 13.88145065 112 116 81
246121.52624512 3357533.53216553 16.20163727 32 110 195
246121.52758789 3357531.55297852 15.75933266 132 162 190
246122.55395508 3357531.49230957 15.83610916 58 116 166
246120.59875488 3357533.25585938 13.66829777 190 189 184
246122.50793457 3357532.33911133 15.29770088 184 244 255
246122.65576172 3357532.52239990 15.21871185 182 239 246
246123.23620605 3357533.57434082 15.83565426 22 139 218
246121.51855469 3357532.43786621 15.55902100 128 128 128
246122.85693359 3357532.48706055 15.84149075 164 225 255
246120.29516602 3357533.67626953 15.70053577 183 203 204
246122.68957520 3357532.46014404 15.20129871 187 237 238
246121.24291992 3357531.45935059 13.68748951 210 209 205
246120.46374512 3357533.84332275 15.84449196 57 177 240
246121.97155762 3357531.64581299 15.59094048 128 128 128
246122.44470215 3357531.91094971 15.94795322 29 172 230
246123.34301758 3357533.56701660 15.76367855 0 67 126
246121.58959961 3357532.83538818 16.56484795 85 187 227
246123.33422852 3357532.49438477 13.89376831 114 116 79
246122.02612305 3357532.42291260 16.19034767 15 161 220
246122.01062012 3357533.24676514 16.28234482 19 108 192
246121.26000977 3357532.16119385 16.10598755 248 229 249
246121.21752930 3357533.47729492 13.70040035 191 192 186
246119.99548340 3357532.73962402 15.79221535 116 177 208
246120.24597168 3357532.48345947 16.05371284 26 196 248
246122.03613281 3357533.18182373 13.73952484 180 181 175
246122.66552734 3357531.62530518 15.75991440 55 131 181
246120.35534668 3357532.98126221 13.65759945 204 203 198
246122.78503418 3357532.48095703 13.69293594 152 153 145
246123.11267090 3357533.53680420 13.60439873 166 163 158
246122.64221191 3357532.86956787 15.23231602 121 168 210
246120.23730469 3357533.33886719 15.82697964 87 163 195
246121.12695313 3357533.39208984 15.52182293 128 128 128
246121.84533691 3357533.03259277 16.48173714 17 109 186
246121.32678223 3357531.68579102 15.93899727 13 166 226
246120.25195313 3357532.98931885 15.93672085 6 150 223
246120.68029785 3357533.18463135 15.99075890 198 230 255
246121.60107422 3357531.34063721 13.67722607 207 203 200
246121.11828613 3357534.11047363 15.53256798 113 133 144
246121.14025879 3357531.93963623 15.69026566 128 128 128
246122.70849609 3357532.31286621 15.88052559 89 186 228
246122.60913086 3357531.82562256 15.87415791 83 197 249
246121.68237305 3357533.55957031 15.48770618 128 128 128
246120.71093750 3357533.23419189 13.65393639 193 194 188
246121.16882324 3357532.27514648 13.69285107 208 207 205
246121.57019043 3357532.31024170 13.70557880 202 201 197
246120.93725586 3357531.43591309 13.67372417 210 206 203
246120.50573730 3357532.18786621 15.73300266 128 128 128
246122.30053711 3357531.21105957 13.70093060 191 188 181
246122.99255371 3357532.70581055 13.69225311 154 154 146
246120.88525391 3357531.54748535 13.66802311 209 205 202
246121.32983398 3357531.72998047 13.76348877 204 203 201
246120.88879395 3357533.00701904 15.57106209 128 128 128
246121.19079590 3357531.74975586 15.94575977 21 165 225
246120.87573242 3357532.80999756 13.62639713 217 216 211
246122.58825684 3357531.73944092 13.65877724 161 161 153
246121.36914063 3357533.98291016 15.53453732 128 128 128
246121.17370605 3357531.82519531 15.96876717 20 155 203
246121.60998535 3357533.08166504 15.49023533 128 128 128
246122.59411621 3357531.72784424 15.83691025 53 173 233
246122.41467285 3357533.43273926 15.51740456 129 129 129
246121.38195801 3357532.09643555 13.72257996 193 192 190
246121.31591797 3357533.21582031 15.51289558 128 128 128
246122.64270020 3357532.17346191 13.68464088 164 164 156
246122.59179688 3357532.81811523 13.67949295 152 152 144
246122.97619629 3357532.44683838 13.72237206 162 158 155
246120.36340332 3357532.08026123 15.85091114 165 177 175
246120.91784668 3357532.54553223 15.61109257 128 128 128
246122.18164063 3357531.48736572 13.67141438 219 218 213
246121.05773926 3357532.05572510 16.03747749 46 163 198
246122.25305176 3357534.07244873 15.74670410 138 191 195
246121.59997559 3357533.51098633 15.47373867 128 128 128
246122.54162598 3357533.07653809 15.35143757 76 80 55
246120.55957031 3357532.01818848 15.98076630 67 178 208
246120.75903320 3357533.88616943 15.52977085 128 128 126
246121.30529785 3357533.62023926 16.18470573 7 105 194
246120.51062012 3357532.37615967 16.07915306 10 168 213
246121.14611816 3357532.03411865 16.04237747 188 228 238
246122.64306641 3357531.75372314 15.81783676 52 153 207
246120.58947754 3357533.36639404 13.67178726 203 204 198
246122.15441895 3357532.03979492 16.07554054 30 154 226
246123.00122070 3357533.68872070 15.93787861 30 155 235
246120.13171387 3357532.68078613 13.65998554 196 195 190
246123.01159668 3357531.54193115 15.15606499 107 115 76
246121.52575684 3357531.58349609 15.90030479 18 151 226
246121.87719727 3357531.80737305 13.67951965 184 183 179
246121.00915527 3357532.94635010 16.27670288 97 211 238
246120.64514160 3357533.65557861 15.92738152 2 182 243
246122.44201660 3357531.97418213 15.37434959 112 160 206
246120.86889648 3357532.37396240 15.63617229 128 128 128
246120.55786133 3357533.14678955 15.59726810 128 128 128
246123.62402344 3357533.31768799 14.68324566 65 74 43
246121.23791504 3357533.19079590 16.34801674 4 195 249
246122.58789063 3357533.01794434 16.01387215 13 136 213
246121.18225098 3357534.24572754 15.54820728 128 128 128
246122.01245117 3357533.77557373 15.98444748 17 97 166
246123.28186035 3357533.19580078 15.70846462 46 76 102
246121.75964355 3357532.00482178 15.57716751 128 128 128
246123.43518066 3357532.65405273 13.90732288 121 125 88
246122.36499023 3357531.58001709 13.66438580 177 174 165
246120.31359863 3357533.24725342 15.87177372 2 120 181
246121.71850586 3357532.90148926 15.49166489 128 128 128
246120.96606445 3357533.84716797 13.67184353 196 195 190
246121.34533691 3357534.25024414 15.58286667 128 128 128
246122.25170898 3357531.70574951 15.98374939 13 140 211
246121.80664063 3357532.21563721 13.69850063 195 194 190
246122.27221680 3357531.26440430 13.68601227 187 184 177
246122.00036621 3357531.60662842 15.59344864 123 129 129
246121.80676270 3357533.11907959 15.46711826 128 128 128
246122.45520020 3357531.53735352 15.89796352 68 154 215
246121.40356445 3357533.92749023 15.52638721 128 128 128
246120.80493164 3357534.33721924 15.48591709 133 171 208
246122.02148438 3357533.69567871 15.59903526 128 128 128
246122.93957520 3357533.85321045 15.71332836 84 135 162
246122.72460938 3357531.62506104 15.68864346 188 200 214
246123.27307129 3357532.00128174 13.95729733 129 132 105
246121.86279297 3357532.63037109 15.50372410 128 128 128
246123.22619629 3357531.87713623 13.91706657 149 152 133
246121.41455078 3357532.39556885 13.70325375 180 179 175
246123.49401855 3357533.10766602 15.53095150 48 48 38
246123.34619141 3357532.47381592 14.80099297 71 86 81
246123.62011719 3357533.06140137 14.71240902 61 74 64
246122.82214355 3357531.50494385 15.50246525 164 163 158
246121.87292480 3357531.48327637 15.71125031 91 138 166
246123.03857422 3357531.49786377 15.11252022 118 124 86
246121.38317871 3357533.86010742 13.71759033 183 182 177
246122.87805176 3357532.95721436 13.65160275 156 156 144
246120.13403320 3357531.80029297 13.68304253 223 222 217
246120.51354980 3357532.87976074 13.63159466 190 189 185
246121.03149414 3357532.54998779 16.26570702 48 207 246
246120.93701172 3357533.05682373 13.65152645 217 216 211
246122.81970215 3357533.25628662 13.61672211 173 170 161
246123.46997070 3357532.59497070 14.74232101 95 110 105
246121.14709473 3357533.76000977 15.49668121 128 128 128
246122.96142578 3357531.68243408 13.81107044 148 147 129
246123.18640137 3357531.44671631 14.51916409 87 86 82
246122.04968262 3357533.57885742 13.61921883 167 168 162
246123.35681152 3357533.49340820 14.98482037 65 69 42
246121.82312012 3357533.79791260 13.65392590 186 185 180
246122.93237305 3357532.05389404 15.50010395 113 120 139
246123.39392090 3357532.25891113 14.63243771 57 68 64
246120.91723633 3357532.69561768 15.59612751 128 128 128
246123.33154297 3357533.16778564 13.71046066 182 182 170
246122.21301270 3357532.58044434 13.64498138 168 167 162
246120.63598633 3357534.32678223 15.80370617 20 201 248
246121.38403320 3357534.12164307 15.57769775 128 126 129
246122.97094727 3357533.62945557 15.95335960 33 166 243
246122.93688965 3357533.59527588 15.95835590 32 165 242
246121.80993652 3357532.78674316 15.49358368 128 128 128
246120.26220703 3357533.26641846 15.85725021 33 137 192
246122.27929688 3357533.66564941 15.59253693 128 128 128
246122.91357422 3357531.58154297 15.49958515 168 168 158
246123.27868652 3357532.56634521 15.53631973 54 55 47
246122.88586426 3357533.81317139 15.83616066 69 171 233
246120.33007813 3357533.97143555 13.66507530 196 195 191
246121.68615723 3357533.30871582 16.34793472 17 120 199
246122.22546387 3357531.76000977 13.65440750 178 177 173
246122.00341797 3357532.40576172 15.51150131 128 128 128
246122.20788574 3357531.51336670 15.57242393 80 133 164
246121.71203613 3357532.89599609 15.49290085 128 128 128
246123.04113770 3357531.77246094 15.42796040 158 160 139
246122.07556152 3357533.71240234 16.01231766 29 103 176
246121.32458496 3357532.95697021 13.68020248 198 197 193
246123.37243652 3357533.60302734 15.75064850 0 51 109
246123.63513184 3357533.40600586 14.63644314 68 76 39
246121.49853516 3357533.40686035 16.31346893 15 122 204
246123.64038086 3357532.78857422 14.01655960 104 109 69
246122.53112793 3357533.38409424 13.67554665 171 172 166
246123.16552734 3357532.71350098 15.64421272 38 49 55
246122.40002441 3357532.28802490 15.37479305 165 233 254
246120.92614746 3357533.77246094 15.51923180 128 128 128
246120.97229004 3357531.47711182 13.67205238 207 206 202
246122.53247070 3357531.55340576 13.69409180 177 174 169
246123.64208984 3357533.77081299 15.67685699 37 42 35
246122.27050781 3357531.71337891 15.98090172 13 140 211
246120.46069336 3357533.13476563 13.66742992 196 195 190
246120.49035645 3357533.36437988 15.89200497 42 169 214
246122.60693359 3357533.58807373 15.52568245 128 128 126
246121.26000977 3357533.67651367 13.71198654 185 184 179
246121.52465820 3357534.18957520 15.61582184 128 128 128
246122.63159180 3357532.38146973 13.69780350 156 155 150
246121.05541992 3357532.75701904 16.33157539 93 222 243
246120.23071289 3357532.56726074 13.65170193 209 208 203
246123.03222656 3357531.66778564 15.45333958 120 117 86
246122.19604492 3357531.78576660 13.65289116 169 168 164
246120.97094727 3357531.88079834 15.72588062 118 130 142
246122.12011719 3357531.21881104 13.68335152 184 181 174
246122.47570801 3357532.70684814 15.30831909 129 180 233
246123.05505371 3357533.60949707 15.91993332 11 151 226
246120.49560547 3357531.96704102 13.67687702 200 199 195
246120.52160645 3357533.13568115 15.60179710 128 128 128
246120.97937012 3357533.28741455 16.13698387 230 225 247
246122.13525391 3357531.66662598 15.57173157 124 129 135
246121.45312500 3357533.10815430 16.54728127 23 173 232
246122.94323730 3357532.23004150 13.77640533 153 153 143
246122.02270508 3357533.69262695 16.02765465 135 171 229
246121.29846191 3357532.76330566 13.68013763 206 205 201
246123.60144043 3357532.75207520 13.97587490 109 114 73
246121.22900391 3357531.74841309 15.94857979 6 157 214
246120.87170410 3357533.43994141 15.54578304 128 128 128
246122.78295898 3357531.81323242 15.66050816 175 197 210
246123.30456543 3357533.82556152 15.83124447 119 200 255
246122.26757813 3357531.99981689 15.48925304 124 185 239
246121.00000000 3357533.21093750 16.17234230 216 157 177
246122.16162109 3357533.77215576 13.61206436 160 159 154
246122.21093750 3357531.40423584 15.88264847 23 144 199
