246073.50146484 3357569.72180176 16.06398773 170 189 193
246073.86877441 3357568.88555908 16.22540283 155 181 204
246073.69226074 3357566.87939453 13.84704208 160 167 173
246072.57385254 3357567.64886475 15.89618301 128 128 128
246073.57690430 3357567.32763672 15.94166660 128 128 128
246073.89013672 3357568.58599854 13.85792065 169 172 177
246073.52392578 3357568.98565674 16.32866478 122 167 196
246072.84460449 3357569.31274414 16.18078995 0 177 239
246072.04833984 3357568.02954102 16.25019264 89 195 221
246072.90100098 3357568.36334229 13.92393970 164 168 169
246073.66577148 3357568.35656738 13.83189392 170 175 179
246072.16906738 3357568.77307129 16.19723511 9 178 235
246072.82800293 3357568.67956543 13.98217487 161 162 166
246073.90368652 3357568.35150146 16.37978363 22 126 197
246074.16125488 3357567.84222412 13.82056808 145 150 154
246071.97021484 3357569.12030029 15.91116810 16 95 154
246074.09265137 3357567.86645508 15.93108559 128 128 128
246074.08215332 3357567.29071045 13.84927654 148 153 157
246072.43212891 3357567.82757568 15.89815712 128 128 128
246072.41308594 3357567.87896729 15.89761066 128 128 128
246073.84094238 3357568.83020020 15.83341503 128 128 128
246073.63647461 3357567.20196533 16.16616058 65 124 142
246071.93090820 3357568.00976563 15.91843224 128 128 128
246073.42919922 3357568.69891357 15.82133961 128 128 128
246073.18151855 3357568.37640381 13.89608955 172 178 178
246071.86340332 3357568.34356689 15.90838814 128 128 128
246072.97412109 3357569.27337646 13.88467884 145 147 146
246072.74438477 3357569.16839600 16.20834923 54 166 214
246072.63610840 3357568.76843262 15.85735130 128 128 128
246074.47900391 3357567.73187256 16.08738327 157 181 191
246073.18627930 3357567.15209961 16.22650146 31 160 199
246073.35083008 3357566.66900635 13.85786724 167 170 175
246073.24536133 3357567.98626709 16.60488892 7 176 235
246074.26098633 3357568.15063477 16.30600166 29 135 195
246072.99694824 3357569.17517090 13.90540600 154 158 159
246072.44042969 3357568.54510498 15.87644482 128 128 128
246072.58459473 3357569.06536865 16.20096207 153 203 236
246072.46862793 3357569.36029053 16.06188202 30 178 238
246073.90026855 3357567.64562988 13.83765697 175 178 185
246073.25939941 3357568.27301025 13.85726738 189 194 197
246073.79846191 3357567.64239502 13.84162045 165 168 173
246073.83837891 3357568.63409424 16.31398010 188 62 74
246071.98730469 3357568.24389648 15.90862274 128 128 128
246074.21008301 3357567.81237793 16.24055481 26 148 225
246074.32739258 3357568.58581543 16.15471077 35 151 198
246072.76989746 3357568.47357178 16.52334976 21 191 253
246071.76562500 3357568.67651367 16.08341980 85 181 219
246074.07836914 3357568.22351074 16.35468102 32 134 200
246074.18164063 3357567.95916748 15.92929935 128 128 128
246073.24072266 3357569.21649170 13.90820980 166 169 174
246073.32495117 3357568.64495850 15.82827187 128 128 128
246074.05944824 3357569.18286133 16.06616592 162 204 202
246073.31811523 3357569.69616699 16.13171196 108 191 225
246072.63745117 3357568.35748291 16.53526497 31 189 237
246072.49401855 3357568.93157959 13.88091373 109 128 142
246075.02709961 3357568.23876953 13.81559086 202 206 209
246073.20690918 3357569.78723145 16.03261757 121 187 209
246072.46972656 3357568.34387207 16.47924423 76 212 254
246073.06933594 3357567.04602051 16.23130798 78 174 196
246073.36193848 3357567.52929688 13.83545113 176 177 182
246073.93872070 3357568.60119629 16.28507996 167 117 146
246074.33251953 3357567.42999268 13.84273148 151 156 160
246072.96484375 3357567.89318848 16.53428650 40 226 241
246072.66003418 3357568.78674316 16.34449196 230 207 223
246074.39294434 3357568.94421387 13.80738354 164 169 175
246073.95104980 3357568.60693359 16.27836609 137 87 114
246072.64233398 3357568.54626465 15.86614227 128 128 128
246072.29565430 3357568.52545166 15.88280869 128 128 128
246072.24609375 3357568.94757080 16.14695358 36 171 226
246072.81762695 3357567.00158691 15.90283680 127 129 128
246073.12341309 3357568.64959717 13.96722698 174 178 181
246073.21813965 3357567.46984863 13.83268642 139 140 144
246072.10461426 3357568.27191162 15.90178871 128 128 128
246072.02612305 3357567.67645264 16.13935089 167 209 221
246072.50366211 3357568.55279541 15.87305355 128 128 128
246074.00732422 3357569.00164795 15.86252117 115 168 172
246073.82739258 3357567.88641357 16.36668777 23 131 221
246072.45068359 3357567.91510010 13.84267235 171 175 176
246073.67602539 3357567.32769775 16.21435928 142 170 192
246074.17797852 3357567.67132568 13.82341766 142 147 151
246073.97656250 3357568.92626953 16.17195702 149 178 194
246072.90539551 3357568.04669189 15.86744022 128 128 128
246072.68249512 3357568.03387451 15.87923717 128 128 128
246071.84973145 3357568.61962891 15.89417076 129 127 128
246073.29614258 3357567.66387939 16.39932442 0 167 235
246072.57116699 3357567.51696777 16.28799438 189 219 219
246072.20507813 3357568.21545410 15.89831448 128 128 128
246073.38061523 3357566.84692383 13.84987736 144 149 153
246073.99816895 3357569.26287842 13.92846870 164 168 171
246072.96569824 3357568.89605713 15.83843994 128 128 128
246073.24645996 3357568.35192871 16.76659775 7 103 187
246072.92480469 3357567.66192627 13.84279633 151 152 156
246073.00610352 3357567.16729736 16.27880859 116 204 214
246072.52600098 3357568.84124756 16.27745056 162 186 210
246072.78637695 3357568.04302979 15.87364769 128 128 128
246073.89709473 3357568.57757568 15.85416508 128 128 128
246073.45898438 3357569.51330566 16.16558647 127 174 202
246071.76770020 3357568.30780029 13.86205482 190 187 182
246074.13122559 3357567.85479736 16.26770210 29 143 229
246072.76733398 3357567.91113281 16.47701645 157 240 244
246073.62390137 3357568.01562500 16.48392296 29 131 216
246074.05944824 3357568.62219238 16.23066521 44 111 166
246071.89807129 3357568.25360107 16.27691841 94 197 212
246073.93029785 3357568.33349609 13.79506493 156 161 164
246072.22814941 3357568.06896973 16.33557701 62 214 237
246072.74133301 3357568.47174072 13.95573711 155 159 162
246072.58471680 3357567.88092041 16.39734650 231 208 226
246073.46630859 3357567.21508789 15.94747353 127 129 128
246073.46984863 3357566.99389648 13.84219646 142 150 153
246073.81396484 3357569.25976563 15.86775970 123 171 173
246071.93542480 3357568.60406494 13.89919853 178 175 170
246073.33691406 3357567.75299072 16.41885376 0 166 237
246073.77832031 3357569.28796387 16.13789749 140 178 189
246073.08105469 3357568.54193115 16.57756042 42 148 226
246073.73547363 3357568.19281006 16.47609901 40 126 203
246071.64855957 3357568.36132813 16.15431213 102 199 218
246073.32031250 3357567.49932861 15.90714169 128 128 128
246074.05725098 3357568.46539307 13.80082703 180 184 187
246072.13073730 3357568.89349365 13.93516064 122 120 123
246072.94799805 3357567.06121826 13.84006023 156 161 167
246074.44763184 3357567.50549316 13.85019588 157 162 166
246073.63391113 3357567.86767578 16.41207123 29 129 214
246073.83984375 3357568.95947266 14.00538445 165 168 173
246072.19909668 3357568.67858887 16.25020409 6 176 237
246073.43505859 3357568.77532959 15.81877613 128 128 128
246074.87329102 3357568.39416504 13.83622169 199 200 204
246073.14611816 3357566.70623779 13.85264587 174 177 182
246072.90087891 3357569.34106445 13.89451694 144 144 142
246073.03625488 3357567.73724365 15.86988926 128 128 128
246073.40612793 3357569.24029541 16.27881241 113 165 204
246073.72058105 3357568.50836182 13.85967445 175 179 182
246074.49353027 3357567.82489014 13.84041691 167 172 175
246073.78356934 3357569.34515381 16.11613464 142 179 188
246072.87048340 3357568.69848633 16.45105362 71 165 229
246072.32055664 3357567.97375488 13.86372662 155 159 162
246072.06188965 3357568.64270020 15.88514805 127 129 128
246073.77246094 3357568.95275879 16.24669647 150 179 195
246074.35144043 3357568.17779541 13.82665634 168 173 176
246073.65063477 3357569.47320557 13.95236492 101 104 109
246072.71301270 3357569.55084229 16.01412964 66 180 242
246073.67883301 3357568.40325928 15.86196232 128 128 128
246072.29589844 3357568.75994873 15.87030125 128 128 128
246072.27233887 3357568.27838135 16.39722633 116 240 252
246073.30041504 3357567.63323975 16.39022255 3 165 238
246073.39294434 3357569.36676025 16.23890877 107 157 190
246072.87890625 3357568.02764893 15.86936283 128 128 128
246074.61132813 3357567.93621826 16.14673042 131 167 181
246073.22338867 3357569.08355713 16.34913254 91 191 225
246071.88635254 3357568.25439453 15.91229725 129 127 130
246072.71337891 3357569.04516602 15.85025024 128 128 128
246073.72753906 3357569.31353760 13.97914028 138 141 146
246073.41284180 3357567.71533203 13.82928658 174 175 177
246073.67736816 3357568.63079834 15.84452057 128 128 128
246073.93847656 3357569.03808594 16.15859032 160 196 208
246073.85034180 3357567.27832031 16.00195885 139 151 131
246073.94641113 3357567.33331299 16.00907898 149 159 148
246072.85961914 3357567.59075928 16.37526703 149 244 250
246071.63818359 3357568.39587402 16.16465950 108 201 219
246073.22167969 3357569.23699951 15.82127571 128 128 128
246074.55322266 3357568.08666992 13.83338261 183 188 191
246072.91088867 3357568.19708252 13.86484814 169 170 172
246074.25268555 3357567.41278076 13.83349895 136 141 145
246072.44372559 3357568.14562988 13.86517811 141 146 152
246073.26403809 3357569.11199951 16.33952522 133 220 250
246072.52160645 3357568.81213379 16.28947830 174 197 215
246071.92382813 3357568.81323242 16.10186386 56 180 214
246073.03259277 3357569.18115234 16.28631020 0 153 221
246073.25415039 3357567.05206299 16.16333389 26 149 182
246074.05419922 3357569.17810059 13.89714050 154 158 161
246074.71899414 3357568.63073730 13.85095024 191 194 201
246075.16564941 3357567.84088135 13.88307476 184 188 189
246072.04418945 3357568.32562256 15.90269947 127 129 128
246072.08911133 3357568.03918457 16.26985931 82 203 224
246073.95422363 3357567.75689697 15.92931366 128 128 128
246072.37512207 3357568.28021240 15.88769341 128 128 128
246072.93640137 3357568.60656738 13.97961807 170 174 175
246071.65429688 3357568.32434082 15.98326969 79 176 209
246073.13256836 3357569.63598633 13.99272442 255 255 255
246073.53625488 3357568.64385986 13.92811203 165 170 173
246072.12451172 3357569.02899170 15.89252663 128 128 128
246073.61486816 3357567.57305908 16.31321907 220 73 99
246073.59375000 3357569.63574219 14.01174355 111 116 122
246072.00476074 3357567.74194336 16.14464188 156 210 222
246073.32263184 3357568.98541260 15.81832600 128 128 128
246074.35937500 3357567.90161133 13.82896233 155 160 164
246073.18127441 3357568.42767334 13.91061974 170 176 176
246072.67297363 3357567.67218018 13.85317516 162 163 165
246074.21582031 3357568.92419434 15.92299652 119 171 182
246072.48535156 3357569.34155273 15.88066006 128 128 128
246072.95263672 3357569.25378418 16.23439407 3 175 237
246074.74487305 3357568.46289063 13.83576679 199 202 207
246073.25903320 3357567.34454346 15.91236496 128 128 128
246072.98632813 3357568.10211182 13.83116245 159 160 162
246073.34277344 3357567.63775635 15.89815807 128 128 128
246072.47265625 3357569.06860352 13.87833405 155 173 193
246074.05004883 3357568.46533203 13.80023575 180 184 187
246073.80981445 3357567.53326416 15.94185162 128 128 128
246073.36938477 3357568.40454102 13.88117027 179 184 187
246073.12854004 3357568.44604492 15.84420872 128 128 128
246074.31713867 3357567.43536377 13.84091949 144 149 153
246072.04248047 3357568.09259033 13.86889744 43 48 52
246074.12060547 3357568.90197754 15.87526989 115 165 176
246073.52587891 3357568.58636475 16.45274925 50 123 192
246073.36779785 3357568.75097656 13.95111942 171 176 179
246074.22204590 3357567.75933838 16.22690010 23 151 224
246074.04199219 3357568.06628418 16.35848999 92 163 217
246071.96594238 3357567.79449463 15.92402554 126 130 131
246072.85461426 3357569.13592529 16.25292969 27 166 221
246073.58520508 3357567.16839600 16.15464973 52 121 137
246073.32287598 3357567.80444336 13.82207870 197 198 202
246074.21215820 3357567.67944336 13.82736874 141 146 150
246072.94628906 3357567.30432129 13.84698582 172 173 178
246074.23486328 3357568.39190674 16.25094986 34 150 201
246072.34765625 3357568.87237549 13.89011288 67 74 80
246074.81835938 3357567.58129883 13.86256599 162 167 171
246072.96411133 3357567.33398438 16.32016754 132 233 243
246074.25793457 3357568.56958008 16.17916489 40 151 204
246072.54809570 3357569.23382568 13.89336967 173 175 174
246073.61901855 3357568.78424072 13.98291779 170 174 177
246073.91113281 3357568.36767578 13.78969479 150 155 158
246073.59033203 3357569.15399170 16.24753952 139 184 207
246073.13391113 3357567.72943115 13.81830883 183 184 188
246073.40600586 3357568.22430420 13.82672691 169 174 177
246073.06408691 3357569.54400635 16.14134789 0 180 239
246072.33142090 3357569.19641113 15.88118553 128 128 128
246073.22998047 3357567.80181885 15.86887455 128 128 128
246074.09008789 3357567.65100098 15.95914650 128 128 128
246072.53698730 3357568.54638672 16.41689682 44 185 231
246073.80249023 3357569.78710938 14.12543774 100 107 117
246072.81469727 3357568.93200684 15.84207058 128 128 128
246074.52307129 3357568.08685303 16.22174644 92 179 209
246074.04919434 3357569.22088623 15.95200348 129 185 186
246072.76794434 3357568.58300781 16.47226524 60 176 235
246072.33203125 3357567.41345215 16.18410873 186 209 215
246074.30773926 3357568.00311279 16.26579285 37 146 213
246073.45031738 3357569.53039551 15.87708855 171 185 185
246073.60864258 3357567.79461670 16.38398552 100 132 179
246074.36914063 3357567.67462158 13.83963680 177 182 186
246073.21740723 3357569.06280518 15.82030201 128 128 128
246073.52380371 3357568.72772217 16.40766907 90 144 188
246074.31970215 3357568.10272217 15.92655754 128 128 128
246073.63476563 3357569.15795898 14.01455784 145 149 152
246073.24121094 3357569.30999756 16.27038383 50 170 220
246073.93139648 3357569.21380615 16.11282349 161 200 205
246075.09387207 3357568.32147217 13.81980419 205 206 210
246073.21838379 3357568.36737061 15.84193611 128 128 128
246074.06127930 3357568.75408936 15.84483337 126 130 131
246073.53222656 3357568.85095215 16.36867142 121 165 192
246072.43579102 3357567.84228516 16.32710838 201 169 182
246073.30615234 3357568.25445557 16.79190445 24 111 191
246073.46899414 3357568.34277344 16.61718941 10 100 188
246072.68603516 3357569.57220459 15.93267632 170 191 208
246074.01464844 3357567.49365234 13.84071255 172 177 183
246073.49523926 3357569.60198975 16.12242317 149 185 201
246073.72790527 3357568.71105957 15.83966255 128 128 128
246073.22644043 3357569.59130859 16.15883827 12 155 215
246073.20410156 3357569.77795410 15.94174671 193 198 194
246073.08093262 3357569.24493408 13.89292049 154 158 159
246075.13403320 3357568.16937256 13.82105923 175 176 178
246074.12268066 3357567.96118164 13.81544781 171 176 179
246072.99768066 3357566.84088135 16.17824554 130 187 198
246072.82116699 3357568.45367432 15.85972595 128 128 128
246072.34704590 3357569.12896729 13.90901852 59 59 57
246073.48266602 3357569.54949951 16.14497948 135 176 198
246072.53540039 3357567.86083984 15.89188671 128 128 128
246073.77343750 3357567.41796875 13.84910488 159 164 168
246074.46179199 3357568.73596191 13.82237053 187 190 197
246073.85241699 3357568.65704346 16.30100632 176 62 70
246072.64270020 3357567.11248779 15.90851116 128 128 128
246073.58068848 3357568.11999512 16.56534958 55 139 225
246075.04455566 3357567.93963623 13.86745262 189 193 196
246073.34411621 3357568.68341064 16.50618935 73 153 206
246072.32238770 3357568.22680664 16.40575027 60 204 228
246072.42822266 3357568.69342041 15.86898708 128 128 128
246072.85632324 3357568.09106445 15.86864567 128 128 128
246073.02917480 3357569.44903564 13.89724541 71 70 66
246074.78161621 3357568.23461914 13.82437897 191 195 198
246073.07080078 3357568.29125977 15.85174370 128 128 128
246072.00427246 3357568.27465820 16.32124519 112 212 227
246072.85644531 3357568.75830078 15.84890747 128 128 128
246073.65441895 3357568.09356689 16.51435661 31 118 197
246072.78833008 3357567.17346191 16.23245621 197 229 228
246073.28173828 3357569.35626221 16.25457382 116 215 255
246073.78015137 3357569.48162842 16.01700974 161 197 195
246073.38818359 3357568.21966553 13.82749462 164 168 171
246074.03002930 3357567.33642578 16.14359093 123 168 187
246072.34729004 3357568.16601563 13.87912083 118 125 131
246073.88232422 3357568.94171143 13.98197460 167 170 175
246073.14306641 3357567.41229248 15.89097214 128 128 128
246071.83300781 3357568.85510254 15.98953915 113 191 227
246073.53479004 3357569.06750488 16.29633522 140 184 211
246073.09790039 3357569.58807373 16.13169098 2 178 237
246072.52770996 3357567.47119141 15.90379333 128 128 128
246073.58142090 3357569.11608887 16.26378632 140 185 208
246074.15417480 3357568.38220215 13.80926609 169 174 178
246073.00097656 3357569.10809326 15.83221245 128 128 128
246072.13256836 3357568.75518799 13.91815948 145 156 152
246072.75842285 3357569.23889160 16.18552971 11 167 226
246073.25646973 3357567.69152832 13.82450485 160 161 165
246073.82189941 3357568.55883789 16.34490395 151 67 100
246072.29602051 3357567.72253418 13.85891819 198 198 200
246073.77319336 3357568.38201904 15.86598396 128 128 128
246073.39538574 3357568.62017822 13.93878174 173 178 181
246072.90832520 3357568.14642334 16.62198830 34 237 252
246073.77270508 3357568.26000977 16.45090103 22 122 200
246072.71289063 3357569.46667480 15.88085651 128 128 128
246073.99414063 3357567.69238281 16.25986099 25 143 230
246072.49426270 3357567.63049316 13.84811974 202 203 207
246073.83996582 3357567.90606689 13.82284355 179 184 190
246074.24401855 3357568.56481934 16.18461990 40 151 204
246073.83862305 3357568.98364258 14.00632858 165 168 173
246074.37072754 3357567.75085449 15.97882271 117 130 138
246073.35107422 3357567.79718018 15.88546371 128 128 128
246073.93481445 3357568.86914063 16.20326424 152 180 204
246073.18750000 3357567.92907715 16.58186913 20 198 244
246073.33593750 3357568.44055176 16.66624641 18 102 190
246072.63830566 3357568.22192383 13.86568737 148 153 157
246073.24584961 3357569.32684326 13.88882542 162 165 170
246073.94018555 3357569.69085693 13.96516609 86 95 104
246074.38330078 3357568.04174805 16.25717163 69 169 221
246072.98901367 3357569.38024902 16.19061470 0 177 231
246072.30297852 3357567.65490723 15.90987492 128 128 128
246074.09008789 3357567.44049072 13.83992958 171 176 180
246072.92480469 3357568.88677979 16.38116455 132 186 246
246072.23278809 3357568.60961914 13.88798904 144 139 133
246074.68139648 3357567.47473145 13.85973167 159 164 168
246073.20739746 3357566.87969971 16.05679512 67 155 157
246073.07446289 3357568.74694824 16.48281288 39 167 230
246073.20007324 3357568.01348877 13.80483341 188 193 196
246073.30273438 3357568.96295166 13.95889282 160 165 169
246073.22009277 3357569.27203369 15.82387638 128 128 128
246072.99890137 3357568.70764160 15.84311390 128 128 128
246073.70727539 3357567.63732910 15.92128658 128 128 128
246074.21362305 3357567.85064697 16.24787712 27 146 226
246073.30139160 3357568.08148193 16.65811729 15 136 217
246073.24560547 3357567.14654541 15.92771530 128 128 128
246073.84606934 3357569.20855713 16.14309311 148 188 196
246073.37622070 3357569.04223633 16.35809708 113 169 206
246071.77258301 3357568.28308105 13.86265564 174 170 167
246074.67504883 3357567.98345947 16.13459015 145 175 183
246074.26574707 3357569.05072021 13.81833172 158 161 170
246073.55053711 3357567.33819580 15.94019318 129 127 128
246073.67944336 3357567.59301758 16.30393028 239 196 206
246074.65429688 3357567.72418213 13.85053253 184 189 195
246074.62451172 3357568.43804932 13.82288742 180 183 188
246073.54223633 3357568.61358643 13.91940117 166 171 174
246072.98754883 3357567.06140137 16.24277496 156 213 220
246074.13061523 3357567.39935303 16.09522820 132 173 191
246072.64440918 3357567.78320313 13.85246468 167 169 168
246072.01086426 3357568.13842773 15.91053677 128 128 128
246073.05041504 3357568.51080322 15.84629345 128 128 128
246073.15185547 3357567.26910400 15.90456581 128 128 128
246073.58349609 3357568.86090088 13.99874306 163 167 170
246072.07519531 3357567.82556152 15.91649246 128 128 128
246074.43725586 3357568.64251709 15.95184422 80 150 175
246073.46228027 3357567.55712891 16.34312057 252 175 211
246072.82141113 3357567.10015869 13.86295605 176 180 189
246072.84008789 3357568.85510254 15.84523392 128 128 128
246073.70996094 3357569.72515869 14.09651184 108 112 121
246073.60522461 3357569.47265625 16.13102913 153 191 202
246072.47949219 3357568.14990234 16.43829346 63 219 242
246073.59802246 3357567.44757080 16.28505516 187 86 116
246073.02380371 3357569.73693848 14.04064465 254 255 255
246073.67590332 3357567.54364014 16.29216003 245 229 242
246074.12145996 3357569.08404541 16.06896591 166 202 202
246074.12438965 3357568.29522705 16.31597519 36 137 207
246072.63183594 3357567.85583496 16.40565300 227 209 225
246073.62939453 3357569.37750244 13.96834373 123 126 131
246073.34204102 3357569.48248291 15.85567665 127 129 128
246073.88110352 3357567.65313721 15.93442154 127 127 127
246073.11718750 3357568.74377441 15.83598423 128 128 128
246074.12707520 3357568.02722168 15.91395760 128 128 128
246073.59594727 3357569.08221436 16.27078819 148 190 212
246074.37023926 3357568.65454102 16.10263824 60 163 204
246074.28320313 3357569.16662598 13.83499050 142 146 155
246073.10949707 3357567.91430664 15.86090851 128 128 128
246072.26647949 3357568.82330322 16.20454597 19 176 231
246073.28173828 3357567.24584961 16.25815010 23 162 217
246072.57690430 3357567.99163818 16.42781067 159 231 243
246073.43493652 3357568.60699463 16.49716759 56 137 203
246071.96276855 3357567.85186768 15.92147064 128 128 128
246073.72924805 3357569.32495117 16.14133263 136 176 186
246073.50622559 3357568.37695313 15.85601330 128 128 128
246074.02111816 3357568.81494141 15.83915710 124 130 130
246074.57897949 3357568.07653809 16.19826889 113 181 200
246073.49133301 3357566.60253906 13.86349678 145 148 153
246072.52233887 3357567.85638428 16.36474419 208 164 189
246074.03967285 3357567.33227539 16.04799461 154 173 180
246073.06970215 3357568.40100098 15.84855270 128 128 128
246074.89196777 3357568.37591553 13.83376980 198 199 203
246073.72033691 3357569.34759521 15.86690807 132 172 174
246072.94689941 3357568.43292236 15.85389805 128 128 128
246072.32873535 3357568.75915527 16.25360680 23 179 238
246073.39868164 3357569.79382324 16.02902031 194 200 198
246072.63330078 3357567.94171143 15.88448143 128 128 128
246073.65441895 3357568.29730225 15.86945343 128 128 128
246073.09753418 3357568.19171143 15.85331631 128 128 128
246074.36999512 3357567.98187256 16.24323845 34 152 214
246073.12805176 3357567.91247559 16.59462166 26 214 251
246074.24609375 3357568.27325439 15.89549637 128 128 128
246074.50878906 3357567.88818359 15.97689247 124 129 133
246074.02880859 3357567.97918701 16.33481216 35 136 214
246073.85437012 3357567.81494141 15.91143131 128 128 128
246073.99926758 3357568.35974121 15.87342739 128 128 128
246072.09252930 3357568.94317627 15.89218044 128 128 128
246072.65979004 3357568.89739990 16.29338455 238 211 230
246074.16320801 3357567.44335938 16.10832405 141 189 209
246073.28515625 3357568.08508301 15.85171986 128 128 128
246073.58642578 3357568.19451904 13.79759216 166 171 174
246074.07031250 3357568.70404053 13.83835602 180 183 188
246074.34497070 3357569.23114014 13.84105873 151 155 166
246072.98205566 3357569.08044434 15.83133888 128 128 128
246073.58593750 3357568.52478027 13.88898277 173 177 180
246074.03454590 3357568.41900635 16.30615044 32 139 207
246072.87194824 3357567.23132324 13.86463737 168 173 179
246073.80358887 3357568.56439209 13.86328316 164 169 172
246072.72534180 3357568.76324463 16.37578583 175 140 170
246073.34716797 3357568.98193359 16.38548088 89 148 188
246073.65307617 3357567.45825195 13.84828949 173 178 182
246072.21582031 3357569.16094971 15.88681126 128 128 128
246071.79248047 3357568.87231445 15.93180847 148 176 216
246074.16967773 3357568.78411865 13.80806923 178 183 187
246073.98217773 3357567.32543945 16.14450645 139 177 196
246073.10400391 3357567.75561523 16.50973511 62 231 254
246073.89440918 3357568.24963379 13.79843903 169 177 180
246072.67834473 3357567.54357910 15.89394093 128 128 128
246073.25439453 3357569.50164795 13.91160774 171 160 166
246072.27954102 3357569.07708740 15.88197136 128 128 128
246073.04553223 3357567.53479004 13.83293056 148 152 155
246073.39990234 3357566.53625488 13.85764027 145 149 150
246072.55749512 3357568.12225342 15.88302326 128 128 128
246074.13171387 3357567.78820801 15.94594288 128 128 128
246072.77233887 3357568.60687256 15.85769749 128 128 128
246074.06542969 3357567.39074707 13.84418678 157 162 166
246074.40600586 3357568.29217529 13.82432747 177 183 183
246073.87329102 3357567.57775879 16.24979401 108 167 207
246072.45043945 3357568.01129150 16.39118385 165 237 251
246072.70227051 3357568.30187988 13.89650059 154 158 161
246072.42053223 3357569.11865234 13.89444351 128 128 120
246074.21655273 3357567.55603027 16.18098831 30 154 216
246074.29809570 3357567.76281738 16.21192741 23 156 225
246074.35949707 3357568.80346680 15.98407936 102 168 190
246073.56445313 3357567.34100342 16.26233482 147 192 234
246073.71057129 3357567.31115723 15.95946980 127 129 126
246073.37658691 3357568.47546387 16.60850716 20 102 184
246072.82141113 3357568.14306641 13.84556103 160 161 165
246073.18640137 3357567.83587646 15.86009502 128 128 128
246074.11828613 3357567.77050781 15.94671154 128 128 128
246073.66296387 3357568.18371582 15.87836170 128 128 128
246074.50073242 3357568.48901367 16.10269547 75 167 204
246072.15087891 3357567.92962646 15.90954208 128 128 128
246075.12805176 3357568.23144531 13.81080055 201 202 206
246072.93884277 3357567.88433838 13.83245850 166 168 167
246074.81591797 3357568.03979492 15.99223804 115 133 137
246072.47814941 3357567.60522461 15.90237427 128 128 128
246072.98083496 3357568.47564697 13.94881916 165 170 173
246074.24389648 3357568.04125977 16.29526329 37 139 205
246073.98303223 3357567.76757813 15.93127632 128 128 128
246073.98364258 3357568.90112305 15.83161163 121 154 161
246072.29748535 3357568.10186768 15.89694118 128 128 128
246073.98144531 3357566.91064453 13.85088539 164 172 175
246072.91345215 3357567.76226807 16.46499825 72 238 252
246072.93103027 3357569.67163086 15.99282551 71 174 207
246073.05493164 3357567.23449707 13.83593750 159 164 170
246072.32006836 3357569.35711670 15.99035454 161 237 255
246074.57238770 3357568.33544922 13.82095528 176 180 183
246073.95056152 3357568.20349121 13.80175495 174 179 183
246073.17138672 3357568.59277344 16.57459450 58 149 222
246072.92773438 3357568.34832764 13.91862583 168 172 173
246074.09936523 3357568.51495361 16.24946976 41 146 204
246073.67700195 3357567.36846924 15.94800949 127 127 129
246072.80810547 3357568.98425293 16.29967117 178 157 196
246072.98974609 3357566.92559814 15.91261959 129 127 128
246072.99438477 3357567.25512695 15.88628864 128 128 128
246072.95007324 3357568.08630371 16.60754967 20 233 251
246074.36511230 3357568.14276123 15.92658043 128 128 128
246073.24340820 3357569.69036865 14.05522728 255 255 255
246073.55419922 3357567.20300293 13.83931446 141 149 152
246074.07531738 3357568.38647461 15.87330818 128 128 128
246074.72277832 3357567.70776367 13.85083485 184 187 192
246075.02148438 3357567.89642334 13.86741352 190 194 197
246073.09667969 3357568.04327393 13.81034374 181 183 182
246072.96093750 3357568.41058350 16.62053490 9 184 239
246072.88537598 3357567.91455078 15.87237167 128 128 128
246072.75000000 3357567.37524414 16.28569031 189 227 230
246073.47302246 3357567.50219727 13.84075451 126 129 134
246072.47216797 3357568.22369385 16.45774078 83 219 235
246072.55712891 3357567.43121338 13.86063004 156 155 161
246073.60388184 3357568.16101074 16.55979347 65 145 230
246073.98474121 3357567.77789307 16.28378296 23 143 229
246073.73034668 3357568.73474121 16.32391739 247 203 204
246073.62414551 3357567.87298584 16.41615295 31 130 213
246072.46936035 3357568.04693604 16.40685081 121 221 244
246072.81127930 3357569.51092529 15.88603687 128 128 128
246074.32299805 3357567.91564941 16.23898315 28 155 226
246071.85095215 3357568.91070557 15.96886349 223 227 252
246073.04162598 3357566.96307373 16.21081352 80 169 187
246073.03479004 3357569.18768311 16.28413391 0 153 221
246073.60375977 3357569.34222412 15.82772923 150 178 179
246072.72741699 3357567.69036865 13.85484982 175 176 178
246071.70849609 3357568.65093994 16.05614090 92 188 230
246072.14208984 3357568.12591553 16.32497025 58 202 226
246072.08020020 3357568.73260498 15.87968159 128 128 128
246072.70971680 3357567.58923340 13.85198879 163 164 168
246072.89965820 3357567.84997559 15.87355232 128 128 128
246073.16284180 3357568.09814453 15.85273647 128 128 128
246072.63476563 3357567.55383301 16.31400108 198 224 221
246072.02941895 3357568.14385986 13.87589741 54 57 64
246072.46850586 3357568.15039063 16.43501472 53 215 240
246073.34155273 3357568.16192627 16.71844101 31 123 206
246072.47558594 3357567.54473877 13.85521317 196 197 201
246073.92834473 3357569.11492920 16.14296532 156 194 203
246073.73510742 3357567.39160156 15.95175457 128 128 128
246072.79528809 3357568.20538330 16.60443306 115 245 255
246072.93615723 3357569.04852295 16.31015587 49 164 229
246072.46984863 3357568.63885498 15.87036610 128 128 128
246073.17431641 3357568.68731689 15.83473492 128 128 128
246074.83923340 3357568.13165283 16.01475525 114 174 182
246071.84143066 3357568.56201172 16.19396210 43 171 208
246073.42846680 3357568.08984375 15.87047195 128 128 128
246073.56579590 3357568.25140381 16.58786011 16 100 188
246073.25048828 3357569.22607422 16.29968834 83 188 233
246071.90783691 3357569.04968262 15.95452213 139 164 221
246074.38061523 3357567.41229248 13.84844208 150 155 159
246074.43286133 3357568.03027344 13.83421898 180 185 188
246073.27929688 3357567.16546631 16.21179199 31 161 211
246073.17480469 3357568.09704590 15.85215664 128 128 128
246073.45446777 3357567.42767334 15.93090916 128 128 128
246073.72326660 3357568.50073242 13.85725021 180 184 187
246072.66271973 3357569.13598633 15.85698128 128 128 128
246073.60229492 3357569.55114746 13.95320892 82 87 91
246074.31420898 3357569.21777344 13.84090233 144 148 159
246073.93054199 3357569.35546875 15.95838737 148 199 194
246072.87805176 3357569.54956055 13.98392773 113 108 102
246074.57543945 3357568.16076660 16.18006706 95 172 198
246073.14709473 3357568.53796387 13.94601440 169 174 177
246072.17797852 3357568.58471680 13.88339615 109 110 105
246074.27709961 3357568.91430664 15.99805450 137 190 198
246074.47314453 3357567.83026123 15.98034191 120 131 137
246073.45825195 3357569.18463135 15.80495834 127 127 127
246072.60754395 3357567.37847900 13.86520481 165 166 171
246073.22192383 3357569.92047119 14.24627686 97 102 105
246073.43347168 3357567.04119873 16.04484940 78 140 137
246072.87915039 3357567.07617188 13.85205078 159 164 170
246073.66699219 3357568.14416504 13.77859879 181 185 188
246073.26599121 3357568.45019531 15.83704853 128 128 128
246073.07751465 3357568.46282959 16.63929367 35 146 225
246073.81372070 3357567.34155273 16.18042183 164 185 206
246073.18395996 3357567.20989990 16.24903107 22 156 194
246074.61730957 3357568.13861084 15.95633888 128 128 128
246073.71215820 3357568.71118164 13.92257977 159 164 167
246072.89831543 3357568.01867676 16.56679916 37 223 238
246073.54101563 3357569.63006592 15.94644833 176 188 184
246073.68652344 3357569.23217773 14.00563145 146 150 153
246072.88757324 3357568.09979248 16.59605789 30 223 238
246073.84326172 3357567.79534912 16.33146095 31 123 186
246073.59387207 3357567.04632568 13.83790779 153 160 168
246074.52124023 3357568.51483154 16.07836151 83 169 202
246074.29382324 3357568.76312256 16.09769630 47 152 199
246072.94873047 3357568.43481445 13.94121838 163 168 171
246072.06933594 3357568.70666504 13.91674805 120 116 115
246073.70361328 3357569.01226807 14.05903912 157 161 164
246073.89562988 3357569.03491211 16.17651558 150 183 198
246073.53698730 3357569.13922119 15.80280113 128 128 130
246073.52917480 3357569.94726563 14.44638443 161 144 152
246073.39965820 3357569.45532227 15.84713173 127 129 128
246073.59240723 3357568.89227295 15.82236004 129 128 126
246073.65563965 3357568.45672607 16.44365311 33 98 180
246074.10632324 3357568.42797852 13.80507755 175 180 184
246073.40820313 3357569.16967773 16.30281448 120 170 205
246072.24035645 3357568.19018555 16.37463760 60 210 235
246073.94763184 3357568.27575684 16.38683510 24 125 203
246073.32788086 3357567.89385986 13.81626511 178 179 181
246072.71032715 3357568.77770996 16.36438560 175 140 170
246073.76477051 3357567.19726563 16.02894592 125 139 124
246072.91503906 3357567.85394287 13.83655548 162 164 163
246074.39807129 3357568.97406006 13.80776119 156 161 167
246073.70288086 3357569.46588135 16.09642410 159 196 204
246073.33972168 3357569.66845703 14.04994488 223 218 222
246071.73791504 3357568.05596924 15.99863338 139 172 177
246073.04602051 3357567.98925781 15.86194038 128 128 128
246073.67529297 3357568.75085449 16.34040451 252 222 224
246072.66223145 3357569.32269287 16.12542343 11 164 222
246071.83068848 3357568.76422119 16.05807686 69 183 220
246071.98034668 3357569.09948730 15.90022182 128 128 128
246072.37402344 3357567.92120361 16.33312607 237 246 251
246074.03637695 3357568.72351074 16.20684052 107 154 184
246072.91711426 3357569.04229736 13.93391895 154 159 163
246072.76232910 3357567.08374023 15.90323639 128 128 128
246074.24389648 3357567.16223145 13.84845066 147 155 158
246074.09777832 3357568.86865234 13.86283493 144 147 152
246073.30895996 3357569.75347900 15.95731163 168 184 184
246072.56762695 3357568.60906982 13.93624687 102 105 110
246074.65759277 3357568.16503906 16.14504623 113 176 193
246073.29187012 3357567.56433105 16.37251282 12 164 240
246073.78308105 3357568.77777100 16.28916168 255 227 229
246072.90051270 3357568.30126953 13.90187359 164 168 169
246073.22644043 3357566.97210693 15.94025421 118 132 132
246073.23181152 3357566.97302246 16.12513542 37 148 168
246073.91296387 3357567.16790771 13.84393024 160 168 171
246073.81311035 3357567.31597900 13.84673786 150 155 159
246073.21777344 3357569.25433350 16.28960991 47 164 217
246073.08264160 3357568.28375244 16.74979973 97 193 233
246072.73168945 3357569.11175537 16.22626305 157 221 255
246074.40551758 3357568.37591553 13.82019615 193 198 202
246074.05749512 3357567.04956055 13.84269905 165 173 176
246073.90966797 3357568.67083740 15.84735107 128 128 126
246072.85266113 3357569.38568115 15.85789013 128 128 128
246074.98937988 3357568.14471436 13.83984089 183 187 190
246072.64465332 3357568.03540039 15.88112545 128 128 128
246073.95825195 3357568.62969971 16.26812363 137 87 114
246073.84704590 3357568.27239990 13.78767967 169 177 180
246073.89428711 3357567.97766113 16.37515068 28 134 222
246073.75244141 3357567.97564697 15.89654922 128 128 128
246072.17700195 3357568.88488770 15.88016415 128 128 128
246072.62866211 3357567.83984375 13.84836483 161 165 164
246073.60803223 3357567.84045410 13.81631184 181 185 188
246074.52148438 3357568.02807617 13.83651161 179 184 187
246072.39746094 3357569.40765381 15.97155857 150 231 252
246072.12280273 3357568.88952637 15.88499928 128 128 128
246074.00170898 3357568.81591797 15.83858871 127 128 130
246074.16027832 3357568.24914551 13.81057167 178 183 189
246073.00573730 3357569.54333496 13.94939518 212 212 212
246073.60156250 3357569.45648193 13.95059776 106 109 114
246074.90148926 3357568.43615723 13.83894348 196 200 203
246072.18981934 3357568.36499023 13.89732456 97 98 102
246072.34362793 3357568.68164063 13.88568306 87 85 88
246073.04113770 3357567.31304932 15.88594055 128 128 128
246072.12902832 3357568.14160156 13.88346195 47 56 63
246073.00354004 3357569.39587402 16.18788719 0 180 233
246072.05712891 3357568.11328125 15.90891361 127 129 128
246073.36608887 3357568.29199219 13.85018635 183 188 191
246072.90380859 3357568.58416748 15.85163212 128 128 128
246072.98376465 3357566.67846680 16.09593773 132 175 181
246073.32287598 3357568.88775635 15.82119656 128 128 128
246074.15747070 3357568.97564697 16.08708382 156 189 194
246072.35534668 3357568.30444336 13.90911198 104 118 129
246073.27075195 3357567.37622070 13.83869648 146 150 153
246072.27941895 3357569.32611084 16.00589180 100 199 240
246073.19982910 3357567.58245850 15.88383865 128 128 128
246072.20532227 3357567.76165771 13.86076736 209 207 212
246072.99621582 3357567.07342529 15.90069771 128 128 128
246073.82666016 3357567.51104736 16.23589897 112 148 182
246073.56787109 3357567.88330078 13.81208801 175 178 183
246072.69311523 3357569.46008301 15.88031197 128 128 128
246073.02270508 3357567.79107666 15.86899471 128 128 128
246072.61560059 3357568.55236816 16.43870926 36 177 230
246074.70874023 3357567.62860107 13.85484695 170 173 180
246073.85913086 3357568.52404785 16.34154320 155 99 134
246073.43627930 3357566.94354248 13.84487915 150 155 159
246073.85314941 3357568.61212158 16.31531906 186 65 84
246071.81970215 3357568.69024658 16.12057877 55 171 208
246073.64160156 3357569.27703857 15.80832958 144 174 176
246072.70959473 3357567.16625977 15.90349770 128 128 128
246074.47351074 3357567.76757813 16.00848389 148 174 187
246073.57202148 3357568.46405029 13.87434387 175 180 183
246073.04211426 3357568.87786865 16.41989899 28 161 228
246073.75622559 3357568.06292725 13.79221249 162 167 171
246073.82604980 3357567.74365234 16.31994629 82 160 206
246071.96838379 3357567.79705811 16.14220428 141 200 214
246073.65380859 3357568.52136230 15.85229492 128 128 128
246072.73486328 3357568.45153809 16.52253723 18 192 253
246073.54626465 3357569.41351318 13.95146942 112 115 120
246072.86218262 3357568.42059326 15.85860252 128 128 128
246072.09497070 3357567.62994385 15.92236423 128 128 128
246072.51391602 3357567.44219971 13.86558533 160 161 165
246073.42236328 3357569.45318604 15.84563160 127 129 128
246073.04968262 3357568.35247803 16.70033264 20 166 226
246073.69165039 3357567.54144287 15.92822170 128 128 128
246073.26806641 3357567.56774902 13.83029938 165 166 170
246074.50390625 3357567.41406250 13.85638428 154 159 163
246072.40661621 3357568.32098389 15.88487148 128 128 128
246074.17907715 3357569.08294678 13.83861637 143 146 153
246074.08068848 3357568.21160889 13.80474758 176 181 184
246072.22558594 3357569.06201172 16.10405159 10 170 228
246072.43835449 3357568.65106201 15.87087154 128 128 128
246073.05529785 3357567.83520508 16.53466797 35 225 237
246074.83190918 3357567.80615234 13.84923267 189 194 197
246073.42272949 3357570.02801514 14.47391224 147 135 135
246073.28686523 3357568.62420654 13.95323944 170 175 178
246072.51342773 3357568.40728760 16.47138977 33 187 241
246073.66918945 3357567.71417236 16.33762550 240 193 201
246072.96142578 3357567.25640869 16.29612541 155 240 237
246072.02539063 3357568.70428467 13.91958332 199 195 192
246073.84155273 3357567.90649414 16.36870956 21 131 220
246073.23010254 3357568.32287598 16.79437065 12 104 187
246073.49890137 3357569.04577637 16.31592369 134 179 212
246071.91137695 3357568.54138184 13.88276100 142 138 135
246072.94433594 3357567.39880371 13.84129238 171 175 178
246073.04907227 3357567.45568848 16.38303185 101 241 255
246073.87719727 3357568.63421631 15.84932995 128 128 128
246073.19848633 3357568.05450439 15.85220146 128 128 128
246072.89501953 3357569.22235107 13.88759518 154 160 160
246074.16992188 3357568.09106445 13.81343269 189 193 196
246073.44116211 3357569.92913818 14.35878181 75 63 67
246072.97619629 3357568.14379883 15.86094856 128 128 128
246073.67687988 3357568.15856934 16.51982307 59 133 208
246073.96240234 3357568.83569336 13.91056538 156 159 164
246073.69201660 3357568.83459473 14.00114346 164 167 172
246072.29565430 3357568.72479248 16.25910187 18 184 246
246073.96496582 3357568.87731934 13.92820835 160 163 168
246072.52148438 3357568.87615967 13.89253139 123 132 137
246073.34936523 3357567.53387451 13.83478832 176 177 182
246072.78527832 3357567.26245117 15.89677906 128 128 128
246073.24560547 3357566.92633057 15.98341370 84 146 143
246074.03906250 3357568.54034424 13.80128860 181 186 189
246073.62780762 3357569.57202148 15.94112492 172 191 189
246073.07958984 3357569.41442871 16.20022583 2 178 238
246073.07629395 3357569.34503174 16.22867966 0 160 228
246072.39270020 3357569.20593262 16.09999084 14 166 215
246073.49755859 3357568.26031494 16.63021088 10 101 184
246072.58618164 3357567.37268066 15.90371323 128 128 128
246074.67590332 3357567.95086670 13.83917809 164 169 172
246073.04223633 3357566.86260986 13.84431839 175 180 184
246074.61975098 3357568.10882568 16.17546082 113 180 196
246074.32421875 3357568.78735352 13.80429840 171 174 179
246073.93200684 3357569.03570557 16.16178703 160 196 208
246073.42675781 3357568.07904053 13.79184628 164 168 171
246073.79663086 3357566.87872314 13.84908867 166 173 179
246074.95202637 3357567.81823730 13.86377621 196 200 203
246073.11914063 3357569.31488037 16.25278282 0 148 216
246073.15026855 3357566.74969482 13.85169697 171 174 179
246072.51513672 3357568.87219238 16.25975609 149 176 205
246073.20202637 3357569.73889160 16.09343147 31 164 209
246073.05822754 3357567.13824463 16.27002907 67 176 199
246073.37353516 3357570.00683594 14.41323280 76 65 69
246074.07751465 3357567.44641113 16.17906189 105 189 226
246072.09399414 3357569.15899658 16.02038383 51 175 229
246072.85559082 3357569.12200928 13.91034985 156 161 164
246071.62353516 3357568.39733887 16.02432060 67 175 211
246073.39636230 3357566.52099609 13.85527229 159 160 162
246073.16674805 3357569.50042725 13.90363598 222 213 216
246073.12438965 3357568.04180908 13.80843544 181 183 182
246072.58215332 3357568.69134521 16.36415100 239 254 255
246072.96789551 3357567.57440186 13.84088230 140 141 143
246073.81567383 3357567.40557861 16.20192909 146 168 192
246072.68359375 3357567.06256104 15.90789318 128 128 128
246072.67175293 3357567.69647217 15.88976002 128 128 128
246073.18115234 3357568.72039795 13.95938873 173 177 180
