246103.06640625 3357703.77087402 13.32946301 234 239 235
246102.94970703 3357703.69897461 12.30923462 119 120 112
246103.96447754 3357704.27545166 13.50343704 177 179 174
246104.26818848 3357703.67224121 13.23770618 73 88 85
246102.84265137 3357703.70733643 12.61416912 169 172 161
246102.92260742 3357703.66015625 12.40419388 135 138 129
246104.09143066 3357704.42401123 12.31200409 111 94 74
246103.92663574 3357703.27661133 12.55491924 166 123 81
246103.12304688 3357703.31848145 12.83493519 110 76 38
246104.03833008 3357704.39099121 12.79769993 98 76 55
246103.45776367 3357703.25683594 13.47462654 171 142 112
246104.32873535 3357704.43005371 13.04781532 103 83 50
246104.64147949 3357703.44201660 12.81922626 71 69 54
246103.95874023 3357704.39196777 12.69126892 81 62 47
246103.80078125 3357704.43457031 13.13600159 66 42 18
246103.50646973 3357703.32604980 12.74148083 115 79 55
246103.29223633 3357703.30975342 12.93994808 98 67 39
246103.13537598 3357703.32208252 12.75781250 74 40 2
246104.59619141 3357703.85113525 12.61075497 59 66 58
246102.98950195 3357703.54919434 13.25295734 223 232 227
246102.83068848 3357704.23345947 12.66797256 164 166 155
246102.89660645 3357704.03088379 13.07627583 209 222 213
246104.75805664 3357703.77429199 12.35725594 39 44 38
246104.56774902 3357704.41589355 11.83142662 48 53 49
246104.91186523 3357703.52355957 12.20747089 57 58 50
246103.95043945 3357704.44659424 13.26684761 77 50 21
246102.96228027 3357703.87170410 12.23414707 101 98 89
246103.94128418 3357703.27581787 12.20561314 178 139 100
246103.05529785 3357703.31427002 12.14497948 225 211 176
246104.09106445 3357703.35308838 12.74697113 140 102 53
246102.90783691 3357703.63146973 12.43209457 136 139 130
246104.40368652 3357704.64086914 11.79047298 102 108 108
246102.79528809 3357703.31494141 12.78882599 216 188 151
246103.18261719 3357703.86779785 13.42899990 234 238 237
246104.74096680 3357703.80468750 12.35811710 39 44 38
246102.95812988 3357704.48486328 12.17278481 94 81 62
246103.62841797 3357704.38854980 13.55391502 154 135 102
246104.08532715 3357704.42559814 11.93200874 54 40 31
246102.98339844 3357704.46624756 12.68308163 167 145 122
246103.67138672 3357703.28729248 12.06926060 208 174 137
246105.04895020 3357703.62084961 12.09354115 65 68 57
246104.42797852 3357704.46673584 11.81117535 101 105 106
246103.27111816 3357704.46807861 12.58236599 76 59 43
246103.47387695 3357703.35241699 12.33167744 122 92 64
246103.34448242 3357704.46484375 12.71918297 63 46 30
246103.63464355 3357703.68548584 13.53986835 224 233 238
246103.34448242 3357703.29034424 13.44838905 204 183 154
246102.99426270 3357703.89288330 12.12710381 94 90 79
246103.75634766 3357703.75720215 13.53210640 191 200 205
246104.33630371 3357703.27197266 12.16491604 189 156 113
246103.86840820 3357703.31536865 12.82799244 218 177 133
246104.04162598 3357703.16955566 11.83461475 167 144 110
246103.05834961 3357703.52606201 13.32592297 232 238 234
246104.93969727 3357703.45495605 12.10782814 70 68 55
246103.24243164 3357703.32708740 12.32141018 118 84 49
246103.16577148 3357703.52954102 13.43245125 248 250 249
246104.22875977 3357704.04522705 13.30022049 95 113 123
246103.55151367 3357703.32684326 12.32669735 149 115 78
246103.24743652 3357704.39990234 13.45936108 209 188 159
246102.89538574 3357704.35736084 13.09480286 188 179 150
246104.61975098 3357703.27038574 12.22125340 80 59 28
246103.83203125 3357703.28796387 13.22757435 183 142 90
246103.31640625 3357703.33941650 13.48693466 225 220 214
246103.13244629 3357703.30212402 13.10157108 225 188 143
246105.00402832 3357703.49859619 12.09325218 78 75 58
246103.24658203 3357704.45269775 13.10183334 73 49 23
246105.01989746 3357704.41345215 11.82998371 83 85 80
246104.63671875 3357704.65521240 11.79509926 83 85 84
246104.49487305 3357704.36212158 12.12379837 42 39 30
246103.84216309 3357703.58557129 13.49087334 175 189 192
246102.86437988 3357703.48889160 13.11351681 211 216 210
246105.34069824 3357703.60925293 11.79908085 153 140 124
246104.34082031 3357703.26574707 12.48844433 204 176 128
246104.77832031 3357703.34234619 12.23525906 50 44 32
246103.65051270 3357704.43011475 13.08747387 81 60 39
246103.91186523 3357703.32788086 12.76591873 196 158 113
246104.51245117 3357703.52856445 12.96839714 86 83 66
246102.88659668 3357704.42535400 12.60693550 152 131 110
246105.30297852 3357703.50219727 11.78312302 205 190 167
246104.14501953 3357703.97424316 13.36661625 100 121 126
246103.19494629 3357703.29003906 11.96169567 172 154 118
246103.21398926 3357703.80749512 13.44662380 242 246 245
246103.84008789 3357704.40869141 12.68811798 52 34 22
246104.26916504 3357703.44830322 13.23612499 83 68 39
246102.86230469 3357704.40277100 12.57951164 149 128 111
246103.63342285 3357703.32171631 12.43177795 142 108 71
246103.17321777 3357703.31469727 12.09898758 217 197 160
246102.88854980 3357703.30603027 12.49141788 228 196 149
246103.85351563 3357703.29010010 13.23066139 183 142 90
246103.75744629 3357703.26611328 11.98440266 201 165 133
246104.43359375 3357704.42663574 12.37753010 73 60 43
246105.36145020 3357703.35540771 11.80287743 212 197 176
246103.13891602 3357703.31408691 13.20730591 229 196 153
246104.69104004 3357704.55291748 11.80301666 67 72 66
246103.94787598 3357704.39746094 13.00191021 109 83 66
246103.33569336 3357704.45831299 12.86728001 75 58 40
246105.06872559 3357703.56262207 12.03688145 66 67 53
246103.10266113 3357703.35168457 13.33963585 208 195 179
246103.16088867 3357703.31109619 12.05768490 213 195 159
246104.61718750 3357704.00970459 12.51924896 56 59 50
246105.34790039 3357703.33233643 11.80364418 215 200 177
246104.26635742 3357704.42974854 12.22011566 98 87 69
246103.09997559 3357703.27917480 11.96234798 144 128 103
246102.83337402 3357704.06433105 12.87338352 192 203 195
246104.77478027 3357704.20288086 12.04617310 59 64 60
246103.78015137 3357703.29541016 12.55052090 145 105 69
246103.55273438 3357704.44616699 12.40875053 65 52 36
246103.68310547 3357703.29412842 13.08152866 128 82 46
246103.97326660 3357704.39111328 12.60523510 83 66 48
246102.95202637 3357704.04266357 12.24062538 120 116 105
246104.65576172 3357703.34399414 12.69931793 48 36 22
246103.53295898 3357703.73498535 13.52609730 228 235 241
246103.68334961 3357703.30566406 12.88097668 134 96 57
246104.83618164 3357703.76867676 12.27985477 40 47 39
246103.48937988 3357704.46112061 12.80182552 62 45 27
246104.36145020 3357704.42791748 13.08011246 95 76 44
246103.68225098 3357703.30590820 12.87896252 128 93 55
246103.07324219 3357704.44873047 13.26958656 158 134 96
246103.85461426 3357704.43041992 12.30076981 41 31 21
246104.61047363 3357704.54180908 11.78700829 65 70 66
246103.24670410 3357703.69415283 13.46827316 242 243 245
246102.95080566 3357704.44323730 12.38717175 120 102 82
246105.33410645 3357703.08013916 11.81288433 204 190 164
246104.62854004 3357703.23242188 12.01364994 198 185 150
246103.33483887 3357703.78228760 13.49598885 241 242 247
246104.13037109 3357704.43298340 12.27050495 127 109 89
246103.91699219 3357704.39886475 12.59453773 65 49 36
246105.30615234 3357704.34533691 11.81911278 107 107 99
246105.17456055 3357704.31793213 11.83368111 94 97 90
246102.91149902 3357704.03057861 13.10973263 217 229 219
246103.75988770 3357703.31390381 13.00784302 173 126 82
246104.73071289 3357703.69421387 12.45050144 40 45 39
246103.67346191 3357704.45166016 13.32049370 198 173 142
246103.44689941 3357703.28271484 13.03335094 73 39 11
246104.80004883 3357703.84393311 12.28230476 48 51 44
246104.16674805 3357703.28155518 12.50067902 145 104 48
246104.27136230 3357704.22998047 13.26543427 89 88 68
246104.15966797 3357703.29327393 13.26459026 242 231 185
246104.60595703 3357703.37933350 12.84399414 65 58 39
246104.12292480 3357703.27386475 12.38163853 230 196 148
246104.62585449 3357703.20111084 11.94516277 200 185 152
246103.69787598 3357704.44378662 13.23573589 166 140 115
246104.61926270 3357703.57128906 12.80748177 82 83 69
246104.19677734 3357704.58825684 11.81853294 47 53 53
246102.90100098 3357704.21759033 12.44954872 147 140 132
246104.31079102 3357704.76861572 11.79538918 58 60 55
246103.97363281 3357704.47119141 12.03151894 47 37 28
246102.99755859 3357703.83337402 12.11482143 82 80 68
246104.07836914 3357703.36114502 12.76952744 140 102 53
246105.04040527 3357704.09655762 11.94394398 62 71 66
246104.86584473 3357703.57836914 12.35189056 47 49 44
246103.95007324 3357703.32788086 13.04857540 203 157 105
246103.67492676 3357704.10815430 13.52349854 232 243 249
246103.66625977 3357703.31683350 12.75013828 104 70 33
246103.62255859 3357704.44793701 13.28043747 172 149 117
246104.32299805 3357704.29071045 13.21854496 95 84 62
246104.57324219 3357703.91802979 12.62700748 61 69 58
246103.23388672 3357704.46215820 12.02476501 93 77 64
246103.17553711 3357703.29742432 11.99586296 194 175 142
246103.30419922 3357703.31719971 12.08704472 191 162 122
246104.41162109 3357704.45129395 12.75363445 155 134 107
246105.05456543 3357704.67498779 11.79534721 88 90 85
246103.07971191 3357703.65179443 13.34788895 235 239 238
246102.82495117 3357703.92547607 12.84688473 181 192 184
246104.48889160 3357703.80236816 12.98792362 71 78 71
246103.13891602 3357703.62738037 13.40281963 235 241 241
246104.01000977 3357704.38189697 12.93639565 123 101 78
246104.02416992 3357703.29217529 13.35697079 207 165 107
246102.98449707 3357703.30841064 12.79815483 222 190 149
246103.74182129 3357703.30084229 13.07815742 145 97 57
246103.43273926 3357703.29681396 12.92802811 78 47 18
246102.82397461 3357703.93267822 12.83365917 176 188 178
246103.34045410 3357703.28009033 13.38950348 235 208 178
246103.65661621 3357703.25939941 13.28063297 108 75 40
246103.41699219 3357703.34777832 12.51295662 144 116 92
246104.84655762 3357703.34118652 12.04785919 153 140 121
246103.96154785 3357703.32031250 13.11067772 235 190 131
246103.46069336 3357703.67932129 13.52038860 239 247 249
246103.10095215 3357704.44573975 13.23749733 151 127 91
246102.94848633 3357704.47845459 12.21387291 108 93 74
246103.75561523 3357703.80035400 13.52997780 195 204 209
246102.93957520 3357703.60729980 13.20105648 222 231 226
246104.99536133 3357703.74114990 12.14274883 60 66 56
246104.53344727 3357704.42474365 12.70532799 150 139 121
246103.08166504 3357704.29675293 13.31325150 244 235 218
246103.95812988 3357703.34436035 12.79117966 184 145 102
246103.24206543 3357703.32110596 12.85634708 100 67 34
246103.50561523 3357703.39251709 13.53647900 230 230 232
246103.71606445 3357704.43426514 13.47739506 146 122 84
246103.59289551 3357704.15734863 13.51783657 236 243 249
246103.10864258 3357704.36071777 13.36357975 239 224 205
246103.30944824 3357703.74835205 13.48945808 206 207 212
246104.84667969 3357703.25396729 11.93339157 203 188 159
246103.49731445 3357704.45129395 12.15368462 117 104 87
246103.66577148 3357703.30633545 12.30086517 173 138 98
246104.24145508 3357703.19311523 11.89012337 199 179 144
246105.21350098 3357703.66308594 11.89577103 78 74 63
246103.93164063 3357704.23187256 13.51494026 198 207 206
246103.02416992 3357704.47186279 12.40823078 125 107 87
246103.28857422 3357703.33489990 12.65396786 95 56 27
246104.60827637 3357704.06976318 12.58171082 59 65 53
246105.10607910 3357703.34411621 11.87565517 201 188 154
246104.55786133 3357704.40539551 12.44609070 53 46 28
246104.68347168 3357704.51580811 11.80574608 63 68 61
246102.93347168 3357704.35913086 12.25728130 161 145 129
246104.08935547 3357703.85644531 13.39779568 100 119 123
246103.01977539 3357704.17687988 13.21170139 244 246 232
246104.65844727 3357704.77416992 11.80192280 99 101 96
246104.02978516 3357704.47302246 11.89470959 41 36 30
246102.76757813 3357703.34991455 12.85628986 185 158 129
246103.56518555 3357704.45336914 12.64338589 53 40 24
246103.78698730 3357703.28411865 12.39147949 125 83 45
246103.27343750 3357703.58166504 13.48331451 240 244 247
246102.87609863 3357704.29400635 12.93545723 211 208 189
246103.20495605 3357704.46911621 12.46347809 58 40 20
246103.22680664 3357704.46960449 12.51004410 68 50 30
246104.15502930 3357704.41778564 12.65244102 67 45 24
246104.37988281 3357703.27667236 12.04534435 153 125 86
246103.49108887 3357704.44982910 13.17537308 65 44 25
246103.89074707 3357704.43652344 13.15759945 71 44 23
246103.46813965 3357704.04455566 13.50559998 238 243 247
246104.23413086 3357703.14556885 11.85853291 201 187 152
246102.88439941 3357703.71191406 12.51698399 151 154 143
246104.51074219 3357703.30096436 12.98633862 171 154 126
246104.97131348 3357704.00476074 12.06032562 49 60 56
246103.17309570 3357704.46124268 12.09279728 114 97 81
246104.66467285 3357703.28295898 12.31924343 56 42 16
246103.96044922 3357703.29290771 13.46194267 221 177 128
246104.67785645 3357703.73962402 12.50942039 42 47 41
246102.75061035 3357703.41241455 12.65073586 133 124 109
246104.34216309 3357704.60021973 11.80841541 87 95 98
246105.00695801 3357704.22552490 11.90019703 69 71 66
246102.85083008 3357703.99591064 12.97136497 192 209 203
246103.91540527 3357704.39801025 12.67916775 74 57 41
246102.89001465 3357703.77148438 12.48704052 139 142 133
246104.26928711 3357703.28393555 12.96200180 212 194 144
246103.97668457 3357703.54510498 13.46354866 140 154 157
246104.34948730 3357704.42584229 12.28931522 117 104 88
246102.86499023 3357704.39453125 12.53425217 158 137 118
246105.05798340 3357704.16619873 11.90941811 74 76 71
246103.19091797 3357703.41705322 13.46126842 245 245 243
246103.27453613 3357703.29174805 13.10498524 94 64 30
246103.00683594 3357703.62750244 13.27345181 221 232 226
246102.85241699 3357703.48278809 13.09631252 208 211 200
246105.21716309 3357704.64074707 11.78479099 100 102 91
246103.81713867 3357704.40795898 12.93841267 55 33 12
246103.09729004 3357703.93029785 13.34870434 247 250 241
246103.10632324 3357704.46728516 12.16267204 136 120 104
246104.11157227 3357703.53454590 13.39425182 87 108 109
246104.36242676 3357704.22802734 13.17008686 72 66 42
246102.98425293 3357703.39489746 13.23065376 232 229 220
246102.77502441 3357703.46478271 12.89776039 172 171 167
246104.46447754 3357704.51806641 11.79175472 104 109 112
246103.08508301 3357703.31518555 12.63062668 180 148 107
246104.55786133 3357704.32110596 12.83943462 81 76 54
246103.41284180 3357703.31707764 11.99118519 196 167 127
246104.88073730 3357703.63439941 12.29490566 46 48 43
246103.23071289 3357704.28070068 13.45896912 247 243 240
246103.37133789 3357704.15612793 13.50121880 242 246 249
246103.17382813 3357703.64465332 13.43348408 244 248 249
246103.47875977 3357703.90972900 13.51240063 231 238 244
246104.50573730 3357703.58197021 12.95618153 80 82 68
246104.66540527 3357704.43548584 11.81128025 54 59 53
246103.23474121 3357704.30480957 13.46458626 247 242 236
246103.20141602 3357703.32012939 12.19748116 210 182 143
246103.37988281 3357704.10522461 13.50055027 241 245 246
246103.21423340 3357704.45031738 13.29397297 174 146 109
246103.21801758 3357703.29699707 11.99089050 203 181 142
246103.21643066 3357704.46972656 12.50448895 68 50 30
246103.65991211 3357703.67053223 13.54341698 222 231 236
246104.84350586 3357703.86926270 12.22218418 50 53 46
246104.84899902 3357703.98748779 12.14023685 48 54 50
246104.55297852 3357703.28338623 12.68173885 244 231 187
246104.64160156 3357703.89422607 12.49959564 48 55 48
246104.39306641 3357703.14819336 11.89857960 197 181 147
246103.67822266 3357703.25628662 11.93109226 186 153 118
246103.25122070 3357703.63458252 13.47406006 233 237 238
246104.54772949 3357703.93878174 12.67825794 64 70 60
246103.05554199 3357704.32299805 13.28460598 239 227 205
246104.42224121 3357704.44140625 12.56694984 126 105 84
246104.44921875 3357703.91674805 13.01149178 84 90 80
246103.58544922 3357703.31146240 12.20613384 135 100 58
246104.32580566 3357703.27294922 12.98139477 204 186 140
246102.78710938 3357703.54937744 12.98989487 191 200 199
246104.69079590 3357704.63665771 11.79508400 73 78 74
246103.55285645 3357704.04498291 13.51512051 234 241 247
246103.73632813 3357703.31835938 12.62942886 131 95 59
246102.96374512 3357703.76965332 13.23098755 224 231 224
246102.98925781 3357704.44818115 13.06823826 89 66 34
246103.35705566 3357703.33410645 12.41156960 91 57 30
246104.36877441 3357703.23895264 11.94980240 204 182 145
246104.66101074 3357704.58502197 11.79231262 67 72 66
246104.60168457 3357703.73602295 12.65152073 64 70 60
246103.76953125 3357703.48107910 13.53311157 204 215 221
246103.10913086 3357704.45098877 13.00453854 69 48 17
246105.10839844 3357704.26538086 11.86061382 80 81 75
246103.88183594 3357703.30877686 12.68779564 144 101 59
246104.52600098 3357703.26672363 12.12702560 105 81 43
246102.85375977 3357704.11614990 12.60239506 162 167 161
246104.84558105 3357704.28619385 11.90790939 61 66 60
246104.28991699 3357704.41967773 13.01458740 106 85 56
246103.18786621 3357704.45758057 13.37271404 165 133 92
246105.29479980 3357703.64648438 11.84314728 89 79 67
246103.39501953 3357704.46240234 12.54804707 52 39 23
246104.77136230 3357703.34118652 12.25831413 53 45 32
246104.28515625 3357703.27233887 12.21370792 177 142 102
246103.87548828 3357704.40722656 12.51454258 40 27 18
246103.48144531 3357704.46612549 12.07596970 116 100 85
246104.09692383 3357704.40710449 12.66400909 91 72 55
246104.33044434 3357704.40997314 12.18480206 108 96 82
246103.93664551 3357703.27624512 12.27982998 195 153 115
246103.95471191 3357704.39422607 12.55958080 74 58 43
246104.40820313 3357703.27471924 12.04607105 149 121 82
246103.19995117 3357704.45098877 13.08193684 92 69 38
246104.57629395 3357704.39544678 12.42030811 44 45 31
246103.47229004 3357703.36218262 12.44865799 127 101 74
246104.85388184 3357704.79602051 11.80023956 84 87 80
246104.58227539 3357703.68133545 12.75762463 70 73 62
246104.49230957 3357704.43658447 12.79080486 156 141 120
246104.07348633 3357704.44207764 12.12747478 113 94 79
246103.89501953 3357704.65045166 11.88774014 57 59 58
246103.54956055 3357704.44348145 13.08722305 53 35 13
246105.14477539 3357704.95947266 11.76040745 187 188 156
246103.82861328 3357703.30645752 13.10001469 187 136 89
246104.01794434 3357703.27453613 12.46442127 166 125 81
246104.34362793 3357703.67791748 13.13659191 63 75 71
246104.09924316 3357703.59387207 13.40525055 95 115 116
246103.36669922 3357703.57806396 13.51060486 247 250 255
246103.04797363 3357704.46844482 12.28851509 123 108 87
246102.99145508 3357703.57922363 12.16189671 137 137 125
246105.06994629 3357704.03955078 11.98588181 59 72 65
246103.14611816 3357704.44775391 13.20347881 158 136 99
246103.11132813 3357704.34259033 13.36141014 239 224 205
246104.18200684 3357703.30316162 12.90232849 200 169 122
246104.02392578 3357703.27606201 12.42980194 187 145 103
246103.64501953 3357704.18316650 13.52527332 237 245 248
246104.12243652 3357704.42041016 12.06742954 111 93 81
246103.53381348 3357703.28753662 13.02431202 97 62 32
246104.58007813 3357703.54248047 12.88384914 80 81 65
246103.42993164 3357704.46307373 12.75590992 57 42 23
246103.34143066 3357703.55316162 13.50390244 242 243 247
246103.73498535 3357703.29370117 12.35339928 139 101 64
246104.22583008 3357704.43304443 12.22699451 93 78 59
246102.87963867 3357704.22198486 12.97329521 211 213 200
246103.57434082 3357703.98858643 13.51999760 233 241 244
246102.99011230 3357703.70068359 12.10713577 80 80 70
246102.99707031 3357703.31591797 12.19898510 232 216 180
246104.97534180 3357703.43817139 12.05909252 81 75 59
246103.89465332 3357703.27520752 12.37323189 181 137 100
246102.82519531 3357703.95153809 12.84153271 173 185 175
246102.78796387 3357703.57379150 12.73355293 180 181 175
246103.07177734 3357703.42126465 13.33430576 244 243 239
246103.12341309 3357703.31909180 12.82539749 110 76 38
246103.66577148 3357703.30865479 12.85934448 128 93 55
246104.19531250 3357703.29656982 13.05882263 237 231 183
246103.84143066 3357704.40441895 12.96048927 55 33 12
246103.52856445 3357703.62268066 13.53052616 241 249 252
246103.64685059 3357704.27307129 13.54089737 240 240 232
246104.58117676 3357704.35162354 12.60859394 62 59 44
246104.11474609 3357704.41497803 12.52393341 65 47 25
246103.29003906 3357704.46685791 12.64107609 69 52 36
246104.57604980 3357703.26666260 12.58818340 168 153 114
246103.29199219 3357703.30480957 12.02073669 182 157 116
246104.10778809 3357704.40234375 12.81467819 84 62 41
246103.40844727 3357703.44464111 13.52494049 249 250 254
246104.80468750 3357703.46826172 12.44914627 39 44 40
246104.35437012 3357703.26281738 12.58457851 241 219 170
246104.77966309 3357704.63513184 11.81336498 78 83 79
246104.74645996 3357703.53491211 12.54328918 52 54 51
246104.75598145 3357703.37500000 12.48612404 48 49 41
246102.79663086 3357703.65423584 12.75267982 184 187 180
246103.63989258 3357704.44311523 12.56833649 56 44 30
246103.32373047 3357704.10961914 13.49533463 244 245 247
246104.60705566 3357704.33190918 12.27023411 43 46 37
246103.03234863 3357704.07025146 13.25771046 240 243 234
246104.50170898 3357703.87902832 12.79489517 67 75 62
246104.04431152 3357704.46582031 11.89499664 41 36 30
246103.08288574 3357703.32336426 12.48582268 214 184 146
246104.13562012 3357704.49774170 11.82985210 54 53 49
246103.62365723 3357703.29931641 13.01068020 78 37 7
246105.10375977 3357704.26196289 11.86323833 80 81 75
246104.86035156 3357704.46917725 11.83591843 82 84 79
246103.85400391 3357703.27185059 12.18675518 99 59 23
246102.79199219 3357703.58941650 12.97069263 187 197 196
246104.49157715 3357703.82995605 12.94836426 77 82 75
246105.33166504 3357703.10638428 11.81323242 209 195 169
246103.00988770 3357703.31933594 12.26073647 235 215 178
246102.85046387 3357704.01043701 12.61437416 151 161 153
246103.53881836 3357704.43463135 13.44310093 142 110 59
246102.78540039 3357703.55267334 12.68439484 155 158 149
246104.60327148 3357704.33068848 12.05083084 49 54 48
246102.79455566 3357703.63287354 12.79679394 179 184 178
246103.86828613 3357703.30810547 13.11819839 201 156 101
246103.53674316 3357704.44622803 13.26158047 80 53 32
246102.83068848 3357703.65948486 13.02567673 203 215 213
246102.89733887 3357704.34539795 13.09337616 214 208 182
246104.51135254 3357704.41595459 12.43404579 79 66 49
246103.51269531 3357704.45599365 12.85468292 66 49 31
246103.28344727 3357703.31597900 12.89606285 103 72 44
246103.71606445 3357703.31201172 12.76249313 168 133 93
246103.86706543 3357703.27191162 13.40510559 239 203 151
246103.96936035 3357703.28820801 13.43687153 226 183 130
246103.68811035 3357703.41149902 13.55322552 207 203 200
246104.68627930 3357704.27319336 12.02343082 62 67 61
246103.82666016 3357703.61810303 13.50043201 196 210 213
246102.87060547 3357704.39624023 12.92780876 142 129 97
246103.31176758 3357704.45617676 12.99857140 86 66 42
246103.46313477 3357703.15661621 11.84368229 212 195 167
