246082.89624023 3357570.30126953 16.38994408 11 141 216
246094.89904785 3357571.90502930 15.76392841 128 128 128
246093.10156250 3357570.96374512 15.79956913 99 168 207
246081.37890625 3357570.79998779 13.75182533 189 189 187
246082.63305664 3357570.39160156 16.52954102 3 165 238
246089.10485840 3357572.08715820 15.82314587 127 193 205
246082.89147949 3357571.14434814 15.85234356 128 128 128
246081.52050781 3357570.37048340 15.79260826 128 128 128
246093.56433105 3357572.02478027 16.04929733 195 244 255
246100.69091797 3357570.47302246 16.04128838 4 185 240
246093.04895020 3357571.52569580 15.73166370 104 184 237
246083.58520508 3357570.42663574 13.76972866 174 175 180
246083.10266113 3357571.33642578 15.85842228 128 128 128
246089.48742676 3357571.61047363 16.38825035 11 108 202
246100.54553223 3357569.81658936 15.65462303 226 243 250
246100.75744629 3357571.21514893 15.97982502 238 236 249
246089.78259277 3357572.00738525 16.22389984 127 126 183
246083.51391602 3357570.71069336 16.18524933 134 147 191
246093.13891602 3357572.80053711 15.75729465 102 185 217
246101.42285156 3357570.87420654 15.56984711 128 128 128
246100.49389648 3357571.54711914 13.92102146 81 82 86
246094.41796875 3357571.31109619 15.70093632 128 128 128
246082.94433594 3357571.17218018 15.85470009 128 128 128
246088.81896973 3357571.86322021 13.87795544 209 211 210
246100.77148438 3357570.93054199 16.03261375 215 255 255
246088.70727539 3357571.14672852 16.18580437 1 222 251
246100.70605469 3357570.91119385 15.61416435 128 128 128
246082.89404297 3357569.91674805 13.76403809 177 182 185
246101.16198730 3357571.31842041 13.81200695 171 172 174
246100.79638672 3357570.70739746 15.60132885 128 128 128
246101.22216797 3357571.16595459 15.56519794 128 128 128
246094.85559082 3357573.28283691 13.68311977 216 212 209
246088.91516113 3357572.34320068 15.85530186 140 192 205
246095.73706055 3357570.60894775 13.61396885 212 211 206
246081.97851563 3357569.76306152 15.81952667 128 128 128
246100.98498535 3357572.16833496 15.60694504 128 128 128
246093.44262695 3357571.23095703 15.71284485 128 128 128
246102.32287598 3357569.75366211 15.66132164 121 204 220
246102.67443848 3357570.07275391 13.60132122 182 181 176
246101.46166992 3357571.98345947 15.90267181 25 135 210
246101.31359863 3357572.14099121 15.73337364 120 177 207
246083.00183105 3357571.14343262 16.43139076 26 129 204
246101.11694336 3357569.62518311 15.77401924 25 159 222
246101.04882813 3357570.82012939 15.57716942 128 128 128
246100.24462891 3357571.41931152 15.73782158 188 229 255
246089.59826660 3357572.95678711 16.00893021 102 215 249
246088.26293945 3357570.85083008 15.57878304 160 188 191
246088.30627441 3357570.98919678 15.63401699 162 193 198
246083.15197754 3357570.01171875 15.91390419 128 128 128
246088.88366699 3357572.74334717 15.88952255 165 194 202
246081.75634766 3357571.56652832 15.76636696 128 128 126
246101.63330078 3357572.09191895 13.60764408 195 194 189
246093.62060547 3357571.09075928 15.97190380 239 242 235
246094.62219238 3357571.11846924 16.00794411 20 153 232
246088.39782715 3357571.10589600 16.04404640 4 213 246
246088.25097656 3357570.52148438 15.66153908 153 204 208
246088.53723145 3357572.10852051 16.29082870 9 144 225
246102.80566406 3357570.47741699 13.58778667 177 176 172
246094.60815430 3357571.27966309 15.70460987 128 128 128
246094.27636719 3357571.70275879 16.26409912 5 184 242
246081.99841309 3357570.79290771 16.27827454 17 189 235
246082.51904297 3357571.55700684 13.77981949 242 202 176
246095.21911621 3357573.23742676 13.65527725 216 211 207
246081.57299805 3357571.72045898 13.76993656 170 169 165
246101.46752930 3357569.60705566 15.80176640 10 142 227
246102.00158691 3357569.50799561 15.52689171 128 128 128
246094.47766113 3357570.81854248 15.77529526 127 145 145
246088.87377930 3357572.46478271 15.86949635 147 193 206
246103.04968262 3357571.83618164 13.55328369 135 159 171
246083.18151855 3357570.28454590 13.77920437 180 183 188
246095.00207520 3357572.27038574 13.69029236 221 218 213
246094.42248535 3357572.76721191 15.78374577 128 128 128
246088.58007813 3357571.10589600 16.11552238 1 222 248
246100.94140625 3357571.62329102 13.74653435 93 94 98
246101.66442871 3357571.73297119 15.72299099 128 128 128
246101.66455078 3357571.65783691 15.71366310 128 128 128
246093.56359863 3357572.10064697 16.04483032 161 198 216
246094.20263672 3357572.61553955 16.23630714 28 147 241
246102.45214844 3357569.72637939 13.53365135 190 186 183
246101.47949219 3357572.09344482 13.62815189 185 184 179
246089.33837891 3357570.72070313 16.00381851 12 166 218
246082.71520996 3357569.63732910 16.10508156 53 144 145
246089.46118164 3357571.25091553 13.66987038 187 186 182
246088.28869629 3357570.72619629 13.93224525 153 149 148
246101.75036621 3357570.41564941 16.16001892 13 175 222
246094.03808594 3357572.03588867 15.69714737 128 128 128
246088.24243164 3357571.95953369 15.77992058 125 202 222
246101.50964355 3357570.87823486 13.73467159 198 195 190
246083.43823242 3357571.43670654 15.89609814 128 128 128
246094.15515137 3357572.39996338 16.29490852 1 186 242
246081.88830566 3357570.17926025 13.73683834 162 166 165
246089.23352051 3357572.67822266 13.70078850 197 201 202
246089.07836914 3357570.75341797 16.06110764 23 167 228
246082.09094238 3357570.22210693 16.29699135 35 215 238
246093.55810547 3357572.91662598 13.76765347 211 211 209
246094.53833008 3357571.10601807 16.00722122 41 140 197
246094.02429199 3357571.52227783 15.69220161 128 128 128
246093.52172852 3357572.21997070 13.64789391 224 221 216
246102.99548340 3357571.37860107 13.62514877 155 156 160
246083.43225098 3357570.63775635 15.90892696 128 128 128
246094.80773926 3357572.56933594 13.67377663 209 206 201
246083.68542480 3357570.74188232 13.85741806 156 161 165
246100.56311035 3357571.23547363 13.99804115 224 223 229
246102.91479492 3357570.63098145 13.55385494 163 163 163
246100.43249512 3357570.22338867 15.59359646 128 128 128
246095.04345703 3357572.16302490 13.69910336 216 212 209
246089.17102051 3357572.71343994 16.12141418 8 141 232
246093.59802246 3357570.99047852 15.92873287 246 247 239
246093.79602051 3357572.50860596 15.70972252 128 128 128
246094.78149414 3357572.03942871 13.68871117 213 209 206
246082.30163574 3357571.43524170 13.83763981 237 214 206
246102.36157227 3357570.96258545 13.60633945 198 193 187
246089.40344238 3357572.96832275 15.95375538 11 173 237
246082.20129395 3357571.05950928 13.76529121 166 186 195
246089.22619629 3357572.84722900 15.88875103 109 185 211
246102.15380859 3357570.51019287 16.07384109 36 134 209
246094.95153809 3357572.71002197 13.69628906 216 215 211
246100.60021973 3357571.59429932 15.63684940 128 128 128
246088.67761230 3357572.62872314 15.88838196 150 187 203
246094.62402344 3357572.65692139 16.24848175 17 111 199
246101.83630371 3357571.25958252 13.65880013 203 200 193
246083.19824219 3357570.10394287 16.25271225 13 153 189
246081.63037109 3357571.07006836 16.13607788 5 191 248
246093.56457520 3357571.84106445 15.68144512 128 128 128
246094.70349121 3357572.46179199 13.67485714 209 206 201
246084.11889648 3357570.24768066 13.71820831 169 172 177
246094.16687012 3357572.49481201 13.75432301 220 216 213
246101.80004883 3357571.29272461 15.70516109 127 128 130
246083.48620605 3357571.26647949 13.97755814 105 83 70
246083.57312012 3357570.91088867 16.14789772 116 145 189
246093.04736328 3357570.97235107 13.74439240 208 204 201
246088.71850586 3357572.80517578 13.74581432 193 202 209
246082.92919922 3357569.87927246 13.76229763 173 178 181
246083.67395020 3357570.12091064 16.12388992 91 199 212
246093.24658203 3357571.57110596 15.94477272 14 200 251
246100.94921875 3357569.92633057 15.86458302 2 174 246
246095.24243164 3357573.02874756 13.69256592 210 209 207
246093.90551758 3357570.88189697 15.76000786 166 181 160
246094.07617188 3357571.93237305 15.69307423 128 128 128
246100.44396973 3357570.97851563 15.87900543 27 160 219
246094.27954102 3357573.13696289 13.68760777 208 207 205
246088.46704102 3357571.57000732 16.17784309 234 119 150
246083.04284668 3357570.00634766 13.77197361 189 194 197
246089.43432617 3357571.99273682 13.69577408 199 199 201
246081.42333984 3357570.57800293 16.01916504 1 179 227
246102.43408203 3357571.93493652 13.56525898 189 190 184
246088.95776367 3357572.74645996 16.09285355 92 147 201
246087.99475098 3357571.07794189 15.91723919 33 193 229
246081.91052246 3357571.17681885 13.79330349 204 204 206
246081.76928711 3357569.64038086 15.81929207 114 133 139
246093.74731445 3357571.06109619 15.97438335 227 228 214
246083.27441406 3357570.49426270 16.32269287 17 122 187
246093.94689941 3357571.72296143 15.68925667 128 128 128
246101.12890625 3357571.07501221 15.57327652 128 128 128
246094.89672852 3357571.54730225 15.73799706 128 128 128
246102.56225586 3357570.07250977 13.61189842 190 187 182
246082.10913086 3357569.62243652 13.72941399 150 154 157
246102.10925293 3357569.75463867 15.86623764 14 136 213
246082.63647461 3357571.67431641 15.85208893 128 128 128
246082.96948242 3357570.04071045 13.77300739 165 170 173
246088.62817383 3357571.81774902 13.88641167 205 209 210
246100.27185059 3357570.44598389 15.63433266 128 128 128
246095.48779297 3357572.16656494 13.65705776 216 212 209
246101.64538574 3357570.89721680 16.50939369 13 102 158
246095.38171387 3357571.74865723 15.98789883 56 145 205
246082.71459961 3357569.67730713 15.92275906 105 116 82
246083.89501953 3357570.17236328 16.03635788 32 143 186
246094.17810059 3357570.79034424 13.66141415 208 205 200
246083.02673340 3357570.17504883 16.32098007 32 135 193
246081.35498047 3357571.46636963 16.06044197 65 215 252
246081.14819336 3357571.59594727 15.99264812 34 193 235
246102.28625488 3357571.26123047 15.83371162 127 127 127
246088.00341797 3357572.35186768 15.97172928 75 155 208
246095.36682129 3357572.63525391 15.96534634 73 146 191
246101.26489258 3357570.47821045 13.73339176 204 201 194
246081.90478516 3357570.75390625 16.23151207 163 244 255
246094.66992188 3357573.03387451 13.72450638 206 206 204
246089.22204590 3357572.65319824 15.88237095 121 188 207
246082.55187988 3357570.97363281 16.48725700 3 154 233
246094.92565918 3357572.73205566 13.69776630 212 211 207
246089.47094727 3357572.96551514 15.98997688 26 171 226
246093.42407227 3357570.86346436 13.70091915 202 199 194
246082.05725098 3357570.41809082 15.80925751 128 128 128
246100.86071777 3357572.06921387 15.61808395 128 128 128
246081.59960938 3357570.45965576 16.07727623 193 250 255
246088.63879395 3357572.18682861 13.90252399 199 204 207
246094.34704590 3357573.09387207 13.69634628 205 205 203
246102.50036621 3357570.51684570 13.61713028 195 192 187
246083.04296875 3357570.81372070 16.48140717 20 112 185
246100.02148438 3357570.36206055 15.67547131 44 166 233
246093.27172852 3357571.57098389 13.68134403 182 183 178
246088.76525879 3357570.44555664 13.86431694 204 204 202
246095.50256348 3357572.57000732 13.66158772 215 215 213
246095.11083984 3357572.99316406 15.96239281 40 162 203
246081.51818848 3357570.60528564 16.06209373 90 229 250
246081.26660156 3357570.58264160 15.88646793 169 242 249
246094.79150391 3357573.18988037 15.92927170 83 156 209
246093.98168945 3357571.22302246 15.70542812 128 128 128
246094.19506836 3357572.27435303 13.70588017 219 218 214
246101.66418457 3357571.58728027 13.67869091 194 194 186
246093.50927734 3357572.86822510 15.94371986 104 221 239
246093.36633301 3357572.22583008 15.95956898 199 237 248
246101.37609863 3357570.99279785 16.38994980 5 172 240
246095.56494141 3357572.11578369 13.64935303 207 206 202
246088.55493164 3357572.48950195 15.87389946 178 198 199
246088.69653320 3357571.86492920 15.80791378 139 199 207
246095.62158203 3357571.21600342 13.67196560 206 202 199
246082.29394531 3357570.57421875 16.45121574 28 227 255
246088.21118164 3357570.56256104 15.67412472 156 211 218
246082.13330078 3357570.33020020 15.81694508 128 128 128
246100.72143555 3357571.93597412 15.83707523 46 173 228
246094.19885254 3357570.96881104 15.72464561 128 128 128
246094.27661133 3357570.73931885 13.65698242 200 197 192
246082.70288086 3357571.66656494 15.85694599 128 128 128
246100.75451660 3357570.39501953 13.68130207 185 177 174
246089.13476563 3357571.28186035 13.69196129 204 204 202
246095.04333496 3357571.16900635 15.72377014 128 128 128
246090.44494629 3357571.34124756 13.66853428 212 211 209
246102.05810547 3357571.50323486 15.80168247 128 128 128
246101.78039551 3357571.11578369 15.67778683 127 128 130
246094.08691406 3357571.88769531 15.69080925 128 128 128
246101.39990234 3357571.04980469 16.37858200 3 157 229
246089.57861328 3357572.01690674 16.32642937 16 95 174
246094.26562500 3357571.89099121 13.76130676 213 212 207
246102.16137695 3357570.90759277 16.14036751 51 131 204
246100.71179199 3357569.86468506 13.56388760 219 216 211
246082.27331543 3357569.68572998 16.15271950 32 165 164
246095.04333496 3357571.94030762 13.70912838 216 215 211
246102.73156738 3357569.75622559 13.54830551 188 184 181
246094.78466797 3357572.19067383 13.68145370 219 216 211
246101.03955078 3357571.57812500 15.59115410 128 128 128
246083.44091797 3357570.62536621 15.91001415 128 128 128
246100.99780273 3357571.94635010 15.93441296 87 208 253
246081.59387207 3357570.82836914 15.76430416 128 128 128
246101.94848633 3357570.39428711 13.66946125 201 197 188
246094.48925781 3357570.94409180 15.93319416 17 147 209
246089.09997559 3357570.90594482 15.80254269 114 165 146
246088.27148438 3357571.47119141 16.08007431 147 173 200
246100.98706055 3357570.63140869 13.81488037 159 153 153
246094.28332520 3357572.66571045 15.76412678 128 128 128
246082.17456055 3357571.79656982 15.87419891 88 169 216
246093.75964355 3357571.97875977 13.64768219 200 199 194
246095.14379883 3357571.41333008 15.74702644 128 128 128
246101.46459961 3357572.09240723 15.77976799 141 179 198
246081.89270020 3357570.91040039 16.23720741 5 202 254
246093.93688965 3357571.98913574 15.68701935 128 128 128
246090.36340332 3357571.28265381 13.66499996 228 226 227
246088.96142578 3357572.62255859 13.78314018 199 200 204
246081.13269043 3357570.70318604 13.75316238 183 183 181
246083.61755371 3357571.03051758 15.90504742 129 127 128
246103.03820801 3357571.13934326 13.58319855 148 152 155
246093.55627441 3357571.60675049 13.70653439 192 192 190
246093.08618164 3357571.23504639 15.73961926 114 133 140
246101.09533691 3357572.44451904 13.58490753 190 186 183
246081.71508789 3357571.29840088 13.78225708 220 211 206
246095.33349609 3357571.41339111 15.75475025 128 128 128
246088.65673828 3357571.60540771 16.28833199 121 232 243
246102.36218262 3357569.70892334 15.84510803 44 130 177
246082.08740234 3357569.62115479 13.72883606 156 160 163
246088.69482422 3357570.46612549 15.99717712 107 203 215
246089.26562500 3357572.19958496 16.38119316 26 117 208
246094.99084473 3357570.87207031 15.72127342 128 128 128
246081.32409668 3357571.57659912 13.74605751 186 179 171
246082.49230957 3357570.22198486 13.74236774 176 179 184
246101.18713379 3357570.75183105 15.56171227 128 128 128
246101.08886719 3357569.60107422 15.73511410 145 218 251
246094.92016602 3357572.42102051 13.67482090 214 210 207
246096.89526367 3357573.15679932 13.59027958 113 126 134
246087.60046387 3357572.25439453 14.09134007 189 185 186
246093.80004883 3357572.22247314 13.67127895 220 217 212
246082.80126953 3357570.72552490 13.74194717 140 153 146
246088.79223633 3357572.53057861 13.83163261 192 196 199
246100.83483887 3357571.19647217 16.01778793 206 172 188
246102.23950195 3357570.07897949 15.93776894 12 149 227
246083.66552734 3357570.22662354 16.14106178 30 157 200
246089.42150879 3357572.66711426 13.68644524 197 201 202
246100.92309570 3357571.92547607 15.60916424 128 128 128
246100.72326660 3357570.34167480 15.59417534 128 128 128
246081.98156738 3357570.42810059 15.80278873 128 128 128
246094.81250000 3357573.13555908 15.98601627 54 133 202
246102.42419434 3357570.77160645 13.60558224 196 193 186
246093.06518555 3357572.18664551 15.83282852 108 189 216
246094.57507324 3357570.92083740 13.68759632 198 197 195
246102.31677246 3357571.57403564 15.88459396 91 162 214
246089.58605957 3357571.60858154 16.34433746 48 145 226
246102.18481445 3357571.19445801 16.14607430 26 128 210
246102.46423340 3357570.66674805 15.85379505 156 203 245
246089.04687500 3357571.98211670 13.81709576 202 203 205
246100.76989746 3357571.93029785 15.62508202 128 128 128
246081.77233887 3357571.24511719 13.78995609 220 211 204
246101.75903320 3357570.29602051 16.10540771 0 178 234
246090.17834473 3357571.43615723 15.93600464 112 201 207
246101.37243652 3357572.03564453 15.68110943 128 128 128
246093.49487305 3357571.85748291 15.68006039 128 128 128
246093.47802734 3357570.94372559 15.88208294 207 207 205
246095.43823242 3357571.56671143 15.92993641 73 158 213
246095.22741699 3357571.44097900 13.67637730 224 219 213
246094.73925781 3357572.12597656 16.38580894 1 95 183
246089.43408203 3357571.08013916 16.15809059 140 95 134
246089.43664551 3357572.96368408 15.88569546 71 179 217
246095.09765625 3357572.44274902 15.83286953 128 128 128
246093.66625977 3357571.81933594 15.68344784 128 128 128
246088.48193359 3357570.70898438 15.98529625 9 204 236
246100.78503418 3357570.70098877 16.07772827 1 185 239
246083.12402344 3357571.01696777 16.40347099 24 118 188
246093.46667480 3357571.86791992 13.64784527 208 204 201
246095.17810059 3357572.50170898 15.85915852 128 128 128
246088.97045898 3357571.85760498 16.54054070 82 245 255
246082.52392578 3357570.56451416 16.59984016 124 247 252
246093.68579102 3357572.33435059 15.68743324 128 128 128
246100.33593750 3357571.31695557 14.02684879 193 193 195
246102.75988770 3357569.76354980 13.54983330 191 190 186
246090.06445313 3357572.39691162 16.00932884 53 144 199
246100.91857910 3357571.39135742 16.02644348 94 194 243
246089.12878418 3357570.75817871 13.71295643 196 196 194
246093.74780273 3357571.02679443 13.69808960 185 180 176
246093.96960449 3357572.28942871 16.21792221 19 195 245
246089.65979004 3357573.05511475 13.67649841 194 198 199
246101.27734375 3357569.51519775 15.62148380 204 223 217
246093.57031250 3357573.08837891 15.93572807 95 220 242
246082.15673828 3357569.63458252 15.84811401 129 129 129
246102.91027832 3357571.45617676 13.60711575 163 167 168
246094.82873535 3357571.11889648 15.98827171 13 147 218
246089.05175781 3357572.64178467 13.74843025 198 202 205
246082.81970215 3357571.80767822 13.71961784 198 180 158
246093.38586426 3357572.77539063 15.69731903 135 188 206
246089.00610352 3357572.74212646 15.88806820 166 194 205
246101.43188477 3357571.72338867 16.05873871 11 126 219
246101.66052246 3357571.81494141 13.62709427 181 178 173
246094.86486816 3357571.40325928 15.72481918 128 128 128
246090.47924805 3357571.89855957 13.66934872 209 208 206
246095.57409668 3357571.37011719 13.68635845 225 221 218
246100.97888184 3357571.49365234 15.59598351 128 128 128
246100.60424805 3357570.96679688 13.93715477 68 73 76
246081.94982910 3357569.71374512 16.13637733 3 206 246
246081.78808594 3357571.50866699 13.77112007 252 252 250
246083.00451660 3357572.05914307 13.70715904 204 191 182
246095.27990723 3357571.21984863 16.00807381 11 136 203
246081.39758301 3357571.25225830 16.05295372 2 178 238
246101.94665527 3357571.40130615 13.63687038 207 204 197
246095.28466797 3357571.96350098 16.06727982 198 94 127
246088.29956055 3357571.17053223 13.79875183 159 155 152
246101.60607910 3357571.20965576 13.69004631 182 183 178
246081.42541504 3357570.09649658 15.85887146 208 249 251
246100.81188965 3357572.67266846 13.64601803 203 198 195
246089.01464844 3357570.73706055 15.86151314 88 146 131
246094.70617676 3357572.03540039 16.41317749 9 104 194
246081.02990723 3357571.71496582 13.82117176 208 210 207
246094.01782227 3357572.28680420 16.24252510 3 199 249
246094.75854492 3357572.64141846 13.68587875 216 215 211
246101.68237305 3357569.68963623 13.52714729 218 213 207
246081.85217285 3357569.74926758 16.10206223 9 206 241
246100.87768555 3357570.12408447 13.57221603 204 201 196
246088.06140137 3357571.31555176 13.73280621 188 183 179
246087.85339355 3357572.23376465 13.98670387 228 215 222
246082.66833496 3357571.49682617 16.23947525 162 140 204
246088.50048828 3357570.70080566 13.97851276 202 200 201
246083.52429199 3357570.07958984 16.02204514 72 124 111
246100.57788086 3357571.25128174 15.63325691 128 128 128
246095.40881348 3357572.07269287 16.01984787 104 112 149
246089.79516602 3357571.43933105 15.86026573 78 183 204
246101.71240234 3357571.06872559 15.65339947 128 128 128
246093.66125488 3357572.04516602 13.63254833 200 199 194
246102.20080566 3357571.68933105 15.86505318 70 162 213
246100.98840332 3357571.80535889 13.67702770 97 98 100
246081.63537598 3357571.46887207 16.07548332 14 161 238
246095.04174805 3357570.79705811 13.65416718 207 204 199
246093.33374023 3357572.06072998 15.95453644 88 207 237
246081.62854004 3357570.22833252 16.07806206 130 237 255
246089.58850098 3357571.62707520 16.35858154 70 163 241
246083.00585938 3357570.13879395 15.89267445 128 128 128
246088.36853027 3357570.60467529 15.92016029 11 190 220
246083.04345703 3357571.68310547 16.20468712 7 131 217
246093.60314941 3357572.67028809 15.70427513 128 128 128
246088.92846680 3357571.57550049 16.42878723 32 223 231
246102.74536133 3357569.72406006 13.55203247 185 184 180
246101.33959961 3357571.90649414 13.64049244 211 203 200
246094.14306641 3357572.72094727 16.18713188 24 142 232
246094.99291992 3357571.48284912 16.12976265 77 182 248
246101.14135742 3357571.98553467 13.62099171 193 190 183
246093.06823730 3357571.52404785 13.66625786 195 196 191
246101.76843262 3357569.84545898 13.55898857 216 211 205
246083.58203125 3357571.22412109 16.10804939 20 131 186
246094.59423828 3357571.64160156 15.71801472 128 128 128
246093.24841309 3357571.68914795 15.67691326 129 128 126
246083.35827637 3357571.42468262 13.92938614 220 224 210
246100.07629395 3357570.07855225 15.61882114 161 195 220
246093.29370117 3357571.48205566 13.71833134 187 188 183
246088.26904297 3357570.48004150 15.75698662 125 215 206
246082.51171875 3357570.95483398 16.49040413 2 151 219
246093.87744141 3357572.27667236 13.68749046 218 217 212
246088.21423340 3357570.59265137 13.77042007 209 205 202
246095.37817383 3357571.18939209 13.69214821 214 209 203
246090.14050293 3357571.94451904 16.05474663 53 128 193
246095.57690430 3357570.82800293 15.74840641 122 130 133
246100.80212402 3357572.01416016 13.61858845 89 90 92
246094.11242676 3357571.13604736 15.71115303 128 128 128
246102.06970215 3357570.79376221 16.17835426 35 128 205
246081.97741699 3357571.76232910 15.87971973 91 170 211
246101.32226563 3357570.12084961 15.53689098 128 128 128
246094.39050293 3357572.56799316 16.27367020 19 132 226
246089.24047852 3357571.24957275 15.77853489 154 222 201
246102.31591797 3357571.05279541 15.81587315 127 129 126
246094.85668945 3357571.65631104 15.74229622 128 128 128
246089.34643555 3357571.30615234 15.79288673 138 214 201
246081.61132813 3357569.85870361 13.74260426 183 184 188
246083.10705566 3357570.56292725 16.43604088 23 113 191
246093.55065918 3357571.69024658 16.07532501 16 210 245
246081.37219238 3357570.12426758 15.87740898 218 254 254
246082.43151855 3357570.98419189 16.44608307 8 155 225
246082.61022949 3357571.86706543 15.89856911 153 201 201
246093.10986328 3357572.76116943 15.74262619 32 144 192
246101.66271973 3357572.31591797 13.62920094 180 179 177
246081.34082031 3357571.39843750 16.06350136 12 181 222
246093.74731445 3357571.84973145 16.15845299 28 221 252
246082.33300781 3357569.80206299 15.85058212 128 128 128
246102.25231934 3357570.17541504 15.95909119 8 145 223
246083.86779785 3357570.40307617 13.75578499 160 165 169
246100.82702637 3357570.98547363 13.92979145 255 255 255
246082.67895508 3357569.69378662 15.90986061 109 118 91
246100.89672852 3357571.88793945 15.91635895 18 165 234
246100.73986816 3357570.36676025 13.65088463 198 191 185
246095.65856934 3357570.92883301 13.65095520 217 213 210
246094.19372559 3357571.10968018 13.71620655 210 207 202
246094.87792969 3357571.26806641 15.71625710 128 128 128
246082.07470703 3357570.98986816 13.76224899 189 199 201
246095.16845703 3357572.15606689 15.80449867 128 128 128
246094.20178223 3357571.67346191 16.24724579 5 186 239
246082.30456543 3357571.54620361 15.81088734 128 128 126
246083.59643555 3357570.31018066 15.93882370 128 128 126
246082.82836914 3357569.83740234 16.21471977 188 88 96
246095.00891113 3357571.06304932 15.71351433 128 128 128
246083.55761719 3357570.08148193 16.09148407 24 138 162
246089.13500977 3357572.62603760 13.72640896 203 207 208
246081.58264160 3357570.16198730 13.74452400 187 188 192
246089.07092285 3357571.17089844 13.68740654 211 211 209
246082.52380371 3357570.40808105 16.54346657 95 227 242
246094.37915039 3357572.03649902 15.72737026 128 128 128
246088.02795410 3357571.39392090 13.72770882 134 127 121
246101.10839844 3357570.99505615 15.57402134 128 128 128
246101.29284668 3357571.84027100 16.01353645 5 124 216
246090.06127930 3357571.47839355 15.90811253 92 189 206
246088.84765625 3357572.59777832 15.88459587 154 192 203
246100.39062500 3357570.34722900 15.60697365 128 128 128
246101.16198730 3357571.17822266 15.57163525 128 128 128
246101.05578613 3357571.49493408 16.05799294 19 184 242
246094.96923828 3357571.63446045 15.75068378 128 128 128
246094.91601563 3357571.10559082 15.71150875 128 128 128
246089.54296875 3357572.87255859 15.88359737 82 179 211
246082.34326172 3357570.23870850 16.39233017 47 232 250
246082.47998047 3357570.48229980 16.55363464 125 244 252
246082.20556641 3357569.80273438 16.25635910 89 232 228
246100.89697266 3357571.96783447 15.90195942 23 152 218
246082.31701660 3357570.12316895 13.73082924 170 174 177
246090.26806641 3357571.87347412 13.69357014 211 211 211
246083.11108398 3357571.44061279 13.88661671 89 150 178
246093.74914551 3357571.00305176 13.69184971 189 184 180
246088.19824219 3357571.74530029 13.76141167 205 205 205
246082.55627441 3357571.32623291 16.28933716 169 136 191
246093.90344238 3357572.84075928 16.11417007 84 207 241
246081.32116699 3357570.63037109 13.75054836 193 193 193
246088.19580078 3357572.30749512 16.10091591 55 149 223
246101.67858887 3357569.65704346 13.52398109 222 215 207
246088.47790527 3357570.51684570 15.65462494 147 164 146
246088.88183594 3357572.85644531 13.71849537 193 196 201
246082.67187500 3357571.64508057 13.75753689 240 206 181
246093.83349609 3357572.48522949 15.71135044 128 128 128
246082.98291016 3357571.25866699 16.40439224 42 139 216
246088.44030762 3357571.09008789 13.86633110 232 236 237
246089.79699707 3357571.20312500 15.92307854 68 181 199
246089.62365723 3357571.49572754 15.83127785 98 190 201
246101.94616699 3357570.31640625 15.62826443 128 128 128
246094.52441406 3357572.06774902 15.74247074 128 128 128
246083.69006348 3357570.53637695 16.10486984 16 142 190
246100.55175781 3357570.78088379 15.95995903 0 168 239
246089.98889160 3357572.28082275 16.07600403 95 132 184
246088.19396973 3357572.39074707 13.87216759 184 191 197
246101.29040527 3357569.75189209 15.85229206 53 168 231
246102.39404297 3357571.15173340 16.03298759 14 129 210
246100.45751953 3357570.99206543 13.90629673 43 48 54
246083.20068359 3357571.90270996 13.74225426 214 192 171
246101.09020996 3357571.49694824 16.06742477 14 177 234
246083.09716797 3357569.95031738 15.91722870 128 128 126
246089.99108887 3357571.53204346 15.88812351 83 184 204
246101.10778809 3357572.25579834 15.63639259 128 128 128
246095.09094238 3357572.27984619 16.20383453 28 99 163
246102.82031250 3357571.87396240 13.55375195 179 185 183
246102.63720703 3357571.77117920 13.56515121 202 199 192
246094.34545898 3357571.62445068 13.82076931 212 208 205
246100.45458984 3357571.21661377 15.64540100 128 128 128
246100.49633789 3357571.02917480 13.94519424 120 129 134
246101.07592773 3357570.49517822 13.74765110 184 180 177
246094.70593262 3357570.76239014 15.83608913 71 164 225
246087.68676758 3357572.38879395 14.11521721 156 160 161
246095.23864746 3357570.81872559 15.73423767 64 120 145
246093.89440918 3357571.25256348 13.69936848 191 188 183
246100.81958008 3357569.73114014 15.68304920 80 184 237
246100.94409180 3357570.10687256 15.56561565 128 128 128
246095.39843750 3357571.94824219 15.82238293 129 127 128
246083.07739258 3357570.66241455 16.46285439 19 110 189
246102.36999512 3357569.88348389 15.78555393 53 189 229
246101.28149414 3357571.53417969 15.60141182 128 128 128
246089.48071289 3357570.72375488 15.96254063 127 191 177
246083.47607422 3357570.21319580 16.21217728 49 169 186
246101.09045410 3357571.00549316 13.83571720 255 253 254
246083.70263672 3357570.84692383 13.89121914 133 140 148
246089.22192383 3357570.77416992 15.86384201 117 162 141
246094.62011719 3357572.26751709 15.76530552 128 128 128
246088.90844727 3357572.05261230 16.42479897 3 132 224
246101.14477539 3357572.18249512 13.59504128 183 180 173
246087.89135742 3357572.20147705 15.95777416 50 202 241
246088.93212891 3357572.77801514 16.07281303 80 135 191
246093.79321289 3357572.23968506 13.67323303 217 214 209
246094.79980469 3357573.17346191 15.89621353 105 177 217
246088.89331055 3357571.81146240 15.79772568 136 199 204
246088.56640625 3357571.73504639 15.78334999 138 201 210
246082.87792969 3357571.92120361 15.95450211 45 161 218
246082.87426758 3357570.61572266 16.63338280 101 186 241
246087.97326660 3357572.01837158 13.79832268 208 230 251
246083.45483398 3357569.78991699 13.74252892 178 181 186
246082.63647461 3357570.30859375 15.85925674 128 128 128
246083.29162598 3357571.62091064 16.19398689 26 154 201
246089.45678711 3357572.66589355 16.16069221 12 141 206
246100.12683105 3357569.90325928 15.77950191 42 150 212
246093.15979004 3357572.69665527 15.80471611 68 193 241
246093.07141113 3357572.18078613 15.84139156 108 189 216
246094.10302734 3357573.13244629 15.78895569 111 177 201
246095.37084961 3357572.33361816 15.87507534 128 128 126
246101.92602539 3357571.55212402 16.06810951 194 132 179
246093.69323730 3357571.10296631 13.73396492 183 182 177
246094.80920410 3357572.06671143 16.33237076 10 118 206
246088.71838379 3357572.56243896 16.10745430 142 144 159
246095.18737793 3357571.78979492 16.09324455 42 126 196
246100.28100586 3357569.97821045 15.84058857 9 163 237
246082.29699707 3357571.45428467 16.17923355 166 213 243
246088.55126953 3357572.61090088 15.99737549 98 162 208
246083.89355469 3357570.16546631 13.74315548 177 185 188
246081.23132324 3357570.17645264 13.77052593 180 182 181
246083.19860840 3357571.97113037 15.94708347 118 179 207
246082.44689941 3357572.01000977 13.72477150 169 165 154
246083.39086914 3357570.14904785 13.76522923 181 184 189
246093.74853516 3357572.84368896 16.04631424 46 210 237
246101.43322754 3357571.00286865 16.41869926 7 162 229
246094.14257813 3357571.54394531 16.18541527 17 177 225
246101.80651855 3357572.08148193 13.58565712 187 187 179
246089.84362793 3357571.73138428 13.69883537 205 205 205
246083.13146973 3357571.23602295 16.34537125 23 130 198
246093.28344727 3357572.83959961 13.76453876 207 207 205
246093.25244141 3357571.34735107 13.75294971 191 190 188
246083.17871094 3357570.21429443 16.30099106 3 162 204
246100.73266602 3357570.80065918 15.60951424 128 128 128
246093.78247070 3357572.51477051 13.72729683 219 218 214
246093.90112305 3357572.51251221 13.73639107 217 216 211
246089.67443848 3357571.04113770 13.65419292 191 190 188
246094.43115234 3357572.79986572 13.71558094 216 215 213
246100.91870117 3357569.67083740 15.65760899 105 187 227
246082.79711914 3357571.43048096 13.86759853 137 124 131
246083.78247070 3357570.40338135 16.05288887 28 155 196
246087.98315430 3357571.39776611 15.67551422 189 241 254
246090.07250977 3357571.43096924 15.91579342 96 198 212
246094.02111816 3357571.52459717 15.69212532 128 128 128
246093.27221680 3357572.30706787 15.91750526 51 189 228
246083.69421387 3357571.17962646 16.05264091 26 132 184
246093.76660156 3357570.87860107 15.80745888 178 179 161
246093.49426270 3357572.77709961 15.70231724 121 131 133
246101.11096191 3357570.15264893 15.99498653 247 236 255
246089.04797363 3357570.86126709 15.80140686 111 160 141
246101.95263672 3357571.10339355 15.72317505 127 128 130
246087.99194336 3357571.05859375 15.90616131 113 234 251
246089.09277344 3357571.67218018 16.53557777 146 255 255
246101.46374512 3357569.49481201 15.55858421 191 198 190
246089.98461914 3357571.45751953 13.67815495 199 198 196
246089.27539063 3357571.64050293 15.79096222 123 198 203
246088.34436035 3357570.83935547 14.01727676 233 233 233
246083.18542480 3357571.24560547 13.89243221 177 193 190
246094.11352539 3357571.57476807 15.69340611 128 128 128
246083.24243164 3357572.08911133 13.71501350 213 204 187
246093.82983398 3357571.63549805 15.68782043 128 128 128
246081.60351563 3357571.49792480 15.75262547 128 128 128
246094.10937500 3357571.67407227 16.24039078 10 196 247
246089.77221680 3357571.95648193 16.24069977 86 117 181
246094.56420898 3357570.84838867 15.89092064 10 160 237
246102.94262695 3357571.78070068 13.54968929 151 164 170
246095.25256348 3357572.79199219 13.71254349 215 214 210
246100.47863770 3357570.56182861 15.62171173 128 128 128
246088.44665527 3357570.62738037 15.95198822 8 197 229
246101.33886719 3357571.75402832 13.68570995 104 103 99
246094.08642578 3357571.99548340 16.31597710 23 207 233
246087.96643066 3357571.85137939 15.95427227 5 191 250
246088.26391602 3357570.51855469 15.65102482 153 204 208
246083.15112305 3357570.72015381 16.38950348 23 112 180
246082.80261230 3357570.63970947 13.73023510 167 176 173
246093.70178223 3357571.25811768 13.76402569 178 178 176
246101.36425781 3357571.95208740 13.62676048 209 204 198
246082.39550781 3357571.82037354 13.72396851 212 198 189
246089.86828613 3357571.40258789 13.67476654 205 204 202
246101.19140625 3357570.54693604 13.75870037 199 198 193
246095.46411133 3357571.38909912 15.87857056 50 173 217
246101.99987793 3357570.40771484 16.10296822 12 147 228
246100.55187988 3357569.98065186 15.56042004 128 128 130
246081.35363770 3357569.50323486 13.75197506 168 173 176
246100.53125000 3357570.66564941 13.80632496 152 132 125
246089.33947754 3357570.80566406 15.88363361 129 171 147
246093.24157715 3357571.14904785 13.75290108 197 193 190
246090.20532227 3357571.96838379 13.69812298 202 202 200
246101.76538086 3357570.61889648 16.24327087 38 158 211
246102.09521484 3357571.34765625 15.79240990 128 128 128
246102.11633301 3357570.98431396 13.64070415 207 204 195
246084.60852051 3357572.24414063 13.73563671 99 112 129
246088.69348145 3357570.53411865 16.04301453 118 234 249
246102.43371582 3357570.49114990 15.91001511 44 148 209
246101.22363281 3357570.56207275 13.76301956 204 203 198
246088.61682129 3357572.41174316 13.87167740 199 204 207
246094.01025391 3357571.64715576 16.22255325 6 197 242
246095.48522949 3357571.17596436 15.74758625 128 128 128
246101.70910645 3357569.88439941 15.53816700 128 128 128
246090.54711914 3357571.52691650 13.67282677 197 196 194
246083.75781250 3357570.73272705 15.93630505 128 128 128
246082.58044434 3357571.98492432 13.69997501 116 107 98
246102.16711426 3357570.09924316 15.97463799 0 133 200
246101.39294434 3357570.38970947 13.69993210 216 208 205
246102.35559082 3357570.27709961 13.64080811 203 194 187
246083.50488281 3357571.21997070 13.98015213 167 154 146
246093.05444336 3357571.84753418 15.68815899 119 170 213
246089.09375000 3357571.60729980 15.77099323 133 201 200
246089.09545898 3357572.21984863 15.83784962 130 192 205
246102.39733887 3357570.39880371 15.93199539 11 148 218
246088.61755371 3357571.87091064 16.33212090 31 219 246
246100.85180664 3357572.12597656 13.58696842 126 125 123
246082.39074707 3357570.55444336 16.51763153 40 216 239
246102.63684082 3357570.53570557 13.60189819 181 180 175
246088.34497070 3357571.12835693 16.03007698 6 209 241
246088.41601563 3357571.13488770 13.84352589 225 227 226
246083.39770508 3357571.48321533 15.89737892 128 128 128
246082.64306641 3357571.81890869 15.86732388 121 130 129
246095.11413574 3357571.68414307 13.66604996 210 207 202
246088.30834961 3357572.04992676 13.84385395 186 196 206
246089.17687988 3357572.79364014 13.70712471 206 210 213
246081.24829102 3357571.32983398 15.76816368 128 128 128
246088.72778320 3357571.52636719 15.77025032 143 201 203
246101.73730469 3357571.24121094 16.25760269 8 104 191
246082.29272461 3357571.84979248 15.96825695 56 153 198
246094.75341797 3357572.22131348 13.68138695 219 215 212
246094.73693848 3357572.94458008 13.72554874 213 213 211
246083.72961426 3357571.10961914 16.04218292 64 165 211
246101.75415039 3357571.56787109 13.65908813 201 198 193
246082.61523438 3357571.99114990 13.69981956 125 118 108
246101.11718750 3357572.51617432 13.58900356 184 183 179
246088.11059570 3357572.14172363 15.83828735 140 206 220
246080.84313965 3357571.54327393 13.80261707 90 89 84
246081.96496582 3357570.26953125 13.73496151 170 174 175
246082.64367676 3357571.20770264 13.80438423 67 157 191
246081.55651855 3357570.74822998 13.75026608 187 188 183
246082.35009766 3357571.40423584 16.21327209 229 247 255
246089.09582520 3357571.69244385 15.78024292 131 198 204
246094.70495605 3357573.28143311 13.68465137 215 214 210
246094.78369141 3357571.22137451 16.03606796 18 152 237
246102.49353027 3357569.86645508 13.56103420 189 186 181
246102.61096191 3357571.68145752 13.57190990 205 202 195
246101.69897461 3357569.95849609 15.54291534 128 128 128
246081.75219727 3357571.64416504 13.77715302 228 227 225
246094.83251953 3357572.19561768 13.67911148 216 213 208
246090.06628418 3357571.35632324 15.93924332 98 204 228
246094.86035156 3357571.70074463 13.69222927 215 210 207
246093.19848633 3357572.07531738 15.89848328 11 192 235
246102.30505371 3357569.52923584 13.53505039 195 192 187
246102.05175781 3357569.46655273 15.72419453 52 140 186
246102.03491211 3357571.22143555 16.19420052 13 105 190
246081.75402832 3357569.58807373 13.72602844 196 200 203
246088.21069336 3357571.82147217 15.75063992 116 200 226
246087.85339355 3357571.75207520 15.79279709 41 184 242
246101.00854492 3357571.02172852 16.14754295 200 254 255
246100.35083008 3357570.94824219 13.88084888 93 98 118
246082.60668945 3357571.00433350 16.47916412 4 153 233
246101.80200195 3357570.77404785 15.64114380 128 128 128
246094.94177246 3357572.65026855 15.83089447 128 128 128
246094.71704102 3357573.35498047 13.66713238 216 212 209
246094.97497559 3357571.50128174 13.66680241 219 216 211
246094.64294434 3357572.81103516 15.80515957 128 128 128
246100.71960449 3357571.75537109 15.87064648 22 170 232
246101.03857422 3357571.64935303 16.01665306 14 181 234
246100.62316895 3357572.16473389 15.68763256 76 165 199
246094.60327148 3357571.68511963 13.78240108 221 218 213
246083.25769043 3357570.96929932 13.85945988 182 186 189
246089.80676270 3357571.79376221 13.70409203 205 205 205
246089.74743652 3357572.25537109 16.19284439 164 200 250
246095.24304199 3357570.61560059 13.64877033 218 215 210
246083.27636719 3357569.92663574 13.75464058 167 170 175
246100.49926758 3357571.01147461 13.93758774 120 129 134
246101.11962891 3357571.64764404 13.72135067 97 99 98
246100.63488770 3357571.60559082 15.89657211 6 164 237
246088.34399414 3357570.92034912 15.99183750 11 205 243
246081.72277832 3357570.10406494 15.78617096 128 128 128
246102.02770996 3357570.67279053 16.16873932 18 129 208
246089.67163086 3357571.79748535 13.70422745 203 203 203
246101.87072754 3357571.12921143 16.26846313 0 84 172
246082.46728516 3357570.11175537 15.84815884 128 128 128
246090.07226563 3357572.07867432 15.89912224 65 168 211
246090.34924316 3357571.69525146 15.93595028 87 174 204
246094.29833984 3357571.67016602 15.69600391 128 128 128
246090.03088379 3357571.37377930 15.91420269 83 189 213
246094.11474609 3357572.09692383 16.31615829 6 208 248
246094.25939941 3357572.74896240 16.18169022 19 127 226
246094.69348145 3357571.12207031 16.00254440 16 153 221
246083.18054199 3357569.99462891 15.92108154 128 130 129
246081.73620605 3357569.50836182 13.72105980 173 177 180
246100.83361816 3357569.80206299 15.79225254 7 169 244
246101.14746094 3357571.36907959 16.11937714 8 179 233
246101.69421387 3357569.80041504 15.52723026 128 128 128
246089.93933105 3357572.61718750 15.88655758 9 167 214
246089.63305664 3357572.63848877 13.67051983 194 196 195
246081.38867188 3357571.32806396 13.75903225 228 224 215
246081.78271484 3357570.81799316 13.74362850 170 174 173
246082.23156738 3357571.46801758 15.79675579 128 128 130
246088.08520508 3357571.78448486 13.74976063 229 227 232
246093.21496582 3357571.72637939 13.64887714 203 199 196
246102.81494141 3357570.67517090 13.56029797 166 162 159
246082.30236816 3357570.23522949 13.73006344 178 182 185
246081.34497070 3357571.03289795 16.02543259 4 184 243
246089.19384766 3357572.36767578 13.74966908 204 205 207
246094.05224609 3357571.74353027 16.25734711 6 193 238
246101.24108887 3357571.60369873 13.73210049 226 226 226
246094.67871094 3357571.44897461 13.75602818 198 195 190
246093.37792969 3357571.39782715 15.69905949 128 128 128
246094.77355957 3357571.80255127 13.71021080 219 215 212
246094.91394043 3357572.98059082 13.72947979 202 202 200
246093.30981445 3357571.65270996 15.96613789 20 208 253
246095.40954590 3357573.32879639 13.61902809 207 200 192
246082.70983887 3357571.67803955 13.75090027 237 205 182
246094.97436523 3357570.93627930 15.89721775 19 137 199
246082.72363281 3357570.88562012 16.61384392 13 115 189
246094.16613770 3357572.74945068 16.17607307 20 138 225
246095.46777344 3357571.52215576 15.88467884 110 187 217
246101.92114258 3357569.64086914 15.54032326 128 128 128
246101.39428711 3357571.52185059 13.74578762 171 170 168
246083.31958008 3357571.96630859 15.95226860 127 170 187
246094.01269531 3357571.91729736 16.28554535 63 221 248
246089.57629395 3357570.99285889 13.65264416 197 196 194
246083.88659668 3357570.17828369 13.74340057 177 185 188
246101.53820801 3357569.81811523 15.50937366 128 128 128
246081.73999023 3357571.47650146 15.76253319 128 128 130
246102.74560547 3357571.75543213 13.56072521 204 205 199
246100.16516113 3357570.88726807 15.71271992 93 159 217
246088.55383301 3357572.19055176 15.83715439 155 198 205
246101.07226563 3357570.86273193 16.21905518 9 184 237
246100.81384277 3357570.63983154 15.59835911 128 128 128
246095.42419434 3357572.14916992 13.67040348 218 214 211
246101.23535156 3357570.26428223 16.06949425 222 108 144
246088.14306641 3357570.85504150 15.55225658 161 194 209
246100.10705566 3357570.53350830 13.68475533 234 230 229
246101.42822266 3357570.36114502 15.53006935 128 128 128
246102.21350098 3357571.57476807 16.02347183 35 133 206
246089.08496094 3357572.91265869 15.91634750 190 208 220
246095.21264648 3357571.33361816 15.74535084 128 128 128
246093.88745117 3357571.79974365 16.23250008 20 209 238
246088.44091797 3357571.10443115 13.85736370 232 236 237
246088.07751465 3357570.74078369 13.63550854 201 202 197
246094.25146484 3357572.70739746 13.75928593 216 215 213
246082.01416016 3357570.03173828 15.81158161 128 128 128
246081.82531738 3357570.30615234 16.17476654 168 221 235
246081.53674316 3357570.31628418 16.03266716 40 179 220
246089.32873535 3357573.08654785 13.71585846 200 204 205
246093.17028809 3357571.36175537 13.72905350 184 183 179
246082.91809082 3357571.78814697 16.13385582 25 156 236
246083.66333008 3357570.31134033 13.76559162 197 198 203
246088.57580566 3357570.79907227 15.66451550 135 163 151
246094.39172363 3357570.98040771 15.94826508 139 199 235
246081.48925781 3357570.52056885 16.03916359 57 199 223
246095.29003906 3357571.61199951 16.01373291 42 143 213
246082.04980469 3357571.58544922 16.07677460 14 147 224
246089.38488770 3357570.70422363 15.91944027 126 164 139
246089.46093750 3357572.79125977 13.68511581 205 209 210
246087.97314453 3357572.00616455 15.99309444 7 198 243
246100.45446777 3357571.41772461 13.99937916 143 143 145
246101.56359863 3357569.49060059 15.73052120 57 140 194
246102.47216797 3357571.53405762 13.58962822 208 208 200
246101.08081055 3357570.61889648 15.57041645 128 128 128
246088.05444336 3357572.05981445 16.06348610 11 202 246
246090.40722656 3357571.51873779 15.99214554 66 168 206
246094.10729980 3357572.22796631 13.69955349 222 218 215
246081.96423340 3357571.17547607 16.23566246 10 171 225
246095.01098633 3357570.94659424 15.71444988 128 128 128
246101.35424805 3357570.72991943 15.54405212 128 128 128
246102.48718262 3357570.87451172 15.94405651 117 178 225
246083.60852051 3357571.26599121 15.89477921 128 128 128
246090.20678711 3357572.25018311 15.93919849 106 184 232
246083.81811523 3357570.21527100 15.94527626 125 130 124
246095.35534668 3357571.43383789 15.95429993 16 142 218
246094.03955078 3357571.27471924 13.70197964 206 203 198
246101.47180176 3357571.22991943 15.61323452 128 128 128
246083.53356934 3357571.02819824 16.16273499 93 151 191
246081.80236816 3357570.40875244 15.78813076 128 128 128
246095.44531250 3357573.08850098 13.65445518 206 205 203
246088.94152832 3357571.53619385 15.76659679 142 202 200
246081.13610840 3357571.11962891 15.82812405 136 238 252
246089.55786133 3357571.09844971 15.88048077 108 179 163
246093.31237793 3357572.33013916 13.68808842 224 220 217
246094.76379395 3357573.15740967 15.85986137 120 180 214
246102.75244141 3357569.92980957 13.57471371 189 186 181
246100.64416504 3357571.67602539 13.79811573 109 110 112
246095.23876953 3357572.79998779 16.06130981 47 151 202
246088.56115723 3357572.56317139 15.89314938 193 203 202
246083.74853516 3357570.62481689 13.80556393 163 170 180
246083.29980469 3357570.72351074 16.29770470 99 140 206
246101.67712402 3357570.20251465 16.06838989 5 187 237
246081.55432129 3357571.13391113 16.10907173 4 187 245
246089.67932129 3357572.46246338 16.15457153 40 148 212
246102.56237793 3357571.06536865 13.57377434 196 193 188
246101.13012695 3357571.14630127 15.57437992 128 128 128
246089.04931641 3357572.43084717 13.80794621 202 206 207
246102.01550293 3357570.07141113 15.62009716 128 128 128
246102.17639160 3357569.46862793 13.53039742 200 197 190
246088.70336914 3357571.07977295 15.72202492 147 190 183
246081.90429688 3357569.49835205 13.72008324 171 175 176
246089.18835449 3357572.82067871 15.88837242 132 191 209
246101.82800293 3357570.96661377 15.67217827 128 128 128
246081.31079102 3357570.37908936 15.84790421 245 251 251
246089.29272461 3357571.62615967 15.79282379 124 199 202
246095.33288574 3357570.64251709 13.64699268 217 214 209
246081.84399414 3357569.87768555 16.12402916 5 206 252
246082.46289063 3357570.70263672 15.83872128 128 128 128
246093.39880371 3357571.90600586 15.67795277 128 128 128
246095.22021484 3357573.09857178 13.68114853 216 215 211
246089.57470703 3357571.75714111 15.83058834 99 188 204
246090.06054688 3357573.19317627 13.64775944 196 197 201
246089.48059082 3357571.18072510 13.66534901 180 179 177
246101.26721191 3357570.65509033 13.78015995 194 193 189
246100.56921387 3357570.11242676 13.57996941 204 200 197
246101.56079102 3357569.98840332 15.51658535 128 128 128
246101.83850098 3357570.53265381 16.18940735 23 149 208
246089.12377930 3357571.20111084 15.76301670 167 223 194
246093.69787598 3357572.54071045 15.70334435 128 128 128
246102.47131348 3357571.22766113 15.89352608 88 180 229
246102.10205078 3357569.45953369 15.63061237 85 140 171
246080.94763184 3357571.37420654 13.75177383 227 219 217
246089.33288574 3357571.41345215 15.79341221 132 207 200
246095.20568848 3357572.82427979 15.92108917 100 171 201
246093.22460938 3357572.29620361 13.65207767 223 218 214
246095.05236816 3357572.12518311 16.20349884 104 141 209
246089.22753906 3357571.28991699 13.68182373 197 197 195
246094.16137695 3357570.96783447 15.72529507 128 128 128
246082.86218262 3357571.15222168 15.85008144 128 128 128
246088.23669434 3357570.56329346 15.64919567 150 207 214
246101.36755371 3357570.00854492 13.56663227 219 212 204
246101.73303223 3357571.76708984 16.00422096 252 251 255
246093.80798340 3357572.19470215 15.68820286 128 128 128
246093.11987305 3357572.13458252 13.62932301 206 201 195
246088.64929199 3357571.25976563 15.73787022 148 198 195
