246094.17260742 3357554.63580322 13.01199532 215 219 218
246086.24755859 3357551.91174316 15.25293159 55 175 235
246086.85522461 3357553.77825928 15.02416134 128 128 128
246087.03723145 3357553.35003662 13.06695843 187 186 182
246087.00585938 3357555.15643311 13.32276440 52 53 57
246085.60314941 3357554.19464111 13.16543579 112 82 80
246087.42053223 3357554.73498535 15.29130459 125 189 214
246094.37658691 3357553.77526855 13.14379025 216 53 58
246086.90026855 3357553.32012939 15.89433670 24 126 208
246085.44616699 3357553.69152832 15.40073776 28 168 221
246086.62109375 3357554.96575928 13.25734138 114 213 254
246092.79016113 3357555.36199951 15.77597618 70 212 236
246086.14294434 3357554.42352295 15.12395191 128 128 128
246086.30383301 3357553.92492676 15.57112122 232 239 255
246093.73901367 3357554.95458984 15.97430420 33 140 218
246086.53735352 3357553.62689209 13.25402451 174 174 174
246087.71545410 3357553.48315430 15.02632809 127 129 128
246092.14746094 3357556.18218994 13.04019737 132 139 147
246087.62280273 3357553.13372803 15.49331188 14 109 201
246087.10205078 3357554.86694336 15.13029099 128 128 126
246087.52355957 3357554.29290771 15.07181835 152 177 184
246092.99719238 3357555.54016113 15.89533901 36 181 226
246093.13244629 3357556.58282471 13.18791580 237 167 159
246092.78942871 3357555.10394287 15.72955418 245 132 162
246093.94653320 3357555.61474609 12.96091080 170 189 196
246085.63073730 3357553.35931396 13.17621422 180 180 178
246085.93420410 3357552.58282471 15.02028465 215 230 235
246094.59204102 3357556.72937012 13.04759884 124 139 172
246085.18359375 3357553.50103760 15.10305500 128 128 128
246092.18847656 3357555.49615479 15.33729553 128 128 128
246087.81298828 3357554.24145508 15.17723656 160 189 197
246093.41845703 3357555.58929443 15.87940884 16 118 200
246093.82617188 3357554.98968506 15.31117249 128 128 128
246085.29394531 3357553.69653320 13.23840714 112 110 115
246086.02832031 3357554.01275635 15.07833481 128 128 128
246085.85717773 3357552.70416260 15.34400654 26 144 206
246085.77087402 3357554.69299316 13.07335091 87 79 76
246086.03759766 3357553.40435791 15.00190639 128 128 128
246086.20898438 3357553.11065674 13.15543747 202 204 201
246086.77197266 3357553.61737061 15.94915676 78 165 234
246085.67834473 3357553.16906738 14.99297905 128 128 128
246093.29492188 3357554.72351074 13.00646877 190 197 205
246093.98950195 3357555.23522949 12.98371220 188 203 208
246086.64111328 3357553.59790039 15.88300228 27 151 223
246086.08435059 3357552.89904785 15.45660973 79 131 155
246093.80810547 3357555.27764893 12.98925018 181 194 202
246094.46655273 3357554.99279785 15.63154697 106 155 188
246086.30395508 3357554.73223877 13.12177944 68 63 59
246093.63146973 3357556.11376953 15.44580555 129 127 130
246094.05078125 3357554.98455811 13.00352478 187 198 200
246086.54809570 3357552.99426270 14.97004128 128 128 128
246093.55017090 3357555.27154541 16.14461517 2 89 169
246088.16796875 3357553.75775146 13.07600307 162 167 173
246087.53247070 3357554.76580811 13.17313957 86 77 80
246094.25402832 3357554.02648926 13.15196037 252 251 249
246092.80468750 3357555.36297607 12.98354149 191 196 200
246087.91284180 3357553.42205811 13.04693413 179 183 186
246086.39379883 3357552.69458008 15.54851055 25 213 242
246087.62084961 3357553.53271484 13.04808807 192 194 193
246087.21630859 3357554.55480957 15.42262363 41 146 201
246093.51428223 3357553.85992432 13.09880924 203 96 86
246093.14416504 3357557.23193359 12.98197746 69 118 150
246092.64624023 3357556.69476318 13.13650036 139 146 152
246093.35461426 3357555.31170654 15.35180378 128 128 128
246086.66650391 3357553.84564209 15.03193855 128 128 128
246086.16027832 3357552.00549316 15.24256420 47 173 234
246086.25158691 3357553.85797119 15.58730030 29 132 211
246094.45458984 3357555.18127441 15.33473492 128 128 128
246087.41491699 3357554.40045166 15.07441235 124 129 133
246094.39782715 3357555.79077148 12.96488857 161 185 197
246087.38232422 3357553.91497803 15.51758289 116 49 66
246093.58740234 3357554.71972656 13.01146221 175 182 190
246087.32128906 3357554.73895264 15.33030319 75 165 202
246092.77478027 3357554.93280029 15.30475426 128 128 128
246086.83251953 3357553.81048584 13.22066307 178 177 173
246092.97680664 3357554.92889404 15.81990242 114 234 251
246086.42687988 3357553.07922363 13.09356117 204 204 202
246094.39489746 3357556.68157959 13.03053284 100 119 152
246087.33813477 3357552.37835693 15.29455757 26 124 211
246086.57910156 3357552.50238037 15.54475880 83 210 245
246094.27233887 3357556.26824951 13.06078053 124 152 173
246093.95544434 3357554.78015137 15.83640480 47 165 229
246086.05041504 3357553.42974854 13.18773079 155 156 158
246092.21130371 3357554.71838379 15.43348694 43 179 241
246093.05688477 3357555.41577148 12.99083805 188 195 201
246094.46667480 3357555.49200439 12.95849133 169 186 193
246094.26989746 3357554.86663818 12.98581696 205 213 216
246094.39868164 3357556.62536621 13.03663540 89 112 146
246085.88220215 3357554.15216064 15.10275364 128 128 128
246087.25927734 3357552.48132324 15.34381866 125 207 255
246094.35290527 3357554.08093262 13.14957333 212 157 150
246093.60595703 3357556.93768311 12.94496536 72 73 75
246087.42175293 3357554.73413086 15.29094124 125 189 214
246086.66381836 3357553.88385010 15.03644466 128 128 128
246086.18090820 3357552.78387451 15.48304844 148 222 249
246087.12207031 3357552.61785889 15.44928932 110 146 206
246093.52429199 3357555.81494141 15.41470051 128 128 130
246094.54724121 3357554.24725342 13.11979389 206 211 204
246086.34460449 3357553.82916260 15.04017639 128 128 128
246086.41491699 3357553.06750488 13.09526634 204 204 202
246093.95983887 3357554.91589355 15.87700272 9 101 176
246086.05688477 3357553.75952148 13.23165321 176 180 183
246087.16662598 3357552.55364990 15.01833534 128 128 126
246094.40966797 3357554.88110352 15.31428909 135 146 148
246087.12255859 3357555.18304443 13.31795788 1 5 6
246085.55358887 3357552.92681885 15.08857441 216 235 239
246094.61279297 3357556.65362549 13.04202557 85 128 173
246093.34741211 3357555.56921387 15.88235188 18 128 207
246086.44970703 3357552.72344971 14.98072147 128 128 128
246093.98181152 3357555.49139404 12.96208572 162 179 186
246092.80383301 3357554.43371582 15.64722252 43 203 239
246087.44104004 3357553.37518311 15.01351261 128 128 128
246094.59887695 3357554.76806641 15.59549427 109 180 210
246094.23083496 3357554.95660400 15.73396969 75 143 190
246085.99707031 3357553.76959229 15.56176662 7 154 232
246085.96948242 3357553.35040283 14.99854851 128 128 128
246094.12854004 3357553.64215088 13.20061493 177 52 34
246094.02038574 3357554.04962158 15.40646553 182 195 201
246092.54406738 3357555.68347168 13.05805492 164 170 170
246093.72277832 3357556.01177979 15.43372154 128 128 128
246094.31445313 3357555.96276855 15.39026546 128 128 128
246092.35839844 3357556.43243408 13.06378841 144 145 147
246086.48876953 3357553.15612793 13.08416748 199 199 197
246086.18786621 3357553.99810791 15.06860542 128 128 128
246086.12902832 3357552.31964111 15.39180565 26 174 246
246086.43835449 3357552.77368164 15.57444382 37 226 248
246087.42260742 3357552.79083252 13.06886959 193 193 191
246093.99560547 3357555.43493652 15.36680698 128 128 128
246092.70007324 3357554.55883789 15.61232662 37 211 245
246092.48461914 3357554.48846436 15.28895473 128 128 128
246092.91650391 3357554.00946045 13.00896454 153 134 136
246092.42407227 3357556.17803955 15.47872448 194 195 190
246085.85473633 3357553.93316650 15.07673836 128 128 128
246092.98181152 3357555.49932861 12.98567581 187 194 200
246087.52075195 3357553.86718750 13.07174683 174 179 182
246086.23950195 3357553.50671387 15.71197319 97 246 253
246085.20141602 3357553.56146240 15.09387875 128 128 128
246085.16833496 3357553.49688721 15.10786629 129 127 128
246086.78308105 3357553.00744629 13.05794716 201 201 199
246092.85656738 3357555.99639893 13.07885742 148 180 201
246092.09631348 3357555.37268066 15.32322407 127 129 128
246092.94519043 3357555.59802246 13.00797749 178 187 192
246093.38085938 3357556.83233643 12.99669647 98 98 106
246094.11682129 3357555.19274902 15.33640003 128 128 128
246092.80053711 3357555.41998291 12.98498726 194 199 203
246092.29699707 3357555.03320313 13.01156044 164 161 156
246087.34558105 3357552.68304443 15.39783669 79 148 190
246087.89282227 3357553.72796631 13.06208992 177 178 182
246093.19726563 3357556.78485107 13.06227303 61 56 63
246085.18334961 3357553.61694336 15.33840370 31 126 206
246092.99475098 3357554.76354980 15.80018806 17 210 241
246092.34094238 3357555.89569092 15.61106777 34 192 221
246087.13757324 3357554.69628906 15.41227722 42 143 199
246087.28198242 3357552.88775635 13.06434155 197 197 195
246085.93713379 3357552.26812744 15.26098919 98 182 228
246086.47314453 3357552.68481445 15.57282543 57 227 252
246092.24353027 3357555.34930420 12.97799969 167 168 163
246087.03918457 3357552.74218750 15.53588200 202 187 230
246092.26623535 3357555.22174072 15.32266521 128 128 128
246093.59008789 3357554.57336426 15.31653023 184 184 182
246087.62719727 3357552.68939209 15.01499653 127 129 128
246094.19885254 3357554.33209229 15.28241444 165 175 176
246093.92895508 3357556.12664795 15.60575581 89 174 211
246093.80334473 3357555.72906494 15.40346050 128 128 128
246086.73022461 3357552.50866699 15.01210308 128 128 128
246094.11389160 3357553.70587158 13.20578003 238 105 96
246087.98962402 3357553.09338379 13.03679276 186 190 193
246093.18920898 3357554.32043457 15.34379673 185 187 184
246092.99145508 3357555.21722412 15.34021759 128 128 128
246086.38183594 3357552.96221924 15.59932423 145 242 251
246093.99780273 3357554.93029785 15.31428623 128 128 128
246087.64233398 3357554.25952148 13.04561424 138 141 146
246087.15002441 3357553.37408447 15.78346157 27 108 190
246085.54077148 3357553.99084473 13.19612312 118 129 149
246094.69421387 3357553.60345459 13.01515102 182 182 184
246086.52062988 3357554.05987549 15.06130123 128 128 128
246093.92065430 3357554.37066650 13.04597664 105 137 178
246093.74633789 3357555.58294678 12.96552849 169 183 194
246087.40002441 3357552.97399902 13.06423759 194 194 192
246086.79467773 3357554.98876953 13.33531952 19 124 181
246092.70715332 3357554.64581299 15.62616253 26 214 251
246093.21545410 3357554.78662109 15.87310410 24 173 216
246092.70227051 3357555.03717041 15.67515373 255 225 231
246093.15466309 3357556.74444580 13.11596394 69 39 41
246087.61315918 3357552.67547607 15.01619625 127 129 128
246086.47778320 3357552.41143799 13.08288193 196 198 193
246087.01269531 3357554.61462402 15.46842194 40 122 178
246092.86682129 3357554.88421631 13.00592041 198 202 205
246085.57495117 3357553.81433105 15.07656002 128 128 128
246088.22082520 3357553.24279785 13.07264423 179 183 186
246093.66723633 3357554.96826172 15.99606323 18 134 211
246093.27453613 3357554.00012207 15.44458771 232 232 230
246086.97973633 3357554.25518799 15.06942081 128 128 128
246093.75756836 3357555.39941406 12.98076344 171 184 193
246086.99462891 3357554.64471436 13.39983654 136 136 136
246093.64807129 3357555.64538574 12.96624756 169 186 196
246093.38488770 3357554.00238037 15.43509483 226 226 224
246092.69006348 3357554.17486572 12.97606087 189 179 180
246094.57507324 3357556.21759033 15.48674011 126 182 207
246086.77038574 3357552.47387695 13.06360149 201 200 198
246086.09765625 3357554.45208740 15.31854439 114 200 217
246087.99035645 3357553.28607178 15.45715141 157 221 255
246093.67907715 3357556.07659912 15.64808083 73 161 209
246087.39953613 3357554.84991455 15.22829819 162 199 215
246087.87695313 3357553.21875000 15.01419640 128 128 128
246086.71166992 3357554.36297607 13.32156086 166 157 150
246087.87866211 3357552.77166748 15.01838493 174 179 183
246092.12829590 3357555.55517578 15.49767017 52 176 227
246086.14526367 3357552.20690918 15.08173275 134 210 242
246092.38342285 3357555.77685547 15.37039375 128 128 128
246093.20971680 3357554.04083252 13.01238346 160 124 128
246087.80212402 3357554.16461182 13.04736233 170 171 176
246086.19677734 3357552.15069580 15.08358860 106 191 228
246086.21313477 3357553.89990234 15.05508900 128 128 128
246085.92565918 3357552.33367920 15.14951134 181 228 248
246092.30395508 3357555.97924805 15.37971878 128 128 128
246093.70312500 3357554.91802979 15.93967152 15 138 216
246092.62512207 3357554.89434814 13.01726723 166 168 165
246086.95239258 3357555.02233887 13.34406471 25 40 59
246085.91186523 3357553.57482910 15.02941990 128 128 128
246094.30200195 3357554.24859619 15.52676868 118 219 231
246093.51599121 3357555.62890625 12.96675587 164 181 191
246094.05798340 3357554.75830078 12.98780537 211 215 216
246094.58374023 3357554.44305420 15.32485294 138 160 173
246087.22973633 3357555.15100098 13.26372147 17 18 20
246086.43981934 3357552.45648193 15.51980686 64 208 243
246094.46313477 3357556.28887939 13.07847118 125 157 180
246087.24914551 3357555.43786621 13.29645824 69 72 77
246093.06921387 3357554.19226074 15.57575798 58 176 222
246087.20251465 3357553.77355957 15.03190327 128 128 128
246086.60339355 3357553.13989258 13.07245255 197 197 195
246086.40686035 3357553.82092285 15.65873528 23 136 232
246086.36328125 3357552.45715332 15.00840092 128 128 128
246086.73486328 3357552.95629883 15.75533009 10 124 194
246087.36999512 3357554.01214600 15.48758793 236 243 255
246094.11938477 3357555.04956055 12.99820518 184 195 199
246086.14587402 3357554.22570801 15.09910965 128 128 128
246087.25219727 3357554.20507813 15.05893326 128 128 128
246093.63708496 3357555.81451416 15.41457272 128 128 128
246088.49816895 3357553.26428223 15.18943787 78 167 225
246087.63671875 3357553.06341553 15.46450520 10 108 195
246086.26928711 3357552.87512207 13.11780930 200 201 203
246092.60546875 3357556.46289063 13.16046619 225 225 215
246085.67297363 3357554.16082764 15.30866909 27 139 223
246086.37695313 3357554.67791748 15.27068520 41 151 210
246087.62792969 3357554.29675293 15.11418343 147 185 198
246087.03430176 3357553.79077148 13.13387489 175 176 171
246092.74401855 3357555.88201904 15.40178585 128 128 128
246088.19116211 3357553.16381836 15.35943127 43 117 182
246085.28662109 3357553.09606934 15.20368195 154 197 231
246085.92102051 3357553.92633057 15.07283497 128 128 128
246086.28015137 3357553.24432373 14.97885323 128 128 128
246085.76660156 3357553.72503662 13.22217846 131 134 149
246092.67651367 3357554.24273682 12.96981335 206 202 203
246087.12109375 3357554.82788086 15.12599468 128 130 129
246093.82812500 3357556.68194580 12.98311901 64 62 67
246093.84460449 3357556.17871094 15.52591515 127 187 213
246087.50048828 3357552.95758057 13.05732918 192 190 191
246087.23815918 3357553.72058105 15.02954865 128 128 128
246086.27990723 3357554.05822754 15.50884438 230 161 179
246092.70690918 3357555.98095703 15.40645790 127 129 128
246093.26452637 3357555.19628906 16.05382156 69 228 250
246087.50305176 3357553.04809570 15.48909473 12 103 196
246087.15576172 3357553.15692139 15.67885876 19 104 195
246085.86254883 3357553.78143311 15.51219845 3 160 231
246092.31408691 3357554.32751465 15.40590858 125 212 232
246085.52709961 3357554.33251953 13.12007141 86 74 76
246093.13195801 3357554.98785400 13.00185776 190 197 203
246086.55554199 3357555.06866455 13.17464542 80 155 194
246093.62890625 3357554.95300293 15.98403740 18 135 214
246085.94494629 3357554.38220215 15.12852192 128 128 128
246092.57641602 3357554.15234375 15.29228687 128 128 128
246092.70288086 3357555.85302734 15.73733139 30 165 233
246093.12536621 3357555.25390625 15.34472275 128 128 128
246085.87670898 3357553.80853271 13.22735500 221 232 236
246085.52172852 3357554.10565186 15.27781773 2 113 205
246094.45996094 3357555.09747314 15.62601376 127 168 198
246086.34838867 3357553.18914795 13.13496685 213 213 211
246092.73168945 3357557.30358887 12.97335148 85 150 188
246087.18627930 3357553.26837158 15.71732616 14 103 197
246085.45117188 3357554.04229736 15.11325169 128 128 128
246087.43054199 3357553.67346191 15.58380318 19 94 162
246087.71508789 3357554.63623047 13.07502747 115 118 127
246087.59716797 3357554.63580322 13.14187336 111 111 119
246087.64428711 3357553.92681885 15.05191135 128 128 126
246093.35510254 3357556.05029297 13.01868057 129 174 203
246086.56445313 3357552.66284180 14.99049950 128 128 128
246094.22973633 3357556.18798828 13.04018307 132 160 174
246088.18261719 3357553.88708496 13.05965996 156 159 166
246085.68237305 3357553.60455322 15.44859600 11 147 225
246087.14208984 3357552.59631348 15.01290989 128 128 128
246086.59375000 3357554.79315186 15.15614319 135 184 214
246087.10815430 3357554.19635010 15.05857182 128 128 128
246093.56665039 3357556.13983154 15.60729790 96 149 191
246085.92248535 3357554.32427979 15.12233734 128 128 128
246087.60339355 3357553.87457275 15.43606758 113 136 190
246092.63916016 3357556.51776123 13.18866825 194 194 186
246092.14965820 3357555.39459229 15.50062275 26 173 227
246087.10205078 3357553.48345947 13.06740665 194 193 188
246094.45568848 3357555.55145264 12.95969772 169 186 193
246092.92749023 3357554.55303955 15.29668903 128 128 128
246094.13256836 3357556.17901611 13.03273678 134 160 173
246094.30834961 3357555.02294922 12.98627377 182 191 196
246093.09985352 3357555.08581543 15.92860985 88 221 238
246092.83190918 3357555.43627930 15.80916977 72 227 255
246086.62817383 3357553.42089844 15.91996288 89 222 231
246086.52307129 3357553.99597168 15.05383873 128 128 128
246094.34338379 3357555.49761963 15.64557076 98 140 180
246086.52795410 3357552.08538818 15.06377316 128 128 128
246094.49707031 3357554.76348877 15.31210995 135 152 160
246093.21069336 3357557.30004883 12.97321224 77 120 154
246086.43981934 3357554.57537842 13.20329285 53 38 33
246086.18737793 3357553.56811523 15.69203186 53 217 245
246086.31555176 3357551.83258057 15.25054932 58 173 230
246086.68371582 3357553.07360840 14.97793102 128 128 128
246093.87792969 3357555.51794434 12.96295452 165 180 187
246087.84118652 3357553.77239990 15.05258083 123 128 132
246093.29028320 3357554.02758789 13.02557850 169 127 129
246092.64477539 3357554.48223877 15.29189587 128 128 128
246093.37597656 3357554.00689697 15.37814522 193 195 194
246093.96179199 3357554.70001221 15.79092407 52 179 232
246087.79870605 3357553.94720459 13.05154037 168 169 173
246086.98168945 3357552.63507080 15.50780106 12 102 198
246093.82507324 3357555.77593994 12.95847321 167 185 195
246086.12829590 3357553.87762451 13.26002979 194 199 205
246087.84216309 3357553.70355225 15.43665981 32 133 189
246086.38342285 3357553.22888184 15.69728565 98 250 255
246085.19238281 3357554.11767578 13.13902569 74 73 78
246094.50305176 3357555.60986328 15.35049725 128 128 128
246087.11572266 3357553.42376709 15.80936050 51 129 211
246087.88220215 3357554.02618408 15.13010693 129 163 188
246094.48791504 3357556.87530518 13.02065945 93 95 107
246087.21655273 3357552.83563232 14.98795033 128 128 128
246094.42761230 3357553.39038086 13.05863285 226 119 125
246093.15563965 3357554.61846924 12.98971558 186 189 194
246094.12158203 3357554.16027832 13.14114666 211 220 229
246094.54687500 3357555.18017578 15.33368397 128 128 128
246093.92968750 3357553.61090088 13.27031803 173 62 69
246092.54394531 3357556.81292725 13.07537746 239 250 255
246092.36853027 3357554.80834961 15.28943920 128 128 128
246085.33288574 3357552.98779297 13.11889172 191 176 153
246086.21289063 3357552.18103027 15.06563473 121 190 221
246092.55920410 3357555.82031250 13.06277847 167 175 178
246085.70666504 3357553.31683350 15.42663670 70 229 251
246086.38110352 3357553.24957275 15.70306301 98 250 255
246087.01098633 3357553.11724854 15.71443653 22 123 211
246093.33496094 3357555.94006348 15.70383167 217 76 95
246092.77050781 3357554.31439209 12.96371841 213 208 212
246094.38146973 3357556.20092773 13.05349255 138 165 186
246093.58996582 3357554.19573975 13.06157017 152 135 145
246085.35888672 3357553.85620117 15.36309338 45 173 236
246094.49731445 3357554.42169189 15.61611652 165 227 240
246094.39990234 3357555.28552246 12.97150040 188 202 205
246093.06530762 3357555.91198730 13.02075195 159 186 205
246094.01379395 3357555.67700195 15.80630016 21 125 188
246092.59436035 3357555.42517090 15.68274307 56 209 241
246093.05322266 3357555.90270996 13.02211285 164 187 205
246093.01562500 3357554.31274414 15.64776611 41 177 225
246086.07348633 3357554.75268555 13.07969189 187 180 174
246087.70007324 3357554.08569336 13.04777622 171 172 176
246086.37390137 3357552.72082520 15.54429054 30 218 247
246094.07482910 3357554.42724609 15.28797436 166 172 172
246092.27734375 3357554.80023193 15.28848648 128 128 128
246087.13244629 3357552.64416504 15.45753384 195 209 254
246094.36425781 3357554.25756836 15.29592419 165 181 181
246087.66284180 3357554.25469971 15.31766129 140 184 219
246087.58422852 3357553.47894287 13.04830265 193 193 195
246086.73864746 3357554.10534668 13.34229946 91 92 96
246087.30126953 3357553.68933105 15.02912903 128 128 128
246086.80957031 3357552.12030029 15.35839367 16 103 198
246093.61767578 3357556.13250732 15.44797325 129 127 130
246092.83117676 3357554.72619629 15.29407978 128 128 128
246086.03100586 3357553.54888916 15.02028370 128 128 128
246088.00109863 3357553.92059326 13.06484604 163 164 169
246093.49182129 3357554.31622314 15.32009888 177 179 174
246093.06701660 3357556.23754883 15.48989582 143 186 205
246092.95703125 3357557.20275879 12.99396515 54 116 155
246087.15625000 3357552.36065674 15.03974724 128 128 128
246084.86267090 3357554.12243652 13.09841347 159 158 154
246086.07995605 3357554.54730225 15.14252567 128 128 128
246092.43139648 3357555.15234375 15.32857895 128 128 128
246087.20825195 3357554.05377197 15.55590725 101 168 213
246093.59863281 3357555.67279053 12.96695709 162 179 187
246086.32495117 3357552.25280762 15.44805622 18 180 242
246087.18383789 3357554.51000977 15.09244537 128 128 128
246087.35314941 3357554.47705078 13.29389763 121 125 126
246093.07897949 3357556.15661621 15.59813213 48 135 188
246094.51782227 3357554.68310547 15.63698673 103 183 216
246087.53369141 3357553.52514648 15.02464676 129 127 128
246088.45446777 3357553.26068115 13.09694099 174 177 182
246087.71911621 3357552.81756592 13.04717064 179 181 180
246085.07421875 3357553.92639160 13.17274284 64 64 66
246093.32788086 3357554.93408203 15.30453968 128 128 128
246086.52087402 3357552.61962891 13.09111404 202 202 200
246087.67504883 3357552.57458496 15.03848648 178 184 182
246086.21203613 3357553.07067871 14.96686554 128 128 128
246085.57080078 3357553.30224609 15.01730824 128 128 128
246088.17700195 3357553.23657227 15.03333473 129 127 128
246087.98840332 3357553.20068359 15.01892757 128 128 128
246085.71386719 3357553.61364746 13.21815681 59 61 76
246093.27111816 3357554.20556641 15.32438278 182 184 181
246085.73168945 3357553.59741211 15.04057217 128 128 128
246087.51879883 3357554.10815430 15.39305687 89 137 185
246087.06152344 3357553.86248779 13.15990925 173 174 176
246086.32507324 3357553.86224365 15.04484367 128 128 128
246087.36376953 3357552.64880371 15.37476921 86 149 190
246093.78869629 3357554.41436768 15.65600014 189 215 238
246092.73657227 3357555.24291992 12.98311424 199 203 206
246093.74255371 3357556.09271240 13.01019764 143 175 196
246093.85595703 3357554.50946045 15.31425381 172 174 173
246088.22363281 3357553.71649170 15.28392220 121 187 222
246086.10961914 3357552.26770020 13.07221508 208 203 197
246085.39599609 3357553.63262939 15.07010937 128 128 128
246087.78955078 3357553.83209229 13.05430412 174 173 178
246087.22314453 3357554.00823975 15.56547356 203 247 255
246087.60754395 3357552.50793457 15.04582405 175 185 184
246086.05871582 3357552.92382813 15.45545769 141 184 203
246094.05883789 3357556.20483398 15.57311630 113 178 210
246087.94287109 3357553.75378418 15.06788063 97 136 165
246086.18237305 3357552.71447754 15.48151207 73 201 238
246092.55017090 3357555.25677490 15.64171505 255 235 247
246087.85070801 3357553.57055664 13.04845810 188 192 195
246092.57861328 3357556.45837402 13.14128876 245 243 231
246086.88610840 3357553.02258301 14.97954845 128 128 128
246093.57702637 3357554.37139893 15.31987667 175 177 172
246086.43139648 3357554.08801270 15.06777191 128 128 128
246093.08947754 3357554.07977295 15.50134087 154 192 211
246092.69348145 3357554.32727051 12.96218872 210 208 211
246092.55725098 3357554.66522217 15.28939819 128 128 128
246088.00500488 3357553.07080078 15.36744022 48 130 188
246092.82165527 3357556.16876221 15.45667934 201 223 234
246087.84558105 3357553.97290039 15.09779835 127 164 190
246086.25952148 3357554.39233398 15.37430000 61 143 190
246086.91955566 3357552.45605469 15.45242786 7 95 193
246086.75842285 3357553.42376709 13.11206055 182 182 180
246086.06860352 3357554.04388428 15.45913124 121 194 239
246087.83374023 3357552.89581299 14.99715137 128 128 128
246092.46484375 3357555.14782715 15.59287548 200 224 236
246092.69555664 3357556.17205811 13.07503796 119 150 181
246087.03796387 3357554.08111572 15.04746151 128 128 128
246093.95080566 3357555.02716064 15.89295578 31 119 190
246085.62207031 3357554.05285645 13.19276524 87 76 82
246092.33691406 3357555.47021484 15.34523201 128 128 128
246085.34729004 3357553.56158447 15.06584740 128 128 128
246087.95922852 3357553.41870117 13.05190659 178 182 185
246085.90002441 3357553.21960449 14.98564720 128 128 128
246087.09338379 3357553.73767090 15.74163723 9 94 174
246094.23071289 3357556.76196289 13.00889969 143 145 157
246093.33898926 3357553.92419434 13.04088211 178 108 108
246087.18322754 3357553.63970947 15.02342701 128 128 128
246086.64672852 3357553.89520264 13.31282616 136 135 133
246093.95166016 3357556.43432617 13.02458191 106 136 160
246086.43566895 3357552.02429199 13.06833553 192 188 185
246093.53833008 3357554.94213867 13.00789356 179 188 195
246087.90515137 3357553.63800049 13.05835342 179 183 186
246087.32690430 3357553.54278564 15.68451405 11 97 184
246093.42761230 3357555.27874756 13.00212193 182 195 203
246094.07214355 3357555.30804443 12.97388172 179 194 201
246087.70349121 3357554.36505127 15.28468037 130 188 210
246086.24902344 3357552.81903076 15.51494026 183 239 255
246094.66162109 3357554.73590088 12.98756981 191 207 206
246093.43725586 3357553.99145508 13.05805779 211 159 145
246087.51452637 3357553.25634766 13.04597187 189 189 187
246093.90466309 3357554.36309814 15.29370499 169 174 170
246093.05554199 3357555.85412598 15.74419117 30 131 203
246086.62377930 3357553.28674316 13.07529449 209 210 205
246087.72534180 3357553.52911377 13.04388428 194 198 199
246092.15234375 3357555.83679199 15.35944843 127 129 128
246094.45666504 3357556.15924072 15.36716843 128 128 128
246086.27307129 3357553.98919678 15.53528881 255 238 249
246088.44775391 3357553.16967773 15.21900177 121 186 226
246092.27380371 3357554.70062256 15.28406811 128 128 128
246087.33068848 3357554.66564941 13.33932304 147 141 141
246087.16333008 3357553.76757813 15.03063488 128 128 128
246086.12304688 3357552.51684570 15.44917107 33 181 241
246087.15295410 3357553.59490967 13.07315254 196 195 193
246092.23437500 3357556.10571289 15.54891872 147 187 195
246092.57873535 3357556.30865479 13.10594082 161 157 158
246087.70153809 3357553.43560791 15.57177258 5 104 171
246085.55871582 3357554.04956055 15.32027149 13 142 234
246093.90100098 3357555.46997070 15.88763905 6 82 166
246087.72570801 3357553.32006836 13.03910446 186 190 189
246087.77917480 3357553.42864990 13.03947067 182 186 187
246086.45898438 3357552.39428711 15.01794243 129 127 130
246085.95788574 3357554.45684814 15.13721466 128 128 128
246094.05163574 3357554.47137451 13.03702354 206 209 224
246087.58825684 3357554.14941406 15.35940647 114 158 205
246087.41357422 3357554.30657959 15.40134525 44 147 190
246092.85449219 3357555.55047607 15.83536339 19 160 205
246092.43774414 3357554.81365967 15.53819752 28 189 233
246086.09777832 3357552.72052002 15.44346046 80 198 236
246094.08203125 3357554.99542236 13.00134850 186 197 199
246093.04565430 3357554.81359863 15.84160423 31 210 233
246093.03283691 3357556.66253662 13.17642593 139 50 56
246087.27062988 3357552.99981689 13.06770515 198 200 195
246086.57861328 3357554.62341309 15.37149429 8 161 228
246093.81555176 3357554.52563477 15.31921482 174 176 175
246092.45581055 3357555.96533203 15.38874817 128 128 126
246092.92529297 3357556.07836914 15.42790890 124 129 132
246093.60473633 3357554.29754639 15.61550331 157 165 204
246094.27050781 3357555.49865723 12.96144581 170 187 194
246086.47534180 3357553.43829346 15.82027054 119 253 255
246084.63720703 3357554.09320068 13.10768700 163 163 161
246085.20056152 3357554.39929199 13.10466099 189 190 185
246093.73046875 3357555.11486816 16.05365562 8 87 164
246092.48486328 3357556.61749268 13.10183525 133 143 153
246085.54663086 3357554.24566650 13.14059925 77 63 63
246086.06701660 3357552.53295898 13.10478020 207 205 208
246085.41369629 3357553.93286133 13.21928120 110 120 132
246091.69555664 3357556.16986084 12.97450638 132 123 118
246086.88610840 3357554.80639648 13.36905193 165 168 173
246087.00000000 3357554.39544678 15.08499432 128 128 128
246085.73217773 3357553.36541748 15.01165390 128 128 128
246087.04370117 3357554.96533203 15.34132195 107 141 179
246087.98107910 3357553.83013916 15.34696102 62 162 198
246094.11669922 3357556.19757080 15.58946037 146 201 231
246086.63427734 3357554.78247070 13.33046246 2 19 45
246094.78320313 3357553.48706055 12.97922611 178 177 175
246087.17675781 3357552.45495605 13.04617977 209 208 206
246087.23669434 3357554.78021240 13.33552170 101 102 104
246093.97143555 3357554.08209229 15.35388947 186 185 181
246087.78295898 3357553.67028809 15.46746349 25 130 188
246085.99316406 3357552.51483154 15.38796902 26 172 231
246092.76171875 3357554.64001465 15.64766788 22 209 244
246094.10046387 3357553.53936768 13.19543171 229 111 99
246086.20190430 3357554.20361328 15.09356689 128 128 128
246093.78808594 3357554.21905518 15.28615284 165 167 164
246085.50476074 3357553.30932617 13.17257881 104 107 116
246086.00219727 3357553.41589355 15.57997704 94 247 255
246087.07873535 3357552.54064941 15.01752186 128 128 128
246094.02185059 3357555.22637939 15.82589817 40 108 169
246086.61071777 3357553.33837891 13.10433102 201 202 197
246086.17187500 3357553.56774902 13.22423458 163 164 166
246092.25634766 3357554.98645020 15.49717045 13 160 211
246092.82592773 3357555.93243408 13.07523537 154 181 198
246086.39184570 3357553.41058350 15.76420689 101 242 252
246094.19860840 3357556.26177979 15.41590405 200 200 198
246086.27246094 3357554.54687500 15.32152843 25 156 212
246086.50903320 3357552.84899902 15.62113571 28 230 242
246087.69177246 3357553.83538818 15.43186665 91 142 195
246094.28918457 3357556.52777100 13.03786087 99 121 145
246085.89758301 3357552.42993164 15.31750965 24 156 230
246093.79333496 3357554.37487793 15.63335800 188 208 233
246093.56945801 3357556.10125732 15.63476276 148 173 204
246086.14733887 3357552.64270020 13.12070370 195 197 196
246092.07885742 3357555.98962402 13.01062870 142 149 155
246092.03784180 3357555.96081543 15.45886040 132 185 191
246088.15161133 3357553.38085938 15.41778183 23 143 204
246094.35620117 3357554.29168701 15.29555798 166 180 181
246086.37060547 3357553.59045410 13.26251316 168 168 168
246086.80383301 3357552.36022949 15.03068066 128 128 128
246092.28247070 3357556.67950439 13.01495361 123 137 148
246092.99377441 3357555.66650391 13.00401020 184 193 200
246093.00952148 3357554.50506592 15.71212006 10 170 222
246086.93676758 3357554.83343506 15.38984203 147 212 240
246087.81616211 3357554.26770020 15.19872856 176 199 207
246086.99438477 3357554.74035645 15.12503624 128 128 128
246086.85681152 3357554.04913330 15.04947186 128 128 128
246087.66418457 3357552.82891846 13.05083752 173 175 174
246087.66638184 3357553.24932861 15.52569675 8 101 179
246087.15173340 3357553.10345459 15.65649223 35 96 185
246092.94812012 3357556.17218018 15.58386707 45 154 211
246088.29296875 3357553.49810791 13.09431744 160 163 168
246086.62207031 3357552.34918213 15.50574780 1 100 181
246092.52941895 3357555.82318115 13.06100368 169 174 177
246086.06530762 3357552.56420898 13.10894680 197 195 196
246094.49804688 3357556.64428711 13.04337883 95 124 158
246085.40490723 3357554.13006592 13.12224960 57 60 65
246093.98571777 3357554.26184082 13.09050274 66 118 191
246086.41333008 3357552.10369873 13.06741238 196 197 192
246093.49340820 3357556.33782959 13.09106636 165 179 216
246085.72680664 3357554.31420898 15.26711464 40 139 220
246086.95495605 3357554.25225830 13.35577965 72 72 72
246094.00769043 3357556.28308105 13.04969120 111 142 162
246085.82263184 3357553.24163818 15.46121025 103 239 255
246093.79919434 3357554.04656982 15.40811253 226 227 221
246085.38989258 3357554.07379150 15.21502018 2 97 187
246093.24548340 3357554.52203369 15.74788380 24 165 237
246094.31079102 3357554.91198730 15.70371437 93 164 206
246093.96899414 3357555.42962646 12.96493721 164 179 186
246085.75085449 3357552.77612305 15.33487606 9 158 224
246094.37341309 3357556.34399414 15.48275948 188 202 205
246093.48352051 3357554.79254150 15.30561352 128 128 128
246086.05639648 3357552.07086182 15.16987419 82 181 222
246086.82897949 3357552.84637451 15.65925789 10 117 211
246086.58618164 3357553.02117920 15.72420406 31 218 237
246093.33703613 3357554.55133057 15.30414486 128 128 128
246093.10754395 3357554.75579834 15.84524155 34 207 239
246085.90661621 3357553.16174316 15.47539902 181 239 250
246092.96691895 3357555.12438965 12.99546719 174 179 183
246093.53149414 3357555.77929688 15.41023159 128 128 128
246092.15991211 3357556.30914307 13.06462574 199 185 174
246087.05102539 3357553.91973877 13.19131851 155 159 160
246085.34509277 3357553.23852539 15.07117748 128 128 128
246085.03247070 3357553.50756836 15.15972805 13 56 107
246087.06127930 3357555.12463379 13.32983685 34 37 44
246092.17700195 3357555.32733154 15.50846958 18 172 236
246086.35766602 3357553.41876221 14.99232388 128 128 128
246094.39062500 3357555.43322754 15.36072540 128 128 128
246087.97314453 3357553.25585938 13.04420280 181 185 188
246087.89331055 3357553.34930420 13.04062748 182 186 189
246085.39843750 3357554.09008789 13.13018322 50 53 58
246094.16259766 3357555.62054443 15.73226261 35 120 175
246093.55749512 3357556.15667725 15.59562302 107 152 194
246087.74707031 3357553.84082031 15.41690922 69 137 186
246087.40148926 3357552.39038086 15.04590034 177 187 186
246094.54431152 3357555.70111084 15.58931160 66 147 194
246093.15478516 3357554.59185791 15.75924301 2 162 236
246093.54626465 3357556.85882568 12.95790577 89 84 81
246085.89013672 3357552.76818848 14.96867943 217 215 216
246088.21252441 3357553.12152100 13.06206131 182 186 189
246085.78039551 3357552.87670898 14.98051643 200 210 209
246092.77148438 3357556.35217285 13.14486027 206 179 170
246085.90673828 3357552.66241455 13.10613251 193 189 180
246085.96386719 3357552.84851074 14.95411682 128 128 128
246085.91955566 3357553.35015869 13.17089748 166 167 171
246093.15283203 3357554.03906250 15.47328472 186 196 198
246087.23767090 3357553.82830811 15.03599453 128 128 128
246094.42419434 3357556.32110596 13.08288002 123 153 177
246093.29431152 3357555.09796143 13.00284386 180 189 196
246086.01965332 3357552.11218262 13.06653786 194 187 179
246093.58544922 3357554.17175293 15.29733753 173 175 172
246086.07678223 3357553.75256348 13.23357773 170 171 175
246085.76708984 3357553.99157715 13.22252941 116 116 118
246087.48742676 3357555.21459961 13.11314583 54 64 73
246092.85876465 3357555.51324463 13.00615501 180 188 191
246088.10632324 3357553.71301270 15.34606171 66 155 195
246087.06530762 3357553.23107910 15.75063229 15 113 204
246087.05017090 3357553.22735596 13.06330490 196 197 191
246087.30773926 3357552.61389160 15.38051796 82 144 191
246094.07678223 3357555.81646729 15.75801563 29 132 190
246094.38659668 3357554.74218750 15.68668461 93 176 216
246092.78588867 3357554.78057861 15.67580128 50 220 246
246086.40344238 3357554.32739258 15.44349289 194 222 255
246086.31909180 3357552.13287354 15.40667343 19 177 240
246092.17199707 3357554.92864990 15.46005249 16 169 237
246085.79931641 3357552.97277832 14.96018982 128 128 128
246085.81091309 3357552.39172363 15.17164993 138 200 221
246093.49255371 3357554.64111328 13.00995064 175 182 190
246087.04956055 3357552.37249756 15.03566170 129 127 128
246085.97924805 3357553.06512451 15.47090626 239 211 233
246094.32727051 3357555.48724365 15.65465450 62 98 134
246093.10742188 3357555.44390869 15.36852741 128 128 128
246092.63195801 3357556.46643066 13.17911625 178 176 164
246092.85131836 3357555.56835938 13.01553822 176 183 189
246086.03259277 3357553.03875732 14.96080303 128 128 128
246094.31689453 3357555.29449463 15.67087078 159 155 178
246093.00708008 3357556.29339600 13.09988594 221 231 240
246093.01867676 3357556.37567139 13.11365700 239 216 200
246094.35913086 3357553.71356201 13.16031837 210 96 85
246088.37609863 3357553.10437012 15.22324085 102 171 212
246094.36608887 3357554.36828613 15.29712963 159 173 176
246084.90698242 3357554.20538330 13.08599567 159 158 153
246086.84216309 3357552.58081055 13.06326485 203 204 199
246087.54687500 3357553.71228027 13.05509663 173 173 173
246094.48181152 3357555.60827637 15.35436726 128 128 128
246085.04162598 3357554.17633057 13.10336494 163 159 156
246087.85546875 3357553.50994873 15.50156689 3 122 188
246086.26940918 3357553.39984131 13.21291065 180 180 180
246085.29394531 3357553.42578125 15.33246613 10 153 223
246094.63732910 3357554.20874023 13.10589027 117 172 151
246085.52160645 3357554.01428223 13.17903328 130 139 154
246086.55895996 3357554.61212158 13.27519608 33 19 16
246094.41247559 3357556.28350830 15.53809547 109 176 203
246086.51806641 3357552.29949951 15.03091431 128 128 128
246092.91357422 3357555.55920410 15.86325073 71 211 247
246092.47436523 3357556.04553223 15.39674759 209 216 222
246087.54846191 3357554.19262695 15.36363029 108 164 213
246093.20959473 3357556.73175049 13.10057163 46 28 28
246087.50817871 3357553.19042969 13.04585171 187 187 185
246087.75634766 3357553.67687988 13.04603481 180 181 183
246085.66613770 3357552.80035400 15.07949352 214 230 230
246092.43139648 3357555.27453613 15.60764217 92 201 222
246086.26354980 3357553.88208008 15.57971668 62 142 203
246086.17150879 3357551.90698242 13.07332897 213 210 205
246092.56359863 3357555.08605957 13.00383568 248 248 246
246086.61267090 3357554.24340820 15.53941154 10 153 232
246085.60192871 3357553.81579590 15.40450668 9 155 232
246093.88171387 3357556.65820313 12.98893261 49 53 64
246093.37670898 3357556.87341309 12.98427486 94 103 110
246086.66418457 3357554.27465820 13.31734943 103 86 76
246087.28222656 3357553.75830078 15.03282738 128 128 128
246085.11279297 3357553.44775391 15.26467419 15 94 169
246094.42089844 3357556.63275146 13.03778839 88 112 146
246092.73315430 3357554.18817139 12.97504616 189 179 180
246087.81860352 3357553.73095703 15.04808235 129 129 129
246086.40014648 3357553.08038330 13.09639168 209 209 207
246093.37829590 3357554.42901611 15.34168530 183 185 182
246094.50878906 3357556.31994629 15.47070789 172 192 199
246093.59838867 3357555.25164795 15.34412003 128 128 128
246085.97558594 3357553.13018799 15.48929405 232 209 225
246093.14294434 3357554.59002686 15.75880241 3 165 237
246092.64477539 3357554.06634521 15.37195969 167 168 163
246093.98913574 3357556.15295410 13.02371502 138 164 177
246094.59851074 3357555.63330078 12.96050835 174 192 204
246087.46899414 3357554.08966064 15.05701828 128 128 128
246085.99121094 3357552.36999512 15.34290028 28 161 228
246086.45141602 3357554.58624268 15.12899113 128 128 128
246086.98291016 3357553.91339111 13.21050835 162 162 160
246085.94763184 3357553.17034912 15.49255371 221 248 255
246093.99011230 3357555.92541504 12.98339844 165 187 198
246086.85266113 3357554.29327393 13.37236691 70 71 75
246086.08532715 3357552.36254883 13.08298492 211 215 216
246086.24133301 3357553.90167236 15.56550980 133 187 225
246086.68127441 3357554.16259766 13.34213543 87 83 82
246093.60021973 3357555.05029297 13.00827980 170 181 187
246093.51037598 3357555.56872559 15.38388348 128 128 128
246094.56701660 3357556.23712158 13.07008076 130 162 187
246094.12414551 3357556.07196045 15.68133068 68 143 185
246085.49450684 3357553.01190186 13.12090874 119 108 106
246086.04992676 3357553.74816895 15.04423332 128 128 128
246087.22424316 3357553.21948242 15.68157482 14 109 199
246092.39477539 3357557.27172852 12.95831299 116 133 149
246086.21215820 3357553.92572021 13.27709770 178 181 186
246093.95556641 3357554.30566406 13.07494640 89 135 197
246086.60522461 3357553.21215820 13.06965923 208 208 206
246085.92700195 3357554.41186523 13.12250710 60 60 60
246093.93566895 3357554.42498779 15.64109325 129 196 225
246092.81384277 3357554.35736084 15.64575100 61 205 240
246093.81408691 3357556.01599121 15.43243694 128 128 128
246093.36853027 3357555.58319092 15.38579178 128 128 128
246088.05639648 3357553.50311279 15.43591595 14 134 194
246094.47277832 3357554.91308594 12.97703552 191 200 205
246086.57702637 3357552.47552490 15.53785706 79 206 239
246092.19396973 3357556.51751709 13.04313183 223 229 227
246086.59033203 3357552.48071289 13.07844639 200 200 198
246088.52697754 3357553.35736084 13.11293602 173 176 181
246093.86791992 3357554.15307617 15.29337215 159 160 155
246086.90185547 3357554.53454590 15.10416317 128 128 128
246094.12536621 3357556.66571045 13.00882435 57 68 86
246087.30053711 3357554.22344971 13.21042156 98 100 112
246085.86059570 3357552.82904053 14.95707417 212 211 209
246087.33032227 3357553.05358887 15.56528950 77 126 185
246094.05090332 3357553.45635986 13.20409489 172 73 68
246093.32824707 3357554.84838867 13.00568295 191 198 204
246094.56823730 3357555.46710205 15.56545258 143 181 217
246093.89331055 3357554.92163086 15.90449810 38 139 221
246087.04357910 3357553.21582031 14.99477291 128 128 128
246092.16381836 3357555.07116699 15.48703384 0 162 231
246086.46630859 3357551.71716309 15.31945229 139 214 245
246092.83544922 3357554.93957520 15.72967243 186 231 236
246092.70434570 3357556.22674561 13.09479618 248 249 251
246087.99377441 3357553.90759277 15.31520653 79 172 205
246087.86303711 3357552.75109863 15.02359867 179 182 187
246094.16833496 3357554.55541992 13.03787422 220 221 223
246093.63073730 3357554.31481934 15.62348270 192 194 219
246093.66955566 3357555.82550049 15.41577530 129 127 128
246094.31311035 3357555.18133545 12.98387623 185 199 202
246087.63867188 3357552.66748047 15.01775455 127 129 128
246094.24853516 3357555.39013672 15.36063862 128 128 128
246092.57421875 3357556.42901611 13.13457489 251 244 228
246094.30236816 3357554.19464111 15.49734688 130 223 238
246087.86450195 3357553.87341309 15.36879635 40 144 179
246087.65270996 3357554.30456543 15.13116360 148 186 199
246093.88195801 3357554.68402100 13.00243473 194 204 206
246094.54101563 3357554.52136230 15.64167500 99 179 212
246094.05615234 3357555.60467529 15.79089832 17 119 181
246087.33789063 3357553.11962891 15.58940315 21 101 186
246092.85839844 3357555.65985107 13.02957249 170 179 186
246093.41516113 3357555.78381348 15.41087627 128 128 128
246086.17761230 3357553.98614502 15.51228333 235 253 255
246092.60375977 3357555.91162109 15.69984531 31 164 229
246086.01354980 3357553.94696045 15.48719311 15 144 227
246086.32812500 3357552.39196777 15.01828003 129 128 126
246093.25219727 3357554.18664551 15.32366657 181 183 180
246087.95056152 3357553.44531250 15.48460674 12 138 199
246086.03088379 3357552.32727051 13.07224274 221 221 219
246088.33190918 3357553.77789307 13.05518341 151 155 164
246093.85278320 3357555.07342529 15.96034050 23 112 192
246086.17358398 3357552.08422852 15.34048939 25 169 242
246088.09082031 3357553.47167969 13.06956577 166 169 174
246092.09594727 3357555.46606445 15.32934761 128 128 128
246088.01806641 3357553.23480225 13.04800510 180 184 187
246086.30383301 3357553.59893799 13.25193882 170 171 173
246086.05761719 3357553.20520020 13.16737366 177 178 180
246092.44970703 3357553.97570801 15.40037918 166 175 170
246093.79895020 3357554.37750244 15.63398933 186 212 237
246085.01501465 3357553.71331787 15.17067146 121 156 194
246087.58654785 3357553.77301025 15.04073524 127 129 128
246093.57165527 3357556.08563232 15.64581203 148 173 204
246086.64929199 3357552.92474365 14.96820736 128 128 128
246085.30065918 3357553.32220459 13.16741085 212 219 229
246093.84692383 3357556.73016357 12.97985649 51 54 63
246093.01391602 3357555.09283447 12.99718475 181 186 190
246093.42321777 3357555.66101074 15.83824539 10 116 200
246094.20654297 3357554.35430908 15.28328133 164 174 175
246092.68969727 3357555.33062744 12.97918797 197 201 204
246086.79711914 3357555.12097168 13.27864075 78 135 178
246085.54052734 3357554.02972412 15.32616329 13 144 232
246086.18432617 3357554.20397949 13.22512722 60 35 41
246092.34887695 3357555.17913818 15.32505226 128 128 128
246092.33251953 3357554.47747803 15.28624153 128 128 128
246088.19763184 3357552.88800049 15.21547222 88 150 189
246093.81884766 3357554.34844971 15.61490154 182 200 224
246087.24816895 3357554.52526855 15.41890907 39 150 203
246092.35656738 3357555.44842529 15.58845615 42 202 234
246087.11425781 3357552.57611084 15.01445770 128 128 128
246086.29760742 3357553.14514160 13.13694096 210 210 208
246087.91979980 3357553.91241455 15.33718777 64 159 189
246093.45068359 3357554.11425781 15.32381535 180 182 179
246087.37915039 3357553.20562744 15.00191402 128 128 128
246094.47790527 3357556.47534180 13.07131195 108 143 173
246087.75939941 3357553.49700928 13.04181004 189 193 194
246093.56774902 3357554.58068848 15.30819511 128 128 128
246093.87292480 3357556.14898682 15.44390011 128 128 128
246086.85021973 3357552.78985596 15.62581825 17 120 213
246094.19836426 3357554.49694824 15.65181446 100 209 229
246086.01330566 3357552.46417236 13.08964729 212 216 225
246086.29919434 3357554.73443604 13.11911869 68 63 59
246093.86730957 3357555.31524658 12.98194504 180 195 202
246087.51977539 3357552.70709229 13.06757259 196 196 194
246086.15527344 3357551.88873291 13.07374382 214 211 204
246085.26806641 3357553.21191406 13.15394211 243 245 244
246094.16638184 3357555.84747314 15.40219688 128 128 128
246094.46630859 3357555.27691650 15.34503365 128 128 128
246087.58886719 3357553.91564941 13.06729126 175 180 184
246094.21044922 3357554.79791260 15.75552082 57 148 193
246086.72497559 3357552.02728271 15.36711311 15 100 193
246092.73156738 3357555.20434570 15.33878136 128 128 128
246093.50024414 3357555.13043213 16.17797279 42 140 203
246086.17700195 3357554.13104248 15.44842720 204 224 255
246092.13122559 3357555.66839600 12.98754692 165 167 166
246092.79724121 3357555.77294922 13.05242825 168 182 191
246092.79943848 3357556.16308594 15.45448208 201 223 234
246086.86865234 3357553.51293945 13.09328079 187 186 182
246086.17565918 3357553.60626221 13.23030949 171 172 174
246093.38208008 3357554.21813965 13.03113461 202 181 188
246093.27026367 3357554.33129883 15.64695835 49 149 209
246086.84948730 3357552.84149170 13.05678463 206 206 204
246092.93420410 3357555.75836182 13.03146362 173 187 198
246092.93469238 3357554.91363525 15.78963566 108 235 250
246087.17150879 3357552.54913330 15.01896954 128 128 126
246092.01599121 3357555.95916748 15.43206406 163 198 200
246086.41198730 3357553.04315186 15.64497757 87 228 238
246086.13781738 3357554.38250732 15.11908531 128 128 128
246093.59497070 3357555.39080811 15.36155033 128 128 128
246087.55700684 3357554.04449463 15.38859653 86 123 175
246087.45678711 3357553.70526123 15.55882549 69 120 185
246088.31591797 3357553.77105713 13.05777264 151 155 164
246093.89660645 3357556.09088135 15.62942600 71 164 207
246092.64135742 3357554.52893066 12.98421478 171 173 172
246086.38317871 3357552.56213379 15.54083157 56 213 244
246085.10363770 3357554.19891357 13.10430622 126 125 121
246085.42895508 3357554.02264404 13.16355324 89 98 107
246084.96923828 3357554.27856445 13.07705116 157 152 146
246092.35119629 3357555.84387207 13.03635311 157 165 167
246093.30932617 3357555.78955078 12.96209621 176 195 209
246086.39013672 3357553.10021973 13.09675217 212 212 210
