246083.68798828 3357533.94702148 13.26078606 172 173 175
246082.17456055 3357537.76763916 15.33092117 124 129 133
246081.91735840 3357537.78228760 15.31347179 128 128 128
246080.07446289 3357538.94097900 15.69971561 11 140 221
246082.62915039 3357534.90222168 15.54531670 192 255 255
246083.08349609 3357534.02142334 16.14897537 47 216 249
246083.37817383 3357538.15039063 13.29203415 56 54 55
246091.34045410 3357530.11346436 13.23959541 190 194 193
246079.12414551 3357540.01171875 13.25098610 142 135 129
246078.76171875 3357539.46685791 13.35859680 237 237 239
246089.85534668 3357530.13562012 15.26744270 128 128 128
246083.75732422 3357540.89624023 13.24070644 68 83 78
246080.29736328 3357542.87683105 13.18365288 148 156 158
246083.80200195 3357533.14044189 15.60926342 46 114 179
246081.96118164 3357538.30816650 15.22835159 122 136 149
246080.55908203 3357538.45947266 16.14730453 15 150 208
246081.40380859 3357539.63262939 13.35381985 126 130 133
246091.68237305 3357530.39868164 15.33955574 128 128 128
246082.27416992 3357542.57312012 13.25025463 249 239 116
246084.23083496 3357540.89733887 13.20055103 177 186 77
246081.22180176 3357538.08966064 15.87361526 16 108 195
246080.67370605 3357537.70715332 13.25972748 143 148 154
246089.67346191 3357529.91662598 13.28307247 204 206 205
246083.31799316 3357533.16638184 15.31272411 128 128 128
246080.03442383 3357538.28961182 15.19370556 128 128 128
246082.41162109 3357533.58801270 15.65382004 156 214 225
246081.47387695 3357542.99450684 13.17026711 243 243 243
246083.01391602 3357539.64031982 13.26720333 103 103 93
246080.79833984 3357539.47869873 15.58545971 18 151 216
246080.25988770 3357539.45043945 15.32051086 113 202 234
246090.87988281 3357530.82934570 15.34234524 128 128 128
246089.47058105 3357530.80169678 15.50868607 17 183 245
246079.22888184 3357536.86999512 13.35851192 149 156 162
246082.47045898 3357532.94323730 15.39140701 125 129 132
246091.31359863 3357530.06042480 15.33821011 128 128 128
246084.42456055 3357540.32604980 13.20324898 141 154 74
246078.18945313 3357536.91064453 13.96713638 248 252 251
246080.96423340 3357541.80364990 13.19732475 191 192 187
246081.92736816 3357532.86169434 13.40063381 168 169 171
246084.40051270 3357539.45806885 13.23562145 111 119 68
246078.43762207 3357539.10076904 13.35160351 201 202 197
246091.48950195 3357530.23486328 15.56852055 13 110 187
246083.51989746 3357533.66070557 15.27725220 128 128 128
246082.75976563 3357533.69091797 15.36803150 128 128 128
246089.94262695 3357529.79412842 15.28343868 128 128 128
246081.71252441 3357538.58465576 13.38634109 153 158 162
246084.24121094 3357541.14172363 13.19874859 168 183 66
246078.82482910 3357538.79290771 13.40119076 226 230 239
246081.24011230 3357538.82666016 15.16722965 128 128 128
246084.16259766 3357534.74987793 13.28967667 121 128 136
246080.02917480 3357539.78436279 13.49430180 247 248 250
246084.67529297 3357539.20837402 13.25498486 152 158 58
246081.50109863 3357539.81835938 13.33545399 132 135 140
246081.32885742 3357541.16906738 13.22801781 230 232 229
246080.85205078 3357537.32379150 15.57502079 127 164 182
246084.18273926 3357534.87744141 13.27791691 114 119 125
246083.43518066 3357534.84893799 15.69981384 50 133 201
246091.67272949 3357529.91912842 13.26347637 184 184 184
246078.37219238 3357536.75085449 13.94593334 139 140 135
246084.13220215 3357534.55877686 15.31105423 170 188 188
246091.15710449 3357529.05889893 13.30512714 192 193 195
246079.95739746 3357542.57678223 13.20170212 148 153 156
246082.00231934 3357542.78131104 13.22231388 234 230 159
246079.78015137 3357536.70880127 13.30607319 160 161 165
246083.39599609 3357535.03662109 15.62866497 42 133 186
246081.48645020 3357539.57446289 15.23529339 128 128 126
246089.57189941 3357529.93981934 15.29944801 128 128 128
246081.46337891 3357542.06890869 13.28041744 89 90 94
246090.72692871 3357530.35302734 16.00721169 9 85 163
246081.14306641 3357539.77947998 15.29130650 118 162 199
246091.13891602 3357530.89099121 15.37819004 45 157 207
246079.80871582 3357538.89788818 15.65732384 6 163 232
246080.99816895 3357538.42480469 15.15716839 128 128 128
246084.50317383 3357534.13903809 15.56102848 27 150 210
246083.15527344 3357540.14208984 13.25428104 67 75 26
246081.47521973 3357542.55804443 13.27216339 255 255 255
246083.71044922 3357539.71087646 13.30781364 32 41 50
246082.47705078 3357539.54895020 13.22067451 91 105 118
246079.79504395 3357538.08325195 13.31780720 93 92 98
246084.41650391 3357533.75213623 13.30580711 188 184 181
246082.86462402 3357538.47943115 13.25215816 110 122 134
246081.16284180 3357540.50317383 13.24814224 189 184 178
246090.29711914 3357529.86700439 15.29244995 128 128 128
246080.81127930 3357538.53546143 15.16691780 128 128 128
246089.77893066 3357529.47991943 15.65202522 5 158 234
246084.51147461 3357540.60498047 13.21347523 178 186 75
246089.53796387 3357529.39544678 15.60845280 26 166 228
246079.47290039 3357539.35406494 13.40976810 49 49 61
246083.64367676 3357534.96905518 15.26218891 128 128 126
246079.34130859 3357540.01721191 13.25907803 138 137 133
246083.19177246 3357542.76123047 13.16745472 194 193 191
246082.43652344 3357541.31127930 13.30254173 104 98 40
246082.44958496 3357538.50036621 13.26530647 121 130 135
246080.95812988 3357537.84729004 15.25644779 128 128 128
246082.58898926 3357533.30151367 15.63387680 199 238 233
246079.94738770 3357536.95343018 15.43526268 180 188 190
246083.22192383 3357532.84893799 15.33777046 128 128 126
246078.24047852 3357536.38458252 14.06443024 79 79 81
246082.57763672 3357533.05926514 15.37368298 128 128 128
246082.83398438 3357534.12445068 13.31448460 192 184 181
246082.38403320 3357533.26861572 15.56682205 226 255 255
246082.63439941 3357540.06225586 13.23858166 94 99 102
246083.56506348 3357532.90222168 15.53407955 49 142 209
246083.50805664 3357533.44805908 15.29758835 128 128 128
246081.27514648 3357542.84588623 13.21229076 150 173 165
246080.09167480 3357538.98114014 15.68608189 18 135 214
246082.58630371 3357540.98168945 13.26178837 125 122 51
246084.12207031 3357539.08166504 13.26731014 14 18 17
246089.46936035 3357531.40374756 15.44234562 61 214 248
246091.34313965 3357529.35949707 13.27511406 194 195 197
246089.84985352 3357529.86553955 15.80541229 69 222 253
246082.98425293 3357539.64361572 13.26159668 105 105 97
246080.67602539 3357542.62103271 13.25488949 156 161 167
246083.20178223 3357539.39947510 13.31991959 117 128 49
246090.77111816 3357530.47149658 13.27484035 204 206 205
246081.47399902 3357540.42895508 13.25522804 126 125 123
246083.58300781 3357533.98333740 15.26272964 128 128 128
246079.24951172 3357539.76824951 13.32427311 28 27 32
246081.80822754 3357537.93920898 15.62395000 16 109 187
246089.59375000 3357529.36657715 13.32692719 211 216 212
246090.21203613 3357530.19152832 15.29104710 128 128 128
246090.72167969 3357530.08972168 16.05648041 10 89 166
246082.87878418 3357533.42620850 13.28591061 190 189 187
246082.68408203 3357541.55804443 13.23966694 70 69 38
246081.43896484 3357537.58685303 15.31911564 124 129 135
246089.18066406 3357530.29534912 15.25243664 125 129 130
246080.90820313 3357538.46173096 15.16154385 128 128 128
246089.94165039 3357531.50189209 15.42296505 192 194 193
246079.89770508 3357538.32440186 15.74924946 206 246 255
246089.85180664 3357531.09741211 15.29587555 128 128 128
246082.27868652 3357537.75225830 15.40297699 41 131 193
246091.45422363 3357529.63555908 15.57939053 6 113 193
246084.04333496 3357534.93627930 13.28011036 107 114 122
246078.94885254 3357537.95837402 13.37649727 208 212 215
246090.17858887 3357531.23931885 13.24551487 183 191 193
246082.87609863 3357535.55535889 13.32758617 78 82 83
246083.80761719 3357534.87695313 15.54214573 97 165 202
246091.55090332 3357530.21478271 13.24703121 210 212 209
246089.44750977 3357529.93695068 15.30425358 128 128 128
246081.06689453 3357538.67919922 15.86602592 3 77 162
246079.81689453 3357537.85992432 13.33458614 129 130 135
246083.56933594 3357533.17523193 15.70909977 17 127 214
246083.16186523 3357540.99810791 13.27346420 197 202 208
246082.68298340 3357540.56896973 13.27808666 160 127 118
246079.30041504 3357538.16143799 15.22188950 226 239 245
246090.42968750 3357530.66186523 13.27083588 202 204 203
246084.45898438 3357534.38140869 13.25950813 177 178 180
246080.15100098 3357539.09222412 13.35266495 224 224 224
246090.66601563 3357529.22229004 15.58520889 5 164 232
246089.74499512 3357530.05926514 13.27052975 213 213 211
246082.96923828 3357533.81500244 15.97786617 28 215 248
246082.51806641 3357533.44323730 15.39159966 128 128 128
246078.33483887 3357539.67913818 13.39673138 154 160 86
246081.83569336 3357541.93188477 13.30365849 250 241 162
246084.60375977 3357534.04931641 15.55808640 30 146 207
246079.58984375 3357539.13903809 15.41033077 98 171 222
246089.54687500 3357530.83648682 15.54988194 47 197 248
246078.92407227 3357539.77514648 13.27282906 196 189 181
246085.03918457 3357533.38116455 13.26348972 216 211 208
246080.59790039 3357538.48565674 15.17461967 128 128 128
246083.56201172 3357538.92852783 13.34717083 88 93 52
246090.55773926 3357531.11975098 15.34286118 128 128 128
246083.92004395 3357534.92425537 13.30705929 104 107 116
246079.92834473 3357540.00732422 13.35638809 249 249 249
246083.55786133 3357534.53405762 15.82285881 18 113 193
246080.14648438 3357539.33685303 15.29344749 128 199 221
246091.77282715 3357529.89453125 15.32103920 120 129 136
246083.09033203 3357541.22235107 13.22574043 206 199 85
246090.12695313 3357531.44714355 15.42843437 193 195 194
246082.79748535 3357533.64343262 13.27575970 192 191 187
246082.00451660 3357542.15954590 13.28243542 247 242 140
246078.97106934 3357536.71313477 13.38113594 133 141 144
246080.83813477 3357537.69512939 13.26495075 149 156 162
246083.32458496 3357535.42321777 15.29498196 128 128 128
246089.77075195 3357529.68524170 13.30260277 208 216 218
246080.19995117 3357537.57745361 15.27034283 128 128 128
246090.09350586 3357531.46728516 13.22208881 189 202 211
246083.01293945 3357532.96014404 15.56968975 49 210 238
246081.28417969 3357538.08587646 15.22407150 128 128 128
246082.42382813 3357540.08544922 13.24903488 86 96 108
246081.27697754 3357537.59222412 13.29435253 197 200 205
246081.35217285 3357539.88201904 15.46698666 108 172 207
246083.77868652 3357534.88824463 13.34224510 103 103 111
246083.05603027 3357533.11804199 15.31131744 128 128 128
246080.99853516 3357538.47882080 15.94785976 3 80 158
246084.16577148 3357534.05493164 15.76181602 17 110 187
246090.18457031 3357529.71258545 15.28328705 128 128 128
246089.43957520 3357529.86657715 13.31184387 224 223 219
246083.00720215 3357534.39672852 15.88457680 13 148 238
246079.90417480 3357538.80725098 13.33224869 212 217 223
246080.75854492 3357539.18011475 13.34271145 177 178 180
246091.19274902 3357529.44793701 13.30578518 171 172 174
246090.14001465 3357529.70208740 15.79968643 39 178 219
246083.96154785 3357533.34057617 15.63773632 102 156 216
246080.18078613 3357537.65136719 15.75638008 79 229 253
246080.82275391 3357537.44439697 15.64832401 248 221 252
246080.48083496 3357542.36315918 13.24507141 249 250 252
246082.90039063 3357542.45172119 13.21780777 253 255 151
246082.74462891 3357533.61718750 13.27475357 184 184 182
246082.42602539 3357533.03265381 13.28287029 158 159 161
246089.27038574 3357530.37713623 13.36513233 223 218 215
246081.23059082 3357543.19403076 13.16294956 195 194 192
246081.18762207 3357539.29461670 15.20967579 128 128 128
246091.19128418 3357530.42382813 15.34932137 128 128 128
246083.79638672 3357534.46954346 15.77253342 157 60 80
246083.38415527 3357534.67565918 15.27537632 128 128 128
246080.18225098 3357537.33441162 13.36066723 151 152 157
246080.35351563 3357539.42962646 15.26491737 177 196 203
246083.55395508 3357535.25817871 15.46075726 91 164 197
246084.39599609 3357540.05493164 13.20242500 106 113 79
246082.39990234 3357533.44287109 15.61738586 170 203 194
246082.57043457 3357540.62664795 13.26821423 142 142 90
246080.76281738 3357538.50518799 13.30637264 107 115 134
246091.61218262 3357530.50482178 13.24652290 190 190 188
246089.57812500 3357529.84204102 15.69643116 33 194 246
246079.70129395 3357537.09014893 15.32777786 158 213 218
246079.57165527 3357537.61816406 15.23937607 129 129 129
246079.42138672 3357539.78625488 13.30918694 62 62 72
246082.35925293 3357540.68560791 13.25532436 93 97 106
246084.83215332 3357538.13232422 13.26194191 189 192 87
246090.57165527 3357529.57666016 15.78427792 45 158 200
246081.77233887 3357540.86108398 13.25033951 56 25 30
246082.84606934 3357542.81127930 13.19065475 250 251 134
246084.18554688 3357538.32177734 13.29491711 198 192 56
246081.27734375 3357538.69708252 15.72431087 147 190 241
246080.34484863 3357537.73364258 15.83148766 102 243 255
246083.73864746 3357539.12872314 13.26340008 113 125 39
246080.68383789 3357537.17211914 15.48807621 87 165 201
246078.20349121 3357538.09460449 13.35284424 65 69 80
246079.36938477 3357538.73925781 15.51692390 25 208 248
246082.66491699 3357543.02697754 13.17368603 247 243 154
246081.03576660 3357537.93823242 15.84318542 18 136 223
246081.95544434 3357542.85009766 13.20329952 244 242 217
246083.17944336 3357542.09497070 13.18327618 79 87 100
246082.71423340 3357534.22045898 15.37603664 128 128 128
246090.12634277 3357531.16778564 15.31928539 128 128 128
246080.24560547 3357537.69250488 13.32219219 145 148 155
246081.51269531 3357539.25555420 13.34645557 148 153 156
246090.25390625 3357531.35601807 15.34309769 171 173 172
246080.14770508 3357538.49121094 15.91114807 119 242 250
246081.23168945 3357538.42340088 13.45888615 188 192 193
246089.31103516 3357530.50250244 13.36818027 217 216 212
246091.44641113 3357530.63140869 15.61603165 18 119 189
246083.11608887 3357532.97839355 15.62371159 58 207 239
246089.18383789 3357530.94628906 13.34817600 212 212 210
246091.29553223 3357530.32171631 15.34336376 128 128 128
246080.97436523 3357543.08404541 13.16844559 192 190 191
246083.30920410 3357533.18017578 15.31075573 128 128 128
246079.91381836 3357539.12878418 13.35769176 230 237 243
246081.58984375 3357538.08184814 13.37764549 188 194 194
246090.26953125 3357530.12030029 16.03815079 84 226 250
246091.00219727 3357529.99188232 15.33927727 128 128 128
246082.19030762 3357541.42022705 13.30501747 34 41 47
246083.30395508 3357540.23535156 13.25820541 134 143 90
246080.90771484 3357539.59057617 15.24075699 128 128 128
246082.16723633 3357534.27734375 13.26802826 156 155 151
246082.23449707 3357540.69506836 13.24946880 97 98 100
246079.54125977 3357538.53472900 13.39201832 44 51 59
246082.57348633 3357533.39733887 13.30791950 195 195 193
246083.83605957 3357540.67132568 13.23268700 78 87 58
246091.02429199 3357530.63836670 15.34879875 128 128 128
246091.33862305 3357530.61547852 15.66113091 2 95 175
246082.95410156 3357532.82324219 15.49372005 75 210 230
246090.40783691 3357528.96575928 13.39034748 203 205 204
246079.85180664 3357538.67504883 15.74119091 105 246 255
246083.46948242 3357539.05175781 13.40630150 119 65 88
246089.44116211 3357531.29382324 13.29550362 204 208 209
246089.57836914 3357529.60717773 15.68236446 82 221 250
246084.53942871 3357538.49896240 13.29395199 166 168 59
246082.62988281 3357541.82666016 13.24803352 132 160 207
246083.62072754 3357533.96252441 16.01783180 5 93 182
246081.46325684 3357542.39642334 13.28135681 162 166 169
246082.74230957 3357534.98925781 15.53040600 113 201 237
246082.83496094 3357532.81201172 15.33314037 128 128 128
246083.59020996 3357535.11663818 15.48536301 100 166 201
246089.16406250 3357530.75701904 13.36462307 209 208 204
246091.70947266 3357529.95831299 13.26439285 198 198 198
246082.54724121 3357534.46575928 15.41330528 10 135 215
246079.69799805 3357538.67114258 15.22985840 127 127 127
246084.87744141 3357538.28070068 13.27150440 200 197 90
246081.20593262 3357542.70867920 13.27105522 187 196 195
246090.59838867 3357529.19885254 15.57094002 5 163 237
246082.43017578 3357539.83496094 13.22440910 81 97 110
246082.84277344 3357532.79223633 15.46139050 88 218 240
246091.10412598 3357530.28625488 15.76956749 9 82 150
246082.83569336 3357535.10119629 13.32221508 45 39 41
246090.36950684 3357529.26983643 15.27183437 128 128 128
246083.27307129 3357533.96002197 16.19435310 142 241 255
246080.42419434 3357541.75531006 13.21051598 189 184 181
246091.63244629 3357529.69134521 15.31902790 128 128 128
246080.31127930 3357538.97979736 15.71027374 255 242 244
246084.02795410 3357541.09875488 13.20474720 59 61 11
246082.98291016 3357532.78967285 15.32748413 128 128 126
246083.99536133 3357533.69903564 15.29721260 128 128 128
246082.89831543 3357534.44158936 15.83892155 117 179 238
246090.82971191 3357530.01055908 15.96626472 4 97 175
246089.77331543 3357529.97656250 15.26556206 128 128 128
246080.26086426 3357538.02581787 15.19628716 128 128 128
246081.61401367 3357539.36224365 15.17891502 130 128 129
246090.95751953 3357530.03985596 13.25247002 205 209 210
246082.80126953 3357542.09814453 13.23302555 104 116 80
246079.35961914 3357540.63232422 13.23552608 190 185 181
246079.68066406 3357540.39270020 13.25070000 195 191 188
246082.71386719 3357533.05072021 15.55022240 34 198 236
246078.21081543 3357537.69458008 13.36209679 86 96 106
246081.25939941 3357539.56994629 15.58733177 64 136 194
246078.69519043 3357537.01507568 13.34938049 116 129 135
246083.39575195 3357541.51818848 13.18086910 160 156 57
246080.47985840 3357537.52258301 13.29402256 164 167 174
246082.00402832 3357534.03784180 13.30263329 192 194 193
246083.48547363 3357535.41906738 13.52204132 228 224 223
246083.54858398 3357533.14355469 15.32950211 128 128 128
246083.71704102 3357533.55877686 15.81477261 185 168 223
246082.76562500 3357543.14733887 13.16666031 217 206 184
246090.66955566 3357530.71350098 15.84533882 14 73 143
246079.59582520 3357537.91314697 13.30183697 112 116 119
246083.04882813 3357538.18267822 13.25871658 125 136 142
246089.98205566 3357530.35296631 15.84545326 139 226 246
246083.52795410 3357533.89935303 15.26797485 128 128 128
246081.65100098 3357539.40966797 15.18068600 120 130 139
246078.82568359 3357538.56719971 13.42037106 121 119 120
246079.46594238 3357537.61102295 15.23608017 122 130 132
246082.47363281 3357538.82781982 13.24108982 108 122 131
246084.37072754 3357539.96667480 13.20338535 135 148 66
246083.44519043 3357540.25952148 13.26158619 96 99 114
246090.91174316 3357529.41345215 15.71887493 32 190 235
246082.79431152 3357534.25274658 13.31245327 192 181 179
246090.43322754 3357529.16143799 15.27178478 128 128 128
246082.09252930 3357537.81262207 15.31907463 128 128 128
246089.70166016 3357530.34655762 13.25694847 191 191 191
246083.52136230 3357533.56188965 15.86764050 23 134 224
246081.04931641 3357539.24255371 13.43305969 173 173 175
246090.16003418 3357531.38043213 15.52889347 82 132 169
246080.18933105 3357538.37005615 13.33799744 94 101 111
246091.20654297 3357529.77160645 15.33766556 128 128 128
246081.66442871 3357538.71484375 15.54746628 135 207 255
246082.73437500 3357541.35815430 13.22204208 255 247 127
246084.24975586 3357537.88555908 13.25341129 201 208 79
246081.62658691 3357539.17724609 15.15084934 125 129 132
246081.81970215 3357538.81018066 15.48608398 8 118 203
246080.08203125 3357542.83551025 13.18780041 158 163 166
246082.86975098 3357538.56939697 13.25544453 92 104 120
246081.07897949 3357542.22570801 13.28091621 251 251 253
246080.89843750 3357539.31207275 15.22539043 128 128 128
246083.93469238 3357540.28411865 13.26496792 101 101 89
246089.81457520 3357530.78039551 15.72848415 73 217 251
246082.12438965 3357540.13525391 13.27317619 86 95 104
246079.88232422 3357540.34808350 13.23830891 214 207 201
246079.89343262 3357542.14263916 13.21617603 192 187 181
246091.13049316 3357529.83319092 13.26161575 201 205 204
246089.44299316 3357529.76062012 15.64058590 16 182 240
246090.24707031 3357531.02801514 13.23905945 197 203 203
246079.57922363 3357537.58099365 15.46218300 34 208 242
246083.51538086 3357541.58294678 13.17843437 145 155 42
246080.91784668 3357538.74542236 15.17616558 128 128 128
246079.91796875 3357537.73468018 15.23736858 128 128 128
246079.44360352 3357537.50988770 15.28415108 186 218 231
246084.42382813 3357538.01947021 13.25768089 206 200 50
246081.96887207 3357541.99926758 13.28971386 252 246 136
246081.10949707 3357537.54138184 13.29646015 190 193 200
246079.80212402 3357538.88787842 13.34958458 227 232 238
246080.05322266 3357539.58703613 13.45010185 144 147 154
246082.30004883 3357540.20220947 13.26854229 89 101 115
246079.97717285 3357538.21795654 15.77894688 216 182 209
246081.44799805 3357540.18133545 13.35852814 128 127 132
246090.09741211 3357529.26147461 13.37668324 205 209 208
246089.65270996 3357529.17785645 13.35279369 197 199 196
246078.37951660 3357537.51324463 13.37450981 174 178 181
246091.10473633 3357529.76300049 15.74338722 3 84 165
246081.16430664 3357538.54272461 15.82775211 26 73 151
246083.06445313 3357542.14141846 13.19668674 83 88 94
246085.22705078 3357538.40551758 13.22233295 174 176 93
246083.73889160 3357533.79870605 15.27785206 128 128 128
246078.59692383 3357540.70428467 13.27415657 159 158 156
246080.10327148 3357537.58599854 13.36343098 150 153 160
246081.85119629 3357538.35174561 13.36364841 153 158 161
246083.54211426 3357535.20812988 15.48914909 88 162 201
246078.13708496 3357538.81036377 13.34870529 183 180 175
246083.14941406 3357534.97412109 15.65930367 6 147 226
246081.18518066 3357542.39270020 13.30056095 252 254 253
246081.37683105 3357539.02685547 15.61276722 5 88 168
246080.45068359 3357537.59753418 15.27771854 128 128 128
246084.35876465 3357533.77416992 15.29681587 128 128 128
246083.04907227 3357533.47296143 15.32116604 128 128 128
246084.54064941 3357533.79620361 15.59261608 66 202 242
246082.02844238 3357533.24743652 13.27190876 168 169 171
246078.54321289 3357540.16528320 13.32223988 233 224 149
246089.97302246 3357531.39294434 13.24175644 179 188 193
246082.90039063 3357539.61914063 13.24734497 125 122 117
246090.61608887 3357530.57647705 13.29929352 202 206 207
246081.78625488 3357538.23822021 15.21462727 128 128 128
246083.46496582 3357534.05950928 13.26579094 133 135 132
246090.60705566 3357531.12249756 13.24495316 188 192 193
246080.85852051 3357537.89727783 13.26465702 149 153 162
246080.07080078 3357536.98602295 15.43768311 169 173 176
246082.95043945 3357534.34851074 15.34237003 128 128 128
246089.43835449 3357530.65258789 15.52520561 150 245 255
246082.98815918 3357533.27917480 13.28775024 193 193 191
246084.26782227 3357539.14471436 13.27181911 60 64 67
246082.91625977 3357533.53912354 15.82046127 105 210 240
246082.87646484 3357542.67523193 13.19980717 255 254 146
246084.00341797 3357533.37133789 13.26875687 205 200 197
246078.66442871 3357537.86547852 13.39236259 127 131 134
246081.68286133 3357538.76904297 15.53120708 38 118 189
246082.46179199 3357532.89459229 15.46684647 82 183 211
246082.42211914 3357540.31683350 13.27161598 77 84 94
246080.63977051 3357538.57196045 13.29418755 91 101 113
246081.57373047 3357539.20935059 13.33946705 155 160 166
246083.94165039 3357539.67669678 13.28809547 10 19 28
246084.08947754 3357534.71832275 15.36412144 173 193 191
246078.03796387 3357539.70959473 13.45548058 189 192 199
246079.47106934 3357537.95336914 15.21006680 128 128 128
246084.98278809 3357539.70843506 13.18328476 91 102 96
246083.25219727 3357533.59277344 13.27983379 197 197 195
246091.47460938 3357530.00701904 15.54421711 131 206 255
246080.07104492 3357538.39965820 15.87081528 120 230 247
246089.10449219 3357530.26458740 15.35860538 153 213 239
246090.96594238 3357529.30664063 15.65843296 25 180 226
246080.53564453 3357539.40362549 13.30598640 82 90 92
246083.88720703 3357541.80780029 13.17046738 162 180 72
246082.69824219 3357541.33740234 13.23605537 255 248 127
246080.01232910 3357538.25311279 15.80726910 230 233 250
246084.45251465 3357538.35638428 13.31445789 191 188 59
246083.07543945 3357533.40667725 15.31597996 128 128 128
246087.69348145 3357531.92803955 13.23923206 215 212 205
246082.02319336 3357534.17443848 13.29762554 189 189 191
246080.51269531 3357537.27404785 15.58761311 56 163 207
246082.77905273 3357539.46307373 13.22561932 72 85 94
246078.43835449 3357537.07745361 13.35404778 100 111 117
246082.49780273 3357534.59417725 15.64430523 35 129 190
246082.86169434 3357539.04528809 13.25251198 78 93 114
246091.57849121 3357529.19421387 13.24637032 218 219 221
246082.61877441 3357539.58941650 13.21788311 70 84 95
246090.98217773 3357531.17803955 15.52953911 34 111 189
246091.74255371 3357529.91485596 13.26557064 187 187 187
246080.67529297 3357538.89520264 15.20086479 128 128 128
246080.45739746 3357537.25799561 15.58063221 68 170 210
246091.03930664 3357530.95123291 13.28112602 189 191 190
246079.79321289 3357538.72033691 15.70855236 95 242 255
246089.54638672 3357530.11669922 15.26430416 128 128 128
246082.06066895 3357539.73730469 13.23005486 122 131 140
246081.53540039 3357539.69641113 15.43882179 12 89 169
246083.68762207 3357534.41949463 13.31382370 173 177 180
246089.57104492 3357531.26959229 15.51415730 79 223 255
246078.14660645 3357539.24688721 13.35433102 184 185 180
246083.11523438 3357534.16418457 16.08275604 7 147 232
246090.96643066 3357530.96734619 13.29689121 192 194 193
246090.81311035 3357531.34521484 15.40164566 141 186 215
246081.77502441 3357542.40429688 13.27536201 99 99 99
246082.29296875 3357542.28784180 13.23143673 245 242 135
246084.22973633 3357539.67102051 13.28861141 20 23 2
246081.76135254 3357540.90808105 13.24738026 79 54 58
246082.38171387 3357539.43719482 13.22603607 93 106 115
246090.33325195 3357531.04290771 15.32212257 128 128 128
246085.09899902 3357539.16088867 13.21391964 101 105 78
246078.14367676 3357539.84716797 13.44530964 39 44 48
246081.23413086 3357538.23370361 15.19439411 128 128 128
246080.16589355 3357537.21197510 15.60571384 81 146 164
246080.63000488 3357542.90460205 13.18809891 174 177 184
246090.25524902 3357529.33807373 15.61396503 170 176 228
246081.32897949 3357539.60119629 15.55571079 13 81 146
246079.26037598 3357536.64245605 13.38188553 142 150 152
246091.59899902 3357529.16790771 15.35972118 108 157 197
246083.04992676 3357539.31317139 13.26598549 141 148 52
246079.89257813 3357538.78656006 13.33350182 161 166 172
246083.55639648 3357540.34069824 13.25898933 15 24 41
246078.05590820 3357537.50463867 13.39804554 80 89 96
246082.87414551 3357538.27770996 13.23165131 106 116 126
246082.85302734 3357534.71582031 15.33267021 128 128 128
246081.61865234 3357538.09320068 15.67901134 4 92 181
246090.27539063 3357530.77435303 15.30484676 128 128 128
246083.92663574 3357533.75067139 13.27239513 161 163 160
246081.59667969 3357541.98773193 13.27773380 100 98 101
246090.92565918 3357531.13690186 15.56653309 35 103 178
246079.83984375 3357539.06274414 15.28104115 151 218 209
246078.20214844 3357538.78735352 13.34787560 185 182 177
246079.42944336 3357537.90539551 13.31181049 107 108 110
246084.13757324 3357534.41577148 15.66558838 146 167 214
246090.69885254 3357531.36975098 15.45204449 129 161 186
246090.18823242 3357530.43072510 15.98259354 29 198 239
246082.33557129 3357534.25659180 15.64513779 17 179 228
246083.13085938 3357538.25396729 13.27287960 96 112 125
246081.18127441 3357539.63848877 15.57339382 24 135 191
246078.85253906 3357538.35748291 13.39728642 192 200 203
246091.21044922 3357530.92639160 15.55530262 35 149 203
246079.58325195 3357537.29309082 15.42110634 58 184 199
246086.37768555 3357532.63677979 13.22318077 219 216 211
246082.32922363 3357539.26885986 13.23776817 114 124 133
246079.99987793 3357539.30236816 15.52382851 26 142 227
246079.86022949 3357537.54547119 13.34183025 147 148 153
246083.74707031 3357533.78393555 15.27972889 128 128 128
246083.29504395 3357541.41986084 13.20103264 255 254 139
246085.21252441 3357538.21545410 13.21413136 166 169 92
246083.57165527 3357533.07580566 15.33729172 128 128 128
246081.36279297 3357538.46276855 15.70880032 95 36 82
246090.66064453 3357531.35052490 15.35959721 128 128 128
246080.07202148 3357538.96002197 13.33333588 163 166 171
246083.88513184 3357534.77770996 15.30123711 173 195 193
246082.04614258 3357539.54864502 13.23065376 130 139 148
246081.30041504 3357539.81945801 13.41811562 115 116 120
246083.77221680 3357534.30725098 15.24561882 128 128 128
246083.05053711 3357534.05041504 15.34319973 128 128 128
246084.28076172 3357534.16943359 15.26152134 129 127 128
246078.91052246 3357539.23651123 13.47346401 72 76 79
246079.52258301 3357537.28088379 15.34086418 178 228 237
246078.01330566 3357537.86486816 13.36090851 81 82 86
246091.30358887 3357529.89508057 15.61770821 145 152 207
246091.56628418 3357530.15722656 13.25087261 210 212 211
246080.18664551 3357537.58850098 15.74658871 56 202 225
246079.50671387 3357540.26617432 13.25058270 192 191 187
246081.67956543 3357538.82714844 15.14565372 128 128 126
246083.30322266 3357542.38775635 13.18793392 100 101 103
246078.32812500 3357538.64733887 13.34679031 190 189 184
246080.65820313 3357537.39038086 13.27907658 187 190 197
246089.11730957 3357530.45013428 15.33652496 223 242 255
246084.14526367 3357533.98718262 15.78413200 19 116 193
246083.55053711 3357534.56011963 13.36028385 172 177 181
246082.29772949 3357541.20062256 13.29822254 145 140 120
246091.77282715 3357530.46002197 15.48403358 53 147 208
246083.04248047 3357540.45800781 13.26217270 125 97 58
246082.86853027 3357533.27069092 15.34017467 128 128 128
246083.85058594 3357539.40454102 13.28539085 21 26 29
246082.87243652 3357542.60992432 13.20739937 252 250 131
246080.52587891 3357542.93786621 13.17802620 149 150 154
246089.86157227 3357529.79339600 15.29402161 128 128 128
246089.68090820 3357531.14569092 13.29286385 204 209 212
246081.04980469 3357538.12072754 15.94438553 27 134 214
246090.11840820 3357529.02343750 15.37892723 102 168 220
246080.72253418 3357538.69653320 13.32951069 109 108 114
246083.22753906 3357532.93829346 15.32926464 128 128 128
246090.45361328 3357530.59887695 13.28309822 204 208 209
246084.29846191 3357539.41101074 13.26892281 36 40 25
246091.56750488 3357529.13061523 15.34678650 96 147 190
246082.14428711 3357542.42486572 13.25793648 247 241 121
246083.11059570 3357533.67535400 15.31803513 128 128 128
246082.35437012 3357534.31152344 15.65392494 18 175 228
246091.57592773 3357528.79486084 13.28247070 200 201 205
246079.71643066 3357539.60253906 13.37294674 246 251 255
246083.32055664 3357533.18090820 15.75632381 9 142 221
246091.12084961 3357531.00476074 13.26192951 191 193 192
246083.08288574 3357535.58020020 13.33167171 237 233 232
246080.88488770 3357542.03277588 13.21055412 48 49 51
246090.55737305 3357530.18359375 16.20840645 97 180 230
246090.58605957 3357529.57482910 15.30733681 128 128 128
246079.81018066 3357540.38201904 13.24426174 208 205 200
246079.36669922 3357537.89855957 15.43817520 23 192 231
246080.84411621 3357539.00744629 15.20211601 128 128 128
246082.55432129 3357541.38476563 13.26832962 106 99 21
246084.15234375 3357539.62774658 13.31511784 4 6 5
246080.51501465 3357538.39257813 13.29059219 122 131 140
246083.39782715 3357540.24792480 13.26043415 140 145 149
246082.43395996 3357533.31671143 13.30348969 192 194 193
246078.05151367 3357539.91656494 13.45447636 37 42 45
246079.29101563 3357538.95526123 15.46566200 101 187 210
246080.46240234 3357538.66302490 13.31592178 81 90 99
246090.55676270 3357530.16558838 15.31285286 128 128 128
246083.74194336 3357540.39807129 13.25233364 62 71 52
246079.96520996 3357540.06140137 13.33546638 240 241 245
246079.11901855 3357540.43634033 13.24034214 172 173 167
246091.73486328 3357531.10430908 13.23269939 213 215 212
246079.83776855 3357538.47528076 15.73994637 91 223 248
246083.07348633 3357534.88922119 15.29821491 128 128 128
246081.95239258 3357534.17993164 13.30361652 187 187 187
246090.39819336 3357529.94415283 15.99175835 3 171 234
246081.84033203 3357543.19506836 13.16510391 177 179 178
246091.10546875 3357530.64978027 15.75419712 30 107 189
246084.87878418 3357538.21148682 13.26815414 193 192 86
246084.30859375 3357540.09429932 13.20441341 89 93 78
246090.50488281 3357529.31640625 13.36053753 215 217 216
246084.40368652 3357538.03680420 13.26632881 240 235 92
246080.80761719 3357538.85894775 15.19125938 128 128 128
246084.01623535 3357534.82836914 15.51745701 120 174 202
246083.06933594 3357535.19592285 15.52015877 27 150 227
246091.56884766 3357528.90130615 15.41625118 62 121 189
246078.74792480 3357538.83728027 13.39537239 206 209 216
246081.02807617 3357538.70898438 15.16764545 128 128 128
246081.61511230 3357538.29437256 15.19754219 128 128 128
246082.87683105 3357534.81243896 15.67285633 186 208 255
246082.31469727 3357538.73077393 13.25506210 131 141 150
246080.52905273 3357538.34216309 16.18190765 109 241 255
246091.66052246 3357530.76898193 15.46496964 72 169 211
246091.12402344 3357530.98083496 15.55442619 32 150 211
246084.52917480 3357538.79449463 13.35105705 124 124 72
246083.44897461 3357534.69122314 15.26723194 128 128 128
246084.40795898 3357540.52056885 13.20203400 180 190 77
246081.00805664 3357537.69854736 13.27190399 186 193 199
246081.73864746 3357538.39099121 15.18411446 128 128 128
246083.89465332 3357538.08044434 13.29151821 201 202 72
246082.29699707 3357533.74816895 13.28988171 198 196 197
246079.33056641 3357537.82702637 15.37309456 131 193 208
246083.26623535 3357533.91888428 15.30338669 128 128 128
246090.06066895 3357529.74658203 15.81637573 14 190 237
246082.94409180 3357541.63964844 13.20565605 17 13 14
246081.98815918 3357534.27136230 13.29119873 191 191 191
246078.07006836 3357539.58288574 13.43389893 255 255 255
246083.14184570 3357535.98327637 13.25809193 192 189 182
246081.42260742 3357539.78436279 15.28077793 202 201 197
246083.45922852 3357534.83685303 15.69289303 49 134 201
246084.45605469 3357538.70880127 13.38131714 145 144 61
246082.97204590 3357534.09155273 15.35437870 128 128 128
246090.23645020 3357529.87823486 15.28869247 128 128 128
246082.67846680 3357539.18255615 13.23831463 96 108 124
246080.22863770 3357537.84124756 15.81839752 59 218 239
246083.11462402 3357533.13354492 13.26957893 191 192 187
246083.34375000 3357541.67553711 13.18029022 91 102 70
246080.91870117 3357538.66552734 13.38970470 108 119 137
246078.33056641 3357539.51666260 13.34664822 178 179 163
246083.24279785 3357537.91223145 13.24928474 117 115 116
246083.15954590 3357540.87329102 13.28589249 175 192 186
246082.73693848 3357535.02941895 15.43966675 92 171 204
246079.79724121 3357536.99945068 15.39643478 137 178 184
246080.34716797 3357542.37792969 13.23939896 246 250 253
246084.56481934 3357533.94702148 13.28172302 208 205 200
246080.84057617 3357540.07995605 13.43490505 255 255 255
246082.19042969 3357540.12554932 13.26944351 85 95 107
246081.20068359 3357537.97473145 15.83877659 19 137 211
246082.77429199 3357533.36309814 15.70515442 193 232 247
246079.12573242 3357536.99670410 13.35160160 135 144 151
246083.08288574 3357535.41790771 13.36988831 65 56 59
246083.47094727 3357533.07073975 13.24322414 213 208 204
246091.29931641 3357529.18237305 15.23130989 128 128 128
246078.21850586 3357537.08685303 13.47686672 73 82 87
246079.66308594 3357538.21441650 15.20733833 128 128 128
246080.48608398 3357537.11706543 15.36426449 202 200 201
246079.16894531 3357538.83050537 13.41122532 191 181 189
246078.63671875 3357539.19024658 13.39400387 64 63 68
246081.42028809 3357538.84649658 13.51083279 160 161 163
246082.27380371 3357534.29003906 13.26201916 185 184 179
246091.49133301 3357530.25128174 13.24162769 208 210 209
246083.22497559 3357535.49749756 15.30267620 128 128 128
246090.75573730 3357531.19110107 15.56331921 53 103 162
246080.10180664 3357540.13781738 13.31918526 245 250 255
246082.35083008 3357534.72033691 13.24280548 168 163 159
246084.27661133 3357540.62811279 13.20110893 172 180 79
246090.74670410 3357529.69342041 15.88514233 4 168 231
246081.93078613 3357533.79571533 13.31368542 199 201 200
246081.19079590 3357538.04565430 15.87893200 30 137 219
246084.16662598 3357534.68566895 13.29004002 129 134 140
246081.43395996 3357541.67974854 13.24929714 217 218 220
246082.59594727 3357534.09100342 15.83163166 16 198 245
246079.75805664 3357537.30096436 15.29045296 127 129 128
246083.31823730 3357535.64221191 15.43985176 38 150 214
246081.82055664 3357539.88043213 13.24691391 127 132 138
246079.89721680 3357539.12951660 13.36154366 228 233 239
246079.11804199 3357539.31176758 13.49132442 228 229 233
246089.73986816 3357529.76782227 15.74505711 56 213 248
246080.43847656 3357538.40661621 13.30341434 124 130 144
246082.27722168 3357538.03967285 13.32220745 165 170 174
246080.92187500 3357538.39129639 13.31843567 144 152 165
246081.10424805 3357538.46203613 15.15358257 128 128 128
246080.37438965 3357537.10424805 15.40190029 170 194 206
246083.60058594 3357535.06982422 15.50083351 102 166 201
246081.52575684 3357537.99719238 15.72516346 0 69 161
246080.67492676 3357542.79345703 13.22740173 168 175 183
246083.20971680 3357535.00939941 15.28503990 128 128 130
246080.97204590 3357542.71838379 13.26132202 254 252 253
246083.97741699 3357534.33526611 13.28306389 183 187 190
246083.42431641 3357533.80767822 16.02403831 10 130 216
246091.73315430 3357531.25640869 13.22565651 219 221 218
246081.86340332 3357538.28015137 13.37074471 163 168 171
246081.14770508 3357538.57244873 15.15396214 128 128 128
246090.58264160 3357531.52398682 13.24696827 199 206 212
246082.75646973 3357540.12396240 13.23983955 112 68 83
246090.88867188 3357528.92962646 13.33672428 196 198 197
246083.10791016 3357534.15399170 16.08864784 2 153 236
246081.20031738 3357540.34887695 13.32452869 101 96 100
246081.15686035 3357539.70410156 13.46840858 112 112 112
246084.44091797 3357534.18847656 15.58464146 29 150 207
246089.46923828 3357529.18011475 15.46432304 206 207 202
246081.14160156 3357538.38861084 15.16176319 128 128 128
246083.34350586 3357539.34521484 13.33431149 137 145 44
246082.92871094 3357542.28607178 13.21558571 158 168 81
246083.70422363 3357534.16925049 15.93185711 9 91 177
246091.45288086 3357530.53857422 13.23366261 192 192 192
246080.86120605 3357539.20355225 13.38081741 254 255 255
246083.24426270 3357542.19653320 13.19298267 147 154 160
246090.85119629 3357530.83648682 13.29946995 192 194 193
246081.91259766 3357539.14300537 13.29363251 143 150 158
246082.85644531 3357537.44964600 13.25951290 134 139 143
246080.46667480 3357539.47033691 15.49678612 142 226 255
246083.56018066 3357539.67144775 13.29858971 131 138 60
246080.73083496 3357542.39184570 13.28733540 237 239 238
246084.31762695 3357534.35021973 15.27581024 128 128 128
246083.06127930 3357538.35656738 13.26677895 104 114 126
246079.28002930 3357540.30828857 13.24654007 188 188 180
246091.68652344 3357530.48553467 13.25247097 193 193 191
246089.89599609 3357529.66992188 13.30827427 213 216 221
246080.96142578 3357539.75433350 13.48807621 75 75 73
246081.23632813 3357542.69500732 13.27898884 155 164 161
246078.43395996 3357536.56982422 14.06259155 124 126 123
246084.51037598 3357538.96777344 13.32810593 108 110 99
246081.32849121 3357539.73382568 15.27647686 128 128 128
246079.76440430 3357537.94134521 15.61736965 165 172 191
246079.27246094 3357536.65069580 13.38149357 142 150 152
246091.28051758 3357530.72052002 15.66780281 18 110 183
246080.15930176 3357537.48510742 13.35762310 151 151 159
246082.42150879 3357534.14428711 15.48054981 18 152 223
246081.23608398 3357538.62878418 15.76050377 78 79 123
246083.13732910 3357539.54388428 13.29446125 97 98 92
246081.45996094 3357539.37957764 15.18742466 129 127 128
246081.04980469 3357539.71624756 13.49528027 102 101 99
246089.51464844 3357530.40875244 13.31231499 215 213 214
246090.30371094 3357529.39794922 15.27019024 128 128 128
246083.58215332 3357539.34020996 13.27817345 141 146 54
246090.97546387 3357528.96929932 15.51629257 4 163 228
246085.31884766 3357538.48651123 13.21085453 114 109 87
246090.25109863 3357530.11828613 16.02902222 84 226 250
246083.13342285 3357535.23284912 13.58083820 76 66 65
246079.70642090 3357538.04046631 15.61181068 209 226 246
246083.64147949 3357542.15289307 13.17209339 109 123 132
246082.79650879 3357540.74676514 13.27613926 132 117 96
246081.21350098 3357539.04052734 15.70972729 5 83 166
246082.00878906 3357537.62066650 15.51332092 71 193 242
246078.32299805 3357540.10571289 13.40982723 107 109 34
246081.49719238 3357540.01055908 13.35020733 135 136 141
246082.25402832 3357543.00128174 13.20090103 247 239 128
246082.42041016 3357534.17828369 15.71459103 28 194 244
246082.74670410 3357533.25128174 13.29844666 199 199 197
246081.54162598 3357539.62310791 13.31639385 129 133 136
246077.95471191 3357540.28698730 13.41538811 112 117 123
246080.17980957 3357537.94366455 13.30240536 148 151 156
246090.36560059 3357530.22753906 15.30135536 128 128 128
246084.08605957 3357538.15490723 13.30548573 225 224 84
246079.61645508 3357537.88006592 15.54278755 248 255 255
246084.51647949 3357533.86376953 13.28664875 219 214 208
246080.05798340 3357537.21429443 15.31446934 128 128 128
246089.52319336 3357530.96588135 15.26905060 128 128 128
246081.54455566 3357542.72412109 13.21947956 163 161 164
246085.35400391 3357538.97741699 13.20730782 92 107 130
246079.01367188 3357539.05554199 13.42993450 86 84 87
246090.02355957 3357529.23248291 13.37769794 210 214 213
246081.78833008 3357538.63787842 15.51974964 3 99 185
246089.53918457 3357530.23211670 15.24835205 128 128 128
246082.16418457 3357533.90917969 13.29524803 194 194 194
246084.07458496 3357533.51184082 15.64753151 66 150 212
246090.68969727 3357530.91815186 15.33498192 128 128 128
246083.30761719 3357533.15472412 13.25882339 190 191 186
246082.76708984 3357532.90100098 15.50222015 45 211 237
246091.47558594 3357531.28503418 13.20718670 189 191 190
246090.96545410 3357529.08459473 15.22485638 128 128 128
246080.88562012 3357538.12530518 15.97329998 23 126 201
246090.60119629 3357529.02197266 15.51854897 4 156 232
246079.20739746 3357539.81542969 13.30033398 28 23 27
246082.43420410 3357541.86059570 13.26486397 128 146 186
246084.12548828 3357534.08715820 15.76790237 23 115 192
246080.63354492 3357539.30639648 15.23794174 128 128 130
246082.97082520 3357534.18957520 13.30865765 232 231 227
246081.59423828 3357540.14880371 13.30801010 136 137 142
246089.36779785 3357529.52136230 15.60738659 87 215 250
246082.79406738 3357532.70880127 15.33600903 127 129 128
246090.01354980 3357531.23516846 15.31767654 128 128 128
246083.19836426 3357534.91406250 13.50362968 233 228 234
246084.05371094 3357533.39019775 15.32683563 128 128 128
246079.30322266 3357537.92126465 15.24390697 254 253 249
246080.38964844 3357538.67443848 15.88796234 16 142 227
246078.53991699 3357539.70764160 13.34244633 255 255 176
246080.86645508 3357538.61370850 16.01757622 8 73 153
246079.42944336 3357539.00506592 15.49643326 25 144 212
246081.63024902 3357541.56597900 13.26398849 60 62 61
246082.42224121 3357540.44213867 13.26864815 97 100 107
246081.25292969 3357537.96356201 15.82411575 23 139 214
246079.10156250 3357537.04187012 13.36200809 126 136 145
246084.32434082 3357534.54602051 13.27327919 149 154 158
246089.11242676 3357530.19262695 15.39347935 37 136 201
246081.66674805 3357538.85437012 15.14860439 128 128 126
246086.81530762 3357532.38330078 13.22268867 221 223 220
246080.51770020 3357542.55230713 13.24446774 192 199 207
246080.88452148 3357538.16473389 13.26425648 173 180 190
246090.68322754 3357530.57202148 13.29074478 205 207 206
246080.75708008 3357539.65777588 15.45632839 18 145 214
246082.25964355 3357533.37158203 13.29113483 203 203 203
246080.82617188 3357538.50878906 15.16578960 128 128 128
246082.16699219 3357539.71435547 13.22317886 114 124 134
246081.03735352 3357537.46276855 15.59824657 177 230 255
246082.98132324 3357539.00677490 13.30743599 123 147 171
246082.94702148 3357534.27966309 15.93861103 3 171 246
246089.56713867 3357529.54931641 13.29210281 229 233 234
246090.41320801 3357530.40759277 16.14349937 22 130 202
246081.88061523 3357541.31134033 13.23748302 183 187 190
246084.17285156 3357540.04327393 13.23212337 93 100 67
246090.20581055 3357530.82916260 15.30308723 128 128 128
246079.92773438 3357538.02209473 15.19284344 128 128 128
246080.20092773 3357537.05816650 15.35838795 194 194 194
246079.22692871 3357538.69464111 15.33247566 31 203 239
246082.85046387 3357540.04754639 13.23920155 35 12 32
246090.20007324 3357530.61004639 13.26128864 201 205 204
246083.82727051 3357534.65081787 13.30643749 117 120 127
246090.98706055 3357530.06243896 13.24902344 198 202 201
246090.58508301 3357531.12567139 13.24061108 188 192 193
246089.80517578 3357529.18640137 15.35560703 199 199 197
246090.11755371 3357531.15679932 15.31780243 128 128 128
246091.17968750 3357529.12707520 13.30548573 201 202 204
246082.90625000 3357534.78680420 15.32271099 128 128 130
246081.34167480 3357538.53369141 13.53378105 192 193 195
246083.07263184 3357538.87286377 13.34806347 156 195 238
246091.43823242 3357529.90478516 15.55447292 125 194 253
246090.03198242 3357530.76739502 15.29038334 128 128 128
246082.94091797 3357540.14978027 13.24467564 73 32 62
246079.62976074 3357538.30853271 15.21052074 128 128 128
246089.23229980 3357530.22174072 15.47592449 18 154 230
246080.72705078 3357539.19781494 15.70839119 17 135 209
246081.54357910 3357539.79168701 13.32327175 133 138 142
246081.12536621 3357543.13354492 13.16521835 200 199 197
246082.93188477 3357535.95819092 13.29261684 204 203 198
246081.34655762 3357539.36340332 15.57628441 1 84 164
246081.95397949 3357542.72302246 13.22796917 234 228 176
246083.69836426 3357533.31677246 15.72722626 166 69 110
246082.52087402 3357541.76104736 13.27050400 100 118 142
246080.75939941 3357538.90118408 15.86739826 19 130 209
246091.55078125 3357530.19598389 15.33291912 128 128 128
246078.65002441 3357537.87591553 13.38843346 127 131 134
246083.68371582 3357539.81494141 13.28812408 72 78 42
246084.02636719 3357533.39825439 15.63250065 98 158 218
246083.39697266 3357534.82037354 15.26871777 128 128 128
246084.52185059 3357539.42712402 13.22274494 143 154 62
246081.16760254 3357539.66296387 15.55891418 27 152 210
246083.23754883 3357534.81732178 13.46042824 209 209 217
246091.61535645 3357529.33605957 15.47037888 41 130 190
246081.07592773 3357538.79052734 13.47714710 139 143 152
246080.89123535 3357537.80090332 13.26537800 150 155 161
246082.47753906 3357539.84887695 13.22391987 82 94 108
246091.04980469 3357529.05242920 15.54866028 10 176 234
246079.23950195 3357536.94268799 13.34850216 146 153 159
246080.38134766 3357542.09503174 13.21239090 177 179 178
246080.12377930 3357537.63403320 13.35468578 150 153 160
246083.73046875 3357534.21978760 15.24899673 128 128 128
246090.50012207 3357529.04461670 15.52051640 7 154 232
246090.05810547 3357531.52893066 13.23291969 175 193 205
246078.72900391 3357536.91387939 13.36020470 127 138 144
246083.47778320 3357532.86962891 15.35160255 128 128 128
246082.82128906 3357534.14477539 15.93692017 8 189 244
246078.21447754 3357537.05102539 13.50317287 61 70 75
246079.53857422 3357537.34399414 13.29650021 119 123 124
246089.50561523 3357530.30725098 15.24713898 128 128 128
246089.95300293 3357529.36145020 15.60385227 5 164 245
246079.88391113 3357542.17224121 13.21567249 194 189 183
246082.91467285 3357533.12463379 15.63105965 34 195 241
246089.80004883 3357530.38867188 15.26706314 128 128 128
246079.59716797 3357538.03826904 15.20658970 128 128 128
246080.25952148 3357537.39581299 13.34274960 155 158 163
246079.40783691 3357536.82720947 13.35070801 140 144 147
246091.56579590 3357530.13568115 13.25192928 206 208 207
246089.35449219 3357530.38922119 15.23846722 128 128 128
246083.30383301 3357535.22833252 15.28865910 128 128 130
246080.61926270 3357539.37872314 15.24480915 128 128 128
246080.73510742 3357538.01257324 15.93567467 7 138 216
246080.51599121 3357538.91656494 15.79733849 187 193 253
246078.52673340 3357539.76916504 13.34782028 255 255 159
246084.10217285 3357540.70202637 13.21361637 144 157 65
246089.61242676 3357531.21014404 15.54401493 82 225 255
246079.20532227 3357537.58734131 13.35948277 88 82 84
