245583.47637939 3357434.09704590 21.07910728 11 14 21
245583.29797363 3357442.66400146 20.77873993 89 94 100
245583.01971436 3357439.31661987 20.40215492 45 48 55
245583.21545410 3357437.25787354 21.42688942 38 46 57
245583.27172852 3357438.23959351 23.08814621 34 40 52
245583.28424072 3357440.37222290 22.92626572 61 71 81
245583.39691162 3357434.24914551 22.74376488 46 51 57
245583.27502441 3357442.61682129 20.62289810 151 159 170
245583.77014160 3357436.31973267 22.68357849 17 46 104
245583.84796143 3357438.76757813 21.60646820 11 58 126
245584.02276611 3357440.81802368 20.51669693 11 57 83
245583.35681152 3357439.10769653 20.83735466 53 75 96
245583.80975342 3357439.62066650 23.63985062 140 172 213
245583.78430176 3357436.75289917 23.59815979 3 36 115
245583.22631836 3357431.28411865 22.05568123 7 12 16
245583.86071777 3357439.07528687 21.49944687 11 61 130
245583.24304199 3357431.78131104 21.73531342 8 15 23
245583.24377441 3357433.99172974 22.33380699 20 25 31
245583.78399658 3357439.34301758 23.64787292 145 168 218
245583.30566406 3357436.46453857 22.45730400 72 89 99
245583.20111084 3357437.73962402 22.88774300 30 39 46
245583.47827148 3357435.62103271 23.39967537 31 35 46
245583.50482178 3357432.82812500 22.31002045 80 32 44
245583.91906738 3357440.55749512 20.92436600 6 76 128
245583.72723389 3357435.61434937 21.51561546 17 70 140
245583.11450195 3357432.72235107 21.05240250 11 18 26
245583.20489502 3357434.61645508 22.87941742 18 21 30
245582.84423828 3357436.53558350 20.55016708 39 48 57
245583.56774902 3357439.37054443 23.56160927 26 30 39
245583.81488037 3357437.05560303 23.07473183 12 51 118
245583.49487305 3357430.16180420 22.51064682 74 52 64
245583.55096436 3357430.17193604 20.33373642 47 37 45
245583.66168213 3357434.83465576 20.72605515 0 25 49
245583.51367188 3357432.22515869 21.89297485 85 45 56
245583.72900391 3357435.11737061 22.98123550 36 61 118
245583.34442139 3357437.95184326 21.61318588 105 110 114
245583.99340820 3357439.31204224 19.84016609 19 27 40
245583.28173828 3357432.07940674 22.46324539 25 29 40
245583.79931641 3357441.98199463 20.89273262 9 34 56
245583.22058105 3357438.38284302 22.72558975 29 38 45
245583.73327637 3357435.41738892 23.23829651 24 50 107
245583.89880371 3357435.71035767 20.10795212 22 42 67
245583.50634766 3357431.77035522 22.75022125 51 19 40
245583.93328857 3357442.35928345 20.95942116 5 10 14
245583.53045654 3357432.00714111 22.51460648 69 21 33
245583.27899170 3357437.91278076 23.04665756 16 23 31
245582.76361084 3357431.21905518 20.94454002 24 25 30
245583.39776611 3357437.67333984 21.24364662 63 67 76
245583.90478516 3357440.37374878 23.33592796 5 42 113
245583.52587891 3357431.41812134 21.24149323 65 24 32
245583.45379639 3357434.89877319 21.17582893 63 71 82
245583.72967529 3357435.16458130 23.48982239 2 22 93
245583.87792969 3357442.25332642 20.94357491 23 32 39
245583.47955322 3357434.92834473 23.62902451 24 31 50
245583.41021729 3357430.01681519 21.47888184 42 17 21
245583.16314697 3357437.48486328 22.70045853 12 23 27
245583.85943604 3357441.94238281 23.56528282 141 166 206
245582.90374756 3357432.59240723 20.82313919 30 37 45
245583.83776855 3357437.84613037 23.63218117 4 37 118
245583.26770020 3357434.73617554 23.23180199 45 52 60
245583.78668213 3357437.28350830 21.32824326 22 61 118
245583.37835693 3357438.54263306 21.57313347 61 68 76
245583.86010742 3357439.10003662 23.29156876 10 46 120
245583.16326904 3357440.44442749 20.78975868 10 13 20
245583.68560791 3357441.89971924 21.35814476 16 32 55
245583.54064941 3357431.49874878 20.94452667 133 96 88
245583.30865479 3357436.32934570 22.29405785 86 104 118
245584.09197998 3357439.90579224 20.29788017 32 68 92
245583.30072021 3357440.67739868 23.45053864 40 47 53
245583.34881592 3357434.84432983 20.61161613 35 39 50
245583.32965088 3357439.34359741 20.91109085 44 66 80
245583.76556396 3357436.53106689 23.35046196 11 45 119
245583.88403320 3357439.96923828 22.14636040 30 57 110
245583.74371338 3357435.70407104 23.07425117 70 95 151
245584.23077393 3357440.52523804 20.46366310 24 69 100
245583.14886475 3357432.48391724 21.56305504 9 14 20
245583.53295898 3357432.45480347 22.57354546 67 25 39
245583.72497559 3357436.29901123 21.46149826 25 85 155
245583.08935547 3357432.62353516 21.17855453 12 19 27
245583.59997559 3357433.94522095 21.06735229 79 88 97
245583.79718018 3357436.74151611 22.15633392 45 80 134
245583.39434814 3357436.42300415 23.10577774 77 94 104
245583.58868408 3357440.92349243 21.89533806 27 41 54
245583.35766602 3357439.82553101 22.31856155 156 176 185
245583.00109863 3357430.39086914 21.73724365 17 20 27
245583.87805176 3357439.56561279 23.11574173 12 47 115
245583.34069824 3357439.29861450 22.49835014 53 63 72
245583.58166504 3357441.27670288 23.47936249 30 36 50
245583.28649902 3357432.67581177 22.65819168 28 33 55
245583.61035156 3357431.37112427 20.63193703 80 55 50
245583.85064697 3357438.94476318 21.17156792 51 102 155
245583.79394531 3357436.87973022 22.54385567 22 58 108
245583.57281494 3357432.21408081 20.45898247 60 30 38
245583.55908203 3357434.74597168 23.76344490 71 81 108
245583.32556152 3357440.66146851 23.47420883 36 41 47
245583.72753906 3357431.31588745 20.52090263 29 17 21
245583.86376953 3357439.46725464 21.91348457 36 67 111
245583.23376465 3357431.68118286 22.39341736 28 38 50
245584.17297363 3357442.26184082 20.58088875 10 18 29
245583.92938232 3357441.80737305 20.47873116 11 41 67
245583.15136719 3357430.45840454 22.53369522 43 45 57
245583.12438965 3357437.57727051 20.96375275 197 218 235
245583.53802490 3357434.47543335 21.14389038 151 172 189
245583.71588135 3357439.84515381 23.61024094 141 147 171
245583.87554932 3357439.79827881 22.09711266 29 55 104
245582.75665283 3357434.03741455 20.67861748 146 151 170
245583.30419922 3357434.60229492 20.43079758 6 15 24
245583.67089844 3357431.39724731 20.46239471 35 20 25
245583.21350098 3357431.42916870 22.52990150 11 18 28
245583.76586914 3357437.71667480 21.71937561 17 66 122
245583.44860840 3357440.62124634 22.16124344 99 121 142
245583.51495361 3357432.21771240 22.28688240 68 22 32
245583.21368408 3357438.01599121 22.71811485 31 40 49
245583.16473389 3357433.34115601 22.20646095 23 27 36
245583.62268066 3357442.56991577 20.27995110 70 89 106
245583.41412354 3357439.94485474 21.61280632 73 90 100
245582.95056152 3357436.05209351 20.68720627 33 43 52
245583.68060303 3357435.09857178 21.95821190 11 52 116
245583.18151855 3357430.95590210 21.83176613 9 14 18
245583.83496094 3357436.36917114 20.36425972 12 72 135
245583.75354004 3357436.42025757 23.71842766 44 76 149
245583.74432373 3357434.25711060 20.74067307 148 163 182
245583.17120361 3357432.80895996 22.03287888 7 11 20
245583.68945313 3357438.31259155 23.67171669 146 157 187
245584.01214600 3357439.24938965 19.81399155 39 46 64
245583.83654785 3357438.56939697 21.18802452 72 111 150
245583.54693604 3357433.44198608 22.68910789 34 13 28
245583.20214844 3357442.72280884 21.09561920 28 29 31
245583.61767578 3357440.16406250 23.60487938 23 30 40
245583.88177490 3357440.73022461 23.52462006 6 45 124
245583.86346436 3357439.15090942 22.90632057 12 46 118
245583.33917236 3357438.88891602 22.12540627 70 83 91
245584.00115967 3357435.64498901 20.06054115 35 42 48
245583.40075684 3357435.41296387 23.38920021 11 18 24
245583.40484619 3357439.16595459 21.39189148 0 0 4
245583.06585693 3357442.61376953 21.16848755 61 64 69
245583.29016113 3357432.01776123 22.68663597 31 38 54
245583.60766602 3357430.98422241 20.83315659 75 31 32
245583.04083252 3357433.32424927 20.86440849 4 9 15
245583.80145264 3357435.96768188 20.46476936 3 73 132
245583.79650879 3357438.01000977 21.51695442 9 54 119
245582.96392822 3357430.19573975 21.10094643 19 24 30
245583.18914795 3357432.93490601 20.92274475 60 61 65
245583.52935791 3357431.37380981 22.29057693 69 18 27
245583.73907471 3357441.50527954 22.46190643 138 166 203
245583.41314697 3357434.52478027 22.58321571 22 43 88
245583.64825439 3357434.56863403 20.54286385 61 93 108
245583.22351074 3357430.44561768 22.77144432 33 39 55
245583.89825439 3357440.05517578 23.07744408 17 48 112
245583.36480713 3357436.58724976 23.06834602 8 22 25
245583.51129150 3357432.44918823 21.82657433 70 34 38
245583.54602051 3357432.40396118 20.94833755 110 81 83
245583.33093262 3357431.61611938 22.83863258 131 134 169
245583.18505859 3357436.53942871 21.89312172 15 25 34
245583.40936279 3357439.38366699 21.11767769 130 147 163
245583.50152588 3357431.28134155 22.60627937 67 23 38
245582.73706055 3357431.44250488 20.10494614 10 19 24
245583.82604980 3357438.39505005 23.43836784 5 40 121
245583.59362793 3357441.81225586 23.23603439 0 4 14
245583.46350098 3357430.45590210 21.37029839 75 24 33
245583.46063232 3357430.59432983 22.70937729 58 25 44
245582.58453369 3357430.60980225 20.78234482 33 38 44
245583.62969971 3357439.88259888 23.57275391 38 36 50
245583.29437256 3357438.86618042 23.11315727 78 89 107
245583.84130859 3357437.66342163 23.55988121 6 42 120
245583.73559570 3357436.10183716 23.01951981 8 43 109
245583.53790283 3357431.63885498 20.95412064 96 57 50
245583.13250732 3357439.35748291 20.55877113 37 44 50
245583.68164063 3357441.99282837 23.26763153 0 3 8
245583.83514404 3357438.68273926 22.39806175 130 161 207
245583.84887695 3357438.03335571 21.01509857 31 70 111
245583.76397705 3357435.60180664 20.41458321 5 68 122
245582.95495605 3357432.13449097 20.81516647 12 19 25
245583.53076172 3357431.39215088 21.10791969 70 23 29
245583.87011719 3357439.63720703 22.08794212 39 67 117
245583.18634033 3357435.85601807 21.26008797 12 15 22
245583.22076416 3357441.20233154 21.22240448 8 15 23
245583.78924561 3357436.92858887 22.00563431 133 162 194
245583.79931641 3357436.90155029 23.62062263 3 38 119
245582.88201904 3357430.61322021 21.51481438 26 33 41
245583.82421875 3357437.18353271 23.22942543 14 49 117
245583.87530518 3357439.40866089 23.55264091 4 42 113
245583.22894287 3357431.28713989 22.00896263 22 25 30
245583.43035889 3357439.71588135 21.30519867 81 102 121
245583.47033691 3357434.29336548 21.53396797 47 54 64
245582.98431396 3357432.21829224 20.91144180 10 17 23
245583.76501465 3357435.75857544 23.49665451 7 37 109
245583.26843262 3357438.83862305 23.05225372 112 127 146
245582.94836426 3357432.13476563 20.80301285 14 19 25
245583.72827148 3357436.74697876 21.55825233 8 71 142
245583.76013184 3357436.32241821 20.73282242 0 78 140
245583.41333008 3357436.21923828 23.02503967 91 103 115
245583.52111816 3357432.08370972 22.40444374 68 22 32
245582.81744385 3357432.30209351 20.64747429 29 33 42
245583.46893311 3357431.35705566 22.87080956 50 34 60
245583.88708496 3357440.02267456 22.19408035 31 60 116
245583.25372314 3357432.22937012 22.24185944 25 32 40
245583.28851318 3357432.03143311 22.62408829 25 32 48
245583.49456787 3357431.31481934 21.85299873 77 36 44
245582.75506592 3357431.58874512 20.13468742 23 28 32
245583.55493164 3357430.24609375 20.44057465 67 58 63
245583.50555420 3357431.38223267 22.76210022 59 26 45
245583.40051270 3357439.27584839 21.49702072 0 3 10
245583.52648926 3357431.31738281 21.05333519 70 21 25
245583.90234375 3357438.83950806 19.98298264 18 64 113
245583.44354248 3357433.99490356 22.75911522 42 38 55
245583.43481445 3357434.76959229 22.27511406 52 57 61
245583.88549805 3357440.29922485 22.75028992 15 49 110
245583.37097168 3357439.66885376 22.06904030 172 197 219
245583.22576904 3357434.96154785 22.95472145 16 23 29
245583.37597656 3357431.45782471 22.86269569 155 161 197
245584.13934326 3357436.24844360 20.23268127 33 42 51
245583.81268311 3357437.85839844 22.65347672 10 35 99
245583.34881592 3357435.43444824 21.38111496 0 0 7
245583.36608887 3357440.08239746 22.32699394 99 117 137
245583.67669678 3357434.83483887 23.69153023 26 64 126
245583.37799072 3357438.59573364 21.56785202 54 61 67
245582.97088623 3357433.28262329 20.81781387 39 46 56
245582.80853271 3357430.44793701 21.10284996 22 25 32
245583.83380127 3357438.57333374 22.16172409 14 47 101
245583.50524902 3357431.39944458 21.92411804 78 36 40
245584.22698975 3357441.08316040 20.36575699 53 80 97
245582.97332764 3357432.51266479 20.93125916 20 25 31
245583.82122803 3357438.38674927 22.75215912 13 44 109
245583.16613770 3357434.61148071 20.34894180 2 6 15
245583.24682617 3357440.79275513 23.35949898 101 114 130
245583.47314453 3357432.89694214 21.44016838 96 61 67
245583.47735596 3357433.84878540 22.63120651 46 28 44
245583.36383057 3357433.82995605 21.06299019 22 32 42
245583.33874512 3357430.03149414 20.65455246 43 24 28
245583.79962158 3357437.44674683 22.08664703 37 66 122
245583.16577148 3357434.81796265 22.77956390 29 34 40
245583.64324951 3357434.97802734 21.84175491 14 55 119
245583.75262451 3357435.73580933 23.20847511 69 94 148
245582.92028809 3357435.75628662 20.45014954 37 46 53
245583.38824463 3357439.02178955 21.54351807 176 201 221
245583.80493164 3357437.59628296 22.07184219 102 134 185
245583.54083252 3357433.35876465 22.48236275 115 81 97
245583.30133057 3357435.12139893 23.25047684 20 27 33
245583.72601318 3357435.59512329 21.06420326 7 69 130
245583.34796143 3357440.80499268 21.35708046 61 73 85
245583.41357422 3357434.81851196 20.81015968 29 35 47
245583.21868896 3357433.05035400 22.42672539 19 23 35
245583.73382568 3357435.45721436 23.27323914 10 36 93
245583.70526123 3357430.90386963 20.72212791 68 27 35
245583.55712891 3357435.84722900 23.57419586 85 85 113
245583.45794678 3357430.15136719 21.69442368 67 25 35
245583.48425293 3357434.68136597 22.12569046 15 47 106
245583.49981689 3357430.83605957 21.15449715 76 27 30
245583.38336182 3357440.90429688 22.88817406 8 16 19
245583.89050293 3357440.41665649 21.61497307 5 68 122
245583.25592041 3357437.64340210 21.86530685 25 34 43
245583.83416748 3357439.24438477 20.87543297 7 86 142
245583.36791992 3357436.85162354 23.34580994 41 56 63
245583.52191162 3357431.06115723 21.03829002 104 56 54
245583.47662354 3357437.78399658 23.52392769 18 23 29
245583.57501221 3357442.42504883 20.51163673 131 145 156
245583.68176270 3357435.49746704 21.79815292 15 61 123
245583.65673828 3357435.73748779 23.72927475 152 171 227
245583.71563721 3357436.71707153 21.50036621 5 69 140
245583.82366943 3357438.12960815 21.09625626 81 118 160
245583.83648682 3357438.71505737 22.49069023 124 154 204
245583.40924072 3357440.01565552 21.02147865 44 51 61
245583.83276367 3357438.59744263 23.12607956 7 44 115
245583.62127686 3357435.01718140 22.31566429 13 47 108
245583.73156738 3357441.53625488 21.19509506 21 45 91
245583.50836182 3357431.74542236 21.74697113 108 65 74
245583.71893311 3357434.98181152 20.46871758 9 42 61
245583.31365967 3357437.03796387 23.22432899 5 9 12
245583.34783936 3357440.68090820 21.26766205 55 68 77
245584.14855957 3357441.80978394 20.24979210 22 41 55
245583.47558594 3357431.08880615 21.57126999 75 32 41
245583.20349121 3357431.22964478 22.42704773 13 18 24
245583.50885010 3357438.60913086 23.53846169 31 31 41
245583.47894287 3357432.98477173 21.60847664 75 25 36
245583.73339844 3357435.46166992 23.55973816 10 41 108
245583.24316406 3357438.32995605 22.99814796 35 45 54
245583.29882813 3357434.23767090 20.76983833 156 178 199
245583.22076416 3357438.16619873 22.85167503 31 40 49
245583.37188721 3357432.59069824 22.81480408 154 159 191
245583.22418213 3357432.14724731 22.09371948 23 31 42
245583.33197021 3357438.24240112 21.90341759 15 20 24
245583.64880371 3357434.43652344 20.73023224 96 119 137
245583.33831787 3357433.70162964 21.20746803 15 22 32
245583.22241211 3357432.18524170 22.11050034 26 35 44
245583.23181152 3357431.20364380 21.85764885 43 46 51
245583.87164307 3357439.71548462 21.71551132 25 72 126
245583.65142822 3357433.64669800 21.06312180 184 195 213
245583.31652832 3357436.04489136 21.97743988 120 141 160
245583.51489258 3357434.63833618 21.19179726 116 131 150
245583.52838135 3357435.73184204 23.34352112 134 140 154
245583.66369629 3357435.10168457 21.32874107 24 74 137
245583.07189941 3357436.44555664 21.37479210 40 51 57
245583.78771973 3357436.56100464 22.40546227 92 125 168
245582.82238770 3357430.98687744 21.31756973 10 19 28
245583.31408691 3357433.77301025 22.74044228 23 28 48
245583.37280273 3357439.17092896 21.81199455 117 135 145
245582.94769287 3357433.24661255 20.79804993 133 139 151
245583.72973633 3357441.49716187 21.67673302 45 59 68
245583.48168945 3357430.84475708 22.79186058 55 26 46
245582.97863770 3357436.25277710 20.90968323 32 41 48
245582.86883545 3357432.18353271 20.66838455 22 27 33
245583.41748047 3357434.41156006 21.92591476 34 58 104
245583.84661865 3357437.43228149 21.06871986 46 73 116
245583.90643311 3357441.26031494 20.57153511 10 64 100
245583.72155762 3357435.33746338 22.79207993 20 46 107
245583.68865967 3357442.19158936 21.19984818 15 32 60
245583.87353516 3357439.75958252 21.25716591 7 60 126
245583.14611816 3357436.17059326 21.45771217 31 40 47
245583.00244141 3357430.33746338 21.61878777 22 22 30
245582.79461670 3357431.43374634 20.30755806 10 15 19
245583.46429443 3357435.01605225 22.51838303 133 136 141
245583.86468506 3357438.84155273 20.31830978 18 94 154
245583.46997070 3357430.74804688 21.38239288 74 27 37
245583.22918701 3357431.53094482 22.28741264 11 18 26
245583.81585693 3357437.33340454 23.16251183 13 50 120
245583.42211914 3357435.84765625 22.24811745 139 168 184
245583.31134033 3357438.22955322 23.17121506 35 41 53
245583.72100830 3357435.01632690 23.46862602 4 19 86
245583.34020996 3357435.60726929 21.52804565 8 17 26
245583.59790039 3357434.57809448 21.38411522 24 79 135
245583.41705322 3357434.54333496 22.61636353 18 40 89
245583.60394287 3357441.33880615 22.62017822 99 129 157
245583.95471191 3357437.72772217 20.96620750 10 32 56
245583.92260742 3357440.92968750 22.24922943 110 133 175
245583.94140625 3357438.62539673 20.21674347 29 73 122
245583.93249512 3357441.30233765 23.23211670 22 47 113
245583.29559326 3357437.02191162 23.07539177 2 7 10
245583.25927734 3357434.05538940 22.38212776 16 19 26
245583.45324707 3357435.56933594 23.44612122 39 45 59
245583.25769043 3357438.12081909 23.03393173 30 39 48
245583.30297852 3357433.59326172 22.73372269 25 33 54
245583.49163818 3357430.99719238 22.79774857 44 19 41
245583.26934814 3357434.17825317 22.23226357 29 38 47
245583.24218750 3357430.86828613 22.75505066 12 18 32
245583.36798096 3357430.00891113 21.60117722 36 17 23
245583.39868164 3357433.94308472 21.05836105 28 40 54
245583.39978027 3357439.67993164 21.69339180 0 0 2
245583.11181641 3357437.10687256 21.15230179 41 48 58
245583.28454590 3357433.62533569 22.68523216 22 30 49
245582.94024658 3357436.42330933 20.82219696 32 41 50
245583.55987549 3357441.17712402 22.58418083 136 163 192
245583.58062744 3357432.26589966 20.02547073 30 25 32
245583.52984619 3357435.72860718 23.24625587 88 94 110
245583.24572754 3357438.07897949 22.31605339 25 35 44
245583.30102539 3357437.57977295 21.54495811 17 26 33
245583.73150635 3357435.61669922 22.77958298 11 46 104
245583.53417969 3357433.35888672 22.28213692 76 30 41
245583.18164063 3357439.62716675 20.76271820 14 18 21
245583.52386475 3357431.94686890 21.50981712 89 53 57
245583.50537109 3357430.61599731 21.00215530 133 82 78
245583.49957275 3357434.25729370 21.21611404 73 75 87
245583.88256836 3357439.62854004 23.17284393 11 48 116
245583.21179199 3357432.96823120 21.31032372 21 25 34
245583.51483154 3357432.21328735 22.28574371 68 22 32
245583.28765869 3357434.01428223 22.56147575 9 13 22
245583.70751953 3357442.19656372 23.37401199 52 69 97
245583.50921631 3357430.85763550 21.07162476 120 72 72
245583.34185791 3357438.90875244 22.09932709 70 83 91
245583.27563477 3357440.07504272 23.12230301 38 45 55
245583.82794189 3357438.43286133 23.53417206 1 39 120
245583.33770752 3357433.76995850 21.46395683 22 29 37
245583.70330811 3357434.97705078 20.57124710 13 48 68
245583.77069092 3357437.77761841 23.69335747 72 107 171
245583.02740479 3357436.79855347 21.23242760 32 42 51
245583.27832031 3357431.15759277 22.79713440 28 30 53
245583.86956787 3357439.51141357 22.73239326 16 51 119
245582.93041992 3357431.69845581 20.70056343 17 20 25
245583.31768799 3357437.75015259 23.20316124 18 27 34
245583.87762451 3357439.88836670 21.84949493 110 143 188
245583.07434082 3357438.04385376 20.97714996 182 212 236
245583.58398438 3357441.13192749 23.49775314 25 27 40
245583.72906494 3357435.11242676 23.47941399 1 24 94
245583.48712158 3357441.06005859 23.46367645 20 23 32
245583.23327637 3357434.00659180 22.17545891 29 36 42
245584.07153320 3357435.81451416 20.09294128 32 41 46
245583.01928711 3357435.15753174 20.44100189 31 38 46
245582.69598389 3357432.22857666 20.37493515 40 47 55
245583.91595459 3357440.87188721 22.23191071 43 72 116
245583.50762939 3357441.15771484 22.92193985 1 6 12
245583.86456299 3357437.48718262 21.04244041 0 10 45
245583.41430664 3357434.02609253 22.55960083 64 62 75
245583.23297119 3357431.40811157 21.62862587 15 22 30
245583.25744629 3357437.26937866 23.14469910 8 12 21
245583.77679443 3357441.55422974 22.58406448 45 67 104
245583.38543701 3357439.70312500 21.89336967 0 1 12
245583.66314697 3357442.30770874 21.19134521 10 18 21
245583.19702148 3357431.04260254 22.33209419 12 17 23
245583.86340332 3357439.20260620 21.43981743 8 63 128
245583.75451660 3357436.72470093 21.73682404 14 65 128
245583.76605225 3357437.43801880 21.64763069 10 64 124
245583.84136963 3357439.46685791 20.69625473 10 84 133
245583.18090820 3357434.73547363 22.68801498 6 7 11
245583.55444336 3357431.95605469 20.53439522 67 28 31
245583.50305176 3357431.74151611 21.90803719 103 60 70
245583.49041748 3357434.19287109 21.22801590 58 66 79
245583.56384277 3357432.82778931 20.98097420 96 80 83
245583.49786377 3357430.82034302 21.93119812 89 39 48
245583.58221436 3357434.98907471 22.50459290 17 48 105
245583.50408936 3357431.85968018 21.99905968 100 57 67
245583.76599121 3357436.52874756 23.29935074 9 43 115
245583.49401855 3357434.76773071 21.22767067 74 81 97
245583.08386230 3357432.47833252 21.31756973 7 14 20
245583.37249756 3357433.14291382 21.21206474 50 29 36
245583.05963135 3357436.46044922 21.32977295 43 54 60
245583.25201416 3357434.51873779 22.37071991 26 31 37
245583.32855225 3357435.08883667 23.42975044 37 44 50
245583.92193604 3357441.14694214 22.39035034 98 114 150
245583.72637939 3357435.28933716 20.45679855 7 57 92
245583.92376709 3357439.38259888 19.98731041 26 62 94
245583.51452637 3357438.18710327 23.53698921 23 28 34
245583.78686523 3357436.46090698 22.14764214 89 115 164
245583.79437256 3357436.88122559 23.50649834 6 43 114
245583.49798584 3357433.69595337 22.71755600 62 48 73
245583.24896240 3357432.46459961 22.37912178 5 9 20
245583.26416016 3357439.07540894 20.53837585 36 55 69
245583.44622803 3357430.42214966 22.74593544 59 30 52
245583.50341797 3357432.46270752 21.63216019 80 43 50
245583.89984131 3357440.09677124 23.34578323 10 44 115
245583.33050537 3357431.80944824 22.85900307 155 158 191
245583.22686768 3357432.52349854 22.29701042 7 11 20
245583.97540283 3357437.40731812 20.98388290 167 190 221
245583.86260986 3357438.81661987 20.38561058 19 95 155
245583.37689209 3357433.53607178 21.70865631 90 54 64
245583.68994141 3357435.10702515 20.88352776 6 56 91
245583.21118164 3357431.40890503 22.49015999 17 21 33
245583.38916016 3357435.52032471 21.67298126 31 43 57
245583.29418945 3357436.60363770 22.57413483 78 94 107
245583.51989746 3357433.04196167 22.16903687 80 28 40
245583.04785156 3357435.89501953 20.88009071 30 37 47
245583.88647461 3357440.37274170 21.55541039 5 70 126
245583.38128662 3357441.32675171 21.17439651 14 19 23
245583.06597900 3357432.20407104 21.22093582 11 16 22
245583.72900391 3357435.13668823 23.41604996 10 33 100
245583.25805664 3357434.12835693 22.23293686 28 33 39
245583.49407959 3357433.35632324 21.11204529 9 13 24
245583.27899170 3357437.52105713 23.22567558 27 31 42
245583.22882080 3357437.01113892 22.58529282 1 10 19
245583.77264404 3357441.41366577 21.38790131 14 45 92
245583.81457520 3357438.04162598 22.53579903 46 69 121
245583.39013672 3357436.49502563 23.29017448 16 36 45
245583.92297363 3357441.29949951 22.43523788 71 93 132
245583.23541260 3357440.20657349 20.68886375 23 30 38
245583.21423340 3357438.13952637 22.73648071 32 41 50
245583.19909668 3357431.10348511 22.36433029 13 18 24
245583.81390381 3357437.73242188 22.64488792 20 48 113
245583.73950195 3357442.03613281 23.28975487 29 48 90
245583.71008301 3357434.87493896 23.38144112 0 23 90
245583.16821289 3357432.80596924 21.98127365 8 12 21
245583.28082275 3357433.25445557 21.16715813 35 36 41
245583.49340820 3357432.74151611 21.35274315 93 57 67
245583.71636963 3357434.19335938 20.85638428 34 46 62
245583.51934814 3357431.66821289 20.61178398 103 76 57
245583.81097412 3357437.75570679 22.06606865 105 136 190
245583.86822510 3357440.24624634 21.13667870 7 66 126
245583.63604736 3357431.22903442 20.78075790 66 28 27
245583.16235352 3357432.82687378 21.13590431 7 14 22
245583.88592529 3357441.08380127 21.92852402 15 46 103
245583.82220459 3357437.62753296 22.92282104 0 36 112
245583.50524902 3357433.76593018 22.64727402 59 35 51
245583.30065918 3357438.97421265 23.11078072 36 43 59
245582.97247314 3357431.63565063 20.89294815 9 14 18
245583.44775391 3357434.51937866 20.81233025 115 135 160
245583.44915771 3357439.92645264 23.46872330 23 27 36
245583.08612061 3357434.51425171 20.32826614 91 105 116
245583.92358398 3357441.09353638 22.30833626 151 167 201
245582.76739502 3357434.48892212 20.01568985 20 24 35
245583.89489746 3357440.34155273 21.74808693 59 109 158
245583.48120117 3357430.69598389 21.24110985 65 16 19
245583.53387451 3357432.80361938 21.02694130 109 93 94
245583.89501953 3357439.80160522 23.33250427 8 42 114
245583.29986572 3357435.06936646 22.96548462 13 20 26
245583.39147949 3357440.58203125 21.39415359 21 31 43
245583.08801270 3357430.00854492 20.47762871 69 69 79
245583.85986328 3357441.23056030 21.70774651 14 46 107
245583.62609863 3357430.32894897 20.46378708 58 51 58
245583.52825928 3357435.04827881 21.81412697 101 110 117
245583.75225830 3357435.66870117 22.21982193 23 50 105
245583.19158936 3357430.93121338 22.30639076 8 13 19
245583.20520020 3357431.22323608 22.51723480 18 21 30
245583.07049561 3357437.59518433 20.96699905 199 220 239
245583.40240479 3357442.08975220 21.25782204 18 23 27
245583.85845947 3357440.65563965 22.82771492 23 54 119
245583.83679199 3357438.57714844 21.24338722 87 126 167
245584.07537842 3357435.06457520 19.91108894 38 43 47
245582.62188721 3357431.58850098 20.06603813 23 30 38
245583.42980957 3357434.96060181 21.12061691 55 63 74
245583.18487549 3357433.27102661 21.82767296 23 32 37
245583.34069824 3357442.39868164 21.22309875 12 15 20
245583.49194336 3357432.59008789 22.78932381 47 27 55
245584.19128418 3357441.42987061 20.19294739 6 56 83
245583.92321777 3357440.34182739 20.82085991 4 71 126
245583.22686768 3357434.61300659 22.49939537 13 18 22
245583.40295410 3357441.87762451 21.35081482 9 17 20
245583.89807129 3357440.73944092 21.12784576 13 87 136
245583.87268066 3357439.73788452 21.86663818 109 142 185
245583.39428711 3357439.68276978 21.76745605 0 1 0
245583.63861084 3357434.60833740 20.63814163 83 125 147
245583.48150635 3357430.60635376 21.17963791 99 49 48
245583.40399170 3357434.50000000 23.14225769 32 40 53
245583.27697754 3357437.97296143 22.06338120 16 25 34
245583.53833008 3357431.41485596 22.18892670 103 56 64
245583.33306885 3357433.11041260 22.80164337 65 79 106
245583.44805908 3357434.21044922 20.98574638 176 192 208
245583.34118652 3357439.32281494 22.50121689 56 66 75
245583.88348389 3357437.34326172 21.05340195 129 169 221
245583.89514160 3357440.19723511 22.67298698 15 45 107
245583.12316895 3357433.76992798 20.91380310 37 55 65
245583.95147705 3357442.09277344 20.58526611 5 22 32
245583.12255859 3357435.62591553 20.81805038 32 41 50
245583.86309814 3357439.14212036 23.13099861 17 46 116
245583.39678955 3357437.00210571 23.42386436 25 34 41
245583.12420654 3357430.03149414 20.59576797 32 31 39
245583.92163086 3357441.04232788 22.17543221 92 119 164
245583.77996826 3357436.04211426 20.61495018 42 117 172
245583.66662598 3357441.16894531 23.53440857 72 77 97
245583.03741455 3357438.64065552 20.55497169 185 206 237
245583.19219971 3357431.06442261 22.45045853 13 18 24
245583.31646729 3357439.89007568 22.81756020 47 58 64
245583.52191162 3357431.44775391 22.01485252 119 74 81
245583.18572998 3357437.01953125 22.14229393 31 38 48
245583.74566650 3357435.71630859 21.99136543 21 60 129
245583.84307861 3357438.82003784 22.83952332 15 50 114
245583.93737793 3357440.78485107 23.30520439 13 46 115
245583.59283447 3357431.43630981 20.54023743 46 25 24
245583.53118896 3357430.50613403 20.79780006 82 32 35
245583.79919434 3357437.88342285 21.87178421 24 60 110
245583.50372314 3357435.42315674 22.19902802 118 123 127
245583.91137695 3357436.92816162 20.73305702 121 164 198
245583.36456299 3357441.49258423 21.22375298 9 12 17
245583.88085938 3357439.56674194 23.27896118 7 48 114
245583.50085449 3357431.44555664 21.78887367 118 76 86
245583.53173828 3357440.79431152 22.04323387 67 93 116
245583.39764404 3357438.85116577 21.13202095 0 0 5
245583.69818115 3357441.34738159 22.28445053 82 117 149
245583.35339355 3357439.38867188 22.17096519 118 127 136
245583.31628418 3357433.51666260 21.20401001 22 29 37
245583.81158447 3357438.69601440 23.62542152 51 89 160
245583.35327148 3357439.98803711 22.46361732 133 150 158
245582.97137451 3357435.73187256 20.54142952 39 48 55
245583.21014404 3357432.35507202 22.10123253 7 14 22
245583.40045166 3357438.32806396 21.34996605 65 72 78
245583.34594727 3357439.78210449 22.67465401 50 61 67
245583.41223145 3357435.78836060 22.14602470 119 145 162
245583.67510986 3357434.76135254 20.54407310 8 35 52
245583.57757568 3357430.17266846 20.23297501 32 27 33
245583.26568604 3357442.74359131 20.97230339 20 21 25
245583.83813477 3357439.10800171 21.00568390 43 108 162
245583.81213379 3357437.57199097 22.50798416 144 167 219
245583.92437744 3357440.27075195 23.51318932 2 39 120
245583.21307373 3357438.23049927 22.72239113 30 39 46
245583.81768799 3357437.94311523 21.12865067 86 117 148
245583.75048828 3357436.09014893 21.76927757 29 81 139
245583.32775879 3357438.55273438 22.13499260 68 73 79
245583.79406738 3357437.88018799 21.24257088 86 115 149
245583.88934326 3357440.10781860 22.00160980 109 138 182
245583.58105469 3357442.53109741 20.91939163 149 158 167
245583.53228760 3357432.32238770 22.57398415 67 26 40
245583.51031494 3357432.70016479 22.67932129 57 21 47
245583.24310303 3357431.65762329 21.64999962 10 18 21
245583.06207275 3357430.49713135 21.92895889 25 28 35
245583.97625732 3357439.63330078 20.26643944 11 34 50
245583.20410156 3357430.10235596 22.29848862 13 14 19
245583.23187256 3357431.64230347 22.45148468 35 44 59
245583.40270996 3357439.65435791 21.64260674 0 0 0
245583.99365234 3357436.12130737 20.19629097 31 44 61
245583.41882324 3357434.28311157 21.72521210 64 74 99
245583.55047607 3357432.18795776 20.28370667 54 28 37
245583.16149902 3357432.66162109 21.79112244 6 11 17
245583.53631592 3357431.38900757 20.86738968 124 87 78
245583.82330322 3357438.09579468 23.16928673 4 40 116
245583.25146484 3357433.05166626 21.13250923 36 39 44
245583.79278564 3357437.43826294 21.93199348 44 81 133
245583.77459717 3357437.25613403 21.70466614 9 62 128
245583.85839844 3357439.54052734 20.44240379 14 55 83
245583.51904297 3357431.23959351 21.05017090 78 30 30
245583.37359619 3357438.00332642 21.26964188 55 62 68
245583.24456787 3357436.73776245 22.34297562 29 42 58
245583.10931396 3357438.98828125 20.21464539 2 10 21
245583.90447998 3357441.14297485 22.11146164 12 42 96
245583.24035645 3357431.57412720 22.12199020 44 49 55
245583.17102051 3357441.18344116 21.19939232 12 23 25
245583.71032715 3357440.26150513 23.62685204 115 121 143
245583.49078369 3357430.66931152 22.27486229 78 25 31
245583.54571533 3357432.07897949 20.86396599 135 104 101
245583.80310059 3357437.01306152 22.21079636 27 59 120
245583.87091064 3357439.64880371 22.20485115 31 64 118
245583.72924805 3357435.13879395 23.45936394 1 21 90
245583.53289795 3357441.29495239 22.97091484 13 17 29
245583.23382568 3357432.48638916 22.32416916 5 9 20
245583.84130859 3357437.61203003 23.51536560 8 44 120
245583.54663086 3357432.08221436 20.85490799 135 104 101
245583.53149414 3357434.80050659 22.15757942 13 50 103
245583.79980469 3357437.04379272 22.11934090 45 75 127
245583.21722412 3357430.78387451 22.62558746 30 33 42
245583.73504639 3357435.76986694 20.84499550 6 64 128
245583.22729492 3357435.26388550 20.81184006 16 19 28
245582.72796631 3357432.23370361 20.43515205 36 45 52
245583.56091309 3357440.80889893 21.87904358 69 93 117
245583.22235107 3357433.93841553 22.26615906 24 31 39
245583.18859863 3357431.93017578 21.58407211 13 18 22
245583.52239990 3357441.11026001 21.62128830 79 95 111
245583.80822754 3357441.08282471 23.57548332 168 187 227
245583.48864746 3357430.92037964 21.94352341 82 35 43
245583.26202393 3357437.81723022 22.04794502 23 32 41
245583.87237549 3357440.81216431 22.55709076 22 45 99
245583.15258789 3357438.32250977 20.93913078 176 210 238
245583.41613770 3357439.45614624 21.16767883 125 142 158
245583.57733154 3357434.87808228 22.73894691 15 37 95
245583.76739502 3357437.48391724 21.30183792 11 40 84
245582.95465088 3357430.21142578 21.17061234 20 25 31
245583.83740234 3357437.36676025 23.47158813 5 41 115
245583.17541504 3357430.21887207 22.59431648 38 44 58
245583.39477539 3357437.70913696 21.26330376 57 61 70
245583.25805664 3357440.79602051 21.09013557 38 45 53
245583.34338379 3357442.71008301 19.98161888 45 52 58
245583.77941895 3357436.74560547 23.66638756 8 41 122
245583.78332520 3357436.49905396 22.52898407 37 59 117
245583.92926025 3357440.96435547 23.12303543 16 51 115
245583.17071533 3357432.60540771 21.91669846 5 9 18
245583.14825439 3357432.36416626 21.54908752 4 11 17
245583.39123535 3357438.69357300 21.21374512 190 212 236
245583.88250732 3357435.92404175 20.19869614 13 44 101
245582.97344971 3357431.91400146 20.84464645 12 20 23
245582.98046875 3357438.79016113 20.26421928 25 40 61
245582.91162109 3357430.80047607 21.56211090 46 54 67
245583.66082764 3357431.43643188 20.40577698 46 34 44
245583.72998047 3357435.53414917 22.84144211 20 44 108
245583.16107178 3357437.00476074 21.88073349 31 40 49
245583.84429932 3357438.84649658 22.07925797 47 80 131
245583.30963135 3357439.97216797 22.83606911 54 65 71
245583.71038818 3357436.55010986 21.24980545 11 72 135
245583.81152344 3357442.26235962 21.04262543 17 26 35
245583.19805908 3357437.29718018 21.76069832 27 37 46
245583.25677490 3357437.58337402 21.76375580 25 34 43
245583.48120117 3357433.80706787 22.76295280 86 78 101
245583.02087402 3357430.97009277 21.54147911 35 47 59
245583.81518555 3357437.90722656 22.04835701 74 104 154
245582.97015381 3357435.82104492 20.59923363 34 43 50
245583.90924072 3357440.02957153 23.45508957 4 40 118
245583.81475830 3357438.15118408 22.75960922 14 46 121
245583.75811768 3357435.62939453 20.49699211 4 71 124
245583.91040039 3357441.58285522 23.31464005 15 47 106
245583.53045654 3357432.32412720 20.18232346 79 64 69
245583.91101074 3357440.51245117 22.19057465 48 84 134
245583.36334229 3357439.10577393 21.90687561 118 125 133
245583.24401855 3357440.41186523 23.15234756 54 67 73
245583.38928223 3357435.27114868 23.22629547 7 18 22
245583.61077881 3357434.66976929 23.44423294 6 39 106
245583.96972656 3357437.74398804 20.95594406 10 32 56
245583.33410645 3357433.64138794 21.29908752 18 25 33
245583.51220703 3357432.09799194 21.65812683 101 61 70
245583.83270264 3357438.61309814 22.87841988 7 46 111
245583.88488770 3357439.62545776 23.32159996 7 45 116
245583.39373779 3357439.91845703 20.85831833 38 47 56
245584.14031982 3357441.74017334 20.25017357 19 46 63
245583.53057861 3357432.40145874 21.01111412 67 36 42
245583.30822754 3357433.69763184 21.52129745 86 68 80
245583.51257324 3357431.94479370 22.15640450 90 47 54
245583.25659180 3357433.11535645 21.21037292 25 28 33
245583.40319824 3357440.53466797 22.29194260 59 64 70
245583.81695557 3357438.24304199 22.68000031 11 38 107
245583.79040527 3357437.83877563 21.83161354 28 68 120
245583.47521973 3357440.85455322 22.37013245 124 145 166
245584.00750732 3357439.12869263 19.83252907 26 34 47
245583.41485596 3357436.05651855 22.78780746 64 74 84
245583.90435791 3357440.70324707 21.74170876 109 142 185
245583.46142578 3357434.28509521 20.97199821 155 178 196
245583.08245850 3357433.96694946 20.86199188 9 25 38
245583.73120117 3357435.53628540 23.14404869 96 122 173
245583.27453613 3357430.02078247 21.65344238 27 25 30
245583.19952393 3357432.23120117 21.98261261 12 21 30
245583.56970215 3357432.36349487 20.83517075 105 76 72
245583.27905273 3357433.66687012 21.63170433 21 28 36
245583.27795410 3357440.86083984 21.18563080 27 35 46
245583.78503418 3357436.44207764 22.25168228 40 62 120
245583.18603516 3357433.66778564 20.95208931 1 15 26
245583.72790527 3357435.17205811 20.42445564 6 51 80
245583.55847168 3357441.32687378 22.84424210 180 202 226
245583.48278809 3357440.62713623 21.76251793 78 100 123
245583.95654297 3357437.73086548 20.96450615 10 32 56
245583.81982422 3357438.31649780 22.64642906 17 42 108
245582.72631836 3357431.83618164 20.17604828 29 34 38
245583.09466553 3357433.58657837 20.91581535 9 24 31
245583.66656494 3357430.72744751 20.64097977 75 35 44
245583.79095459 3357437.01144409 22.75960732 21 52 117
245583.28796387 3357433.83093262 21.70290565 27 34 42
245583.59130859 3357441.46783447 21.46827888 14 23 30
245583.48846436 3357434.00500488 21.10122108 0 0 0
245582.70050049 3357430.31536865 20.65681458 31 34 41
245583.32189941 3357434.87930298 20.57516289 18 22 31
245582.86578369 3357434.47271729 20.08117104 11 20 27
245582.97619629 3357437.35858154 20.92197227 182 198 214
245583.10034180 3357431.83670044 21.29470634 14 17 22
245583.25183105 3357436.65948486 22.29338455 37 49 61
245583.08563232 3357443.03735352 19.60266876 32 43 49
245584.10455322 3357435.41696167 19.96955299 39 42 47
245583.53265381 3357435.19985962 22.30590057 162 163 168
245583.74108887 3357435.60693359 23.43796158 15 47 120
245583.50524902 3357432.12341309 21.98370934 101 59 69
245583.25170898 3357438.40100098 23.03658485 69 81 93
245583.74523926 3357435.40509033 22.25344276 96 116 167
245583.34448242 3357433.24923706 22.79809380 37 46 75
245583.66467285 3357441.28955078 21.91739273 60 68 81
245583.44763184 3357434.75805664 22.36062431 18 48 102
245583.91027832 3357441.48751831 20.57253647 20 73 107
245583.25720215 3357433.36611938 21.00308800 20 27 35
245583.26788330 3357431.61108398 22.72634506 29 30 48
245583.28479004 3357431.95349121 22.72723770 26 35 52
245583.74230957 3357436.14923096 21.68166161 16 65 131
245583.87158203 3357439.59738159 22.63093948 18 51 118
245583.71044922 3357435.21902466 20.66762733 53 93 118
245583.61071777 3357441.34661865 23.49390030 33 40 56
245583.54907227 3357432.70739746 20.99849319 102 82 84
245583.83135986 3357438.45831299 21.07924461 109 151 189
245583.73779297 3357435.37734985 22.55978203 87 106 148
245583.78002930 3357442.53204346 21.00649643 98 105 113
245583.13378906 3357436.82617188 21.67277527 30 39 48
245583.17120361 3357437.57540894 22.77149582 39 48 57
245583.72656250 3357434.98690796 23.24935532 51 68 120
245583.87359619 3357439.73278809 22.16630554 27 57 107
245583.81787109 3357438.16967773 22.98935318 6 43 113
245582.96118164 3357430.30905151 21.43688774 26 29 36
245583.48699951 3357430.78732300 22.25349426 75 22 28
245583.21173096 3357431.37695313 22.44283104 14 18 29
245583.41113281 3357441.24008179 23.25561523 22 27 33
245583.51910400 3357430.75573730 20.91592979 121 72 68
245583.38629150 3357439.68606567 21.87459755 0 0 4
245583.90167236 3357438.15707397 20.89486885 108 154 190
245583.26208496 3357438.55093384 23.06095695 88 104 119
245583.23669434 3357441.22085571 21.22887230 26 35 42
245583.36981201 3357434.56347656 20.53626251 0 3 15
245583.24377441 3357437.56112671 23.13251686 28 33 39
245582.67218018 3357432.80899048 20.63629532 26 30 41
245583.49316406 3357431.08392334 22.08209991 112 63 69
245583.77758789 3357437.15090942 21.82806587 73 118 173
245583.35308838 3357436.09661865 22.32823181 97 121 133
245583.52563477 3357432.40386963 22.45266724 71 24 34
245583.28973389 3357433.82525635 22.66858482 6 12 28
245583.84558105 3357437.55987549 23.60497093 8 42 116
245583.22814941 3357435.28012085 20.83092117 13 16 25
245582.80706787 3357435.72131348 20.22737122 44 52 63
245583.36401367 3357431.73898315 22.87534714 160 165 203
245583.87609863 3357441.40927124 22.04720879 20 46 97
245583.66711426 3357435.29629517 21.79409409 12 56 119
245583.79058838 3357436.03079224 20.53202438 37 113 165
245583.80560303 3357437.19375610 22.24715042 37 71 134
245583.85137939 3357438.99026489 22.73017883 15 46 111
245583.74328613 3357442.16580200 23.38081169 32 48 81
245583.40087891 3357440.23385620 21.31200981 27 37 47
245583.57775879 3357441.67013550 23.40655327 39 48 57
245583.48864746 3357441.29150391 23.41116714 62 69 79
245583.53247070 3357431.87420654 20.78855133 132 100 85
245583.40112305 3357441.40243530 21.23075676 29 34 38
245583.87756348 3357438.98025513 19.99881363 9 62 114
245583.34625244 3357439.64175415 22.44793892 86 97 103
245583.33386230 3357439.10784912 22.34741020 70 83 91
245584.10711670 3357439.95724487 20.31642151 29 75 101
245583.49993896 3357435.48727417 22.94925308 16 20 32
245583.38519287 3357441.17977905 23.23165703 25 30 36
245583.62335205 3357434.69982910 23.75135040 151 175 219
245583.07604980 3357430.40826416 22.15509796 15 19 22
245583.46765137 3357430.34793091 21.69988632 76 24 37
245583.29632568 3357435.03228760 20.72075081 29 36 46
245583.49963379 3357434.52438354 21.68586349 19 36 46
245583.40344238 3357435.41824341 21.61146927 41 53 69
245583.36425781 3357440.25067139 22.40359688 9 21 33
245583.40490723 3357440.06500244 21.75415611 48 57 66
245583.89361572 3357440.28228760 23.26052094 10 44 118
245583.45764160 3357433.80416870 22.37107086 81 47 63
245583.61901855 3357434.19418335 20.91118622 117 129 143
245582.95135498 3357432.71258545 20.85426903 35 42 50
245583.74822998 3357436.33581543 20.94413948 4 73 140
245583.38452148 3357440.37350464 21.28623962 24 33 42
245583.91125488 3357440.81320190 21.82292366 123 138 169
245583.11315918 3357430.58978271 22.08036232 4 11 17
245583.31579590 3357439.33786011 20.87099075 36 55 69
245583.59802246 3357437.31222534 23.67298508 72 80 93
245583.46807861 3357430.11895752 22.24382973 57 19 30
245583.81408691 3357436.62542725 20.69088936 39 110 166
245583.63952637 3357432.48001099 20.56336403 46 27 29
245583.27264404 3357440.50811768 23.01441383 56 71 78
245583.49853516 3357435.49295044 22.41325188 127 127 129
245583.28924561 3357437.45684814 21.02598763 192 202 214
245583.54809570 3357431.33084106 20.78976631 77 40 31
245583.32751465 3357439.11175537 22.86191750 72 87 108
245583.90264893 3357440.95840454 20.84963608 6 81 121
245583.48663330 3357432.33197021 22.80076218 50 31 61
245583.43255615 3357439.64550781 21.22143364 73 98 118
245583.29821777 3357435.80343628 21.58610344 10 21 27
245583.36407471 3357433.96466064 21.38605118 35 32 39
245582.91143799 3357437.72720337 20.98690987 192 209 229
245583.77886963 3357436.61816406 22.88206291 19 52 123
245583.50585938 3357435.67105103 22.68817902 7 11 20
245583.18408203 3357437.14852905 22.31807327 26 35 44
245583.66613770 3357435.10412598 22.19780922 15 47 108
245583.20336914 3357433.74652100 21.96784210 22 29 37
245583.20220947 3357431.43417358 21.44538116 9 14 20
245583.50793457 3357432.16387939 21.98085785 109 67 79
245583.63623047 3357441.73034668 23.48671722 22 26 37
245583.07385254 3357434.86880493 20.29122543 26 33 41
245583.40612793 3357442.99511719 19.71594238 30 37 45
245583.79412842 3357437.20397949 22.73306656 20 47 116
245583.38635254 3357440.25482178 22.04455376 30 39 46
245583.91772461 3357441.24960327 22.89522934 19 49 103
245583.34338379 3357438.70425415 21.98578072 52 59 67
245583.88714600 3357440.71023560 21.37910843 1 72 126
245583.40612793 3357440.33877563 23.49828720 34 42 53
245583.49145508 3357431.84652710 22.78297615 46 21 43
245583.89611816 3357441.00064087 20.91847420 4 75 119
245583.50488281 3357432.10861206 21.95901108 101 59 69
245583.26782227 3357436.68194580 22.46256828 74 92 106
245583.47485352 3357436.22174072 23.44634438 16 25 34
245583.83923340 3357438.61975098 21.05955124 73 120 164
245583.32006836 3357437.12664795 23.29558945 16 21 27
245583.80242920 3357438.03448486 21.51490021 9 54 119
245583.33294678 3357437.47064209 21.35703850 9 16 24
245583.81036377 3357437.50103760 22.29294777 77 110 161
245583.51330566 3357432.35702515 21.85291481 90 50 58
245583.54449463 3357440.77536011 21.94573212 92 118 143
245583.92419434 3357441.30560303 22.39816284 122 140 176
245583.85876465 3357441.35031128 21.91586113 12 44 101
245583.22930908 3357438.11755371 22.93733406 28 37 46
245583.83605957 3357439.48565674 20.85475540 16 83 138
245583.52087402 3357432.59625244 22.42571831 77 30 40
245583.16094971 3357437.38043213 22.21894836 23 30 40
245583.63482666 3357432.18975830 20.01488113 24 21 28
245583.75195313 3357436.14602661 23.69079971 5 37 120
245583.32653809 3357433.73239136 21.35979462 0 0 7
245583.94195557 3357439.17617798 19.88534164 32 66 101
245583.32611084 3357441.15197754 21.32801247 57 70 86
245583.61883545 3357437.81222534 23.65637779 72 75 94
245583.18023682 3357436.57012939 21.90481949 16 27 33
245583.87103271 3357439.51968384 22.61023712 14 47 116
245583.09771729 3357436.44149780 21.48344421 30 39 44
245583.67590332 3357434.92239380 22.94350815 26 48 106
245583.50402832 3357434.79125977 21.32392311 73 83 95
245583.74267578 3357436.21301270 23.34885979 5 42 113
245583.09381104 3357432.59567261 21.27329254 10 17 23
245583.74932861 3357435.52304077 22.19726944 28 53 107
245583.45849609 3357430.63146973 21.45259094 75 25 37
245583.51916504 3357432.35992432 22.03729248 128 86 96
245583.40344238 3357434.41690063 23.02538109 39 43 55
245583.85089111 3357439.26452637 20.71659851 10 85 142
245583.26458740 3357432.33407593 22.30776596 23 28 34
245583.87597656 3357440.39633179 21.33591461 4 65 122
245583.50152588 3357432.71432495 21.24023247 80 50 58
245583.52075195 3357435.30065918 22.42350960 145 149 150
245583.43231201 3357439.90191650 21.31926346 43 59 74
245583.87774658 3357438.64038086 20.46231842 32 105 160
245583.20275879 3357437.22265625 21.13295746 43 47 59
245583.20367432 3357433.38555908 22.38006783 19 24 30
245583.01367188 3357437.92037964 20.99678230 174 197 228
245583.17602539 3357432.29702759 21.86584663 15 24 29
245583.85992432 3357438.69601440 20.54159737 29 106 152
245583.74285889 3357435.68395996 20.70004845 38 105 157
245582.82073975 3357435.45669556 20.20914078 39 48 55
245584.07684326 3357436.23712158 20.22739029 39 47 60
245583.25500488 3357438.75021362 23.01384544 106 119 136
245583.29656982 3357438.22564697 21.04531097 185 210 232
245583.67504883 3357442.62200928 20.29169464 58 75 91
245584.11853027 3357436.30215454 20.24009895 32 36 48
245583.37701416 3357440.24996948 22.19577408 12 21 26
245583.71832275 3357434.35702515 20.63871765 114 131 147
245583.58618164 3357434.64022827 21.52630424 13 67 129
245583.40466309 3357434.49826050 23.13080788 32 40 53
245583.23980713 3357437.55340576 23.11951447 27 34 44
245583.51873779 3357432.78942871 22.45181465 85 38 48
245583.86029053 3357441.61352539 23.18041229 25 55 109
245583.42401123 3357439.60275269 21.16043663 67 89 110
245583.64251709 3357434.98550415 21.44576073 14 70 129
245583.92059326 3357441.23037720 22.47752762 17 40 82
245583.89874268 3357434.62399292 19.91059875 28 34 46
245582.85699463 3357434.31838989 20.32359505 99 113 126
245583.87274170 3357439.52963257 22.92434883 18 49 114
245583.51495361 3357432.12725830 22.73856544 56 23 44
245583.18194580 3357437.56338501 22.24881172 31 40 47
245583.21856689 3357438.62203979 22.84505653 30 39 46
245583.40917969 3357433.76351929 22.08617592 63 25 36
245583.22039795 3357442.62704468 20.60218430 132 139 147
245583.81170654 3357441.06704712 23.57906151 171 193 232
