246107.78076172 3357517.50817871 14.06430721 165 167 162
246109.40380859 3357516.46142578 15.95060444 88 118 156
246107.81042480 3357517.13488770 15.21599579 128 128 128
246106.93139648 3357514.16064453 14.36629295 137 135 110
246110.06567383 3357518.30096436 13.97264004 152 159 165
246109.39794922 3357519.20611572 16.44601440 7 137 223
246107.62365723 3357516.36834717 13.98983955 138 137 133
246107.47912598 3357514.34191895 14.16215420 70 74 60
246106.68762207 3357517.67120361 15.51959133 64 73 88
246108.86962891 3357518.73852539 15.50424099 129 129 129
246109.08508301 3357519.38464355 15.68513966 128 128 128
246106.72521973 3357514.24658203 14.58354568 160 160 150
246110.51818848 3357517.69024658 14.04609299 104 114 124
246108.73840332 3357517.14898682 13.98974705 174 176 171
246107.69677734 3357516.30346680 16.02408218 28 52 96
246108.94079590 3357518.90789795 16.43384933 219 58 110
246105.03979492 3357514.92401123 16.06941986 201 221 245
246106.75708008 3357514.45587158 14.46284294 191 188 179
246106.79284668 3357516.54827881 14.07546997 196 185 181
246105.57006836 3357515.98779297 16.60667801 6 211 242
246107.01013184 3357516.02270508 15.12393284 128 128 126
246105.34228516 3357514.32098389 15.95049572 51 165 217
246108.17285156 3357518.66137695 15.36862850 144 146 135
246110.72521973 3357517.06042480 13.93009758 119 122 127
246109.80725098 3357517.28729248 15.74447536 128 128 128
246110.20703125 3357517.56713867 14.06193352 138 138 138
246109.32629395 3357516.76696777 13.98355293 153 148 145
246106.21801758 3357515.53601074 14.65596485 122 126 127
246105.11267090 3357515.44500732 14.84411907 133 144 136
246107.68847656 3357514.49353027 14.15965557 58 66 55
246105.45190430 3357514.33679199 14.30790615 127 121 123
246106.16223145 3357516.62854004 16.57488632 1 109 207
246109.15966797 3357518.65539551 14.33275414 194 195 190
246107.14733887 3357518.00775146 15.20074272 128 128 128
246109.86743164 3357516.19696045 13.95454502 92 99 109
246104.89343262 3357515.21588135 14.19585037 110 117 125
246107.25024414 3357515.84118652 14.06047916 103 99 96
246110.95690918 3357517.80902100 14.05665684 77 93 116
246106.16491699 3357517.54321289 16.15057373 12 132 227
246107.77600098 3357514.55572510 14.16031837 31 36 29
246109.79663086 3357519.68334961 13.99380970 199 204 207
246105.38732910 3357516.22363281 14.82022572 128 128 128
246107.44714355 3357517.47216797 16.00045395 21 28 44
246108.86242676 3357516.65551758 15.48371506 128 128 128
246106.46252441 3357517.72497559 15.74484062 90 104 130
246109.66467285 3357516.78570557 15.76545143 168 170 157
246108.56494141 3357518.73175049 16.37237930 5 148 224
246107.11999512 3357514.95343018 14.27296543 105 107 106
246105.37475586 3357516.45977783 14.13177013 211 209 210
246109.16748047 3357517.68157959 16.57765388 16 228 239
246108.38891602 3357517.13171387 15.34673500 128 128 128
246106.11413574 3357514.24713135 15.80682087 19 123 152
246108.87353516 3357516.44848633 15.98042107 60 130 155
246110.32751465 3357518.46600342 13.96351337 148 161 170
246106.71191406 3357514.49871826 14.55403233 181 184 173
246108.46655273 3357519.40655518 15.73228550 144 144 134
246109.06518555 3357515.74145508 14.20506763 125 134 141
246104.28771973 3357516.63488770 16.06632042 27 173 222
246107.54968262 3357517.46569824 15.98266411 15 21 35
246109.87573242 3357516.98846436 16.15049171 17 126 208
246110.00268555 3357519.01251221 16.32030296 91 155 229
246108.55224609 3357517.99511719 16.40868568 176 243 255
246105.79211426 3357517.47338867 15.73876858 158 168 177
246105.04785156 3357515.13769531 16.14970016 69 235 255
246107.37609863 3357515.63861084 15.31027412 186 177 170
246105.35754395 3357515.71655273 16.43567848 255 224 234
246108.99523926 3357516.42211914 13.98781204 141 136 133
246107.31250000 3357515.31604004 16.28577042 6 126 223
246108.45251465 3357518.91687012 15.46689415 128 128 128
246106.90222168 3357516.99713135 15.12006950 128 128 128
246106.21740723 3357515.36639404 14.57944298 132 132 130
246109.41052246 3357516.67437744 13.97533321 134 132 133
246107.40124512 3357518.21734619 15.95439625 25 39 65
246104.64331055 3357515.83178711 15.85653973 181 204 235
246106.62695313 3357517.23034668 14.05397892 195 194 189
246108.62829590 3357516.60723877 14.00884056 170 167 162
246108.16979980 3357517.67944336 16.19394493 2 161 243
246107.40856934 3357517.45605469 15.17028522 128 128 128
246106.10070801 3357515.32641602 14.59386349 126 128 127
246109.69531250 3357518.71417236 15.75029278 130 134 135
246110.09130859 3357517.04449463 16.07294846 84 162 211
246107.25158691 3357516.08758545 16.32813454 6 130 202
246110.94982910 3357518.15673828 13.93093967 75 81 93
246104.30737305 3357516.52880859 15.17452431 200 200 202
246109.72546387 3357517.48889160 15.70449162 129 127 128
246110.31665039 3357519.05499268 14.03186703 118 127 136
246108.47241211 3357517.73059082 14.41493320 172 172 170
246107.03369141 3357514.49163818 15.25206375 110 109 88
246104.95178223 3357515.21691895 14.30627060 136 140 143
246105.60803223 3357514.91406250 14.61102486 217 206 200
246106.21862793 3357516.22271729 14.87518501 128 128 128
246109.77819824 3357518.07666016 14.16949272 159 163 166
246110.43969727 3357517.79071045 16.30014610 46 157 210
246109.53466797 3357518.50329590 16.72079277 13 83 155
246107.02416992 3357516.43334961 16.34525871 28 80 153
246104.85974121 3357515.45440674 15.52630901 120 129 134
246108.62145996 3357517.11840820 16.20535851 4 167 234
246106.90625000 3357517.20581055 16.23946762 4 134 212
246109.50854492 3357516.73590088 16.16960144 19 128 210
246107.61035156 3357517.67602539 15.97645378 21 33 49
246109.55163574 3357516.65679932 15.76662731 185 186 180
246107.05554199 3357515.41766357 14.28136444 48 48 50
246104.75537109 3357515.76092529 15.57477474 124 123 129
246106.51635742 3357514.93041992 14.36896896 63 61 62
246108.14440918 3357517.64508057 14.17753506 84 85 87
246106.64440918 3357516.17602539 15.01441956 128 128 128
246105.62744141 3357514.60760498 16.33352661 27 164 210
246105.69079590 3357514.42950439 16.25539207 11 122 203
246106.88513184 3357517.95672607 15.99547005 63 85 134
246106.16894531 3357517.25994873 16.27964783 4 123 223
246106.40637207 3357515.51098633 14.70704460 115 115 115
246107.42138672 3357516.81744385 15.17711544 128 128 128
246105.88684082 3357515.61633301 14.17628860 134 159 163
246110.33789063 3357518.33825684 16.41465569 20 142 215
246108.25622559 3357515.31195068 14.29940605 217 209 207
246107.88916016 3357516.89257813 13.98613071 178 174 171
246107.06335449 3357516.20227051 14.01570797 172 158 157
246108.87023926 3357516.31958008 14.00070572 149 145 142
246105.71398926 3357513.97308350 15.77020073 105 139 140
246108.23730469 3357519.18682861 15.64697647 174 177 166
246107.87670898 3357516.09051514 13.95058918 139 136 131
246107.92260742 3357516.25500488 15.85347366 94 73 72
246108.68774414 3357518.05853271 14.43190575 138 144 144
246109.10156250 3357516.60803223 16.23929024 60 188 213
246106.75378418 3357515.80157471 16.53693199 12 121 212
246106.92919922 3357516.35174561 16.41159630 119 93 141
246108.70874023 3357516.61315918 15.98804474 108 117 132
246107.54333496 3357518.01391602 15.99798679 20 36 59
246107.63208008 3357516.60192871 15.96080780 32 50 72
246106.66357422 3357517.24926758 14.04263115 212 211 206
246109.20117188 3357517.43774414 15.53758335 128 128 128
246105.62475586 3357514.91558838 14.55154896 225 212 206
246105.24072266 3357515.36590576 16.30431747 29 186 221
246109.61999512 3357518.45098877 15.69309807 135 135 133
246105.51867676 3357514.13702393 14.64686680 199 200 195
246106.96569824 3357515.53552246 14.92569542 119 118 114
246107.00244141 3357515.88220215 14.03341961 154 151 146
246107.21154785 3357516.32098389 15.15892124 128 128 128
246109.32629395 3357519.12957764 15.67033100 140 140 140
246105.92858887 3357515.36840820 14.19328594 135 136 141
246107.93408203 3357517.78796387 16.09798241 127 209 246
246110.88452148 3357518.24279785 16.15312195 82 168 193
246109.58337402 3357517.73065186 16.51575851 99 152 220
246110.20263672 3357517.50048828 14.08944511 144 144 144
246107.64086914 3357517.95330811 16.02833939 18 34 67
246105.44458008 3357514.70361328 16.29381752 4 198 236
246105.24401855 3357515.23364258 14.33749199 219 218 216
246107.73071289 3357515.31408691 16.17622566 62 167 222
246105.59777832 3357514.80554199 14.66568661 132 124 113
246106.93078613 3357517.71801758 16.13215637 0 49 98
246110.35668945 3357518.69409180 15.96657944 130 130 130
246105.84826660 3357516.02752686 14.77461052 128 128 128
246109.79125977 3357517.21057129 13.98860836 140 137 132
246108.40490723 3357517.74908447 15.27979565 128 128 128
246105.59301758 3357516.58190918 14.15690613 204 205 200
246106.89282227 3357517.58648682 15.32546997 94 108 109
246110.26562500 3357517.81658936 15.88731670 120 124 125
246110.35266113 3357517.82849121 13.99810696 100 110 120
246105.96191406 3357517.58074951 16.01815987 131 170 213
246105.39575195 3357516.62634277 16.42001915 3 122 212
246104.37524414 3357516.79608154 15.70356750 140 100 92
246108.41796875 3357519.15875244 15.53444481 233 216 196
246109.56262207 3357518.41638184 14.30485058 190 195 191
246105.12658691 3357514.77185059 16.10803413 55 170 215
246106.84106445 3357515.89123535 14.02705669 155 154 149
246108.11401367 3357517.05035400 15.92345619 62 102 112
246109.08520508 3357518.02563477 15.47908306 134 136 133
246108.52111816 3357517.92736816 15.28973198 128 128 128
246104.67468262 3357515.60845947 14.38273811 182 178 175
246108.39331055 3357516.53369141 15.84169865 126 126 128
246107.33056641 3357514.67535400 14.16834641 73 74 69
246108.17797852 3357516.12896729 13.95594597 151 146 143
246105.25622559 3357514.60546875 15.40709496 193 195 190
246105.24243164 3357514.45983887 15.81699944 73 95 116
246107.21069336 3357514.94854736 15.29902363 143 149 145
246109.00000000 3357518.16455078 14.50988197 163 172 177
246105.48571777 3357514.90728760 15.03806400 139 137 138
246110.41491699 3357517.52319336 16.20425415 55 158 216
246107.71423340 3357517.99786377 14.14059925 193 195 190
246108.30834961 3357516.71154785 13.96061897 167 166 164
246107.67004395 3357515.99896240 15.36170769 217 218 212
246107.70520020 3357517.16040039 15.96256924 13 13 21
246109.69885254 3357519.83874512 16.18512535 56 164 213
246108.15270996 3357518.76531982 16.28052521 11 163 226
246109.67382813 3357516.64825439 16.04310608 21 72 129
246105.10620117 3357514.37487793 14.02440929 110 111 115
246104.79711914 3357515.72778320 14.59538651 246 245 250
246105.77062988 3357516.63696289 16.49408913 213 177 205
246107.31982422 3357516.71282959 16.11530304 12 126 199
246110.02990723 3357518.70764160 15.85907173 129 133 136
246106.76147461 3357514.84643555 14.78575230 108 110 105
246106.18884277 3357517.19848633 15.18746090 164 166 163
246110.25366211 3357518.35064697 15.91160107 124 126 123
246106.82104492 3357517.58843994 16.20656586 13 149 233
246109.39965820 3357515.92468262 13.97891045 107 110 115
246105.00549316 3357515.31585693 15.16508579 122 129 135
246105.58801270 3357515.11981201 16.42268372 0 201 239
246107.08898926 3357515.22100830 14.95956039 84 89 85
246108.76257324 3357519.24493408 16.25231934 159 237 255
246109.34802246 3357519.90582275 15.84993172 100 134 133
246109.15148926 3357518.32562256 14.50343323 178 184 184
246105.91528320 3357513.81451416 14.32396984 131 133 120
246105.62524414 3357517.43408203 16.09680176 140 182 230
246106.56079102 3357515.82824707 16.56930923 1 100 201
246108.46350098 3357516.62457275 13.99060631 163 160 155
246109.07397461 3357518.37725830 14.46746635 181 185 186
246106.30249023 3357516.43615723 16.68040657 15 87 172
246105.38317871 3357513.96295166 14.07598209 81 86 89
246105.75744629 3357516.95538330 16.35886955 102 149 179
246105.62487793 3357514.49346924 14.95158577 118 120 109
246108.77355957 3357515.69415283 14.42626953 109 127 147
246107.90979004 3357515.51025391 15.92112637 62 89 119
246109.27404785 3357517.93450928 15.54129601 128 128 128
246106.07592773 3357514.52832031 16.16345024 11 110 201
246105.71838379 3357515.54357910 14.20263863 127 156 164
246110.19201660 3357517.58697510 15.84950733 127 128 130
246107.26086426 3357514.85058594 16.08585358 11 20 35
246108.83447266 3357515.78137207 14.36140251 113 133 157
246108.36462402 3357517.19860840 15.33280182 128 128 128
246108.01293945 3357518.97692871 15.65603733 223 229 225
246105.54431152 3357515.99255371 16.59293365 5 204 237
246108.97924805 3357517.44793701 16.44203949 5 234 255
246110.27929688 3357518.01477051 15.90275383 119 123 122
246104.76965332 3357515.62689209 15.67318344 174 181 189
246105.02246094 3357514.92474365 14.06035233 170 169 167
246106.37377930 3357516.04742432 14.08633327 166 167 159
246107.33532715 3357516.98937988 15.16644478 128 128 128
246105.89880371 3357513.80139160 14.29312229 134 136 123
246107.72265625 3357518.74224854 15.98972034 26 127 205
246107.00830078 3357517.57647705 16.13585091 5 47 107
246105.58483887 3357514.72692871 16.36368561 18 190 226
246108.40734863 3357519.26354980 16.14989281 3 140 221
246106.88623047 3357516.64642334 15.12136555 128 128 128
246104.69946289 3357516.38336182 14.27115536 116 120 132
246105.05249023 3357515.55322266 14.52824402 206 201 198
246108.49792480 3357517.50659180 14.16860580 140 142 137
246105.93725586 3357514.60217285 16.24357605 15 122 216
246106.53710938 3357514.89624023 14.37680626 43 39 40
246107.93298340 3357517.89483643 15.24132538 128 128 128
246107.62890625 3357516.72808838 15.20007133 128 128 128
246108.97912598 3357518.38745117 15.47530079 136 138 137
246106.82421875 3357515.15332031 14.76690483 107 109 108
246106.22314453 3357515.77142334 14.77354145 58 103 122
246108.17236328 3357517.30737305 16.05447006 72 80 101
246106.60693359 3357516.29559326 16.57305717 20 84 148
246107.87304688 3357515.54772949 16.11367035 79 167 231
246105.50708008 3357514.17401123 14.76356030 184 182 183
246108.52233887 3357517.95654297 15.28668213 128 128 128
246108.45422363 3357516.51153564 15.42194462 128 128 128
246105.78088379 3357516.07733154 16.75368118 58 235 253
246110.39196777 3357518.26531982 16.41237640 26 138 212
246110.31921387 3357518.99890137 15.99857426 109 154 173
246105.71887207 3357516.25115967 16.65867805 29 185 233
246108.50524902 3357517.44805908 14.11391449 140 140 140
246105.72375488 3357516.02691650 14.78261375 128 128 128
246109.47998047 3357517.98999023 15.61745644 125 127 124
246106.84411621 3357514.42327881 14.37231255 196 192 180
246107.15661621 3357517.53100586 15.15853119 128 128 128
246106.81701660 3357514.73718262 16.09382820 9 25 48
246109.43579102 3357516.68829346 15.68720341 207 207 197
246109.52380371 3357517.55902100 16.46880341 37 137 215
246106.25585938 3357514.73181152 16.20030975 4 110 220
246106.46655273 3357516.45355225 16.59291458 0 87 166
246105.61804199 3357514.35681152 14.77217293 101 102 88
246107.14514160 3357515.95257568 16.38159370 7 121 194
246110.13366699 3357518.50994873 15.87750340 129 129 129
246109.20629883 3357519.90698242 15.96459675 73 115 139
246106.19897461 3357516.22509766 14.15104103 202 203 197
246108.07775879 3357517.47033691 16.05206680 158 170 186
246105.51135254 3357516.80694580 16.36787033 57 140 208
246109.63562012 3357516.00323486 13.96030045 57 68 74
246109.76037598 3357518.02398682 15.71887875 122 124 121
246109.94311523 3357519.56207275 16.16423035 78 174 216
246107.04614258 3357516.53009033 16.31563759 30 110 169
246109.63586426 3357517.92382813 15.66927814 120 122 119
246104.95385742 3357517.08416748 15.66868496 46 44 58
246105.40136719 3357514.05957031 15.23884964 152 155 146
246109.47412109 3357520.11328125 15.97341061 30 135 192
246107.24169922 3357516.35400391 16.25534821 26 134 198
246108.34655762 3357515.06036377 14.16570950 85 94 89
246105.47998047 3357516.15100098 14.17039108 168 166 169
246107.78479004 3357518.50744629 15.29822731 135 135 133
246107.95959473 3357515.99066162 14.04953289 122 117 114
246106.29528809 3357517.71899414 15.85902500 64 102 138
246109.38232422 3357519.08789063 14.22165680 195 197 196
246111.50610352 3357517.63500977 13.93629837 133 140 146
246107.92858887 3357517.75109863 16.07871056 152 221 250
246110.63781738 3357518.47637939 13.92584610 130 152 173
246111.48596191 3357517.45367432 13.91504097 137 141 144
246105.96008301 3357514.06396484 15.64228535 100 112 102
246109.67626953 3357518.93304443 14.27906704 188 192 195
246104.26245117 3357516.61871338 15.99817467 102 197 219
246110.54760742 3357518.88928223 13.99883938 138 151 167
246107.64123535 3357517.51824951 15.97465706 17 23 37
246106.37976074 3357515.58148193 14.14315891 140 142 141
246109.51196289 3357518.29382324 15.64505386 133 133 131
246106.86962891 3357517.72076416 16.16066742 43 158 223
246104.81994629 3357515.57208252 15.54806137 101 117 116
246106.26599121 3357515.03704834 14.46005917 50 53 62
246106.17382813 3357515.43634033 14.60329056 112 111 109
246105.05114746 3357515.34204102 14.47836876 197 196 191
246105.37121582 3357516.80444336 14.92415047 128 128 128
246106.53564453 3357516.41058350 16.57144165 9 91 165
246108.79187012 3357515.22222900 14.15421391 82 97 92
246105.48632813 3357516.41900635 16.53102493 16 137 220
246109.43530273 3357517.90673828 15.59713554 123 125 122
246106.00866699 3357514.16149902 15.58826542 140 152 152
246110.35266113 3357516.79583740 13.93570328 115 115 117
246104.85156250 3357516.28582764 14.89824772 128 128 128
246106.91516113 3357515.51458740 14.18804550 193 190 185
246109.44458008 3357519.90966797 16.16329956 13 171 234
246107.28027344 3357516.54290771 13.97439194 151 150 145
246105.04272461 3357515.59948730 16.27766037 108 224 239
246108.12048340 3357518.24652100 16.33151054 1 173 239
246107.83178711 3357514.86413574 14.21201515 34 53 51
246106.99707031 3357514.72711182 15.18214989 204 200 188
246106.59228516 3357517.08166504 16.37085533 12 145 204
246104.98095703 3357515.01007080 15.98867035 221 233 245
246105.46728516 3357515.18994141 14.35976887 226 223 218
246110.46789551 3357518.20819092 13.93144321 145 157 171
246108.94262695 3357517.96716309 16.55635643 103 241 244
246108.84643555 3357517.94189453 15.38977623 139 139 137
246108.47277832 3357518.20812988 14.28407097 171 173 168
246106.63598633 3357514.45050049 15.97023869 53 62 59
246106.96105957 3357515.17871094 16.31153107 0 114 211
246105.54333496 3357514.37567139 16.27232361 62 218 255
246108.92468262 3357519.28802490 16.28933525 7 138 216
246108.14868164 3357516.12017822 13.96089935 137 133 134
246107.27185059 3357516.01141357 15.18272400 211 216 210
246107.44531250 3357517.43798828 15.17437458 128 128 128
246109.62780762 3357516.43322754 13.95668411 100 103 108
246107.90368652 3357518.55804443 16.25045204 16 152 226
246107.81274414 3357516.25592041 15.97855949 204 202 216
246110.70483398 3357517.28906250 13.94637203 140 141 143
246109.85827637 3357516.96789551 13.97703362 147 145 146
246109.12597656 3357516.51489258 15.61403656 201 206 200
246105.98999023 3357517.51855469 15.62657261 143 157 168
246109.89941406 3357517.13079834 15.79571915 116 156 181
246104.77441406 3357515.60815430 15.67342758 160 170 172
246107.18847656 3357514.22247314 14.18524265 100 101 85
246105.01367188 3357514.40032959 14.01833439 90 91 96
246107.39660645 3357516.06787109 15.20901680 221 226 222
246109.71228027 3357517.05529785 16.22659302 16 122 206
246109.08984375 3357517.44372559 14.01076126 146 146 138
246105.58032227 3357517.42462158 15.96363544 134 149 172
246106.61108398 3357516.47436523 14.02209854 170 163 157
246105.97497559 3357514.19323730 15.62609577 119 143 167
246110.41076660 3357518.80181885 16.02457047 112 155 172
246104.75512695 3357516.54095459 16.35205460 7 152 219
246109.64819336 3357515.93145752 13.98129845 87 95 98
246110.00610352 3357519.27575684 15.92153645 116 140 152
246104.77526855 3357515.70318604 15.58323002 77 77 87
246109.90026855 3357517.17340088 13.97898197 152 147 144
246108.80273438 3357516.74139404 16.11376572 10 194 248
246105.52880859 3357514.76745605 15.05827236 142 141 137
246110.41333008 3357517.70690918 14.02532864 179 178 186
246106.18078613 3357514.66839600 16.19559288 2 107 214
246109.12097168 3357519.27783203 14.05195713 201 201 199
246105.69958496 3357514.67852783 16.35473442 6 120 191
246109.89904785 3357519.56646729 16.19020271 53 159 209
246108.30090332 3357516.38818359 13.96704578 156 152 149
246107.42431641 3357517.79553223 15.20268059 128 128 128
246104.24621582 3357516.61889648 15.94366837 151 208 228
246110.25842285 3357516.31463623 13.96993351 171 172 167
246109.95678711 3357517.58471680 16.37155724 140 162 203
246105.93762207 3357515.70556641 16.72458458 28 202 239
246108.45886230 3357517.30145264 15.34257317 128 128 128
246105.54968262 3357516.86163330 14.23775864 202 203 198
246107.08459473 3357515.22338867 14.38559151 75 76 78
246104.54602051 3357516.07849121 15.25481224 246 246 248
246107.30590820 3357515.28009033 16.26834106 8 122 219
246104.99316406 3357515.07916260 15.45481586 184 184 184
246109.80688477 3357519.69317627 15.88331985 99 119 130
246107.54553223 3357517.96105957 15.99600887 17 33 58
246109.76550293 3357518.60394287 15.75964642 132 134 133
246107.06604004 3357516.70135498 15.14011765 128 128 128
246107.33154297 3357517.64154053 14.03276825 224 221 214
246107.55761719 3357515.22021484 16.18188667 26 134 209
246105.69396973 3357517.40325928 15.70173550 164 171 177
246105.94177246 3357515.17694092 14.59283161 128 128 130
246110.86413574 3357518.41003418 13.92717361 162 169 188
246104.69763184 3357515.49877930 14.25422478 190 187 182
246107.13403320 3357516.46313477 15.14942646 128 128 128
246107.76745605 3357517.56262207 15.98309135 21 28 47
246107.77404785 3357515.41375732 15.73730087 185 186 180
246110.13708496 3357517.89739990 13.98554993 107 117 127
246105.40832520 3357514.76928711 16.28533936 0 197 240
246105.35363770 3357516.77099609 14.11720371 210 210 208
246105.52197266 3357514.81610107 14.50592995 221 210 204
246110.50769043 3357518.08691406 13.93417263 133 146 155
246106.02282715 3357516.19305420 14.82195950 128 128 128
246106.47790527 3357514.92816162 14.46904659 48 55 63
246109.72119141 3357519.47058105 14.10305786 177 185 187
246109.48107910 3357519.14929199 14.22161579 194 196 195
246104.76831055 3357515.90155029 14.99510765 161 135 122
246105.78222656 3357513.83135986 14.82590866 154 152 137
246109.93103027 3357519.29364014 15.89916134 122 140 150
246107.88269043 3357517.39282227 14.04608917 146 147 151
246107.99291992 3357517.52239990 15.23220062 128 128 128
246107.01745605 3357516.60302734 16.30996323 55 147 196
246105.71533203 3357514.05639648 15.92210674 116 144 145
246106.91271973 3357514.81256104 15.01669502 187 187 185
246108.50451660 3357515.54827881 14.26582813 175 178 185
246106.33276367 3357516.88818359 15.00358391 128 128 126
246105.96325684 3357516.91845703 14.30512714 200 201 196
246110.75488281 3357516.74975586 13.93760300 98 105 113
246105.85986328 3357515.42236328 14.18922424 128 142 151
246105.14953613 3357514.69403076 14.10203075 165 160 156
246109.15490723 3357518.59832764 16.60993576 20 123 189
246105.79602051 3357516.86987305 14.26784229 201 202 197
246104.93994141 3357515.37994385 16.21549606 12 192 241
246110.47937012 3357518.51379395 16.31352043 50 151 207
246108.85778809 3357515.97845459 14.15180492 109 114 120
246104.70056152 3357515.63598633 15.98696995 230 243 252
246110.46740723 3357516.96820068 13.93078709 136 136 138
246107.97033691 3357516.02416992 15.55439663 215 214 209
246106.26562500 3357516.56066895 14.04569244 188 189 183
246108.29235840 3357519.17596436 16.15778732 3 136 229
246107.40808105 3357517.05059814 14.03696537 185 186 181
246108.70007324 3357517.30895996 16.29242516 2 183 240
246105.67333984 3357515.41052246 14.22816277 142 156 165
246106.67224121 3357516.57104492 15.05901814 128 128 128
246108.89733887 3357519.64129639 16.12908554 4 156 232
246107.21484375 3357516.91168213 14.02414036 182 181 177
246104.80285645 3357516.72882080 14.90852261 128 128 128
246106.16992188 3357517.29791260 16.26307106 3 122 224
246108.30041504 3357518.57263184 16.38269043 7 159 222
246105.46447754 3357516.09472656 14.18867111 143 143 145
246110.43176270 3357517.68322754 15.93283653 120 130 139
246107.02636719 3357516.51770020 14.05209827 202 199 194
246107.91430664 3357517.95294189 16.15892410 13 145 228
246106.46032715 3357517.08233643 15.05789280 128 129 124
246104.37036133 3357516.48352051 15.02179813 170 172 171
246106.27624512 3357516.82977295 14.17315674 191 192 187
246109.14855957 3357517.97003174 15.49861240 131 131 129
246107.20520020 3357514.83691406 14.22083092 167 165 168
246109.65161133 3357517.55346680 14.08811474 30 37 43
246105.10107422 3357516.99859619 16.19422913 15 128 220
246106.08911133 3357515.18518066 14.56542969 128 128 126
246108.19079590 3357518.88885498 15.48551846 106 100 84
246105.70458984 3357516.06213379 14.78304482 128 128 128
246109.21350098 3357518.35144043 16.75973511 50 151 161
246106.39111328 3357517.28088379 16.31500244 5 123 221
246106.24572754 3357514.88073730 16.27808189 2 115 211
246106.55932617 3357514.82843018 14.41067600 24 23 28
246105.89306641 3357517.04846191 16.34039497 17 103 180
246104.80615234 3357515.77587891 14.58289909 252 250 255
246105.85412598 3357515.93341064 14.18883324 194 193 191
246111.00976563 3357517.15350342 13.90581131 125 128 133
246109.76855469 3357519.93927002 16.06100845 79 168 212
246107.99511719 3357517.55529785 14.09512424 81 82 87
246105.46447754 3357517.37860107 16.02025032 142 160 182
246108.39318848 3357518.06793213 15.28563023 128 128 128
246105.14196777 3357517.17266846 15.75904179 49 55 71
246107.49975586 3357514.75506592 14.17373562 165 163 166
246104.60888672 3357515.22607422 14.01914883 106 110 113
246104.81030273 3357517.01245117 15.68654251 21 11 22
246109.87158203 3357516.95379639 16.13663101 22 127 208
246108.85058594 3357515.83349609 14.32846355 129 145 161
246110.44799805 3357518.27929688 16.39615059 26 139 209
246104.70153809 3357516.73828125 16.22974968 16 128 210
246109.71459961 3357516.96057129 16.18482399 10 122 208
246107.14208984 3357516.34783936 14.01809216 92 87 84
246107.20275879 3357514.23419189 14.16851521 100 101 85
246105.52062988 3357514.43933105 15.11136818 108 110 96
246110.38415527 3357518.13806152 16.38895035 54 146 213
246104.75048828 3357515.66369629 16.17340469 28 176 214
246105.64831543 3357517.33276367 16.18400955 28 137 232
246105.94897461 3357517.50372314 16.10944748 24 120 204
246107.95983887 3357515.30047607 14.45197582 151 171 160
246109.87487793 3357519.23974609 15.87408257 127 141 150
246104.52270508 3357516.25598145 15.07638550 150 154 165
246108.62658691 3357516.65948486 15.97970486 152 143 148
246109.24353027 3357516.46655273 15.67868137 155 166 162
246107.92578125 3357518.08215332 16.20371628 10 156 241
246107.60949707 3357515.86865234 16.22925949 35 156 227
246108.16613770 3357515.91632080 14.15386772 113 109 106
246109.85144043 3357518.52709961 16.52959251 16 101 192
246106.92138672 3357517.71777344 16.13674927 23 94 150
246105.46582031 3357516.05413818 14.19676590 228 226 229
246108.96911621 3357515.21484375 14.22970104 100 101 95
246105.52453613 3357515.49829102 14.22782516 230 234 235
246105.63842773 3357513.99053955 15.82416534 124 154 156
246105.07153320 3357516.45385742 14.86008358 128 128 128
246107.46423340 3357514.65832520 14.16660976 68 74 64
246105.81921387 3357515.32519531 16.56732368 8 184 231
246108.91369629 3357517.33068848 16.38180351 2 219 250
246109.57873535 3357517.66748047 14.13504028 47 58 64
246105.66906738 3357516.29150391 16.62377167 2 142 203
246107.42407227 3357516.88342285 16.01071930 1 27 62
246110.34899902 3357518.26647949 13.92732906 145 157 169
246106.88024902 3357514.31805420 15.09718037 99 92 64
246110.04748535 3357517.31054688 16.24193001 69 155 206
246108.31579590 3357517.80822754 14.36165619 203 205 202
246107.73071289 3357515.73785400 14.21020603 75 78 83
246105.39013672 3357515.01367188 14.43287945 239 233 235
246104.31066895 3357516.46368408 15.31677628 233 237 238
246105.58837891 3357515.84082031 14.26964855 236 237 232
246109.38354492 3357516.77349854 16.23038101 9 116 196
246108.70996094 3357516.75396729 15.44518757 128 128 128
246107.32507324 3357515.27770996 15.12294960 208 211 204
246110.43444824 3357517.49212646 13.97213745 56 61 65
246108.90063477 3357517.87591553 14.37759876 188 190 187
246105.33142090 3357516.17077637 16.54507065 6 202 242
246105.04089355 3357516.63336182 16.35206985 5 124 208
246105.19812012 3357515.76348877 16.36777115 214 240 239
246110.21643066 3357517.42999268 15.86788750 120 130 140
246107.56225586 3357515.51416016 16.28052330 26 144 218
246107.38977051 3357515.92120361 15.27226734 211 210 205
246105.62426758 3357515.39935303 14.70410061 128 128 128
246105.22656250 3357514.54827881 15.94330692 111 186 215
246109.90625000 3357519.50543213 14.06074810 164 184 195
246110.82031250 3357518.33593750 13.93365192 67 80 99
246105.59533691 3357513.56134033 14.15894794 115 116 102
246106.87609863 3357515.57867432 14.14488983 163 156 148
246108.96704102 3357515.28729248 14.23937798 149 150 144
246106.04833984 3357515.44940186 16.60407257 1 120 210
246110.30236816 3357517.01708984 13.93508911 142 140 141
246108.57141113 3357515.89184570 14.33605862 31 29 32
246106.96313477 3357516.90423584 15.12738514 128 128 128
246108.52697754 3357516.73626709 15.97742462 113 107 119
246104.91687012 3357515.40509033 15.39136505 128 144 157
246104.82312012 3357515.47436523 16.19192505 137 240 255
246104.37756348 3357516.31115723 15.86527061 70 124 170
246107.34338379 3357515.64422607 15.26939964 178 169 162
246107.19055176 3357517.63867188 14.02198792 227 224 217
246108.50000000 3357519.20605469 16.19166946 0 148 232
246107.43750000 3357516.69946289 13.98733044 169 168 163
246105.70446777 3357515.58782959 14.22364998 204 213 210
246107.60168457 3357517.15972900 14.01951408 179 180 172
246107.24340820 3357517.59204102 15.17006683 128 128 128
246110.71960449 3357517.45111084 14.12727642 89 117 129
246106.74938965 3357517.93432617 15.66061878 144 154 164
246105.34802246 3357516.13403320 14.21464062 158 155 162
246106.21875000 3357515.52252197 14.14622021 124 132 134
246109.54431152 3357519.10498047 16.47307205 11 107 183
246105.48730469 3357516.45776367 14.12698078 208 207 205
246109.72070313 3357518.07348633 14.22417641 175 179 180
246106.96264648 3357514.51483154 15.20851040 113 107 85
246105.84606934 3357517.53283691 15.81471539 154 163 172
246105.83862305 3357513.90649414 14.70739651 150 151 137
246106.74621582 3357516.87365723 14.08894825 202 203 198
246107.01489258 3357516.37866211 14.03442574 80 75 71
246109.62670898 3357519.85821533 16.21319580 30 142 190
246107.87585449 3357517.88916016 15.23760509 128 128 128
246107.82910156 3357516.52038574 15.87583065 57 75 89
246107.06359863 3357515.83081055 14.04482174 134 131 122
246107.89990234 3357515.51177979 16.01256371 23 75 122
246107.68688965 3357515.71600342 14.21114159 114 114 116
246105.66320801 3357514.62469482 14.86230850 148 153 147
246107.24523926 3357517.55682373 16.05461121 18 31 40
246105.59814453 3357514.32751465 14.85400200 97 100 79
246107.77844238 3357517.23773193 15.21169949 128 128 128
246108.50134277 3357517.18878174 15.36196804 128 128 128
246107.20007324 3357516.52484131 16.23344994 31 136 201
246106.83032227 3357515.53839111 14.17125511 191 183 180
246107.93847656 3357516.17572021 13.91614914 165 159 159
246106.99499512 3357515.66833496 14.99210930 140 140 138
246108.26220703 3357516.33477783 15.48066616 165 166 160
246106.74255371 3357515.25152588 16.37771416 5 112 208
246108.34802246 3357515.96826172 14.04623890 95 89 89
246110.22619629 3357517.42468262 13.99850655 158 154 151
246110.37402344 3357517.93896484 13.96980381 112 120 131
246104.72460938 3357515.82452393 14.48892975 152 146 148
246106.30761719 3357517.61236572 15.66774559 124 135 153
246105.60424805 3357514.07226563 14.57954979 167 168 160
246105.71447754 3357515.77508545 16.63755417 24 215 244
246105.28356934 3357515.12371826 14.30456924 212 212 212
246108.92382813 3357516.37213135 13.99500084 152 147 144
246106.08288574 3357516.83990479 16.45625114 7 105 196
246110.26501465 3357517.69445801 14.04449081 100 107 115
246107.10278320 3357515.05560303 15.06879330 173 177 176
246108.01770020 3357516.95147705 15.85154724 122 163 169
246109.24084473 3357519.88665771 15.91490746 97 121 123
246109.71984863 3357517.66766357 14.13120461 68 78 88
246109.47851563 3357515.79071045 14.02830219 70 73 80
246107.52429199 3357517.74407959 15.97729874 19 33 44
246105.23303223 3357514.88446045 16.21291542 3 189 236
246107.44616699 3357518.18878174 15.98358631 13 37 73
246110.61743164 3357516.79919434 13.92979717 106 109 114
246110.75024414 3357516.81085205 13.93473339 98 102 111
246105.81713867 3357513.57482910 14.17565441 97 105 94
246105.69555664 3357515.45898438 14.19906139 119 143 155
246107.54760742 3357516.56829834 13.97603798 169 168 163
246109.01184082 3357519.12982178 14.07816124 203 203 201
246110.73107910 3357518.41870117 16.02528191 83 134 151
246107.91479492 3357518.06170654 16.19211960 10 156 241
246109.20947266 3357516.80456543 15.58242130 128 128 128
246107.72070313 3357515.23016357 14.36156082 123 131 133
246106.34375000 3357515.82519531 14.84063053 58 103 122
246105.41540527 3357515.73083496 14.26217556 225 225 225
246107.94458008 3357517.37951660 15.98120499 22 30 49
246106.39086914 3357517.56420898 15.58804035 114 123 138
246108.37670898 3357518.08953857 15.28716087 128 128 128
246110.22192383 3357519.15307617 14.05510139 120 128 141
246106.92517090 3357517.71777344 16.13490486 23 94 150
246106.95556641 3357515.23504639 14.38561916 61 63 62
246106.86621094 3357515.60833740 14.12619114 181 171 162
246105.01977539 3357514.95538330 15.69804192 209 213 214
246109.73022461 3357520.02239990 16.03350067 51 139 185
246107.33984375 3357514.77545166 15.41697025 210 205 185
246107.50976563 3357517.53509521 14.04502106 187 187 179
246104.84851074 3357515.64288330 15.20205879 58 99 119
246106.57604980 3357516.48596191 16.52979660 3 81 147
246108.07312012 3357517.75201416 14.23371029 116 118 117
246108.60656738 3357516.06420898 14.08948517 92 91 96
246107.21533203 3357515.47015381 15.01278210 151 154 145
246109.20019531 3357518.39062500 15.54813480 136 138 135
246105.52453613 3357513.74389648 15.35272312 111 111 75
246105.22460938 3357514.46087646 15.67186356 108 98 96
246109.50390625 3357516.95965576 13.99701214 153 149 146
246107.68469238 3357516.24450684 13.98563862 147 143 140
246105.19848633 3357514.23358154 14.05721474 85 90 94
246109.31103516 3357518.39263916 16.82165909 27 115 151
246104.89990234 3357515.45648193 15.39968586 138 162 174
246110.07153320 3357518.80871582 14.07577801 156 163 171
246107.72131348 3357518.09704590 16.10820770 33 202 255
246108.19506836 3357516.73748779 13.94554329 152 153 148
246108.45324707 3357519.07647705 16.22077751 0 153 220
246109.46655273 3357517.96301270 16.66524124 7 126 218
246108.31591797 3357517.79473877 16.27894211 55 196 224
246106.51684570 3357516.56512451 16.53369904 15 123 188
246108.40112305 3357518.15197754 14.28295326 179 180 175
246109.97253418 3357518.92083740 14.14162636 163 168 174
246108.12646484 3357518.47204590 15.31654549 128 128 128
246107.31201172 3357517.74975586 14.03711510 226 223 216
246107.89025879 3357517.45562744 15.22179699 128 128 128
246110.14526367 3357519.27990723 15.96764374 106 139 156
246108.70605469 3357519.41320801 16.18167305 0 149 232
246104.70361328 3357516.09368896 14.27152252 75 75 75
246108.21679688 3357515.59521484 14.44816971 30 31 26
246104.53137207 3357516.10504150 16.08297539 65 201 241
246105.35839844 3357516.06500244 14.22547817 174 173 178
246109.78063965 3357519.67559814 13.99561882 199 204 207
246110.36865234 3357518.99530029 16.05650520 113 168 189
246107.12792969 3357516.46600342 15.14874744 128 128 128
246106.83569336 3357515.75433350 14.97137642 95 119 129
246109.11560059 3357517.68231201 16.55355644 35 253 255
246107.53662109 3357516.38793945 13.99243259 144 143 138
246108.48522949 3357519.47595215 16.02951241 210 229 235
246109.54357910 3357516.64538574 15.77195454 185 186 180
246106.32421875 3357516.11151123 16.78806877 0 77 159
246105.83752441 3357515.63415527 16.66328239 4 198 236
246106.82275391 3357517.97607422 15.96272755 28 65 120
246105.66650391 3357515.76037598 14.26204205 211 209 210
246106.45300293 3357516.75164795 16.50875473 9 129 189
246107.03698730 3357517.74194336 15.16997910 128 128 128
246107.41406250 3357516.12738037 16.25092888 18 148 210
246109.30090332 3357519.40148926 16.34587860 10 142 227
246107.79077148 3357517.75091553 14.12204170 153 154 149
246107.95104980 3357517.23895264 15.23014450 128 128 128
246105.82788086 3357515.49133301 14.68376923 127 129 128
246106.02136230 3357514.38031006 16.11204147 6 85 144
246109.25915527 3357518.81311035 16.56116867 13 123 208
246109.57788086 3357517.10601807 13.99898529 142 138 135
246111.37390137 3357517.47583008 13.94031620 129 130 134
246109.28515625 3357517.78234863 14.26418686 48 47 45
246106.56127930 3357515.76202393 14.08557320 128 132 118
246109.62780762 3357518.71466064 14.27716923 189 193 192
246105.02392578 3357514.63732910 14.02938747 189 185 182
246106.35815430 3357515.87384033 14.86940384 99 147 159
246107.41076660 3357517.02905273 14.03384304 185 186 181
246110.21142578 3357518.64263916 13.99616528 154 161 171
246109.46850586 3357516.80865479 16.21232033 24 128 215
246108.26391602 3357518.71508789 15.37199497 103 104 96
246106.32226563 3357517.44885254 15.46086121 134 141 147
246108.53027344 3357515.63665771 14.32416344 158 164 176
246110.16113281 3357517.56970215 14.09214211 165 169 172
246109.83471680 3357517.54107666 14.07727432 67 74 84
246109.61059570 3357516.87646484 13.98930931 133 131 132
246107.35791016 3357517.75280762 15.19429779 128 128 128
246105.72253418 3357516.47521973 14.86327839 128 128 128
246105.26281738 3357516.46966553 14.13430691 221 220 225
246106.80456543 3357516.52435303 16.41553116 166 188 227
246104.79809570 3357515.44281006 15.79164791 132 138 138
246107.82409668 3357518.56665039 15.33949471 130 131 125
246107.58984375 3357515.65484619 16.27733421 0 128 196
246107.67773438 3357515.02752686 15.67724514 159 165 155
246104.60742188 3357515.98315430 15.32776165 232 224 221
246105.56811523 3357514.24975586 14.66721344 116 113 106
246109.63806152 3357519.06860352 16.44929695 7 108 198
246107.73730469 3357516.79089355 15.21500015 128 128 128
246107.67565918 3357514.89044189 15.67035961 122 126 111
246108.38305664 3357515.64111328 14.33428288 80 83 88
246107.68212891 3357517.76037598 16.00255394 20 33 42
246106.51745605 3357516.31121826 16.61085701 3 89 162
246107.49157715 3357518.03118896 15.23067570 128 128 128
246107.50427246 3357518.11242676 15.99348927 16 43 72
246107.61596680 3357518.18420410 16.08611870 41 189 255
246104.66149902 3357516.02465820 14.26441479 150 141 142
246109.34521484 3357517.48358154 14.02762127 165 161 158
246107.60156250 3357516.79400635 15.92741299 113 136 167
246106.85681152 3357514.42315674 14.36247730 203 197 185
246109.54638672 3357518.01452637 16.64182663 8 117 212
246107.61804199 3357517.01605225 14.02089691 184 185 177
246108.66821289 3357516.59387207 15.45363331 128 128 128
246106.13159180 3357517.27221680 16.26671028 2 124 225
246105.00695801 3357515.00378418 16.06402206 169 203 238
246105.43627930 3357515.69647217 14.25360203 226 226 226
246111.21044922 3357517.73876953 14.06933212 59 69 81
246107.96105957 3357516.02392578 15.53952885 214 211 204
246108.22290039 3357516.46484375 15.77890873 114 122 124
246106.40991211 3357517.13677979 15.09118462 156 158 153
246108.09692383 3357517.38317871 16.03208733 26 37 57
246107.23840332 3357515.76837158 15.20839310 181 176 172
246104.34875488 3357516.79785156 15.89306355 186 171 200
246107.65319824 3357515.18896484 14.33580875 81 90 89
246109.45153809 3357517.37988281 16.43502426 16 137 216
246105.09240723 3357515.47235107 16.26928139 77 200 216
246106.03942871 3357516.97583008 14.32683277 196 197 192
246106.88354492 3357517.98071289 15.86115265 39 55 89
246105.08776855 3357514.81298828 15.52784348 198 198 198
246107.31213379 3357516.67034912 13.98684025 162 161 156
246105.42614746 3357514.61645508 15.20164776 175 176 170
246106.75158691 3357514.25915527 14.49895191 161 161 153
246105.72814941 3357517.49407959 15.89239120 133 138 142
246107.42553711 3357516.00207520 14.08176994 127 123 120
246107.17712402 3357517.34436035 14.04304600 196 192 189
246110.02172852 3357519.35998535 16.21267891 34 151 205
246108.93310547 3357517.65179443 14.18191624 94 95 90
246106.80432129 3357517.37774658 14.00154877 224 221 216
246109.20043945 3357516.64099121 13.97967720 145 140 137
246109.06372070 3357519.38226318 15.68116856 128 128 128
246108.74792480 3357516.48901367 14.01371574 149 145 142
246109.45849609 3357518.27703857 14.42334080 198 200 195
246106.18811035 3357515.09289551 14.52230453 127 129 128
246104.73974609 3357516.99761963 16.04075050 0 63 139
246106.39611816 3357516.30206299 14.94203377 128 128 128
246107.83642578 3357518.80078125 16.03077507 18 133 216
246105.72167969 3357515.93518066 16.67511940 30 227 246
246108.03063965 3357516.74151611 13.95953846 156 155 151
246104.90246582 3357515.17889404 15.86525345 233 235 234
246105.82995605 3357516.75488281 14.21642113 203 204 199
246105.35107422 3357515.86413574 16.45946503 222 99 128
246106.85888672 3357516.51361084 15.11677074 128 128 128
246108.38061523 3357516.58056641 15.40116215 128 128 128
246110.55590820 3357518.63250732 16.03614807 113 156 173
246108.49560547 3357517.55572510 16.28232193 154 251 255
246104.27026367 3357516.53234863 15.96478271 175 242 255
246105.50341797 3357514.06335449 16.02072716 117 131 140
246110.06140137 3357518.29736328 13.97382355 152 159 165
246104.86352539 3357516.75335693 16.24917793 12 134 217
246107.30712891 3357517.07244873 16.06359291 0 23 64
246109.08544922 3357518.29406738 16.70398712 79 221 222
246109.39599609 3357518.02001953 16.74797249 21 143 208
246104.94128418 3357515.42401123 15.29920959 118 151 166
246104.51086426 3357516.24133301 15.12279701 166 174 185
246110.27648926 3357518.93182373 15.96759129 116 145 159
246107.54528809 3357516.66601563 15.19165897 128 128 128
246105.25988770 3357515.26055908 14.84957314 107 106 102
246108.28210449 3357516.75653076 15.36219597 128 128 128
246106.72729492 3357517.72082520 16.19604492 16 153 234
246104.61499023 3357516.92089844 16.09599876 19 110 189
246109.03991699 3357517.26049805 16.40331268 3 221 246
246105.48681641 3357514.51055908 14.40706921 148 144 135
246105.88549805 3357516.19354248 14.09313297 202 203 197
246104.92456055 3357515.34533691 15.41917801 134 133 141
246108.68249512 3357515.95635986 14.32554913 69 69 77
246104.91198730 3357515.24566650 14.34168243 117 121 124
246105.01464844 3357515.47454834 16.25620270 11 195 231
246109.32006836 3357516.40008545 15.87036610 157 166 171
246109.76269531 3357518.72149658 15.77328777 130 136 136
246107.88122559 3357515.93701172 15.89047432 118 142 170
246109.69018555 3357519.63012695 15.84512806 118 129 135
246104.90551758 3357515.78582764 14.54247284 234 236 248
246108.73913574 3357518.25390625 14.38606358 169 173 172
246107.07812500 3357517.32397461 15.13608456 128 128 128
246106.65185547 3357516.65972900 16.44327354 4 119 184
246108.17517090 3357518.79425049 15.44441986 99 101 88
246106.10803223 3357516.33062744 14.08445454 205 206 200
246106.56555176 3357517.85119629 15.98994446 35 119 181
246108.46398926 3357517.61059570 14.29031467 145 147 142
246107.60168457 3357517.37921143 15.98112774 15 15 23
246108.29101563 3357519.30798340 16.04245949 236 255 255
246107.64819336 3357514.91369629 15.64653301 143 147 132
246105.40991211 3357515.01354980 15.00392532 216 216 214
246107.86755371 3357517.03381348 15.22297287 128 128 128
246107.80212402 3357516.26696777 15.29258347 128 127 123
246109.67102051 3357517.27642822 13.99025917 138 135 130
246108.22119141 3357518.91381836 16.24055099 3 158 222
246107.76550293 3357517.34973145 15.97000408 16 26 36
246105.65319824 3357514.42437744 16.26639748 0 114 184
246106.68615723 3357514.30853271 14.70078182 163 162 144
246109.84484863 3357519.84777832 16.03750992 84 142 179
246105.52319336 3357513.77728271 15.35395718 110 111 77
246106.76147461 3357514.39050293 14.95865822 153 147 125
246105.37805176 3357516.78289795 16.34679222 8 123 214
246104.95471191 3357515.64599609 14.83730793 128 128 126
246105.19384766 3357515.85845947 14.32886314 245 247 246
246107.47680664 3357516.44598389 16.09569168 23 137 207
246106.39245605 3357517.78076172 15.93840408 29 96 151
246109.66149902 3357518.50524902 14.23194885 186 190 189
246109.57275391 3357517.32788086 16.38455009 13 128 208
246105.44030762 3357514.46368408 14.33750916 137 132 126
246108.77050781 3357515.91278076 14.32947350 95 104 119
246105.33129883 3357517.22814941 15.70783901 200 201 205
246106.16857910 3357515.87921143 14.80822945 134 184 191
246109.05139160 3357517.49090576 14.03113461 97 97 89
246105.52490234 3357514.48406982 14.45173931 157 150 144
246111.02990723 3357517.67388916 14.14881516 64 91 112
246106.94323730 3357515.96838379 15.09656715 125 129 132
246110.50183105 3357518.20831299 15.96897030 110 131 136
246107.86340332 3357517.70678711 16.02570915 21 26 45
246108.52722168 3357515.73962402 14.32529449 67 70 77
246110.13000488 3357517.54528809 16.31486893 87 153 213
246107.33239746 3357517.12170410 14.04794979 192 191 187
246108.42590332 3357517.98028564 15.27756786 128 128 128
246108.03857422 3357516.91955566 15.84210300 138 178 180
246110.83813477 3357518.15509033 16.00185204 88 143 163
246109.39758301 3357517.34118652 15.60780430 128 128 128
246104.79113770 3357516.05957031 14.88773918 128 128 128
246105.77526855 3357516.65936279 14.16419029 206 207 202
246110.12402344 3357518.73999023 16.36617661 160 105 160
246107.48144531 3357517.65386963 15.98678684 21 30 45
246107.86804199 3357516.98132324 13.99517918 177 176 174
246106.07080078 3357517.06506348 15.06565571 170 171 165
246110.79833984 3357517.94696045 15.98451710 103 154 175
246110.53393555 3357517.82122803 15.95080280 119 139 148
246109.99462891 3357518.12506104 16.52557373 19 126 206
246105.97839355 3357515.54736328 14.66613770 128 128 130
246107.30908203 3357517.99780273 15.92091084 15 24 39
246110.01501465 3357517.86273193 15.80075836 121 123 120
246106.94165039 3357516.78826904 15.12608051 128 128 128
246107.91955566 3357517.13189697 14.01742363 156 157 151
246105.31115723 3357514.64550781 15.27681065 171 174 167
246109.74157715 3357519.10852051 16.39214516 5 103 192
246108.52868652 3357518.11975098 14.36134624 168 170 167
246105.55249023 3357514.28833008 14.90503216 104 106 85
246107.59130859 3357518.64752197 16.07005692 15 134 216
246108.30944824 3357518.41821289 15.32040215 128 128 128
246105.52441406 3357514.24090576 16.22505760 57 174 218
246110.83740234 3357517.19787598 13.93215752 120 125 128
246108.61474609 3357514.85491943 14.15303993 31 35 20
246107.55407715 3357515.62689209 16.29737282 10 135 201
246106.69299316 3357516.11248779 16.55049706 0 93 170
246109.66650391 3357517.77148438 15.67205429 121 123 120
246107.87573242 3357516.03057861 15.46874523 209 208 203
246104.78698730 3357515.83392334 15.02897835 212 169 160
246107.93408203 3357515.98413086 15.74351788 144 148 157
246109.08581543 3357516.47381592 15.59425831 183 189 185
246107.32446289 3357516.74816895 13.99735260 173 172 167
246110.24121094 3357517.91790771 16.39225197 48 141 208
246106.05187988 3357515.62530518 14.66854095 123 128 132
246105.89501953 3357516.41571045 14.86032486 128 128 128
246109.06909180 3357516.73925781 16.25541115 20 180 206
246106.19677734 3357516.92144775 14.99911880 128 128 128
246108.18811035 3357518.40106201 14.15124035 183 184 178
246109.96557617 3357517.50219727 14.08389854 74 78 81
246106.09118652 3357515.82733154 14.18506336 188 193 187
246107.71936035 3357515.08673096 14.31165409 127 136 131
246109.30395508 3357519.62591553 16.25164032 12 170 243
246104.77453613 3357515.57458496 14.51603317 169 169 171
