245655.94378662 3357707.47503662 18.66752243 242 252 253
245658.01220703 3357705.42584229 16.44189453 53 55 54
245664.95788574 3357705.75830078 16.55346489 175 165 153
245661.46759033 3357706.30828857 18.82522011 223 236 245
245659.95794678 3357707.32702637 18.67869568 232 246 249
245672.05352783 3357705.51123047 16.32346153 212 199 183
245659.01928711 3357706.39483643 18.82011604 209 227 241
245655.51739502 3357707.39941406 17.55765152 128 138 140
245661.75946045 3357707.09246826 18.69068336 226 243 250
245662.11627197 3357705.60723877 17.77454758 13 19 19
245658.71771240 3357707.31762695 17.91965485 101 110 109
245663.42187500 3357707.02691650 16.72711182 70 82 80
245667.54943848 3357706.77416992 18.61231422 252 254 251
245669.19683838 3357705.59826660 17.91654396 18 31 24
245657.27764893 3357705.77844238 17.53340340 89 94 100
245655.64233398 3357707.38122559 17.34932709 184 191 197
245658.93389893 3357705.61120605 17.81323624 61 66 70
245660.68383789 3357707.32458496 16.57412910 20 32 18
245662.05676270 3357705.40588379 16.46566582 195 182 174
245672.29595947 3357705.84838867 16.68750191 135 128 118
245656.51513672 3357705.76422119 16.95018768 14 15 19
245655.31500244 3357707.55895996 16.48878479 74 83 88
245658.75476074 3357707.22509766 18.72209167 230 239 244
245670.25219727 3357705.36468506 16.32981110 206 194 182
245673.42736816 3357706.55749512 16.36881256 198 191 181
245672.09704590 3357706.44451904 17.02432442 22 27 23
245656.67718506 3357705.38531494 18.57647705 138 129 124
245670.94342041 3357705.69207764 16.65336609 178 166 154
245670.06597900 3357705.56793213 16.38674736 206 192 179
245668.86810303 3357705.86260986 16.70970345 49 49 49
245662.19946289 3357705.60766602 17.77354622 16 20 19
245660.28363037 3357705.61657715 18.84502029 227 241 244
245656.92822266 3357707.29827881 17.05617332 91 99 102
245659.55816650 3357707.47924805 17.86069107 161 175 176
245663.47796631 3357707.11981201 17.66152191 176 182 182
245665.69140625 3357707.08972168 17.58681297 130 139 136
245660.18194580 3357707.46545410 16.52375412 35 34 30
245666.40454102 3357705.89013672 17.51350212 56 57 61
245672.38934326 3357705.68646240 16.47296715 128 109 92
245659.03796387 3357707.25866699 17.61621284 110 118 121
245668.43444824 3357705.77062988 18.72213554 255 255 255
245666.24694824 3357705.73614502 16.83099747 66 66 64
245664.35839844 3357705.52294922 18.80443382 253 254 255
245660.36541748 3357705.93634033 17.35269165 84 85 89
245671.35534668 3357706.37268066 18.98385620 251 255 254
245657.47149658 3357705.79510498 17.39623642 40 49 58
245655.27252197 3357706.98797607 17.31159019 43 47 48
245655.90954590 3357707.34082031 16.50338936 73 78 84
245665.23126221 3357707.10839844 16.95779419 44 50 50
245667.11791992 3357705.63507080 16.89042473 64 63 45
245664.35150146 3357707.47662354 18.31294441 132 151 157
245658.31652832 3357705.51434326 18.00720787 27 30 35
245667.39880371 3357705.62774658 17.27048111 112 116 115
245661.14196777 3357707.56701660 18.48505402 217 228 232
245671.12780762 3357705.26770020 18.63714027 249 251 250
245656.60473633 3357705.91735840 18.92889023 192 214 228
245656.22528076 3357707.26586914 17.01076508 26 34 36
245657.45867920 3357707.32806396 17.09226608 95 103 106
245667.46270752 3357705.79382324 17.12655640 29 31 28
245663.67584229 3357706.66168213 18.75988579 227 236 245
245658.52642822 3357705.76300049 17.43088913 27 26 31
245669.73297119 3357707.01733398 18.60772133 255 255 253
245656.05670166 3357707.31372070 17.56525040 50 60 62
245664.81854248 3357707.15118408 17.58185387 109 108 106
245663.95782471 3357705.39794922 18.46839523 40 46 44
245672.95367432 3357705.37225342 18.69497490 230 236 226
245660.10534668 3357707.20935059 16.85740662 59 53 55
245655.10223389 3357707.65142822 16.68491173 39 40 42
245664.39184570 3357707.22924805 17.12433624 131 140 137
245670.18469238 3357705.89501953 18.85575104 255 255 255
245665.59698486 3357707.27185059 18.42701912 239 254 255
245671.71948242 3357705.80694580 16.71248627 69 68 63
245665.26885986 3357706.26434326 18.75642014 234 243 248
245663.08593750 3357707.21411133 17.75926208 136 145 144
245666.18420410 3357707.12902832 18.55400658 254 255 255
245667.10479736 3357705.64617920 16.44142723 205 193 177
245667.71545410 3357706.35693359 18.65782928 252 254 253
245670.69171143 3357705.38952637 18.78456688 255 255 255
245661.13592529 3357706.27447510 18.82041931 232 243 249
245664.45550537 3357705.75567627 16.73596573 126 125 120
245657.60168457 3357705.62249756 17.93059158 44 47 52
245660.66638184 3357706.08746338 18.77979660 230 245 250
245668.56500244 3357705.27264404 18.36697769 31 42 34
245664.81298828 3357705.81341553 18.80973053 241 245 248
245656.62731934 3357705.92553711 17.00195885 52 53 55
245662.12457275 3357705.91430664 18.87580681 231 238 246
245671.60375977 3357706.97052002 18.69823837 254 255 249
245657.76519775 3357705.86816406 16.58259201 57 58 60
245664.98718262 3357705.80267334 16.61706924 163 156 146
245669.82110596 3357705.19567871 16.31700134 209 192 174
245664.35607910 3357705.44128418 18.23505974 68 79 73
245658.66455078 3357705.50115967 18.87461281 205 231 244
245672.08831787 3357706.20080566 18.77431488 255 254 249
245668.62121582 3357705.35467529 18.23863602 31 42 34
245666.70050049 3357707.37438965 18.42266655 248 254 254
245668.67919922 3357705.64825439 18.73470497 255 254 255
245658.65747070 3357707.43414307 18.06174850 79 85 85
245669.62322998 3357705.70196533 16.43083572 194 175 160
245665.11273193 3357706.02490234 18.78223610 239 244 248
245659.53753662 3357707.52667236 18.47476006 230 241 243
245671.36444092 3357705.60833740 16.81801796 60 55 52
245664.57098389 3357707.44641113 18.15678596 55 70 73
245670.53326416 3357707.30139160 18.52871132 255 255 251
245660.40808105 3357707.25433350 16.44593811 24 36 24
245666.00585938 3357705.35211182 18.72197533 241 245 246
245664.45367432 3357705.44195557 18.20912170 62 72 64
245656.12103271 3357706.91394043 18.81764030 205 227 240
245656.98327637 3357707.01239014 18.71727562 237 251 254
245659.89727783 3357707.49578857 18.52287292 229 238 243
245669.24414063 3357705.68353271 18.72210503 252 254 253
245667.15429688 3357706.17956543 18.67862320 255 255 255
245667.86871338 3357705.31274414 18.61009407 125 134 133
245672.85003662 3357706.28906250 18.23111153 92 100 102
245669.03399658 3357706.00714111 17.06947708 49 51 48
245656.98724365 3357705.93780518 17.07381248 43 46 51
245663.81915283 3357707.17944336 17.37860107 54 64 66
245662.44958496 3357707.17584229 17.47363853 50 57 63
245667.54138184 3357705.98144531 18.68638039 254 255 255
245657.32427979 3357706.63348389 18.75508690 198 224 237
245662.98559570 3357705.54833984 17.19446373 92 93 95
245664.86419678 3357705.76354980 16.55142021 189 175 164
245663.90216064 3357707.32434082 18.53082466 240 250 251
245669.66027832 3357705.32611084 16.34604073 210 194 171
245655.44372559 3357707.52191162 18.54769516 248 249 251
245664.08514404 3357705.45104980 17.63271332 89 94 97
245664.55743408 3357705.74774170 18.82614517 252 253 255
245671.93298340 3357705.41021729 18.51994896 249 255 255
245667.30249023 3357705.39520264 16.36090279 207 195 181
245672.98077393 3357705.41406250 16.23956680 254 249 243
245668.39935303 3357707.06622314 18.56286621 253 253 253
245656.20501709 3357707.48480225 17.95849609 54 58 57
245673.29772949 3357705.35656738 16.22552872 205 194 174
245656.27227783 3357707.23779297 16.91197586 34 42 44
245671.24133301 3357706.06835938 18.95908928 255 255 255
245663.36444092 3357707.19635010 16.40347862 25 37 23
245666.23303223 3357705.75512695 17.81066895 67 69 66
245663.60083008 3357707.22686768 16.44371223 24 42 26
245670.60284424 3357705.27282715 18.67789459 255 255 255
245659.60137939 3357707.51190186 18.50159836 229 238 243
245656.80718994 3357706.08300781 18.87029839 192 218 231
245664.32385254 3357706.87738037 18.64892769 227 240 246
245657.39727783 3357707.33142090 17.03145027 80 88 90
245657.08807373 3357707.39233398 16.43121910 61 66 69
245669.42016602 3357706.13037109 16.80278015 151 148 143
245660.94958496 3357707.24395752 17.63370705 44 46 43
245667.09704590 3357705.77478027 16.61891174 82 76 64
245666.97747803 3357707.50878906 18.34564781 217 227 226
245669.40209961 3357707.27313232 18.49550247 252 252 254
245665.61676025 3357705.52789307 18.23442078 41 50 45
245656.73168945 3357705.85272217 16.72705841 70 75 78
245670.09527588 3357705.35864258 18.48233795 47 49 46
245670.16143799 3357707.25195313 18.56073952 254 254 252
245669.12249756 3357705.59283447 17.91224098 24 35 29
245662.44793701 3357705.47912598 18.03035355 23 29 25
245663.49438477 3357706.26599121 18.82871628 230 240 249
245658.63336182 3357707.28466797 17.08347893 84 98 99
245662.04925537 3357707.30316162 17.62739372 31 41 42
245660.81097412 3357707.50585938 18.51420784 220 235 242
245667.23083496 3357705.46667480 17.12671471 187 189 188
245663.07025146 3357705.51947021 17.14112091 72 72 74
245664.28485107 3357707.16607666 18.57957268 228 241 247
245667.95898438 3357705.61602783 18.71939087 255 255 255
245670.51025391 3357705.61755371 18.87144661 255 255 255
245664.51135254 3357707.13916016 17.34542656 50 59 58
245664.43975830 3357705.70196533 17.15292740 60 64 67
245672.14245605 3357706.22430420 18.77182007 255 254 250
245667.25946045 3357705.47772217 16.41138268 215 202 186
245660.68811035 3357706.06848145 17.09091568 157 157 157
245669.14318848 3357705.76824951 17.57848930 29 33 32
245667.51837158 3357705.87603760 17.03707123 57 59 56
245664.71710205 3357707.40270996 18.09621429 52 70 70
245670.75396729 3357705.71752930 17.47092438 154 146 144
245663.02178955 3357705.63488770 18.80664063 248 252 255
245664.76873779 3357705.74664307 17.59578514 55 56 58
245664.64306641 3357707.07165527 16.34034348 81 85 84
245665.41375732 3357707.29742432 18.40340424 240 254 255
245669.66479492 3357705.52758789 18.26987076 28 36 25
245660.46221924 3357707.20727539 18.63008308 220 237 247
245656.57659912 3357705.77673340 16.86925888 50 54 57
245668.57202148 3357705.97943115 16.96461296 106 108 105
245672.31317139 3357706.21929932 17.77255440 70 79 78
245670.94085693 3357707.27252197 18.55579567 255 255 255
245672.73242188 3357705.30255127 16.25028038 221 204 184
245669.31024170 3357706.14093018 16.60142517 115 112 105
245664.12445068 3357707.30786133 17.74272537 74 80 80
245669.99310303 3357706.09429932 17.09000778 14 15 10
245671.78521729 3357706.28027344 16.73600006 90 89 84
245663.54779053 3357707.09606934 16.87264252 188 200 200
245672.99871826 3357705.91888428 16.23946953 247 248 240
245664.46398926 3357707.18048096 17.43647766 22 28 28
245658.67407227 3357706.09960938 18.83037949 200 223 237
245671.16864014 3357705.55767822 17.99321365 29 40 32
245670.42761230 3357707.44152832 18.45823860 51 53 39
245665.26904297 3357707.29315186 16.69660187 23 35 25
245669.70184326 3357705.50976563 18.67484474 253 253 253
245662.33789063 3357707.02410889 18.69705582 225 240 247
245658.35882568 3357705.59466553 16.53771210 59 65 65
245668.81634521 3357705.53045654 16.38252640 178 166 152
245667.13824463 3357705.64758301 17.09936523 195 195 187
245664.80090332 3357706.24511719 18.77168655 240 245 249
245662.50567627 3357705.42584229 18.25250435 34 41 33
245666.89569092 3357705.60925293 17.91905975 18 20 17
245659.53771973 3357707.45758057 17.80811310 129 141 141
245659.78143311 3357707.37542725 17.35641479 176 190 191
245671.84338379 3357706.68859863 18.75246239 255 255 255
245662.04156494 3357707.08734131 16.75692558 53 59 59
245663.89636230 3357707.23529053 17.54895592 18 26 29
245661.12988281 3357705.94525146 16.81373596 69 71 68
245659.35485840 3357705.73516846 17.36422729 28 33 39
245669.06701660 3357705.94628906 17.18258667 33 35 32
245670.38189697 3357705.33331299 16.31756783 208 192 179
245671.09918213 3357706.66003418 18.91508484 255 255 253
245665.83496094 3357705.55224609 16.40019989 205 194 176
245663.17846680 3357705.38763428 17.40804672 61 66 69
245658.02490234 3357707.57409668 18.23620796 91 97 97
245659.83831787 3357705.56091309 18.08221626 35 43 45
245670.00488281 3357705.20825195 16.30941582 204 188 172
245657.58276367 3357707.60870361 16.41801453 51 56 60
245658.12518311 3357705.44720459 18.66638756 51 64 70
245657.32348633 3357707.43280029 16.42298508 61 66 69
245657.53454590 3357705.82739258 18.85412788 184 212 226
245661.17993164 3357705.73687744 17.62316132 34 33 38
245668.68194580 3357705.29516602 18.33891106 32 45 35
245659.24420166 3357705.76635742 18.85661507 206 230 240
245670.90136719 3357705.47271729 18.14373398 34 46 42
245670.36462402 3357705.71539307 17.63713837 103 107 110
245671.43707275 3357705.40295410 16.34596062 200 185 166
245655.85455322 3357707.38116455 17.71112823 25 33 36
245671.53271484 3357705.68090820 17.91481209 50 61 55
245672.23425293 3357706.05273438 17.76128006 72 81 80
245664.93774414 3357707.09289551 17.23452568 187 196 193
245656.97137451 3357707.66198730 18.32049942 75 79 80
245655.92724609 3357706.23602295 19.09295845 199 219 228
245660.04101563 3357705.92492676 17.24478912 62 67 71
245657.14013672 3357705.87274170 16.97126198 46 49 54
245663.31445313 3357707.29931641 17.95214462 124 134 136
245664.30194092 3357705.41680908 18.31758308 71 80 75
245660.24890137 3357707.54449463 18.44363976 218 227 234
245665.71063232 3357705.67486572 18.82605553 242 247 251
245663.92828369 3357706.90130615 18.68682289 233 240 246
245664.16467285 3357707.12988281 18.61496544 231 245 248
245658.42120361 3357707.24816895 16.94159126 35 41 41
245658.21075439 3357705.80963135 17.17399406 14 15 20
245667.11010742 3357707.30084229 18.48932076 254 254 254
245662.74407959 3357707.11523438 17.45692062 42 50 52
245665.65203857 3357706.14263916 18.76970482 235 246 250
245661.81396484 3357706.00372314 18.89613342 243 248 251
245658.43493652 3357705.73486328 16.90292358 49 53 54
245658.77551270 3357707.27319336 18.70532990 231 240 245
245664.36730957 3357707.40924072 18.39307404 206 222 235
245656.77362061 3357707.28442383 17.10889244 196 205 210
245669.41235352 3357706.93609619 18.58017921 254 254 252
245656.36981201 3357705.31964111 18.45107269 149 148 143
245668.53729248 3357705.97363281 17.02191544 112 112 110
245656.34344482 3357707.27416992 16.43487167 79 84 88
245661.88970947 3357707.28802490 16.52947998 15 36 19
245664.25561523 3357706.03125000 18.80651093 253 255 254
245664.10284424 3357705.42187500 16.38689613 224 218 206
245658.19812012 3357706.52111816 18.78208351 198 225 236
245659.60589600 3357705.59838867 18.87204933 212 235 243
245657.97503662 3357707.24468994 16.48886871 97 101 102
245670.72473145 3357707.28399658 18.54770088 254 254 252
245664.28234863 3357707.28662109 17.69244194 118 124 124
245663.48168945 3357707.44232178 18.18418312 91 100 105
245664.17852783 3357705.47637939 17.65230370 88 93 96
245656.42474365 3357705.38513184 21.81588364 58 76 36
245661.33770752 3357707.59948730 18.33260345 76 87 89
245672.65972900 3357706.83044434 16.92183113 29 39 31
245661.19213867 3357707.08685303 17.35505295 52 57 60
245672.60955811 3357705.18597412 16.25336456 217 206 186
245659.63555908 3357707.02777100 18.76343918 229 242 251
245658.99414063 3357705.61468506 17.78634644 75 79 82
245661.72210693 3357707.51654053 18.43357849 217 228 232
245666.96630859 3357707.14099121 18.53402519 254 254 254
245657.67657471 3357705.62384033 17.91640854 47 50 55
245671.48889160 3357705.65783691 17.96911240 29 40 32
245662.60260010 3357705.53778076 16.57760811 167 159 146
245662.56677246 3357705.64678955 17.47459984 25 30 33
245669.77618408 3357705.91943359 17.40129280 26 28 25
245657.14263916 3357705.42022705 18.67528725 69 73 72
245662.04724121 3357707.28289795 18.59211159 234 245 249
245655.60302734 3357706.01196289 19.30831909 142 156 131
245662.96032715 3357706.68817139 18.77925110 229 236 244
245656.71002197 3357707.34600830 18.67759895 219 233 242
245659.67639160 3357705.79193115 17.38040352 66 71 77
245662.34295654 3357705.71557617 17.12894249 61 65 66
245668.92181396 3357706.26330566 18.67140961 249 251 250
245656.24029541 3357706.31811523 18.91891098 192 214 228
245658.32910156 3357707.55200195 16.42752647 50 66 56
245669.10382080 3357705.36901855 18.67696190 252 252 252
245655.64270020 3357707.46807861 17.92576218 40 48 50
245667.23693848 3357705.64654541 17.29026794 78 83 77
245672.89099121 3357705.89239502 18.71511841 253 254 249
245669.95904541 3357705.70788574 17.72579193 21 26 19
245672.77740479 3357705.83203125 18.22650719 69 87 89
245656.73211670 3357705.67907715 18.00588989 27 32 35
245668.55810547 3357705.65332031 16.30140114 230 219 213
245667.94647217 3357707.16680908 18.53681183 253 255 254
245656.65002441 3357707.52740479 16.42187119 44 52 54
245661.88000488 3357705.71856689 17.53429985 12 21 20
245664.56579590 3357705.77795410 16.70249748 125 121 118
245661.37359619 3357707.10296631 17.32632637 18 28 30
245671.17663574 3357706.54589844 18.97844505 255 254 252
245659.65802002 3357705.49548340 16.41230774 59 63 64
245657.76885986 3357707.28454590 17.59255028 76 80 79
245658.93652344 3357707.25610352 17.62918663 149 157 160
245672.56109619 3357705.59875488 18.72461510 253 252 247
245672.26391602 3357705.92022705 16.72132874 163 159 150
245671.03100586 3357705.28137207 18.68344498 255 255 255
245665.99877930 3357707.11682129 17.49234390 26 38 38
245660.79705811 3357707.11932373 16.99216080 167 179 179
245663.11834717 3357706.83416748 18.74070740 235 242 248
245658.03057861 3357705.56237793 17.87855721 84 87 94
245666.36315918 3357706.20422363 18.72535706 250 254 255
245670.07031250 3357706.90051270 18.69400978 254 254 255
245670.09875488 3357705.35235596 18.61749077 245 245 245
245657.98217773 3357705.49114990 18.11042213 44 49 53
245656.60815430 3357707.26806641 17.20682716 199 208 213
245671.33081055 3357705.65155029 17.83575439 86 92 88
245671.34405518 3357706.08160400 16.84539032 51 49 50
245657.00708008 3357705.82275391 16.62188721 43 46 51
245669.99310303 3357705.34576416 16.34022903 213 197 182
245661.45300293 3357707.18542480 16.45559311 17 38 21
245659.20013428 3357707.25579834 17.33448219 174 192 194
245662.03503418 3357706.07617188 18.88237953 231 239 242
245661.15014648 3357707.16772461 17.54558945 52 56 57
245667.07519531 3357705.37780762 18.66405487 238 240 239
245662.97320557 3357707.48187256 18.12313652 107 118 120
245659.89056396 3357707.35021973 17.19182205 124 134 133
245671.88861084 3357705.63287354 16.61378288 129 125 116
245655.89251709 3357706.45794678 18.98346329 196 219 227
245670.83532715 3357706.77221680 18.82682228 254 255 250
245660.54357910 3357707.48687744 18.51958847 226 239 247
245659.32543945 3357707.06872559 16.56487274 24 30 28
245660.05041504 3357706.29675293 18.80045128 210 230 241
245667.86364746 3357705.95013428 16.85192680 83 83 81
245657.29815674 3357705.45678711 18.84452438 120 134 145
245665.22668457 3357706.11865234 17.28044319 103 107 108
245665.54022217 3357706.91351318 18.62560081 228 241 249
245663.42553711 3357707.02929688 16.73164940 69 79 78
245669.41259766 3357706.12963867 16.77426910 172 169 164
245655.30578613 3357707.27905273 17.28617287 49 54 57
245658.25000000 3357707.44177246 17.99293709 103 107 108
245658.36181641 3357705.75958252 16.93317795 48 49 51
245671.09014893 3357705.26861572 18.57366562 177 181 180
245668.39855957 3357707.44403076 18.47367096 240 242 241
245659.36224365 3357705.77429199 16.85624123 46 47 51
245657.53430176 3357707.31689453 16.99658203 74 79 82
245663.55963135 3357705.46044922 17.97225571 48 44 43
245671.49609375 3357706.21459961 18.94439316 255 255 255
245657.83239746 3357705.43292236 18.69808769 56 66 75
245657.67620850 3357707.38629150 16.42277336 59 64 67
245655.43658447 3357707.52380371 18.53056908 248 249 251
245657.02636719 3357705.51617432 18.88826561 196 220 232
245668.70989990 3357706.79925537 18.60109138 249 249 249
245657.51660156 3357707.32196045 17.09819984 101 111 113
245669.12536621 3357705.33233643 18.49574661 23 30 23
245664.14923096 3357707.29302979 17.22446060 197 212 209
245663.40942383 3357705.63250732 18.77510834 249 253 254
245660.42517090 3357705.96643066 17.30717087 92 92 94
245662.64367676 3357705.44805908 18.06234932 23 27 26
245661.23162842 3357706.68994141 18.72456551 219 236 246
245662.28192139 3357705.70391846 17.04008102 36 36 36
245663.66174316 3357707.12139893 17.45355225 61 69 71
245664.48431396 3357705.47735596 16.40782547 208 196 182
245660.83624268 3357707.24438477 18.57484436 222 239 247
245659.34466553 3357705.77014160 16.78803635 47 48 50
245666.41784668 3357707.36242676 17.56439781 167 182 179
245667.93804932 3357707.18249512 18.53331184 253 255 254
245670.51019287 3357705.26336670 18.61523438 210 214 213
245666.41668701 3357706.47015381 18.69075203 254 255 255
245659.59246826 3357707.35809326 17.42364883 184 200 200
245663.23120117 3357707.38287354 18.02887726 117 131 134
245668.41882324 3357705.92352295 17.19355011 58 58 56
245663.39477539 3357707.08728027 17.60682869 126 132 132
245659.73730469 3357707.31268311 18.68913651 235 246 252
245658.88885498 3357705.59191895 17.93507957 98 103 109
245669.84124756 3357705.34973145 18.55959511 147 152 148
245667.77526855 3357706.87097168 18.59781265 250 252 251
245660.71563721 3357706.39276123 18.74623489 212 226 237
245672.35913086 3357705.79644775 18.03176117 128 137 134
245664.99237061 3357706.33801270 18.75787735 238 243 247
245662.63537598 3357707.10565186 17.32720184 122 133 137
245656.45007324 3357705.31860352 18.87600136 79 83 82
245663.53613281 3357705.95379639 18.83471298 238 245 251
245668.07080078 3357707.30621338 18.50750351 255 255 255
245655.99285889 3357707.48913574 16.49817657 101 105 108
245659.01892090 3357705.58508301 16.45888138 62 63 67
245668.75750732 3357705.93267822 16.81478882 52 51 47
245667.35693359 3357705.31256104 16.35221100 203 191 177
245664.90655518 3357707.12591553 17.06274223 205 211 209
245671.92736816 3357705.98083496 18.80056190 255 254 250
245665.44104004 3357705.44189453 18.75244904 250 254 255
245659.20678711 3357707.50482178 18.43005562 232 240 243
245655.28704834 3357707.26367188 17.09709930 32 37 40
245662.64941406 3357707.25561523 17.65852928 73 79 77
245669.30944824 3357706.09045410 17.03934288 115 115 113
245662.36431885 3357707.13616943 17.28167343 176 192 192
245665.52703857 3357707.37365723 18.31029320 227 246 250
245671.00665283 3357706.82623291 18.82078934 255 255 253
245670.06365967 3357705.37390137 18.45032501 32 34 31
245660.66009521 3357707.63006592 18.12665558 65 69 70
245666.85870361 3357705.38195801 18.60157585 181 180 175
245657.80487061 3357707.48345947 18.00435448 84 90 88
245655.39123535 3357707.48620605 17.17026901 195 207 207
245669.71026611 3357706.17901611 18.72754478 254 255 255
245659.74639893 3357707.41510010 16.91351509 130 131 133
245662.42401123 3357707.14599609 17.23299026 196 216 215
245667.87384033 3357705.79821777 16.49650764 209 196 187
245664.83831787 3357707.44519043 18.19033623 70 90 91
245671.38031006 3357706.06347656 18.93354607 254 254 254
245662.87841797 3357706.41351318 18.82138062 225 234 243
245669.42694092 3357706.34906006 18.67131805 254 255 255
245663.78027344 3357707.37188721 18.07844925 100 108 111
245658.96697998 3357707.20861816 16.56888390 48 59 53
245659.81701660 3357705.93597412 16.95254326 29 32 37
245656.36865234 3357707.12536621 16.50695229 5 10 13
245667.63238525 3357705.71411133 17.71060181 29 40 34
245657.99194336 3357705.84838867 17.22311211 84 87 94
245668.77087402 3357705.94641113 18.71196747 248 248 250
245663.61328125 3357705.31152344 16.50734711 192 191 187
245669.11816406 3357707.37567139 18.47261429 251 253 252
245659.38952637 3357707.51135254 18.56757545 235 246 250
245662.02044678 3357707.30017090 17.62998199 33 42 41
245665.27239990 3357705.44201660 16.43809509 187 178 163
245656.02996826 3357706.89044189 18.83794975 209 229 240
245660.69976807 3357707.58746338 18.39588737 190 198 200
245660.29809570 3357705.82934570 17.50532913 70 71 75
245661.34722900 3357706.40039063 18.80330467 220 235 242
245665.44158936 3357707.19152832 18.47814751 243 253 254
245671.39929199 3357705.97631836 17.24276161 113 106 100
245655.65802002 3357707.30267334 16.72183800 128 136 139
245659.02819824 3357705.67407227 16.54006767 52 56 59
245661.68969727 3357705.57788086 17.89393806 15 24 21
245666.25067139 3357705.83203125 17.66885948 68 70 69
245669.11669922 3357706.02252197 17.09114075 43 44 39
245664.33135986 3357705.42401123 18.28875542 70 79 74
245656.29852295 3357707.36889648 17.72657967 54 60 60
245669.41448975 3357705.60668945 18.71194458 253 253 253
245661.01373291 3357707.04241943 16.68000793 59 65 63
245662.84930420 3357707.35510254 16.56996536 12 33 16
245665.29351807 3357707.45776367 18.26378250 80 92 92
245663.23266602 3357707.13189697 18.64895058 234 248 251
245660.37762451 3357707.15466309 16.85872269 49 61 57
245656.27532959 3357707.61584473 18.47340584 228 232 235
245659.40051270 3357705.95684814 18.84618187 210 230 241
245660.04656982 3357707.37176514 16.60748291 87 60 69
245668.24572754 3357706.03674316 16.92560196 134 134 132
245672.00482178 3357705.40570068 18.53771782 246 252 252
245672.35766602 3357705.92822266 16.55073166 82 80 81
245663.56878662 3357707.38952637 18.43016434 223 232 237
245662.05078125 3357707.18829346 16.98810959 74 84 86
245666.16967773 3357705.79986572 17.75315475 34 36 33
245670.84033203 3357705.73474121 16.63240051 147 137 128
245672.55377197 3357706.46527100 17.91471672 140 149 144
245658.97058105 3357706.70544434 18.80903244 229 243 252
245664.78308105 3357705.59704590 17.89126205 41 43 42
245670.93145752 3357705.46881104 18.15688133 34 46 42
245666.89001465 3357705.64794922 18.73052597 255 255 255
245657.64648438 3357705.58050537 22.24421883 85 102 60
245656.62878418 3357705.24670410 16.54195023 41 47 47
245658.16876221 3357705.61767578 16.45936203 89 93 92
245664.23663330 3357705.78588867 18.83627510 239 249 250
245664.75683594 3357705.79937744 16.67341423 65 58 52
245655.48559570 3357706.19732666 19.06648636 200 206 202
245658.55706787 3357707.39984131 16.50390053 23 44 27
245664.57470703 3357707.08459473 18.56189728 229 242 250
245656.43688965 3357705.20544434 16.54401779 83 87 88
245667.93859863 3357705.97717285 17.13768578 33 32 30
245658.20416260 3357707.18743896 16.49144554 80 86 84
245663.68347168 3357707.05273438 16.64093018 41 45 44
245658.05725098 3357705.84930420 17.18629265 81 84 89
245664.57928467 3357705.78552246 18.82066154 252 253 255
245658.38323975 3357706.71612549 18.79443359 228 242 251
245663.50109863 3357705.86096191 18.81702614 244 249 252
245670.29064941 3357707.01385498 18.68758392 254 254 255
245661.37567139 3357705.75140381 16.53793335 147 142 136
245655.36065674 3357707.40594482 16.99328423 145 150 153
245660.01177979 3357705.69024658 17.74560738 7 11 14
245671.68963623 3357706.31518555 16.77817917 67 68 63
245662.32330322 3357705.52038574 17.96310425 22 27 23
245662.00646973 3357707.15808105 17.15843010 190 201 205
245662.36785889 3357705.38262939 16.44009399 207 199 186
245672.65374756 3357705.38720703 18.56786346 248 253 249
245669.33227539 3357705.93792725 18.71679306 252 254 253
245661.45007324 3357706.22436523 18.84089851 226 239 245
245659.69268799 3357707.38732910 17.50990486 159 173 174
245668.31237793 3357705.43133545 18.73309898 253 255 254
245661.28546143 3357707.30517578 17.70198250 50 59 58
245673.58410645 3357706.66339111 16.27022934 206 207 199
245669.97595215 3357705.64984131 16.42562485 199 183 167
245657.20062256 3357707.38348389 17.66351700 33 37 40
245672.15985107 3357706.12463379 18.76915741 255 254 249
245670.67187500 3357705.68066406 16.55531883 58 49 44
245660.50769043 3357707.21002197 17.02582932 67 77 76
245657.38391113 3357705.78796387 16.84514427 54 58 61
245656.66986084 3357707.13238525 16.47708130 112 116 117
245664.84497070 3357705.79272461 16.61413765 191 181 171
245658.27215576 3357707.59814453 16.41485023 96 106 105
245659.02545166 3357706.02642822 18.83808136 209 228 242
245664.74719238 3357707.13366699 17.46002388 43 49 49
245665.71295166 3357705.67327881 18.02889633 104 108 107
245667.24151611 3357705.60473633 17.92385483 75 79 78
245667.13494873 3357705.55963135 16.94020271 134 132 117
245672.83264160 3357705.79309082 16.25411034 207 196 178
245662.00170898 3357705.65826416 16.73905754 133 128 122
245671.22021484 3357705.50024414 18.24213982 91 102 98
245666.65270996 3357705.91503906 18.74202728 255 255 255
245672.58666992 3357706.51403809 18.71331787 253 254 246
245658.97613525 3357705.57141113 18.01199913 83 88 94
245662.34472656 3357705.63983154 17.64754295 46 47 51
245668.99951172 3357706.00726318 16.61776543 56 55 51
245656.86016846 3357707.27709961 17.33891487 176 187 189
245658.85168457 3357706.72955322 18.80433083 232 246 255
245663.87335205 3357707.15698242 17.09536934 187 197 198
245659.56939697 3357707.34381104 17.37218475 186 202 202
245658.67895508 3357707.17022705 18.74503136 230 241 247
245672.58325195 3357706.16271973 18.72925377 254 254 246
245658.03363037 3357705.86193848 16.62314224 47 48 50
245665.81542969 3357705.54180908 18.84152222 245 249 250
245662.44891357 3357707.34838867 18.50399208 224 237 243
245668.16046143 3357705.86456299 17.38584709 29 31 30
245672.13909912 3357706.16851807 16.75372887 209 205 194
245662.43054199 3357707.43756104 18.40660477 190 205 210
245670.57269287 3357705.14385986 16.32000732 215 199 183
245655.95971680 3357706.73730469 18.87048531 205 225 236
245669.34228516 3357705.15533447 16.30377007 207 195 171
245668.82257080 3357706.31384277 18.66397858 246 250 249
245664.24426270 3357707.38543701 18.02071953 179 187 189
245672.58435059 3357705.32012939 18.62935638 248 252 251
245669.32458496 3357705.67163086 17.80125427 35 44 39
245657.20483398 3357707.34094238 16.42612267 55 60 63
245666.51116943 3357707.53485107 18.25978279 35 43 46
245665.12261963 3357707.06158447 16.80018997 34 43 40
245669.85162354 3357705.26269531 16.32997131 210 193 175
245662.56909180 3357707.14001465 16.80465317 44 50 50
245662.34820557 3357707.43328857 17.95891571 45 49 52
245665.78631592 3357707.30249023 17.98219872 115 123 125
245665.53698730 3357705.81201172 16.72925568 105 105 105
245663.79870605 3357705.41033936 17.04366684 97 101 100
245664.24353027 3357705.78039551 16.54851341 138 134 125
245673.03820801 3357706.91931152 18.20588303 39 52 45
245662.36767578 3357706.71954346 18.77301979 226 237 243
245668.59484863 3357705.27539063 18.58957481 37 44 37
245670.81549072 3357705.84686279 17.02933884 132 119 113
245660.32995605 3357705.64202881 18.04177284 71 69 70
245655.60943604 3357706.31787109 19.13980103 197 210 218
245670.27307129 3357707.02178955 18.68302917 254 254 255
245662.77569580 3357705.65100098 17.08328438 54 54 52
245659.56054688 3357705.96191406 18.84162903 215 233 243
245660.63122559 3357707.24261475 17.67845345 90 94 93
245665.02960205 3357706.06018066 17.19807625 22 26 27
245670.99896240 3357705.60192871 17.70793152 52 57 53
245657.75610352 3357707.65203857 18.45265579 201 209 212
245657.48016357 3357707.47137451 17.89856148 84 86 85
245666.94610596 3357707.23773193 18.50869179 254 254 254
245658.24670410 3357705.42547607 18.14784622 35 38 43
245666.94824219 3357705.72552490 17.57694054 77 79 78
245666.82189941 3357705.68011475 17.74877930 20 20 20
245663.66638184 3357705.41497803 18.42850494 24 33 30
245659.37622070 3357705.72955322 18.86522865 208 230 241
245661.04779053 3357707.49121094 18.55289841 224 238 247
245665.63232422 3357705.71844482 16.57632446 32 21 15
245664.22705078 3357707.30670166 17.03671837 207 219 215
245669.53308105 3357706.05920410 16.66914940 73 69 66
245663.78753662 3357705.37792969 17.36999893 93 97 98
245667.37310791 3357705.74224854 16.61166954 62 53 44
245661.53259277 3357705.69512939 17.62736511 9 15 13
245664.88055420 3357706.96936035 16.59828377 19 22 27
245657.68609619 3357707.61865234 18.24208450 88 92 93
245656.77612305 3357705.53338623 18.89936066 189 211 224
245665.69219971 3357705.54302979 16.43489838 195 182 165
245667.21624756 3357705.46417236 17.15433693 207 211 210
245664.34271240 3357707.28063965 16.76070595 68 72 73
245669.27850342 3357705.39630127 16.32291222 209 199 172
245656.24389648 3357707.20001221 16.79078865 35 43 45
245657.26574707 3357707.43048096 16.42118454 54 59 62
245671.48553467 3357706.51959229 18.93134117 253 255 252
245671.21447754 3357705.68701172 17.06318474 40 33 27
245668.75836182 3357705.58996582 16.61621094 240 227 219
245670.42883301 3357706.43572998 18.90436935 255 255 255
245671.83105469 3357706.01556396 17.56336403 137 131 131
245661.92816162 3357706.01348877 18.89678574 237 242 246
245657.40106201 3357705.78338623 17.15056610 56 61 65
245664.48059082 3357705.98535156 18.80407524 250 250 252
245666.10620117 3357707.29028320 18.45993423 246 249 254
245667.12322998 3357705.68066406 18.69683266 255 255 255
245666.87738037 3357705.75054932 17.54314804 85 87 86
245658.34844971 3357705.77679443 17.04823112 58 59 64
245671.66412354 3357706.74664307 18.76825905 255 255 255
245666.25964355 3357707.41839600 17.34018135 81 92 86
245659.67993164 3357707.01391602 18.76364517 224 237 246
245669.32867432 3357707.33941650 18.47869492 250 252 251
245659.85949707 3357707.58721924 18.04473495 162 172 173
245656.60284424 3357707.58544922 18.56646156 236 244 246
245665.20654297 3357706.07647705 17.37397003 129 133 134
245661.29565430 3357706.51721191 18.78060532 222 236 245
245672.97106934 3357706.16912842 16.24234009 245 245 237
245666.95422363 3357706.64678955 18.64433670 254 254 254
245668.29913330 3357705.27465820 18.38358498 36 47 39
245660.09039307 3357705.97113037 16.52751923 70 72 71
245661.24285889 3357707.00079346 16.57575035 76 80 81
245662.27026367 3357707.34564209 16.59663391 15 36 19
245672.74151611 3357705.57440186 16.25763702 212 197 174
245666.58496094 3357705.55413818 16.64725113 61 61 61
245665.35223389 3357707.14379883 18.50720406 242 252 253
245657.33599854 3357705.57635498 18.15878487 27 31 34
245664.08630371 3357706.36578369 18.76439095 236 241 245
245664.61413574 3357707.12628174 17.17913246 206 215 214
245664.52325439 3357707.10571289 16.50388527 73 79 77
245657.32458496 3357706.49932861 18.77026367 196 223 234
245660.91687012 3357706.24407959 18.78269196 196 213 220
245658.93792725 3357707.49414063 18.54311371 238 243 247
245657.35723877 3357707.33294678 17.56925011 64 69 72
245659.59271240 3357707.58251953 18.26758003 57 67 66
245656.95751953 3357707.61511230 18.13824272 73 77 78
245668.04187012 3357705.29040527 18.40515137 25 38 29
245660.40173340 3357707.43914795 18.01096535 67 72 75
245670.22387695 3357705.89916992 17.35912323 116 117 122
245671.17791748 3357705.28710938 18.63894653 253 255 254
245657.05041504 3357707.42974854 17.75287628 64 65 69
245661.48583984 3357705.58740234 17.93582726 20 26 22
245668.27667236 3357705.51062012 18.73306084 254 254 254
245670.74688721 3357707.46679688 18.51575470 41 50 33
245656.75708008 3357707.24328613 18.68361282 217 234 241
245667.99102783 3357705.70050049 18.71537590 255 255 255
245655.84576416 3357707.52978516 18.65127563 222 235 241
245663.42413330 3357707.33404541 18.05478859 166 177 181
245665.84436035 3357707.06781006 18.59616089 238 243 247
245671.03375244 3357705.42468262 18.31512260 82 92 91
245658.21276855 3357707.44909668 18.00151062 101 102 104
245657.21716309 3357707.30493164 17.28770638 200 208 211
245667.59735107 3357705.86669922 16.61130524 86 85 83
245665.87329102 3357706.38403320 18.73605347 237 246 251
245669.03088379 3357706.45965576 18.64752579 250 252 251
245668.25061035 3357707.12329102 18.54905510 253 253 255
245671.42871094 3357706.45916748 18.95516586 250 255 251
245672.94604492 3357706.21197510 18.32498932 88 96 98
245656.73742676 3357707.64941406 18.18451309 63 75 73
245661.57507324 3357707.25115967 17.59989738 50 60 62
245656.07617188 3357706.96197510 18.81728935 211 231 240
245660.47125244 3357707.19494629 16.97678947 49 59 58
245671.23120117 3357706.45812988 18.99938583 253 254 255
245659.79797363 3357705.71923828 17.59433937 59 64 68
245662.83929443 3357707.42687988 17.94789886 115 125 126
245667.77233887 3357706.84307861 18.60151291 252 252 254
245661.04553223 3357707.02661133 16.64439201 69 73 74
245663.41387939 3357707.11999512 16.37862778 60 70 61
245661.15100098 3357707.02502441 18.68234062 223 237 248
245662.51086426 3357707.07189941 18.68151665 224 241 249
245664.20074463 3357705.57000732 17.13166237 97 101 102
245663.80950928 3357705.42456055 16.47216225 99 100 94
245667.49035645 3357705.43487549 18.64297485 255 255 255
245665.15716553 3357707.22216797 17.70610046 71 87 84
245657.99420166 3357705.58715820 17.83017731 86 89 96
245667.14031982 3357705.70391846 17.55272293 81 83 82
245672.34185791 3357706.70489502 16.37758255 21 21 19
245657.72033691 3357706.90344238 18.72164536 229 244 251
245656.95361328 3357706.90808105 18.74819756 208 228 235
245671.38830566 3357705.24658203 16.28956604 201 189 175
245670.55615234 3357705.26477051 18.49173164 36 47 39
245663.78826904 3357707.45507813 18.30246925 154 177 185
245662.04882813 3357707.05151367 16.63427162 74 80 78
245656.61254883 3357706.38464355 18.85767174 195 222 233
245657.78533936 3357706.87420654 18.72279549 228 242 251
245657.02642822 3357705.76092529 17.68417740 95 100 103
245655.41784668 3357707.46868896 16.86524391 191 196 202
245656.22564697 3357707.20062256 18.72897911 218 236 246
245664.28088379 3357705.40521240 18.77609444 250 254 253
245664.68273926 3357706.48022461 18.71348381 230 238 241
245671.82275391 3357706.41802979 16.85363579 49 51 48
245661.60827637 3357707.43713379 17.86802101 25 35 36
245662.83563232 3357705.48596191 17.77834320 11 13 12
245656.81610107 3357705.31671143 16.51832962 48 53 56
245655.94012451 3357707.43170166 16.49015808 54 57 62
245663.99920654 3357707.29046631 17.65014267 20 29 28
245657.36132813 3357707.58819580 18.15979195 76 82 82
245663.71264648 3357707.19653320 16.43607712 34 47 37
245666.04193115 3357707.08380127 18.57033730 253 254 255
245666.43908691 3357705.50598145 18.40152740 112 122 114
245666.43731689 3357705.91601563 18.75655365 250 254 253
245665.12384033 3357707.45581055 16.70036507 17 33 22
245659.57775879 3357707.55010986 18.08513641 175 187 187
245665.41772461 3357706.18560791 17.07234383 122 126 127
245667.59326172 3357705.94122314 17.19179344 11 16 10
245659.31036377 3357707.32543945 17.52445030 93 104 106
245659.58825684 3357707.44415283 17.74495697 153 167 168
245666.20861816 3357705.63006592 16.69246101 155 150 144
245666.86602783 3357707.51544189 18.05020714 112 116 115
245667.46246338 3357705.47448730 18.65986252 255 255 255
245672.00610352 3357706.44183350 16.78812599 149 146 141
245664.67626953 3357705.49725342 16.41265488 206 197 180
245662.83905029 3357707.51385498 18.27400017 133 147 150
245658.98559570 3357706.45391846 18.81719398 213 231 243
245657.61596680 3357705.47100830 18.83057785 164 183 197
245666.95983887 3357706.55450439 18.65295601 254 254 254
245656.15075684 3357707.54144287 18.05369949 48 49 51
245669.93304443 3357705.96777344 16.60911751 59 54 50
245671.37286377 3357705.85211182 18.86987877 255 255 255
245671.26348877 3357706.85430908 18.80488014 253 253 251
245665.75061035 3357706.13854980 16.95647812 107 102 108
245659.30139160 3357706.29876709 18.82911301 212 230 242
245669.68225098 3357705.97003174 18.73447609 255 255 255
245659.46588135 3357707.53192139 18.14724922 92 101 100
245662.52441406 3357705.71667480 17.05634117 27 26 31
245667.55993652 3357705.93249512 17.05995178 47 47 45
245669.84478760 3357705.98455811 17.29643822 26 27 22
245669.54254150 3357705.73315430 18.71260834 255 255 255
245672.92443848 3357705.51995850 18.61630630 214 224 216
245666.42663574 3357705.35766602 18.70242500 234 238 237
245669.16711426 3357707.32641602 18.48514938 252 254 253
245666.46453857 3357705.44354248 18.51434517 149 155 151
245656.96411133 3357706.29901123 18.82500648 195 223 237
245658.96948242 3357707.27020264 17.33894539 168 185 192
245667.51733398 3357705.87133789 17.08530807 39 39 37
245660.84094238 3357707.07153320 18.64725304 218 234 247
245665.21270752 3357706.50274658 18.72596931 240 248 250
245658.78381348 3357707.25854492 16.90480423 56 64 66
245666.82690430 3357706.90185547 18.60276222 254 254 254
245664.68243408 3357705.43804932 18.20345879 54 58 57
245662.18560791 3357705.49847412 18.86621666 239 244 248
245668.73400879 3357706.73101807 18.61001587 249 250 252
245662.52203369 3357705.58398438 16.58903885 150 143 133
245668.76867676 3357705.50561523 18.70079041 255 255 255
245661.09857178 3357707.51232910 17.91034126 50 56 56
245665.92303467 3357707.41827393 18.18999672 196 200 201
245660.99230957 3357707.21069336 16.50446129 17 29 17
245664.35156250 3357707.24816895 17.14418030 107 118 114
245668.83331299 3357705.56866455 17.93902588 28 37 32
245661.75927734 3357706.70050049 18.76272202 220 235 242
245665.78210449 3357705.95037842 17.70528984 44 48 49
245667.85339355 3357707.44531250 18.46999168 226 227 222
245667.25433350 3357705.60540771 17.92080116 75 79 78
245665.84741211 3357706.01879883 16.78686714 110 108 109
245660.42901611 3357707.42944336 17.97646523 73 78 81
245668.06951904 3357706.00805664 16.92430496 31 30 26
245660.52294922 3357706.28137207 18.76934433 209 226 234
245657.34857178 3357707.24121094 16.82288361 67 73 73
245658.92291260 3357707.42779541 18.61941910 236 243 249
245664.42913818 3357707.36859131 18.41474533 207 224 234
245659.87164307 3357707.58398438 18.03579330 162 174 174
245671.36608887 3357705.84899902 17.21003723 164 159 155
245656.59533691 3357705.39953613 21.59022141 55 75 38
245673.20117188 3357705.19757080 16.22070885 209 197 183
245660.45867920 3357707.06488037 16.54372597 84 89 93
245659.39935303 3357707.43457031 17.88331985 88 96 98
245670.23046875 3357705.39636230 16.33797264 201 189 177
245664.04754639 3357705.46466064 18.27423286 99 105 103
245655.56469727 3357707.39019775 16.75104141 126 136 138
245671.25726318 3357705.28692627 18.54760742 179 183 184
245669.09063721 3357706.09490967 16.94514465 101 102 97
245662.23620605 3357705.50579834 16.49903297 173 168 164
245664.63665771 3357707.18768311 16.87434196 29 33 34
245672.79199219 3357705.65350342 18.43128586 176 188 186
245664.94683838 3357705.37078857 18.37215996 61 70 67
245663.47027588 3357706.33343506 18.82555580 222 233 239
245673.07586670 3357706.65148926 18.48061562 188 194 190
245672.08721924 3357705.47509766 16.26942253 213 202 184
245667.20343018 3357705.53619385 16.87439537 137 133 121
245664.54406738 3357705.40728760 18.78049088 253 255 254
245658.06072998 3357705.49249268 18.05852509 41 44 49
245672.81750488 3357705.99743652 18.23165131 112 121 128
245660.38293457 3357707.10510254 16.69311714 52 61 60
245670.54980469 3357705.91247559 16.70272064 33 32 30
245664.48406982 3357706.10919189 18.79296303 245 246 250
245655.84552002 3357706.78564453 18.88622093 204 224 233
245667.98370361 3357706.09509277 18.68607330 252 254 253
245669.20947266 3357707.47454834 18.43381119 84 89 83
245656.57501221 3357707.37182617 17.67962265 97 107 109
245655.78973389 3357706.67205811 18.92498589 204 223 237
245662.53210449 3357707.43048096 16.63467407 7 36 14
245658.49615479 3357706.38842773 18.80126190 201 224 238
245656.53912354 3357707.64733887 18.20417976 46 56 57
245671.39526367 3357706.57940674 18.92588043 255 254 250
245655.35223389 3357707.38555908 17.92819786 93 101 103
245656.50872803 3357705.29827881 18.58319664 138 134 125
245657.16088867 3357705.42944336 18.83704567 78 93 100
245667.58605957 3357706.70843506 18.62069893 251 253 252
245658.80169678 3357705.63787842 16.52177238 65 65 67
245672.46990967 3357705.49554443 18.38579750 208 210 207
245664.28100586 3357705.77392578 16.61330986 139 136 129
245657.42401123 3357705.54028320 18.23428917 11 16 19
245662.26110840 3357706.08782959 18.85770226 236 245 252
245671.39141846 3357705.34997559 18.63641357 254 254 255
245672.45269775 3357705.85040283 16.28610229 34 36 31
245670.45373535 3357705.63336182 17.79525375 123 129 127
245662.56573486 3357705.65509033 17.43288803 14 18 21
245666.48504639 3357707.48425293 18.16599846 34 44 46
245672.11706543 3357706.11242676 17.65008545 40 49 46
245659.27441406 3357707.41040039 18.04168510 92 98 98
245657.12225342 3357705.53344727 16.48449707 53 54 58
245656.20025635 3357707.60504150 18.48148918 227 231 232
245671.87762451 3357705.67767334 18.74123955 255 255 255
245663.94635010 3357707.31835938 17.80186081 67 72 75
245662.75451660 3357705.65002441 16.96278954 66 61 58
245666.03558350 3357705.37762451 16.39882660 199 190 175
245672.67456055 3357705.51586914 18.71562386 253 252 247
245665.01940918 3357706.89514160 18.61940384 226 241 248
245672.56170654 3357705.94311523 18.74121475 253 254 246
245661.87670898 3357707.38598633 16.57943153 20 43 25
245672.74121094 3357705.55053711 18.72318840 251 252 247
245668.08587646 3357705.73071289 18.71595955 255 255 255
245660.23718262 3357705.79028320 17.56572723 78 79 83
245658.01873779 3357706.37603760 18.79927826 198 221 235
245655.90301514 3357707.32324219 16.51143646 73 78 84
245668.03979492 3357706.97998047 18.57842636 251 253 252
245667.89727783 3357705.81182861 16.51841736 209 196 187
245660.74713135 3357707.11315918 17.48018456 80 84 85
245665.46502686 3357706.41662598 18.73719025 228 237 244
245660.02490234 3357706.94354248 18.73225403 219 236 246
245668.72619629 3357705.92315674 16.78786659 108 108 106
245669.48321533 3357706.11511230 18.70945168 255 255 255
245670.86535645 3357706.50512695 18.96232986 254 254 254
245667.08532715 3357707.04205322 18.55546951 254 254 254
245661.55682373 3357706.55688477 18.78196716 218 233 240
245659.59039307 3357705.71124268 17.54636383 49 54 60
245669.69555664 3357705.99310303 16.65416718 130 125 122
245662.70861816 3357705.52374268 17.78419876 36 42 40
245665.05950928 3357705.71569824 16.55843544 163 153 143
245658.83142090 3357707.26873779 17.33230591 169 188 192
245659.85845947 3357705.86645508 17.26476097 55 60 66
245662.35247803 3357705.45495605 16.45696068 205 195 183
245667.06365967 3357705.69177246 16.42806816 204 192 176
245663.92407227 3357705.46441650 17.89164352 98 104 104
245668.43566895 3357705.77313232 17.54732132 22 28 26
245661.28527832 3357705.92608643 16.77962685 58 57 53
245656.71075439 3357707.49688721 18.63646698 237 248 250
245668.44000244 3357705.86755371 18.71538734 254 254 254
245656.47479248 3357707.46374512 18.64511299 228 238 247
245673.08886719 3357706.83160400 18.54981422 206 212 210
245657.06988525 3357707.56909180 18.04664612 71 75 76
245660.76129150 3357705.52685547 18.12649345 22 22 22
245659.71826172 3357707.41772461 17.63986015 156 170 171
245660.90716553 3357705.71606445 17.71052170 26 26 28
245669.91870117 3357705.81103516 18.78565598 255 255 255
245659.71075439 3357707.38970947 17.42095947 176 190 190
245659.33813477 3357705.76727295 16.80610085 44 45 47
245665.23602295 3357707.33422852 18.38555908 231 240 245
245662.37628174 3357707.13238525 16.75981522 67 73 73
245664.98449707 3357706.93591309 16.56538391 24 27 32
245662.26110840 3357707.08264160 18.68390656 222 241 247
245664.41925049 3357707.41253662 18.38414001 199 216 226
245662.54705811 3357706.66137695 18.78397560 231 242 246
245656.32513428 3357707.61157227 16.49172974 57 64 70
245663.77380371 3357707.23992920 17.73561668 64 73 72
245662.55102539 3357705.63690186 16.74998474 112 104 101
245668.60217285 3357705.83172607 18.72193527 254 254 254
245657.91040039 3357707.58142090 16.40650177 55 58 65
245666.49084473 3357707.38140869 17.99399376 74 79 82
245669.04418945 3357705.62640381 16.37847710 90 73 57
245664.23358154 3357707.37536621 16.61528969 149 153 154
245660.21191406 3357707.55212402 18.43123817 219 230 234
245657.85107422 3357706.40203857 18.79146194 197 220 234
245659.20623779 3357705.69030762 16.46170044 139 140 142
245671.83074951 3357706.24719238 18.83743858 255 254 252
245657.53881836 3357707.32672119 17.55603981 71 77 77
245671.96081543 3357705.92871094 16.68861771 207 203 194
245668.15966797 3357705.45458984 18.04811096 60 71 65
245664.37762451 3357707.20178223 17.33152580 188 199 195
245657.28924561 3357706.83020020 18.73334885 205 229 241
