246099.91748047 3357552.66156006 12.97078037 191 198 214
246100.09875488 3357553.37298584 12.94371605 145 146 150
246098.18640137 3357553.97546387 13.16201878 170 172 171
246098.86083984 3357554.04223633 15.52163029 75 157 205
246098.39050293 3357553.54962158 15.14298916 128 128 128
246098.61791992 3357554.29400635 15.30197620 68 174 224
246098.46313477 3357554.06939697 13.13898277 181 183 182
246098.54553223 3357552.85949707 15.65870190 11 193 232
246098.69909668 3357553.63037109 13.03783989 189 191 190
246099.27905273 3357552.65789795 15.15282154 128 128 128
246099.29260254 3357554.50793457 12.98263073 158 161 166
246098.89733887 3357553.08526611 15.11395168 128 128 128
246097.93103027 3357552.39642334 15.25591087 24 175 232
246098.68200684 3357551.85351563 15.15526867 128 128 128
246099.38708496 3357553.63055420 15.58570290 175 123 161
246098.87243652 3357554.01739502 15.52911758 67 149 197
246098.76098633 3357554.04754639 15.50428772 51 145 196
246098.08435059 3357552.54278564 15.41603470 19 182 225
246099.30786133 3357552.56042480 15.16124630 128 128 128
246098.50915527 3357551.96075439 15.13699818 129 129 129
246099.08483887 3357552.33239746 15.61113071 64 199 244
246099.97021484 3357552.97686768 15.54765701 20 126 204
246098.53808594 3357553.07727051 15.11830330 128 128 128
246099.11132813 3357554.30468750 15.34259415 101 168 211
246098.25329590 3357554.67559814 13.04964828 177 177 175
246099.10766602 3357553.64984131 15.65191174 0 114 202
246098.93176270 3357552.45794678 15.62417126 12 180 242
246097.99963379 3357553.25964355 12.99373722 144 138 138
246099.57482910 3357553.68164063 12.93564701 177 178 182
246097.67089844 3357552.33740234 12.95012093 123 119 118
246100.21337891 3357552.81835938 15.25793839 57 157 216
246098.37744141 3357553.21630859 15.56366539 114 216 238
246098.22143555 3357552.36187744 15.40408325 99 214 245
246098.82849121 3357554.39685059 15.18151665 97 139 163
246100.21643066 3357553.41381836 12.93699455 129 129 131
246098.90429688 3357553.54016113 15.13175869 128 128 128
246098.85693359 3357552.31726074 15.53926659 128 222 248
246098.08703613 3357552.81072998 15.47104549 52 204 243
246098.34631348 3357553.90399170 13.11288548 180 180 180
246098.93908691 3357554.21582031 13.05818653 181 182 186
246098.08496094 3357553.72418213 15.33380127 193 247 255
246098.14147949 3357553.18518066 15.42759037 26 204 242
246099.14611816 3357554.34478760 15.31562042 113 175 214
246098.77465820 3357552.83892822 15.75409031 14 205 249
246098.43676758 3357552.46112061 13.01842308 255 255 253
246098.26489258 3357553.87713623 15.16517830 128 128 128
246098.38439941 3357552.84289551 12.99250603 165 161 158
246099.53320313 3357553.84771729 15.13710117 128 128 128
246098.43017578 3357554.01879883 15.17254829 128 128 128
246099.51538086 3357552.41333008 15.55624676 10 137 218
246098.16845703 3357553.06719971 12.97801018 186 185 183
246099.61303711 3357552.47442627 15.19781590 128 128 128
246100.04455566 3357552.43853760 15.31571484 18 115 186
246098.76708984 3357553.05535889 15.81040382 126 243 255
246098.62927246 3357552.58746338 15.59004402 226 196 222
246099.36584473 3357553.05297852 15.13452911 128 128 128
246099.37670898 3357552.63793945 15.67667103 6 162 221
246098.73229980 3357551.83410645 12.95276928 154 150 147
246099.94592285 3357552.52563477 15.42605782 65 132 187
246098.50378418 3357552.81622314 15.10857105 128 128 128
246098.28234863 3357553.04290771 12.98823643 172 171 169
246097.85095215 3357552.50213623 12.97219849 133 132 127
246098.21398926 3357554.08038330 15.24964428 163 207 216
246099.34313965 3357552.88330078 15.14351749 128 128 128
246097.71765137 3357553.20465088 13.00770283 243 239 238
246098.87829590 3357554.59893799 13.05846786 162 163 167
246098.09436035 3357553.83331299 13.11195374 163 163 163
246099.42260742 3357553.03881836 15.78621769 15 117 201
246099.48901367 3357553.01135254 15.75054646 9 120 202
246100.24060059 3357552.94342041 15.44916248 20 137 206
246098.80419922 3357554.03546143 13.07597637 189 190 192
246099.01879883 3357553.55505371 15.13069248 128 128 128
246099.44311523 3357553.56195068 15.12545490 128 128 128
246098.05151367 3357552.77630615 15.45540524 51 209 248
246099.97680664 3357554.32263184 13.00225449 176 177 179
246099.89453125 3357552.94042969 15.19152546 128 128 128
246100.08862305 3357553.31536865 12.95022583 149 150 152
246097.54760742 3357553.12048340 13.01744366 207 202 196
246099.24731445 3357553.07110596 13.00463009 206 206 204
246100.24023438 3357553.72113037 15.17212486 128 128 128
246099.95263672 3357553.31286621 15.56822968 31 135 206
246098.30053711 3357553.24725342 15.12801552 128 128 130
246099.49035645 3357552.27770996 15.20005512 128 128 126
246098.51525879 3357551.91491699 15.25755405 101 181 214
246098.40063477 3357552.88934326 15.11276150 128 128 128
246097.96752930 3357552.80657959 15.18203831 7 160 230
246099.29309082 3357552.18853760 15.55873108 0 132 197
246098.79443359 3357552.38665771 15.55187225 238 255 255
246099.49365234 3357554.18707275 15.15616608 129 127 128
246099.58544922 3357553.05871582 15.72315502 16 116 201
246100.15332031 3357553.54016113 15.46526051 49 157 219
246098.75378418 3357553.49011230 15.13189125 128 128 128
246098.45788574 3357552.59100342 15.10038567 128 128 128
246098.19775391 3357553.80004883 15.36138821 233 255 255
246099.04455566 3357553.97979736 15.15544987 128 128 128
246099.19238281 3357552.53570557 15.70756435 74 205 249
246100.21276855 3357553.32653809 15.49373913 38 148 211
246098.13952637 3357554.82000732 13.01389217 183 185 184
246099.52502441 3357553.74566650 12.93879986 175 176 180
246099.88525391 3357553.50878906 15.14662933 128 128 128
246097.97998047 3357552.27972412 15.11892700 64 164 224
246099.74597168 3357554.16156006 15.14559650 122 131 138
246098.89526367 3357552.24560547 15.51933765 24 179 235
246099.54858398 3357553.67150879 15.52226162 163 86 128
246099.12402344 3357551.87304688 15.19264603 117 132 137
246098.61328125 3357554.40698242 13.16368675 196 196 194
246098.86303711 3357553.53930664 15.71214485 66 163 234
246100.14440918 3357553.62707520 12.93933392 139 140 144
246099.28869629 3357552.39453125 15.62632847 9 153 226
246100.15295410 3357552.77752686 15.23293781 107 134 151
246098.13134766 3357552.20178223 15.30676651 47 178 234
246098.03198242 3357553.11071777 15.36209202 17 200 244
246099.43200684 3357552.20233154 15.19972706 128 128 126
246099.15063477 3357552.80798340 15.80368996 90 212 251
246099.47424316 3357552.38592529 12.99864101 98 97 102
246099.51110840 3357552.82531738 12.96945286 173 172 170
246099.22863770 3357553.64739990 12.99722481 176 177 181
246099.95544434 3357553.34716797 12.94928551 147 148 152
246099.32653809 3357554.48095703 12.97824478 158 161 166
246098.81298828 3357554.51220703 15.19972229 40 163 230
246098.84936523 3357553.43634033 15.75158119 13 143 221
246098.44335938 3357552.24975586 15.11354256 128 128 128
246098.48400879 3357553.07867432 15.11905956 128 128 128
246099.54711914 3357551.99859619 15.28764439 81 167 214
246097.74865723 3357552.63793945 12.98354912 121 116 113
246100.17919922 3357553.50592041 12.92997551 127 128 132
246098.64550781 3357554.27246094 15.38655663 63 175 225
246098.56909180 3357553.29333496 13.00417233 170 174 173
246099.80639648 3357553.61291504 15.49785519 64 130 188
246099.54272461 3357553.58380127 15.57242107 191 142 187
246098.95776367 3357552.26678467 15.54703903 35 190 247
246099.58166504 3357553.20562744 15.71164608 22 118 195
246097.78491211 3357553.24945068 13.00802326 235 229 229
246098.80578613 3357552.59552002 13.02221107 253 255 254
246098.42346191 3357552.50701904 15.09755707 128 128 128
246098.26489258 3357552.54406738 15.10106087 128 128 128
246098.50341797 3357553.76123047 13.05551720 182 183 185
246100.03454590 3357554.16363525 12.96211052 171 172 174
246098.85156250 3357552.67303467 15.69995785 3 181 245
246099.21777344 3357553.79571533 15.14053726 128 128 128
246099.33862305 3357554.35144043 15.28056908 65 175 210
246099.37670898 3357554.50878906 12.97079659 157 160 165
246100.06237793 3357553.00958252 15.20390224 128 128 128
246099.86486816 3357554.06982422 15.14202213 127 128 130
246098.96374512 3357554.08209229 15.48345947 66 156 206
246098.22326660 3357552.18756104 15.10033035 128 128 130
246099.79833984 3357552.31152344 13.02943230 86 85 91
246098.90478516 3357553.94891357 15.55434513 52 144 209
246098.98547363 3357552.85882568 15.83061600 5 169 232
246098.68835449 3357552.71356201 13.04207039 254 255 255
246098.74658203 3357553.93218994 15.15847683 128 128 128
246099.83972168 3357552.66198730 15.50578880 139 156 202
246098.75231934 3357554.70385742 13.05781746 172 173 175
246098.33581543 3357553.29376221 15.53140545 238 255 255
246098.07104492 3357552.61132813 15.42647743 35 203 248
246098.55883789 3357552.04357910 15.34111214 184 245 246
246098.00964355 3357552.92596436 15.15388107 8 155 225
246098.95373535 3357552.46435547 15.13972759 128 128 128
246098.88830566 3357552.69866943 13.04938030 145 144 149
246098.64880371 3357554.11364746 15.17805767 128 128 128
246098.85644531 3357554.17858887 15.46509361 102 173 215
246099.70080566 3357553.33007813 15.63158417 8 109 187
246097.67504883 3357552.54492188 12.98111629 97 91 93
246098.51293945 3357551.88757324 15.13476372 129 128 126
246097.95788574 3357552.43847656 15.31153774 40 189 232
246099.59436035 3357553.05279541 12.97261333 181 181 181
246099.16784668 3357553.22143555 15.11575127 128 128 128
246098.86791992 3357554.41424561 13.07550240 164 168 171
246098.43701172 3357553.90222168 13.10401344 179 181 180
246098.34399414 3357553.43341064 12.99045658 173 173 173
246100.35632324 3357554.25433350 13.03815842 134 139 143
246098.34301758 3357554.06121826 15.17890835 128 128 128
246100.20361328 3357554.12512207 12.97367859 139 143 146
246098.38330078 3357554.15240479 15.20693016 184 203 209
246098.70495605 3357552.41979980 13.00742245 211 209 212
246099.39636230 3357552.26794434 12.98503685 126 125 131
246098.80737305 3357554.39697266 13.09142876 169 170 174
246098.68408203 3357554.07427979 15.17311668 128 128 128
246098.90429688 3357553.03314209 15.92035675 95 231 247
246098.65222168 3357553.69903564 13.04027176 186 187 189
246098.86865234 3357552.26257324 12.98165035 166 165 161
246099.85620117 3357554.21838379 12.95123768 176 177 181
246098.11437988 3357553.27850342 15.13250732 121 131 133
246098.67065430 3357552.07733154 15.14219856 128 128 128
246099.99047852 3357552.51385498 15.23462009 128 128 130
246098.42077637 3357553.49108887 15.53964615 247 87 121
246099.43103027 3357551.81915283 15.26120472 112 173 201
246097.97924805 3357552.35559082 15.12614059 18 147 215
246099.81726074 3357554.21990967 15.22342110 160 205 234
246098.68884277 3357553.20977783 15.12151337 128 128 128
246097.99145508 3357554.11907959 13.23590279 187 186 184
246098.88220215 3357553.30120850 15.82089424 4 147 225
246099.30981445 3357554.02758789 15.15495682 128 128 128
246100.21801758 3357553.14221191 15.21375656 121 128 134
246098.48730469 3357551.99188232 15.13332272 128 128 128
246098.04003906 3357553.52722168 15.33882141 198 247 255
246098.53015137 3357552.16748047 12.98098660 190 185 182
246097.94116211 3357552.88989258 15.21820545 7 169 231
246098.96447754 3357554.18945313 15.17923832 127 129 128
246099.15930176 3357551.89007568 15.19505787 118 131 137
246098.99597168 3357553.41723633 13.03104305 190 192 189
246099.47485352 3357553.75732422 15.50368118 170 135 168
246098.90856934 3357552.38311768 12.99462318 158 158 156
246100.05615234 3357553.54559326 12.94548702 139 143 146
246099.68835449 3357552.42761230 13.00975323 149 148 146
246100.18359375 3357553.73211670 15.32649803 88 172 216
246099.47973633 3357553.83551025 15.47125530 156 159 194
246098.73693848 3357552.67919922 13.02873707 254 255 255
246099.37536621 3357552.39428711 15.59704685 6 148 222
246098.14794922 3357552.41662598 12.99141026 162 159 154
246099.69531250 3357553.05255127 12.96063709 180 179 177
246098.03051758 3357553.76898193 13.09692955 157 157 155
246097.95166016 3357554.80456543 13.04754543 176 178 177
246099.81787109 3357552.90393066 12.95937347 206 204 205
246099.18322754 3357551.86022949 15.20501137 156 190 202
246098.34912109 3357554.77691650 13.02943897 185 185 183
246100.50500488 3357553.45965576 15.26779747 72 166 217
246098.62658691 3357553.55700684 15.13852978 128 128 128
246098.42651367 3357552.95391846 15.60571003 108 234 246
246098.58874512 3357552.44201660 15.50983715 243 193 220
246098.47265625 3357554.11657715 15.18207932 127 128 130
246098.01428223 3357553.16900635 15.30541992 10 194 244
246099.28112793 3357552.25500488 15.17971325 128 128 128
246098.28222656 3357552.18554688 15.10505009 128 128 128
246098.73010254 3357553.86138916 15.15458393 128 128 128
246098.09863281 3357553.60211182 13.03577900 152 154 151
246097.98559570 3357552.45806885 12.97823143 151 150 145
246099.53039551 3357552.16320801 15.45985603 23 138 218
246098.87731934 3357552.35241699 15.14087105 128 128 128
246099.13232422 3357553.14422607 15.94858265 1 74 153
246099.37207031 3357552.42852783 15.61078072 8 152 225
246099.08496094 3357553.10278320 13.01993275 193 192 190
246098.98742676 3357552.63964844 15.13123512 128 128 128
246099.98449707 3357554.37005615 13.03341007 173 177 180
246099.49267578 3357553.25134277 15.13183212 128 128 128
246098.53063965 3357553.26300049 15.63836861 43 192 232
246098.27209473 3357553.69427490 15.15409565 128 128 128
246099.89624023 3357552.38702393 15.40649319 98 169 221
246100.20092773 3357552.99371338 12.99726963 121 119 122
246098.62792969 3357554.26452637 15.37842464 64 178 228
246099.01611328 3357552.92767334 15.11519909 128 128 128
246100.00854492 3357552.88116455 15.20813847 128 128 128
246098.53674316 3357554.22900391 15.27448177 105 184 217
246099.86718750 3357552.87158203 15.19396114 128 128 128
246099.84558105 3357553.08789063 15.17496681 128 128 128
246098.95654297 3357554.22357178 15.17897987 128 128 128
246098.39392090 3357553.23577881 15.12635612 128 128 128
246099.97460938 3357552.61962891 12.98199272 172 178 194
246098.95849609 3357553.14868164 15.95366001 19 149 198
246099.28894043 3357554.40600586 12.98464489 165 168 173
246099.84606934 3357552.25854492 15.26074886 62 141 200
246099.27429199 3357552.08013916 12.96536446 154 154 156
246099.86218262 3357553.75115967 15.43891239 56 133 187
246098.58471680 3357553.26574707 15.67660713 49 207 246
246098.57946777 3357552.71899414 13.01226521 255 255 253
246099.71105957 3357553.11730957 15.15848923 128 128 128
246099.13098145 3357553.23413086 15.11672497 128 128 128
246097.82629395 3357553.99993896 13.27842999 191 190 188
246098.54309082 3357553.94085693 15.45963287 36 186 237
246099.27917480 3357552.10308838 12.96846199 148 148 150
246097.99401855 3357553.56445313 15.14809036 128 128 128
246099.27783203 3357553.18579102 15.85371208 5 77 162
246098.01147461 3357553.51403809 15.14577007 128 128 128
246099.35083008 3357551.71697998 15.42939758 95 190 238
246099.64416504 3357554.08117676 15.34056187 111 172 219
246099.03955078 3357552.65112305 15.13456726 128 128 128
246098.71923828 3357552.59594727 15.11309147 128 128 128
246099.40380859 3357553.80999756 15.13753033 128 128 128
246099.54357910 3357553.98553467 12.93375683 170 171 176
246098.49963379 3357552.72625732 15.10511780 128 128 128
246098.06323242 3357554.35278320 13.16871071 172 171 169
246099.40112305 3357553.84942627 15.48261166 158 171 203
246099.05407715 3357552.56280518 13.01468086 175 174 172
246098.72668457 3357553.97888184 15.51646423 32 152 215
246098.87988281 3357554.62182617 13.05108547 158 159 163
246099.23889160 3357553.41809082 12.99902725 182 184 183
246098.28625488 3357553.19580078 12.98529053 173 173 173
246099.07421875 3357552.04833984 15.47409248 98 211 241
246098.12207031 3357552.16760254 15.09370422 129 127 128
246098.21801758 3357553.17059326 15.12609768 129 127 128
246100.25988770 3357553.52636719 12.92382336 128 129 133
246098.28820801 3357552.46588135 15.09771061 129 128 126
246099.77514648 3357552.90264893 15.18184376 128 128 128
246099.97717285 3357552.95690918 15.53928185 22 125 204
246098.57495117 3357552.85693359 15.67524338 8 194 235
246099.48339844 3357553.34167480 12.95449734 167 172 175
246098.87500000 3357551.87841797 15.17075253 128 128 128
246098.55444336 3357553.64501953 15.14528751 128 128 128
246100.08959961 3357553.93902588 15.25321770 78 167 211
246098.88378906 3357553.86535645 15.60274887 23 121 186
246098.45397949 3357553.96173096 13.12033463 179 181 180
246100.33593750 3357553.09716797 15.38936043 35 147 211
246099.04516602 3357554.23406982 13.03540611 163 164 168
246098.11621094 3357553.25762939 15.40791035 25 192 244
246099.14282227 3357552.37030029 15.64315510 79 207 254
246099.77600098 3357552.47363281 15.47937965 149 186 231
246098.89965820 3357553.41259766 15.12668610 128 128 128
246099.44018555 3357552.84515381 15.15350151 128 128 128
246099.04724121 3357554.24755859 15.38344002 93 165 215
246099.75463867 3357553.19110107 12.96590424 163 163 163
246098.53381348 3357553.97003174 15.16516399 128 128 128
246100.12463379 3357553.13403320 15.52246189 20 130 207
246097.94543457 3357552.57971191 15.32427406 18 188 239
246099.96337891 3357553.58319092 15.49330044 42 141 208
246099.52978516 3357554.02703857 12.93665600 170 171 176
246098.43652344 3357552.24267578 15.39966965 232 244 232
246098.29003906 3357554.11883545 15.24419403 200 214 214
246099.39331055 3357552.40441895 15.18001842 128 128 128
246098.65112305 3357552.58923340 13.01548004 254 254 254
246099.81945801 3357554.31707764 12.96144962 170 171 176
246097.88574219 3357553.86688232 13.20115852 145 145 143
246099.28637695 3357551.86749268 15.47000217 115 221 245
246099.58776855 3357553.45391846 15.61741829 5 108 185
246100.33789063 3357553.60858154 15.30242157 89 176 219
246100.38073730 3357553.62524414 15.26163673 102 187 228
246098.24023438 3357552.19128418 15.33005810 76 174 199
246098.27795410 3357552.63580322 15.10446835 129 128 126
246098.30249023 3357552.95318604 12.98751163 182 181 179
246099.29882813 3357553.59234619 12.98443699 179 180 184
246098.24670410 3357551.97381592 15.17770958 184 200 200
246099.06530762 3357553.12255859 13.02119350 193 192 188
246098.28942871 3357552.46600342 13.01424408 244 242 243
246099.56445313 3357553.60418701 12.93804455 176 177 181
246098.19873047 3357553.16241455 15.47532368 47 211 246
246098.00585938 3357552.61181641 15.40285015 22 194 240
246098.86181641 3357553.74487305 15.14488316 128 128 128
246099.33386230 3357551.88555908 15.48193741 68 177 218
246098.12304688 3357553.02789307 12.97917080 205 204 200
246098.45898438 3357552.19940186 15.38605499 245 255 240
246098.30932617 3357552.94207764 15.11600208 128 128 128
246098.36901855 3357554.15435791 15.21833706 210 211 206
246099.27551270 3357551.87988281 15.47134495 116 220 245
246099.01452637 3357553.40240479 15.80366421 23 86 157
246099.50744629 3357553.37341309 15.68964100 0 99 181
246099.56628418 3357553.25451660 12.95024681 169 170 172
246099.72265625 3357553.47174072 15.13579178 128 128 128
246100.40905762 3357554.22064209 13.02733231 115 120 124
246099.23022461 3357553.92175293 15.49039555 67 143 192
246100.22253418 3357553.84478760 15.22429276 135 170 210
246099.45153809 3357553.93548584 15.14404202 128 128 128
246098.49108887 3357552.77624512 15.61225986 11 190 230
246098.40893555 3357553.57226563 15.51273346 252 82 111
246100.29052734 3357553.50201416 15.19598293 128 128 128
246098.21826172 3357552.85906982 12.98890591 148 147 143
246097.94604492 3357552.93560791 15.22153473 13 177 238
246099.43542480 3357552.60168457 15.64463520 9 143 204
246098.40356445 3357552.91436768 15.58653164 82 227 248
246099.01501465 3357552.17065430 15.16313744 128 128 128
246100.24328613 3357553.75720215 15.26846600 111 180 222
246098.75781250 3357552.30834961 15.50610638 243 255 255
246100.28625488 3357553.40307617 15.44353485 54 163 219
246098.64062500 3357554.22100830 13.14285469 206 208 207
246098.62231445 3357552.31292725 15.46898174 209 227 237
246098.69934082 3357551.88659668 15.30469131 154 221 240
246099.47668457 3357553.55853271 15.12488461 128 128 128
246099.78125000 3357553.67492676 15.47942638 85 136 191
246100.04968262 3357553.03485107 15.54278564 20 133 211
246100.17236328 3357553.11145020 15.50640869 22 133 205
246099.97631836 3357552.37493896 15.25102043 94 148 186
246099.07006836 3357553.23712158 13.01656342 203 202 200
246098.39465332 3357553.55010986 15.14293098 128 128 128
246100.10449219 3357552.97558594 15.50798035 23 137 210
246098.43627930 3357554.12011719 15.33875561 83 196 228
246098.31250000 3357554.10632324 13.16100311 182 182 182
246099.81567383 3357552.80651855 12.95894718 209 208 206
246097.57226563 3357553.01123047 13.00098038 201 196 192
246098.56884766 3357553.80572510 15.15460300 128 128 128
246097.88793945 3357552.29199219 12.96342373 195 194 190
246099.13330078 3357553.25244141 15.11740971 128 128 128
246099.48974609 3357552.68969727 15.16815662 128 128 128
246097.68933105 3357553.62817383 13.18112183 34 36 35
246098.48156738 3357553.90466309 15.44832706 33 189 248
246100.01672363 3357552.63934326 15.22769928 128 128 128
246098.73120117 3357551.97094727 12.95287514 164 163 159
246099.87463379 3357553.70886230 15.45391655 56 133 187
246099.26928711 3357553.29663086 15.82144260 0 76 164
246098.47204590 3357552.71948242 15.58635998 45 185 221
246098.01928711 3357552.62451172 15.12022018 30 146 203
246098.40515137 3357553.46545410 12.99562359 177 181 180
246098.94934082 3357552.00683594 15.16840267 128 128 128
246098.14294434 3357554.61297607 13.07041645 181 183 180
246099.38903809 3357553.92388916 15.45533562 112 149 191
246098.04980469 3357552.89947510 15.12193108 53 144 189
246098.46240234 3357554.03570557 15.39809322 52 190 236
246098.60913086 3357553.91363525 15.49348640 25 178 236
246098.62988281 3357553.31280518 15.12629700 128 128 128
246099.36279297 3357553.26391602 15.12090778 128 128 128
246099.86987305 3357553.27252197 12.95910454 161 162 166
246100.35412598 3357553.11505127 15.27448750 55 148 205
246098.90478516 3357554.62780762 13.04418373 159 160 164
246099.29309082 3357552.78259277 15.75222015 17 180 237
246098.58996582 3357553.57775879 13.02300072 194 196 195
246099.82092285 3357553.06121826 15.62468052 22 126 213
246098.61914063 3357552.33776855 13.00065231 237 237 235
246098.42993164 3357553.48394775 15.54547596 247 87 121
246098.62792969 3357553.15783691 15.72389317 98 230 253
246099.73425293 3357553.19744873 12.96522713 160 161 163
246099.58544922 3357553.32238770 15.13456440 128 128 128
246099.79211426 3357552.80993652 15.19079208 128 128 128
246099.33020020 3357552.72204590 15.15273571 128 128 128
246098.55920410 3357552.33245850 15.11733150 128 128 128
246098.28271484 3357553.73999023 15.15660858 128 128 128
246099.31909180 3357552.05865479 15.19890213 129 127 128
246097.70861816 3357553.69708252 13.21018696 29 31 30
246100.28674316 3357553.55377197 15.19145870 129 129 129
246098.70019531 3357554.46087646 13.12434673 174 174 176
246099.67602539 3357552.79327393 15.61084938 190 156 181
246099.33666992 3357554.31518555 15.30013275 63 173 210
246098.93725586 3357554.20532227 15.42385674 93 167 212
246100.19641113 3357553.54748535 12.92993355 128 129 133
246099.83264160 3357552.51904297 15.46916103 59 95 157
246100.16467285 3357553.21118164 12.96170998 150 150 152
246097.88769531 3357552.42474365 12.96974277 138 135 130
246098.82690430 3357554.08325195 15.51291943 95 176 219
246100.01513672 3357553.32238770 15.55246067 35 139 212
246098.49633789 3357552.90576172 15.63859749 85 238 255
246099.41711426 3357553.19641113 15.78798676 6 87 168
246098.30358887 3357553.85540771 15.39135551 33 177 227
246098.79455566 3357553.34179688 15.12528896 128 128 128
246099.19287109 3357553.89025879 15.51107597 61 141 192
246099.07812500 3357552.99365234 13.02035809 170 169 167
246098.99072266 3357552.27337646 15.15472031 128 128 128
246099.99023438 3357554.09698486 15.16158581 133 165 188
246099.83312988 3357553.51190186 15.14185619 128 128 128
246098.94348145 3357551.94335938 15.39731789 91 205 239
246099.51928711 3357553.43634033 15.12217522 128 128 128
246098.31030273 3357552.34185791 15.41480541 101 189 213
246099.73742676 3357553.24145508 15.63582325 32 128 212
246098.57458496 3357551.92260742 15.28531551 94 185 229
246100.18542480 3357553.77679443 12.94671059 132 136 139
246099.34118652 3357552.76373291 12.98752308 147 148 150
246099.78833008 3357553.39184570 15.58420181 17 124 196
246099.84619141 3357553.67266846 15.47063446 62 131 186
246100.45166016 3357553.76977539 12.92150211 103 108 112
246097.98205566 3357552.15594482 15.11498260 167 227 255
246099.08020020 3357551.90667725 12.94726086 160 160 160
246097.78173828 3357552.99243164 12.98038673 54 39 42
246098.33862305 3357552.87866211 15.11314774 129 127 128
246099.13964844 3357553.89489746 12.98842907 176 177 181
246099.96435547 3357553.35595703 12.94815445 146 147 151
246099.00573730 3357552.13403320 12.96741486 152 152 152
246098.88256836 3357552.30279541 12.98598099 167 167 165
246098.50415039 3357553.38873291 15.60280132 222 255 255
246098.41430664 3357554.44024658 13.14370251 189 190 185
246098.95629883 3357554.00360107 15.51656151 62 148 207
246099.15588379 3357551.80102539 15.40592289 112 202 236
246098.83044434 3357554.24224854 15.45486641 116 179 222
246098.52160645 3357553.23431396 15.12464142 128 128 128
246097.92468262 3357552.26672363 15.18617725 48 158 219
246098.18029785 3357553.17718506 15.12684250 128 128 128
246098.44372559 3357553.42816162 15.56639767 212 114 137
246099.07055664 3357552.37536621 15.15448475 128 128 128
246099.63452148 3357552.97192383 12.96276569 187 186 184
246098.09936523 3357553.23437500 12.98365784 177 173 174
246100.07202148 3357553.94824219 15.25927544 75 162 205
246098.92858887 3357553.94000244 13.04323101 183 184 186
246098.87500000 3357553.39331055 13.03074551 187 186 184
246098.70642090 3357553.21466064 13.01578140 146 148 147
246098.05541992 3357553.41131592 13.00320244 153 151 152
246098.70825195 3357553.79949951 13.05497265 182 183 185
246099.45935059 3357553.38934326 15.70156002 0 98 181
246098.82250977 3357552.97631836 13.04809570 156 151 155
246098.97045898 3357552.14801025 12.96900845 143 143 143
246100.34130859 3357553.43719482 15.21206856 100 149 189
246097.52514648 3357553.06512451 13.01340294 225 222 215
246097.77368164 3357553.59875488 13.11081791 81 80 78
246099.05822754 3357554.59478760 13.02339172 157 158 162
246098.48376465 3357553.86083984 13.08727455 183 184 186
246099.22448730 3357554.55090332 12.99158287 150 153 158
246098.15356445 3357553.56152344 13.02085972 159 159 159
246099.60253906 3357553.88287354 15.13776016 128 128 128
246099.28930664 3357553.33392334 15.79220104 1 83 169
246098.19226074 3357553.75079346 15.15913200 128 128 128
246099.50280762 3357553.19903564 15.13594341 128 128 128
246098.26000977 3357553.55529785 15.45284081 251 254 255
246098.98828125 3357553.73132324 15.14144802 128 128 128
246098.25231934 3357552.23413086 15.35531712 184 255 255
246100.21594238 3357554.32177734 13.03644657 161 166 169
246097.89074707 3357553.63293457 13.06700039 144 143 141
246098.88818359 3357552.04321289 15.42483997 66 202 244
246098.50988770 3357554.68151855 13.07375431 184 185 179
246099.23852539 3357552.29052734 12.98856354 139 139 141
246099.54479980 3357552.72137451 12.96929932 179 178 176
246099.81835938 3357554.19757080 12.94278812 174 175 180
246098.99475098 3357552.49609375 13.00667858 156 156 154
246098.42675781 3357552.31158447 12.99231720 173 170 165
246099.67663574 3357553.61065674 15.52160931 127 140 195
246100.03063965 3357552.94183350 15.20578480 128 128 128
246097.64843750 3357552.48858643 12.97432995 97 88 91
246099.05615234 3357554.19897461 15.40775585 79 161 209
246099.31420898 3357551.74896240 15.24878979 115 182 209
246099.48535156 3357552.41656494 13.00119591 91 90 96
246099.15258789 3357553.16247559 13.01077366 201 201 201
246099.19152832 3357552.59875488 15.72778130 94 214 251
246097.86486816 3357553.95861816 13.24661732 175 174 172
246099.28417969 3357552.85778809 15.77954102 5 164 230
246099.16271973 3357552.55273438 13.00561428 158 156 157
246098.95629883 3357554.04589844 13.04465294 179 180 184
246099.39843750 3357554.20574951 12.96381283 160 163 168
246098.04956055 3357552.33740234 15.09579659 106 135 151
246098.63720703 3357553.51721191 13.02140236 189 191 190
246100.11926270 3357552.81646729 15.22527313 128 128 126
246099.14111328 3357554.20507813 13.01221752 163 164 168
246099.46325684 3357553.40997314 12.95632267 163 167 170
246099.16308594 3357552.24420166 15.58701897 95 219 253
246099.31323242 3357553.52593994 12.98373890 171 175 178
246098.12963867 3357554.37646484 13.14848328 180 179 177
246099.49060059 3357554.02209473 12.94116783 166 169 174
246099.47631836 3357553.00537109 12.98362446 187 187 185
246099.23559570 3357554.04217529 12.96256638 162 163 167
246099.01306152 3357554.44500732 15.29622746 147 192 221
246097.53271484 3357553.19146729 13.02800369 181 174 166
246099.59252930 3357553.02593994 15.15391922 128 128 128
246098.78295898 3357553.87915039 13.06933212 183 184 186
246099.66406250 3357552.35430908 15.21248531 127 129 128
246097.62219238 3357553.09259033 13.00481796 163 160 155
246099.72387695 3357552.23352051 15.39880180 26 132 208
246097.93505859 3357552.94458008 12.98013210 164 160 157
246099.49609375 3357553.50708008 15.62903500 47 105 178
246098.00744629 3357553.03424072 15.31727982 7 189 237
246099.85131836 3357553.74615479 15.12841511 128 128 128
246098.33337402 3357552.75769043 15.10850143 129 127 128
246098.20141602 3357553.38049316 15.44638252 203 223 224
246099.49353027 3357553.26971436 15.13073826 128 128 128
246098.59216309 3357552.90222168 15.11077690 128 128 128
246098.60681152 3357551.89440918 15.27384472 113 190 220
246099.02685547 3357553.63867188 15.67962265 5 114 196
246098.58996582 3357554.07598877 15.42411900 55 182 225
246098.50769043 3357552.20489502 15.12140369 128 128 128
246099.57116699 3357554.12243652 15.15391827 128 128 128
246098.15087891 3357554.47149658 13.11589432 181 181 179
246099.68701172 3357552.12078857 15.28303719 66 149 203
246099.62768555 3357553.57696533 15.54268551 138 145 200
246099.09045410 3357554.49664307 13.02023029 161 162 166
246099.47998047 3357552.30755615 15.52995682 12 138 222
246099.73461914 3357554.07427979 15.14763260 128 128 128
246098.70898438 3357553.73681641 15.58911991 16 167 238
246099.20153809 3357551.76324463 15.22597313 134 192 212
246099.35766602 3357552.17449951 12.97842407 123 123 125
246100.06555176 3357553.76110840 12.93586349 143 146 151
246099.28479004 3357552.47985840 15.65755463 22 160 222
246098.62255859 3357553.97711182 13.10369682 183 185 184
246098.82360840 3357552.23107910 12.97834110 158 158 156
246098.16809082 3357552.52246094 13.00828648 179 175 174
246099.55322266 3357553.99816895 12.93299484 173 174 179
246098.98315430 3357554.49542236 13.04745770 163 167 170
246097.97021484 3357552.32934570 15.30049706 39 181 227
246099.56811523 3357553.24096680 12.95331097 169 170 172
246099.85400391 3357553.72442627 15.12999916 128 128 128
246099.06750488 3357552.41656494 12.99854088 149 149 147
246098.72851563 3357553.30407715 13.01454258 162 164 161
246100.23278809 3357553.21661377 12.96499825 137 135 138
246098.04016113 3357552.34295654 12.97457886 167 164 157
246099.04650879 3357553.15173340 15.11460781 128 128 128
246100.14746094 3357553.54815674 12.93542004 129 130 134
246098.69006348 3357552.39923096 13.00530815 221 221 221
246099.25329590 3357553.98223877 15.46113682 76 149 202
246097.91442871 3357552.61193848 12.98184586 153 152 150
246098.34545898 3357553.98052979 13.13596344 181 181 181
246099.35461426 3357552.66229248 15.15842819 128 128 128
246099.77758789 3357552.77301025 15.19210815 128 128 128
246100.19555664 3357552.95855713 13.00233841 117 115 118
246098.37548828 3357553.64965820 15.47762585 234 116 132
246097.90405273 3357552.92443848 12.98059940 142 141 137
246099.26928711 3357552.51617432 15.67463017 22 158 216
246100.05358887 3357553.01959229 12.97575188 145 147 144
246098.84155273 3357552.73516846 13.05890083 222 223 228
246098.99353027 3357554.37622070 15.17466927 127 129 128
246098.37500000 3357553.58941650 15.49367523 235 114 133
246099.10302734 3357554.31542969 13.02169228 171 172 176
246099.22802734 3357552.06152344 15.52400589 110 219 248
246098.38146973 3357553.23858643 12.99170971 175 175 175
246099.43859863 3357553.84680176 15.47558117 159 165 199
246097.96325684 3357553.46990967 15.26596355 25 177 240
246097.71899414 3357552.97314453 12.98252773 117 105 107
246099.03454590 3357552.01214600 15.44918346 93 212 246
246097.62268066 3357553.33001709 13.06342602 140 135 129
246099.70642090 3357553.04010010 12.95853043 183 182 180
246098.32507324 3357554.62823486 13.07073975 181 180 176
246099.16674805 3357552.36389160 12.99505234 142 142 142
246098.15917969 3357552.87731934 12.98705578 143 144 139
246099.65258789 3357553.02716064 15.68606377 15 117 199
246099.02490234 3357554.17687988 13.03670502 172 173 177
246098.35705566 3357552.77575684 15.54215813 18 206 251
246099.69055176 3357553.08496094 12.96322823 178 178 176
246099.49987793 3357553.19171143 15.13617897 128 128 128
246099.55310059 3357552.89666748 12.96769238 198 198 196
246098.94128418 3357552.66485596 15.72199631 7 177 238
246099.55078125 3357553.04827881 15.14924622 128 128 128
246099.11181641 3357552.67706299 15.76936531 113 238 255
246100.05468750 3357553.36145020 12.94582272 149 150 152
246098.52294922 3357552.14990234 15.12608242 128 128 128
246098.20263672 3357553.38958740 15.13731575 128 128 128
246098.19042969 3357552.59252930 15.45825577 48 207 247
246099.16467285 3357553.45300293 15.12481976 128 128 128
246098.92541504 3357552.67877197 13.03529358 128 127 132
246099.09460449 3357552.25762939 15.57730389 71 203 251
246099.19165039 3357551.91259766 15.45876503 110 208 237
246099.42199707 3357553.43774414 15.12088585 128 128 128
246098.37866211 3357554.19012451 13.16625404 195 195 193
246097.88549805 3357552.63110352 12.98065090 140 141 136
246098.24645996 3357552.44348145 15.43437195 28 175 218
246099.84521484 3357554.11248779 12.93140030 164 165 170
246097.82226563 3357552.98437500 12.97679043 42 27 30
246098.79284668 3357553.06732178 13.03618908 148 142 144
246099.86413574 3357553.08227539 15.17735863 128 128 128
246100.24951172 3357553.55017090 15.18659878 128 128 126
246100.21887207 3357552.81262207 15.28188896 47 153 215
246099.14147949 3357553.83190918 15.54967976 35 130 198
246099.06494141 3357554.39776611 15.30079079 143 189 225
246100.06945801 3357553.92388916 15.13415051 128 128 128
246099.21337891 3357553.54003906 15.12758255 128 128 128
246099.98522949 3357553.23510742 15.17833519 128 128 128
246098.97412109 3357551.93066406 15.40164280 93 206 240
246099.22009277 3357554.54455566 12.99229431 150 153 158
246098.19177246 3357553.29351807 15.45372772 141 216 235
246100.29760742 3357553.28332520 12.95868111 131 131 133
246099.49682617 3357553.52960205 15.61773109 47 105 178
246099.26403809 3357552.70703125 12.99437904 164 162 165
246099.11474609 3357552.33551025 15.16045475 128 128 128
246098.68847656 3357552.06396484 15.37901974 53 193 220
246098.23669434 3357552.69805908 12.99440002 137 138 133
246099.66345215 3357554.08959961 15.33427811 92 159 202
246098.91406250 3357551.79486084 15.31525230 145 214 230
246097.93884277 3357552.20104980 12.97018623 205 204 199
246098.98425293 3357553.93707275 13.03381538 181 182 186
246098.98803711 3357551.74871826 15.19887733 192 229 238
246099.69067383 3357553.92291260 12.92082882 167 168 173
246098.22009277 3357552.81079102 15.50881672 50 209 241
246100.26208496 3357553.81799316 15.16767979 154 172 210
246097.95129395 3357552.93859863 15.29076767 7 184 234
246099.21325684 3357554.32794189 15.16592598 128 128 130
246098.34045410 3357552.98492432 12.99240685 174 173 171
246100.07666016 3357553.25238037 12.95736217 150 151 153
246099.76562500 3357552.30932617 13.02913380 87 86 94
246100.42065430 3357553.23120117 15.32634258 50 149 204
246098.51428223 3357553.87121582 15.15964985 128 128 128
246098.85131836 3357554.36352539 15.40153980 114 171 214
246100.41381836 3357554.26538086 13.04421616 126 131 135
246098.94384766 3357554.24285889 15.40286636 102 170 215
246098.74023438 3357551.82171631 12.95263290 151 147 144
246099.29345703 3357552.90496826 15.79155064 0 142 214
246098.07702637 3357553.23254395 15.13053322 59 155 195
246098.81970215 3357552.17828369 15.14741707 128 128 128
246099.75915527 3357552.73474121 15.55946732 255 252 255
246099.97167969 3357552.43371582 15.38925552 142 215 250
246098.23937988 3357551.97778320 15.17728519 184 200 200
246099.48864746 3357551.95379639 15.42692661 18 144 218
246100.02172852 3357552.70184326 15.22338963 128 128 126
246098.79040527 3357553.06500244 13.03617001 155 149 153
246098.85229492 3357552.67944336 13.03328419 182 183 187
246099.93066406 3357552.89569092 15.19879341 128 128 128
246099.01745605 3357552.36779785 15.15082359 128 128 128
