246097.24157715 3357340.10647583 15.17687798 150 153 160
246094.73767090 3357341.44903564 16.06072235 244 244 252
246100.18200684 3357333.65698242 15.01719379 68 78 43
246097.34716797 3357337.26470947 15.14138508 222 221 226
246096.32275391 3357341.51953125 15.92584419 184 185 189
246097.48083496 3357343.33154297 15.01807213 200 180 189
246097.44958496 3357341.90789795 15.21429539 47 50 55
246097.36535645 3357336.93640137 15.16161633 234 233 238
246099.20019531 3357331.19958496 20.64008141 247 248 253
246097.77490234 3357332.78286743 14.91516495 112 110 115
246100.15063477 3357332.82217407 20.13098717 139 147 149
246096.75268555 3357341.34844971 15.16972160 98 103 109
246097.47399902 3357342.58010864 15.11850834 87 88 92
246095.31213379 3357341.70132446 14.96633244 75 82 92
246097.24462891 3357339.04550171 15.09423351 97 101 104
246095.86975098 3357341.44250488 14.98635006 113 117 128
246097.43188477 3357336.13613892 15.12240028 90 90 90
246096.87402344 3357341.25894165 15.33900833 109 112 117
246100.42492676 3357333.89196777 18.95603752 225 221 196
246097.41650391 3357342.77777100 15.05873966 139 135 136
246099.81005859 3357333.09143066 20.42132187 115 129 96
246100.27673340 3357333.45480347 15.00369549 98 109 67
246096.50866699 3357341.36199951 15.60391426 107 110 119
246097.22290039 3357339.58508301 15.05761623 82 83 85
246100.39270020 3357333.93957520 15.10348511 164 169 137
246100.39648438 3357333.47491455 20.19124603 205 210 206
246094.66784668 3357341.80972290 14.97308922 82 92 102
246097.41516113 3357336.24172974 15.13940907 111 110 115
246095.33776855 3357341.41720581 15.92349529 139 138 143
246097.33032227 3357341.40957642 15.27930260 238 237 243
246097.44555664 3357336.71057129 15.02078438 28 33 37
246097.48327637 3357340.64105225 15.10352421 87 92 98
246095.56311035 3357341.55072021 15.93319321 126 129 138
246098.56591797 3357331.98501587 14.84152508 142 141 147
246097.60083008 3357341.84039307 15.13350868 60 67 75
246097.57055664 3357340.65130615 15.09538555 73 77 86
246100.51379395 3357333.83303833 17.91183662 126 124 125
246100.45043945 3357333.87731934 19.62167358 199 200 202
246100.45312500 3357333.88940430 18.70002747 189 190 133
246096.57873535 3357341.39242554 15.06578159 110 114 123
246095.41137695 3357341.41696167 15.90876675 112 109 116
246100.26843262 3357333.77792358 19.63233566 154 155 147
246094.62475586 3357341.54428101 15.98899364 159 164 167
246100.11450195 3357332.68380737 20.42572975 140 145 149
246096.70788574 3357341.31515503 15.40796471 143 144 149
246097.37573242 3357342.14257813 15.22754955 238 239 243
246095.63635254 3357341.46511841 15.84016705 120 123 128
246096.37194824 3357341.30010986 15.47452736 98 106 117
246100.47277832 3357333.48001099 15.07614613 172 182 147
246097.45617676 3357343.53845215 15.66531754 148 146 147
246099.87939453 3357332.84069824 20.14476585 149 150 142
246100.31933594 3357333.56866455 20.10345650 214 218 204
246097.27221680 3357333.46728516 15.95287704 168 157 163
246099.57714844 3357332.26205444 20.38668060 116 125 120
246096.00793457 3357341.48834229 16.02324104 202 200 211
246098.33886719 3357332.44372559 14.88603401 137 136 141
246099.73168945 3357332.66790771 20.23061371 143 148 141
246097.36511230 3357334.03109741 15.18048096 239 236 245
246097.43334961 3357342.28201294 15.16404057 83 84 88
246094.45568848 3357341.81021118 14.97723770 81 91 103
246100.48840332 3357333.85949707 18.12778664 121 121 123
246096.90551758 3357341.42681885 15.77846813 154 153 158
246096.63159180 3357341.51803589 15.96441841 186 184 195
246097.27551270 3357337.46588135 15.19661427 161 162 167
246097.22680664 3357341.63931274 15.21103764 67 70 77
246097.34545898 3357333.52697754 15.62425327 105 103 108
246097.43786621 3357339.23794556 15.11835194 124 125 127
246100.13391113 3357333.26788330 20.36930084 151 157 131
246097.17114258 3357333.98193359 15.05599308 124 123 119
246096.77539063 3357341.35144043 15.53003788 154 157 164
246099.99243164 3357332.81530762 14.94338131 171 169 172
246097.27111816 3357336.55706787 15.15266800 175 174 180
246096.75183105 3357341.41232300 15.12473774 92 97 103
246099.73400879 3357332.14758301 14.93925381 151 151 159
246099.83923340 3357332.54168701 20.57250023 227 233 219
246100.06945801 3357332.98260498 19.94079590 160 164 149
246100.42834473 3357333.96292114 15.11768818 214 217 198
246098.34716797 3357332.29504395 14.86949348 158 157 163
246100.41345215 3357333.79620361 18.60063362 182 181 88
246097.37890625 3357337.75592041 15.14597034 105 104 109
246096.19250488 3357341.41076660 14.96588707 197 201 210
246097.28088379 3357342.71209717 15.06637192 102 95 102
246096.76660156 3357341.45092773 15.87808990 193 188 192
246097.48193359 3357333.28381348 14.93409824 109 37 51
246097.42773438 3357341.52270508 15.15238476 73 73 81
246099.67932129 3357332.70205688 20.51516342 130 140 113
246100.47119141 3357333.69946289 18.78343582 109 114 110
246096.65405273 3357341.74743652 14.96632385 86 93 101
246096.97827148 3357341.38049316 15.66094303 154 155 157
246096.58337402 3357341.40780640 15.79085445 110 111 115
246100.28796387 3357333.20214844 19.70380211 137 141 144
246099.76745605 3357332.58590698 20.26810265 142 147 141
246096.93981934 3357341.27587891 15.36782646 112 113 117
246098.12731934 3357332.40441895 14.91395283 132 131 137
246094.48522949 3357341.50894165 15.96229553 148 150 149
246100.08935547 3357332.66467285 20.48398399 153 158 162
246100.23571777 3357333.51092529 20.16622925 139 144 124
246097.32995605 3357333.49533081 15.65874195 125 126 130
246096.04040527 3357341.91149902 14.95938110 91 101 111
246099.63427734 3357331.94235229 20.53708267 185 188 169
246100.48645020 3357333.90524292 17.35010529 201 206 202
246095.64648438 3357341.47702026 16.01463699 231 229 240
246095.10900879 3357341.56164551 14.97815800 74 83 90
246094.96887207 3357341.62396240 14.97706318 80 89 98
246097.36022949 3357337.23889160 15.13385868 232 231 236
246099.64794922 3357331.61859131 14.88655853 140 140 148
246100.38574219 3357333.67291260 19.17840385 179 179 145
246097.31359863 3357336.60781860 15.26981735 255 255 255
246099.68273926 3357332.29837036 14.94387627 145 145 155
246100.44616699 3357333.48727417 19.29794693 114 114 114
246096.23132324 3357341.42218018 15.86668587 97 92 98
246097.95117188 3357332.55596924 14.94976711 140 139 145
246097.31628418 3357338.13375854 15.29767418 220 221 226
246100.34619141 3357333.83651733 19.50186157 156 157 151
246097.53796387 3357336.71908569 14.96174145 40 44 53
246097.43945313 3357338.72546387 15.11495209 173 178 184
246096.35437012 3357341.52325439 15.93923283 175 178 183
246099.40783691 3357331.52587891 20.56423187 138 146 149
246096.64306641 3357341.31134033 15.49880123 130 137 143
246096.13452148 3357341.68066406 14.96921349 102 110 121
246100.37414551 3357333.84893799 15.14804840 114 120 82
246100.48718262 3357333.85391235 18.32567978 120 121 123
246097.35339355 3357343.45025635 14.98884964 80 76 77
246100.16674805 3357333.23553467 19.68671227 120 127 96
246094.32092285 3357341.44616699 15.92835808 210 208 219
246097.58166504 3357342.52682495 15.07786751 97 105 108
246094.97424316 3357341.82604980 14.96789074 83 92 101
246094.89965820 3357341.37170410 14.99019814 77 86 93
246097.32958984 3357333.57830811 16.01443672 235 233 238
246097.19641113 3357338.48669434 15.04433918 99 102 107
246100.47521973 3357333.91967773 18.30123901 194 197 144
246097.22265625 3357338.77728271 15.05739307 101 102 106
246097.29150391 3357337.79824829 15.12031364 235 236 241
246097.17456055 3357335.45043945 15.09847927 108 113 119
246097.41601563 3357338.17794800 15.09088135 95 96 100
246097.25805664 3357338.92291260 15.08648205 110 111 115
246097.52026367 3357339.72406006 14.96393013 29 34 38
246100.42712402 3357333.76214600 18.41278076 175 171 172
246097.47387695 3357333.44012451 14.93986320 104 83 90
246094.79101563 3357341.45559692 14.98425198 81 90 97
246100.37976074 3357333.64471436 19.15437508 183 183 147
246094.26489258 3357341.80493164 14.98123646 92 101 116
246097.46215820 3357339.99658203 15.02968025 90 95 101
246097.42675781 3357337.29052734 15.10547447 92 93 95
246100.19860840 3357333.69900513 19.85401917 144 146 135
246099.70056152 3357332.76062012 20.23767662 141 147 133
246097.11889648 3357341.94104004 15.14423752 85 89 98
246099.89904785 3357332.39913940 20.44625092 149 158 163
246099.40673828 3357331.73294067 20.48969650 146 155 136
246096.97375488 3357341.34463501 15.56461620 144 148 151
246097.47814941 3357335.47695923 15.12955761 115 116 118
246099.86950684 3357331.94793701 14.94497585 145 146 151
246094.63500977 3357341.44006348 15.99273300 247 246 254
246096.11853027 3357341.42074585 15.74199486 121 124 131
246097.41027832 3357339.06066895 15.14310265 145 146 151
246096.53723145 3357341.52282715 16.01486206 215 215 225
246096.59326172 3357341.65063477 14.94845200 96 103 111
246099.76525879 3357332.51135254 14.96323013 151 150 155
246100.45568848 3357333.87506104 18.40972519 178 179 122
246099.37805176 3357331.39422607 14.88078022 136 136 144
246097.36499023 3357335.43435669 15.18974018 226 224 229
246097.55517578 3357339.96914673 15.00140667 86 93 101
246097.37805176 3357343.53460693 15.86947155 86 86 88
246097.56408691 3357338.92492676 15.06434155 107 110 115
246095.58129883 3357341.34252930 14.99678612 92 98 110
246100.16918945 3357333.27774048 14.94772911 233 227 231
246095.65197754 3357341.63952637 14.97448063 89 98 107
246099.32678223 3357331.59539795 20.55397987 109 114 108
246097.49658203 3357337.43576050 15.05568314 110 110 112
246095.26770020 3357341.43530273 15.81012249 138 143 146
246097.32360840 3357338.10330200 15.33789730 238 239 244
246100.03833008 3357332.57632446 20.43985367 143 148 154
246096.40039063 3357341.44592285 15.94522476 252 250 255
246095.93566895 3357341.62744141 14.98010540 103 110 118
246097.29138184 3357333.19848633 15.11327648 228 173 178
246097.31542969 3357340.49560547 15.17762947 207 210 217
246096.06689453 3357341.51013184 16.05425072 133 133 143
246100.55444336 3357334.29162598 15.09761047 114 127 58
246099.61486816 3357331.29055786 14.88075161 137 138 142
246096.90136719 3357341.73791504 15.05667686 80 84 93
246097.29040527 3357333.54702759 15.45259476 242 244 243
246097.36267090 3357337.55963135 15.14700794 199 198 204
246095.51525879 3357341.44561768 15.96373558 235 233 236
246097.40881348 3357342.77822876 15.07155037 255 255 255
246100.49133301 3357333.86123657 18.64390182 183 182 177
246097.36584473 3357338.51605225 15.14465714 211 215 224
246097.26489258 3357339.37213135 15.09281445 109 108 116
246097.28405762 3357333.42132568 15.80253410 146 135 141
246097.41906738 3357335.55044556 15.16039562 187 186 191
246098.06567383 3357332.49014282 14.93003368 132 131 136
246094.65698242 3357341.62643433 14.97904873 86 96 106
246100.03308105 3357333.12103271 20.42511749 131 139 115
246096.43493652 3357341.37112427 15.62094116 92 107 114
246095.24206543 3357341.72210693 14.96639156 78 85 95
246100.31555176 3357333.74783325 19.41491127 159 161 140
246100.39306641 3357333.70559692 19.09808731 193 192 146
246095.54455566 3357341.66610718 14.97061348 82 89 99
246097.27001953 3357333.41561890 15.54987717 132 115 123
246096.32556152 3357341.36437988 15.60655594 96 113 120
246099.89990234 3357332.82901001 20.14962387 149 150 142
246100.04272461 3357332.38070679 14.96558952 139 138 143
246097.38574219 3357342.95379639 15.09472752 159 139 141
246097.22595215 3357333.22265625 15.14173698 246 230 231
246097.59436035 3357341.62762451 15.10413837 63 70 76
246097.41064453 3357334.19357300 15.14824772 223 215 226
246098.32531738 3357332.45251465 14.88816738 137 136 142
246100.75598145 3357334.08819580 15.13859463 52 69 37
246099.40197754 3357331.76614380 20.47824860 144 153 134
246100.83935547 3357334.26800537 15.16147232 89 102 49
246095.82617188 3357341.55541992 15.95046329 123 126 131
246097.43554688 3357333.91339111 15.09631062 114 111 118
246094.54907227 3357341.72222900 14.97950554 85 95 105
246097.45214844 3357339.88668823 15.00773811 95 100 106
246097.65917969 3357333.05853271 14.91266918 141 135 139
246096.45812988 3357341.41326904 15.70776463 91 94 101
246097.43750000 3357340.06085205 15.04293823 94 97 104
246094.77478027 3357341.42126465 15.89162731 107 108 113
246099.94238281 3357332.85159302 14.95104599 177 175 178
246097.30078125 3357339.73471069 15.07199764 215 218 223
246099.58911133 3357331.32974243 14.88326168 141 142 146
246097.37438965 3357339.97384644 15.10921860 202 202 212
246097.54931641 3357343.17425537 14.94788265 159 132 137
246097.37451172 3357335.35809326 15.23160362 250 248 253
246096.52416992 3357341.33126831 15.53930092 97 104 112
246100.30444336 3357333.36267090 20.30759048 221 227 215
246099.57312012 3357332.31387329 20.37345886 98 104 100
246098.67089844 3357332.04586792 14.83698082 138 139 144
246096.61010742 3357341.44558716 15.91148472 186 184 189
246100.48400879 3357333.88378906 17.35040092 201 206 202
246097.27685547 3357343.20895386 14.90046024 151 86 80
246097.35168457 3357336.93835449 15.18398476 234 233 238
246096.21398926 3357341.36077881 15.63607311 99 106 116
246097.43103027 3357340.92193604 15.11605644 96 99 106
246094.11218262 3357341.59158325 15.05379105 76 86 98
246100.36096191 3357333.55590820 19.06915665 155 161 151
246097.44274902 3357334.10778809 15.10167027 93 86 93
246096.81860352 3357341.32205200 15.27548790 110 115 121
246095.56408691 3357341.80218506 14.96018219 90 96 108
246097.30273438 3357333.72674561 15.11545372 254 253 255
246099.33374023 3357331.46371460 20.74469948 224 227 234
246094.77709961 3357341.42663574 15.93832779 158 158 166
246099.77758789 3357332.98367310 20.17254448 158 167 140
246097.02380371 3357341.33584595 15.32591248 81 86 92
246097.31994629 3357338.87301636 15.19592953 240 243 248
246099.68359375 3357332.19012451 20.41399956 145 155 147
246096.55456543 3357341.38125610 15.64229679 95 104 113
246100.05249023 3357333.38488770 20.29938698 120 125 95
246100.42663574 3357333.69406128 19.95037079 218 220 217
246099.88793945 3357332.74853516 20.53285027 175 185 160
246097.38085938 3357339.15164185 15.15634155 166 166 168
246097.34033203 3357340.88916016 15.24935532 201 206 212
246096.42114258 3357341.55371094 14.95298958 104 111 121
246097.39807129 3357343.53219604 15.90862465 69 67 70
246100.02917480 3357332.70944214 20.55769730 198 205 198
246097.50866699 3357335.90313721 15.10192871 105 103 106
246099.91442871 3357332.42739868 20.44491005 150 160 162
246099.75219727 3357332.67794800 20.52946854 131 141 116
246100.00524902 3357332.53390503 14.96117973 147 145 150
246100.01733398 3357333.31317139 19.85758781 122 131 102
246097.58349609 3357341.56289673 15.10904026 69 76 82
246097.27124023 3357334.06497192 15.10500050 226 230 233
246096.30273438 3357341.37811279 15.63473892 99 110 116
246094.63671875 3357341.41424561 15.80972958 102 105 112
246096.23486328 3357341.42605591 15.88029289 115 110 114
246099.22766113 3357331.21224976 20.61994934 249 248 254
246100.03247070 3357333.43255615 20.22042656 115 119 94
246097.50000000 3357334.53002930 15.15950871 243 170 189
246099.71789551 3357332.38076782 20.36000443 132 136 135
246097.31433105 3357338.23345947 15.18914413 182 183 187
246096.61804199 3357341.52676392 15.98378658 188 187 195
246096.75512695 3357341.23236084 15.29815197 128 132 135
246096.43273926 3357341.28884888 15.10742092 120 124 135
246100.46826172 3357333.91363525 17.90484810 173 177 154
246096.03112793 3357341.54943848 14.97546291 115 122 132
246100.41760254 3357333.88989258 18.99784088 227 223 198
246100.01782227 3357333.02496338 19.94837379 166 171 149
246097.29650879 3357333.57000732 15.24256992 248 252 251
246100.51818848 3357333.83535767 18.79234695 145 149 152
246100.31359863 3357333.29003906 14.97236347 97 99 77
246097.34509277 3357340.22512817 15.29020500 226 226 236
246099.71240234 3357332.67523193 20.22777367 141 147 137
246097.52734375 3357339.16165161 15.07510185 124 123 128
246097.36950684 3357336.37921143 15.17246628 216 216 218
246097.31677246 3357336.48049927 15.21574211 242 243 247
246099.45117188 3357331.81158447 20.68787575 236 241 245
246097.29956055 3357338.30676270 15.15079498 200 202 214
246097.32629395 3357339.65151978 15.19786549 203 204 209
246100.14099121 3357333.25778198 19.69761276 120 127 94
246100.05847168 3357333.21359253 14.92203712 180 175 182
246097.26965332 3357333.42312622 15.69882298 118 105 112
246094.04943848 3357341.71237183 15.00995636 83 91 104
246097.32836914 3357339.71972656 15.24556828 221 225 228
246100.57849121 3357333.62857056 15.39538193 191 199 184
246099.81042480 3357332.22650146 20.47484207 144 154 156
246100.55114746 3357333.74539185 18.91574478 177 181 182
246095.62988281 3357341.54315186 16.03711319 116 120 129
246100.49304199 3357333.80917358 18.46174622 134 134 136
246100.23022461 3357333.18930054 20.40436935 221 228 212
246098.46850586 3357332.25714111 14.85474777 134 135 140
246094.88403320 3357341.87280273 14.96996212 80 89 98
246095.42248535 3357341.55709839 15.96676159 108 108 118
246099.90649414 3357332.72320557 20.54034996 219 231 207
246096.24890137 3357341.36059570 15.63089371 94 101 111
246097.25280762 3357333.52764893 15.14334774 255 252 255
246100.64233398 3357334.31445313 15.16008377 78 95 27
246097.54797363 3357341.44940186 15.11108971 75 82 90
246096.30541992 3357341.26907349 15.40093899 100 107 115
246100.23937988 3357333.32412720 19.50128365 139 143 118
246100.46423340 3357333.60745239 15.15112400 128 142 93
246097.65344238 3357332.94189453 14.90395546 144 137 144
246097.21411133 3357338.44528198 15.05688477 91 94 99
246100.34326172 3357333.54479980 19.25013351 158 162 135
246094.80920410 3357341.54913330 14.98432064 74 83 90
246097.24719238 3357336.78677368 15.08948898 121 120 125
246100.24707031 3357333.68652344 19.94078064 137 138 122
246097.59106445 3357341.26641846 15.06822968 62 70 73
246097.42492676 3357342.93164063 15.04718304 141 137 138
246096.46142578 3357341.84777832 14.95203781 95 102 112
246097.45568848 3357339.99642944 15.03145790 90 95 101
246097.44592285 3357339.88357544 15.01140022 95 100 106
246096.47875977 3357341.53707886 14.96722221 103 110 120
246100.15905762 3357333.55160522 19.66123009 132 137 107
246100.02880859 3357333.13153076 19.86614609 143 149 123
246097.52624512 3357337.41668701 15.04792881 102 102 104
246097.27392578 3357333.41467285 15.08168125 232 199 210
246099.60192871 3357331.52160645 14.88861370 135 135 143
246097.26147461 3357340.04940796 15.13412380 118 121 126
246097.30993652 3357338.11456299 15.24408817 220 221 226
246097.34326172 3357338.10302734 15.28812790 221 224 231
246097.34497070 3357341.37667847 15.24006367 255 255 255
246100.27587891 3357333.69155884 19.95633316 134 135 121
246099.93786621 3357333.16476440 20.40028000 129 138 111
246096.48229980 3357341.36340332 15.61320972 103 110 118
246097.38928223 3357333.58059692 15.06337261 173 176 181
246100.44177246 3357333.55407715 15.08845615 128 141 88
246097.29077148 3357339.71682739 15.05384445 238 239 243
246100.12817383 3357332.84536743 20.07703209 142 147 150
246099.96801758 3357333.43637085 20.01895523 116 119 100
246097.33581543 3357340.38833618 15.15560913 218 218 226
246097.33996582 3357333.40130615 16.10489273 140 135 141
246097.40795898 3357334.94665527 15.15782547 232 232 240
246097.30187988 3357333.52224731 15.63273335 240 235 241
246100.21533203 3357333.06307983 14.91097069 236 230 232
246096.02404785 3357341.54144287 14.97589874 118 125 135
246100.48950195 3357333.74810791 18.60578728 121 125 126
246099.75842285 3357331.52453613 14.90137291 142 142 150
246100.44079590 3357333.68597412 15.17244530 111 132 67
246099.49804688 3357331.80139160 20.70503426 249 252 255
246099.97790527 3357332.27999878 14.97359276 150 149 155
246097.29321289 3357340.32244873 15.27201462 228 231 238
246096.38671875 3357341.96829224 14.95407581 102 108 120
246100.46020508 3357333.64547729 15.17135429 98 118 57
246097.25109863 3357339.39620972 15.08598518 77 78 83
246099.82263184 3357332.76785278 20.52048302 134 147 121
246099.27221680 3357331.43630981 20.54688644 173 177 176
246100.02722168 3357332.59936523 20.34486389 154 158 161
246095.12854004 3357341.41842651 15.92104149 113 113 115
246097.54541016 3357338.50765991 15.05916023 120 121 123
246100.41845703 3357333.35073853 15.00721264 128 133 92
246097.50073242 3357336.34567261 15.06543732 103 104 106
246096.54162598 3357341.51586914 15.94688034 162 162 172
246097.23803711 3357336.07055664 15.08499241 94 95 100
246097.41040039 3357336.25677490 15.14537239 122 121 126
246100.39538574 3357333.71585083 18.94131851 203 201 140
246095.85156250 3357341.38378906 15.71855736 109 114 120
246098.46752930 3357332.26483154 14.85564899 134 135 140
246099.88574219 3357332.21438599 14.97229099 151 152 156
246097.16625977 3357334.73806763 15.10270500 120 120 128
246099.82604980 3357332.69537354 14.97039795 163 161 164
246100.48791504 3357333.89031982 18.53931046 199 199 199
246100.53820801 3357333.97601318 18.74676895 209 218 217
246100.52294922 3357333.97888184 17.98650932 243 245 240
246097.30163574 3357333.58401489 15.24329281 248 252 251
246097.52172852 3357336.96881104 15.01669216 99 100 102
246095.56298828 3357341.36355591 14.99490929 89 95 107
246098.24426270 3357332.47381592 14.89759636 145 142 149
246097.42346191 3357341.85528564 15.20927811 55 58 63
246100.14587402 3357332.80084229 20.48787117 153 159 157
246100.54504395 3357333.95700073 19.28348541 215 220 223
246096.95104980 3357341.23153687 15.31247997 119 120 124
246097.44152832 3357339.68188477 15.01443863 16 24 26
246097.32604980 3357335.93542480 15.18189907 232 231 239
246097.12084961 3357341.59548950 15.19205189 80 85 91
246097.36193848 3357335.63458252 15.18747711 194 193 201
246100.24609375 3357333.37997437 19.42358971 143 147 130
246097.38061523 3357342.79367065 15.12847137 255 253 254
246094.77160645 3357341.47573853 14.98328972 77 86 93
246100.63403320 3357333.92761230 19.23568535 178 186 189
246100.34997559 3357333.43029785 19.34366417 129 130 134
246097.34436035 3357335.78649902 15.13778305 220 220 228
246095.94970703 3357341.46313477 15.97725582 220 217 224
246097.30346680 3357335.53988647 15.12072468 151 151 159
246096.23400879 3357341.31884766 15.51887703 115 124 133
246100.57116699 3357333.54995728 15.40529633 220 231 217
246097.43505859 3357343.52029419 15.16332150 111 110 108
246100.50683594 3357333.96044922 17.71074677 237 237 235
246094.55541992 3357341.43127441 15.90499306 131 130 138
246097.84130859 3357332.92221069 14.92535019 132 127 131
246100.18566895 3357333.02304077 14.90413857 232 226 226
246099.80700684 3357332.16433716 14.95435524 148 149 154
246100.37548828 3357333.90057373 15.12084579 150 156 120
246097.39819336 3357337.15020752 15.11598396 120 121 123
246097.25231934 3357341.08874512 15.29177856 142 143 147
246096.28112793 3357341.56112671 16.03240013 148 151 158
246097.39123535 3357333.49984741 16.14712334 126 121 125
246097.33276367 3357342.21667480 15.20857334 235 234 240
246097.39660645 3357334.37918091 15.27371311 232 216 226
246097.28076172 3357333.37988281 15.32230568 135 109 118
246097.26879883 3357333.66323853 15.07370090 181 187 187
246097.36645508 3357336.29794312 15.19264126 210 209 214
246097.31799316 3357333.47219849 15.34601784 160 149 155
246097.28100586 3357338.57522583 15.11998081 175 175 183
246095.52673340 3357341.46743774 14.98633385 82 88 100
246097.51965332 3357340.64846802 15.10169506 82 87 93
246096.47277832 3357341.95773315 14.95652294 98 107 116
246096.35729980 3357341.50460815 16.04116058 234 235 240
246099.57763672 3357331.67672729 14.87963581 137 138 143
246098.96887207 3357331.65072632 14.82502747 149 150 155
246094.70751953 3357341.70959473 14.97721004 84 94 103
246100.42529297 3357333.81167603 18.54310226 188 188 100
246100.49389648 3357333.83520508 18.62391663 145 145 143
246097.45996094 3357333.46078491 14.94229031 92 81 87
246099.30053711 3357331.29223633 20.63290024 254 255 255
246094.52856445 3357341.45745850 15.02535820 71 81 93
246097.35351563 3357341.87200928 15.21056652 242 241 246
246097.33789063 3357333.47888184 15.14188766 199 194 198
246100.49426270 3357333.79748535 18.47632599 134 134 136
246097.44580078 3357343.54541016 15.46698952 156 152 153
246100.15905762 3357332.54919434 14.93001080 153 151 154
246097.32739258 3357336.51672363 15.17026234 223 224 228
246096.34460449 3357341.79074097 14.95512104 104 110 122
246097.62731934 3357343.43969727 15.01143646 133 116 122
246097.25891113 3357333.50845337 15.45136452 233 231 232
246100.29968262 3357333.41299438 19.36193848 133 134 136
246095.80578613 3357341.45355225 15.83596325 132 132 140
246097.75146484 3357332.62899780 14.94727993 136 133 140
246096.75891113 3357341.61920166 15.02957249 84 88 97
246096.23120117 3357341.86575317 14.96409416 101 107 119
246097.35644531 3357343.28121948 14.90827274 222 207 204
246100.45739746 3357333.76074219 18.12333107 113 117 120
246100.08166504 3357332.78323364 20.53940582 206 214 203
246100.07629395 3357333.22293091 19.76902962 112 121 92
246097.33752441 3357337.97738647 15.11525249 221 225 226
246097.71789551 3357332.73818970 14.92239380 129 127 132
246100.10571289 3357332.91912842 14.90958500 171 167 168
246097.31762695 3357336.76950073 15.23066616 218 218 220
246100.01513672 3357333.36520386 14.92306042 186 181 187
246094.63818359 3357341.40597534 15.77017307 116 119 124
246097.22534180 3357336.55181885 15.08639145 98 103 106
246097.32019043 3357333.41430664 15.18517685 156 137 143
246097.49096680 3357333.60821533 14.96733284 58 64 64
246100.21496582 3357333.91656494 15.02944946 93 104 44
246100.38598633 3357333.72573853 15.13104820 105 119 60
246100.42236328 3357333.82403564 18.66479111 171 173 76
246100.13916016 3357333.15588379 14.92048740 245 239 249
246096.00085449 3357341.49920654 16.04042625 147 150 159
246097.31225586 3357333.35354614 15.19046307 146 113 120
246100.44445801 3357333.78195190 17.76404572 206 208 184
246097.41003418 3357333.76864624 15.11511040 212 211 216
246097.28649902 3357337.81814575 15.10811901 191 194 201
246095.88342285 3357341.44705200 15.92426682 179 178 183
246095.15173340 3357341.40637207 15.78820896 102 105 110
246099.57800293 3357331.50546265 14.88799000 135 135 143
246095.89172363 3357341.44201660 14.98469830 121 123 135
246100.28857422 3357333.72036743 19.88581085 134 138 124
246100.25769043 3357333.66738892 15.03884315 92 104 54
246096.27490234 3357341.34912109 15.57491875 114 127 135
246095.30688477 3357341.38168335 15.75256252 137 145 147
246097.29895020 3357334.95043945 15.15967751 176 177 182
246097.39697266 3357343.35073853 14.94510269 206 194 198
246097.31677246 3357334.94464111 15.16410160 173 173 181
246098.32421875 3357332.22067261 14.86701775 138 137 143
246097.24719238 3357334.65728760 15.11361408 120 121 125
246099.95935059 3357332.79025269 20.15609741 152 152 150
246097.53637695 3357342.90911865 14.95874310 148 146 147
246100.44958496 3357333.82733154 19.74773598 218 220 217
246100.50146484 3357333.89016724 16.64739799 255 255 250
246096.71594238 3357341.77514648 14.98339844 83 88 94
246099.94531250 3357333.30029297 20.32671928 110 116 82
246095.51049805 3357341.40182495 15.77677822 143 148 151
246099.81909180 3357333.07638550 20.14082146 173 179 151
246096.89318848 3357341.42315674 15.78344727 163 163 171
246096.10485840 3357341.68969727 14.97155094 102 108 120
246100.65917969 3357333.81527710 15.22210503 98 105 63
246100.50939941 3357333.85778809 19.64907265 219 223 226
246100.18859863 3357333.04492188 20.46445465 214 221 205
246097.42187500 3357341.14083862 15.12756824 71 72 76
246099.71008301 3357331.42559814 14.89514923 143 144 149
246100.42834473 3357333.76315308 18.15027428 177 181 105
246097.26855469 3357337.03326416 15.15228653 135 136 140
246097.04418945 3357341.33374023 15.49757671 120 121 125
246097.56591797 3357342.40106201 15.12853622 84 89 92
246099.94628906 3357332.03375244 14.95641708 148 148 156
246100.48046875 3357333.92880249 18.21434402 181 185 188
246100.49841309 3357333.60775757 20.01606560 181 185 186
246096.31469727 3357341.24645996 15.36688995 104 108 119
246097.49670410 3357336.59664917 14.99525356 35 40 44
246097.25866699 3357333.22033691 15.17963600 194 159 166
246094.93713379 3357341.42074585 15.91196251 110 108 111
246096.48657227 3357341.52001953 15.94940758 156 156 166
246094.66223145 3357341.46725464 16.04877853 171 170 176
246096.66491699 3357341.32052612 15.16189480 109 113 122
246099.63049316 3357332.55432129 20.53603554 137 144 126
246099.56604004 3357331.54882813 14.88331985 140 140 148
246096.51550293 3357341.43673706 15.91468430 194 192 197
246097.20166016 3357335.46405029 15.09947586 113 116 123
246099.30688477 3357331.26956177 20.59170532 251 255 255
246100.48999023 3357333.93365479 17.31890106 223 225 222
246100.48718262 3357333.94110107 18.51280022 196 198 176
246100.50988770 3357333.84963989 17.98880386 127 126 122
246097.22473145 3357341.36117554 15.34715939 102 106 115
246099.53552246 3357331.73556519 20.69480515 165 174 171
246100.50476074 3357333.50537109 15.13688660 195 205 178
246096.25793457 3357341.31311035 15.47912884 102 109 119
246097.34826660 3357341.21475220 15.25473976 247 246 251
246094.21752930 3357341.65270996 15.02241611 85 95 107
246095.76916504 3357341.42037964 15.79555798 122 125 132
246100.01989746 3357333.33642578 14.91980362 222 217 223
246097.55261230 3357342.08572388 15.16656494 70 77 83
246099.82348633 3357332.59948730 14.97055626 141 139 142
246100.17285156 3357333.54064941 19.62026024 133 138 108
246096.38012695 3357341.33801270 15.51817608 97 104 114
246100.46386719 3357333.48117065 19.31624413 114 114 114
246097.43151855 3357342.69418335 15.09360600 95 95 95
246100.30065918 3357333.39242554 19.39616776 136 137 141
246100.49182129 3357333.84695435 15.22951889 217 213 188
246100.43798828 3357333.84716797 18.61559868 166 168 84
246097.31408691 3357335.95062256 15.13867855 219 220 225
246095.88061523 3357341.55114746 16.00720978 123 130 138
246097.38220215 3357338.60867310 15.14168739 230 234 243
246096.03491211 3357341.70748901 14.97541046 103 110 118
246096.05822754 3357341.35971069 15.63257027 85 92 102
246100.45300293 3357333.88555908 17.67231178 177 179 165
246100.44995117 3357333.87887573 15.21194267 255 255 240
246099.68847656 3357332.03033447 20.50820541 212 219 201
246100.50146484 3357333.79925537 18.19266129 109 108 113
246097.59069824 3357341.94311523 15.14214897 61 68 76
246100.28759766 3357333.47177124 20.20607948 216 223 205
246100.38403320 3357333.67971802 18.85209656 207 207 137
246097.38366699 3357335.14529419 15.18996620 253 252 255
246097.42529297 3357342.48736572 15.16109943 91 91 93
246100.51892090 3357333.77865601 18.04426575 119 120 124
246097.59582520 3357342.34619141 15.12670517 69 76 82
246100.38256836 3357333.67892456 18.79233551 208 208 134
246100.37048340 3357333.86557007 19.32039070 161 162 156
246095.70104980 3357341.82931519 14.96029091 98 108 118
246100.75024414 3357334.27575684 15.16530037 95 108 55
246097.61279297 3357343.16870117 14.92089272 175 150 154
246099.99194336 3357332.85311890 14.94146538 170 168 171
246097.52014160 3357339.89965820 14.98421669 86 93 101
246097.25061035 3357340.76623535 15.25685978 184 188 191
246097.31591797 3357337.73797607 15.26149082 168 169 174
246096.66320801 3357341.29504395 15.45769882 124 131 139
246097.44909668 3357338.98248291 15.11903286 101 102 107
246096.60278320 3357341.30731201 15.49030018 113 120 128
246097.73718262 3357333.03448486 14.92200470 142 135 143
246097.40832520 3357342.41024780 15.16551495 219 217 218
246097.54333496 3357339.06219482 15.07035255 116 117 122
246096.45117188 3357341.79232788 14.95228767 95 102 112
246096.24536133 3357341.90737915 14.96307659 97 103 115
246100.38659668 3357333.44702148 15.03463936 97 107 55
246095.55517578 3357341.43704224 15.81028461 135 140 143
246097.68676758 3357332.80996704 14.90577030 139 134 138
246100.05249023 3357332.55047607 14.95275116 150 148 153
246097.39868164 3357341.54745483 15.18796253 188 189 193
246096.61267090 3357341.49145508 16.01032448 242 241 246
246099.57128906 3357332.44589233 20.55826759 141 146 139
246100.45092773 3357333.87921143 18.65098190 179 181 116
246097.19982910 3357339.57077026 15.06140614 82 83 85
246097.38159180 3357337.76446533 15.13842392 105 104 109
246095.23632813 3357341.41812134 15.93480206 138 136 141
246097.33288574 3357333.50387573 15.73293877 96 90 94
246097.47595215 3357334.96603394 15.12110329 89 88 93
246097.35168457 3357339.13998413 15.18536568 234 234 236
246097.32104492 3357338.26086426 15.24648094 220 221 226
246096.46777344 3357341.43902588 15.76079845 90 89 97
246099.44287109 3357331.49328613 20.72720528 192 194 206
246099.76940918 3357332.44622803 14.96412086 145 144 150
246096.61950684 3357341.50411987 15.92896366 173 173 183
246097.32482910 3357337.72967529 15.29555130 254 254 254
246097.48095703 3357339.41143799 15.07231045 95 96 100
246099.98107910 3357333.31909180 20.32818222 116 121 89
246099.69799805 3357332.48562622 20.57366562 143 149 137
246094.81396484 3357341.43328857 16.00156403 242 242 252
246100.24304199 3357333.70574951 19.60089302 148 150 128
246100.44812012 3357333.57870483 20.09004021 212 217 211
246100.28381348 3357333.52890015 19.42201996 138 143 113
246100.51342773 3357333.76544189 18.82277489 156 160 163
246097.26818848 3357333.44802856 15.76923943 149 134 139
246095.91760254 3357341.45892334 14.98294640 123 127 138
246097.30200195 3357333.38870239 15.42603111 148 133 140
246097.21691895 3357333.45465088 15.01107121 169 115 113
246099.89074707 3357331.86309814 14.94015694 147 147 155
246096.52307129 3357341.83132935 14.95039082 89 93 104
246100.05310059 3357332.78109741 20.10584450 143 149 149
246099.28515625 3357331.48251343 20.71845818 217 222 225
246096.94995117 3357341.31399536 15.33570099 147 152 156
246096.48059082 3357341.67294312 14.95145702 102 106 117
246100.49377441 3357333.90878296 17.07667732 198 200 197
246100.15551758 3357332.98501587 14.89880085 169 163 165
246097.40551758 3357333.40301514 14.99190521 152 111 117
246097.34838867 3357336.98873901 15.17339706 223 222 227
246097.34704590 3357334.33975220 15.17381573 213 210 217
246100.35803223 3357333.58166504 19.11155701 196 198 159
246096.38488770 3357341.38476563 15.71636200 105 108 115
246097.30932617 3357338.11441040 15.26383114 220 221 226
246096.74572754 3357341.45852661 15.90760136 234 232 235
246094.13256836 3357341.74185181 14.99281979 88 98 110
246097.12878418 3357333.41140747 14.97661877 184 110 111
246099.78491211 3357332.29708862 20.62243080 225 231 227
246097.27282715 3357339.59649658 15.07211685 102 102 110
246096.71435547 3357341.30090332 15.43793201 123 128 134
246096.78454590 3357341.45587158 15.84804249 159 162 169
246099.69274902 3357331.53863525 14.89471626 141 141 149
246097.40319824 3357333.05493164 14.92763805 188 147 153
246097.21154785 3357334.10409546 15.08310127 124 130 130
246097.38659668 3357333.52380371 16.12632561 119 110 113
246094.48876953 3357341.46148682 16.01100349 229 230 235
246094.59606934 3357341.48907471 16.03443909 170 169 174
246097.38403320 3357342.82437134 15.11631393 203 198 202
246100.37475586 3357333.65682983 19.22099686 178 179 145
246097.50817871 3357338.70965576 15.08328152 112 117 121
246096.39819336 3357341.52487183 16.04937744 230 232 244
246094.94714355 3357341.44308472 14.98800659 76 83 91
246100.43371582 3357333.61956787 20.04521751 217 222 218
246097.31848145 3357338.18878174 15.27580738 217 218 223
246097.41113281 3357333.42544556 14.98337269 146 119 124
246094.32031250 3357341.68392944 15.00307178 89 99 111
246099.53027344 3357331.71810913 20.71251488 167 178 174
246099.98242188 3357333.29373169 14.90889931 142 140 143
246100.36279297 3357333.62017822 19.24872971 173 177 142
246097.23986816 3357338.20144653 15.05767155 101 104 111
246096.11694336 3357341.49102783 16.02415657 198 196 207
246095.08520508 3357341.43377686 15.80954266 128 133 136
246099.83715820 3357332.85055542 20.50568771 126 139 111
246097.33435059 3357335.91101074 15.20422363 236 233 240
246097.33874512 3357338.90515137 15.20427608 223 224 228
246097.36315918 3357338.42233276 15.13860798 220 224 233
246100.54089355 3357333.88858032 19.54142189 215 220 224
246100.35083008 3357333.93029785 15.07095623 136 144 97
246096.01489258 3357341.33694458 15.59548664 114 121 129
246097.34667969 3357342.38970947 15.15930367 255 254 255
246100.46459961 3357333.84732056 19.71041298 221 225 226
246097.34265137 3357340.12219238 15.13929176 227 227 235
246099.92272949 3357333.36135864 20.04197121 133 135 113
246100.06726074 3357332.78784180 20.10444832 143 149 149
246097.43469238 3357339.21759033 15.12061787 124 125 127
246097.20141602 3357333.52859497 14.99830723 201 186 183
246096.63415527 3357341.29040527 15.36203098 133 136 143
246097.44348145 3357343.06268311 15.02820301 172 149 155
246099.94140625 3357333.07034302 19.97218132 167 172 149
246097.10937500 3357341.93084717 15.13971043 84 88 97
246094.55603027 3357341.86990356 14.97248077 96 106 116
246096.46386719 3357341.37454224 15.66292477 107 114 122
246096.52636719 3357341.88391113 14.95781422 93 97 106
246099.35119629 3357331.68252563 20.51416206 137 144 128
246099.55932617 3357332.37673950 20.35830116 90 99 96
246094.87756348 3357341.36083984 14.98848534 77 86 93
246097.24096680 3357339.00177002 15.08749104 95 99 102
246094.13098145 3357341.60012817 15.04912949 80 90 102
246097.30163574 3357340.54766846 15.12188911 199 202 209
246097.39160156 3357339.03887939 15.16388893 153 154 159
