246082.18615723 3357549.34442139 13.24650860 104 104 106
246081.39587402 3357549.00274658 13.20028591 122 108 97
246083.11474609 3357547.43994141 15.21667862 128 128 128
246082.09313965 3357548.89941406 15.64057159 249 199 226
246082.45068359 3357548.77301025 15.19290352 128 128 128
246083.83935547 3357548.49298096 15.40420723 25 125 187
246082.13989258 3357548.22778320 13.16715908 131 131 129
246081.87878418 3357548.76391602 15.20353508 129 127 128
246083.55004883 3357548.27832031 15.21321964 128 128 128
246081.90893555 3357548.20758057 15.70724583 32 217 245
246082.29882813 3357548.23315430 13.17495728 143 143 141
246083.37109375 3357548.20458984 13.15122032 151 155 154
246081.91845703 3357548.05975342 15.24695396 129 127 128
246082.69433594 3357549.40106201 13.16665077 143 145 142
246083.37731934 3357548.90881348 15.56631947 22 111 179
246082.56372070 3357550.17156982 13.15783119 35 52 78
246082.43542480 3357549.34790039 15.59705925 56 156 206
246082.01574707 3357548.59588623 13.18555546 157 156 154
246083.01733398 3357548.69866943 15.18633461 128 128 128
246083.72216797 3357548.74017334 15.50986767 22 136 206
246083.47546387 3357547.81317139 15.21150970 128 128 128
246082.76513672 3357548.82025146 15.76418591 23 107 193
246082.12255859 3357549.00274658 13.24006271 88 89 91
246082.25341797 3357549.82196045 15.47717381 111 217 255
246082.92260742 3357549.74432373 15.19913960 97 125 137
246082.00256348 3357549.63903809 15.38885689 110 180 216
246082.70068359 3357549.84393311 15.21261978 124 129 132
246081.99206543 3357547.64739990 15.53590012 197 226 240
246083.68554688 3357549.13940430 15.20404911 128 128 130
246083.51245117 3357549.14044189 13.13601875 158 160 159
246081.94677734 3357549.17279053 15.19855213 128 128 128
246082.72094727 3357549.45379639 15.17474174 128 128 128
246083.51586914 3357548.48150635 13.14188576 168 172 171
246082.41992188 3357549.96069336 15.38943195 39 139 199
246082.66931152 3357549.64239502 15.42629814 45 143 188
246081.76550293 3357548.16033936 15.66494465 20 194 221
246083.40490723 3357549.01440430 15.51754284 27 112 176
246082.37084961 3357548.18603516 13.18020248 174 176 175
246083.51037598 3357548.46966553 13.14180279 168 172 171
246083.97839355 3357548.91748047 13.12924671 146 149 154
246082.93627930 3357547.74847412 15.68708897 5 146 228
246082.35449219 3357550.05761719 15.26799107 110 131 152
246083.01269531 3357549.25097656 13.15279770 166 168 165
246081.86254883 3357548.57202148 15.63767624 104 194 220
246082.90698242 3357548.84857178 13.17566204 156 158 153
246082.96545410 3357548.80645752 15.70852852 39 98 168
246082.81665039 3357549.82537842 13.14628315 177 178 180
246082.86560059 3357549.21478271 15.55831242 68 145 191
246082.01965332 3357549.21606445 15.52434731 14 143 226
246083.34375000 3357548.30853271 15.20855713 128 128 128
246081.89270020 3357548.05828857 13.17564392 165 168 175
246081.51086426 3357549.02056885 13.22548866 103 99 96
246082.48400879 3357547.86700439 15.74533081 4 184 245
246083.02856445 3357549.20361328 15.52198219 94 139 178
246083.96435547 3357548.76922607 15.24835587 102 163 184
246082.39367676 3357547.34490967 15.49424648 17 168 237
246081.66857910 3357549.12347412 15.41728592 63 145 192
246081.52600098 3357548.25579834 15.56087303 12 139 234
246082.07238770 3357548.82611084 15.65192699 213 109 142
246082.62561035 3357547.72845459 15.71355247 58 218 252
246083.85620117 3357549.36853027 13.12169552 82 85 92
246082.40051270 3357547.66113281 15.62847519 186 239 255
246083.02941895 3357548.26678467 15.19693470 128 128 128
246083.12536621 3357549.04400635 13.16056442 163 165 164
246082.31872559 3357547.53747559 15.24449825 128 128 128
246083.97900391 3357548.49987793 15.29029560 60 138 184
246082.74975586 3357547.94689941 15.20347500 128 128 128
246081.79333496 3357549.79541016 13.43159103 59 66 74
246082.45544434 3357547.46520996 13.32092476 192 193 188
246082.17639160 3357549.00390625 13.23480320 104 107 112
246083.02954102 3357548.06036377 15.75505638 48 138 216
246081.98693848 3357548.92089844 15.19850826 128 128 126
246081.79992676 3357549.96496582 13.45430183 58 66 79
246081.63781738 3357548.80187988 15.49547386 173 247 255
246082.48132324 3357547.41033936 15.23426151 128 128 128
246083.52429199 3357548.60357666 15.20888233 128 128 128
246082.41345215 3357548.67529297 13.19957542 121 122 116
246082.06774902 3357549.22662354 13.29049492 73 76 83
246082.93493652 3357548.30450439 13.17079544 163 168 164
246082.85046387 3357549.75067139 15.32173252 81 161 194
246083.47790527 3357547.88323975 15.21195793 129 129 129
246083.80725098 3357548.42877197 15.42007828 28 128 190
246081.96716309 3357548.13323975 15.70630455 20 212 249
246083.06176758 3357547.58459473 15.60697174 9 130 211
246081.59667969 3357548.65606689 15.22973537 127 129 128
246083.14807129 3357547.06030273 15.41553116 22 146 208
246083.49072266 3357549.13793945 15.45036697 15 116 188
246082.87231445 3357548.82806396 15.18412399 128 128 128
246083.01281738 3357548.26647949 15.83100796 19 117 204
246082.68884277 3357547.72967529 13.30124569 184 188 189
246083.20947266 3357548.66998291 13.15755749 172 176 177
246083.52661133 3357548.16992188 15.55838776 6 102 176
246082.75329590 3357547.84960938 13.26219368 183 187 188
246082.49133301 3357548.59649658 15.94279861 23 167 228
246082.13879395 3357549.54760742 15.20554924 128 128 128
246082.32177734 3357548.12219238 15.83883762 15 205 255
246083.07763672 3357548.64367676 15.19003868 128 128 128
246082.52014160 3357548.36584473 16.04750824 115 247 255
246083.26379395 3357548.50109863 15.20083904 128 128 128
246083.71740723 3357548.63598633 15.21214199 128 128 128
246083.11413574 3357549.85192871 13.14237499 180 177 170
246083.57604980 3357547.92456055 15.47064590 127 189 238
246082.54467773 3357548.77484131 13.19383717 160 162 157
246083.00903320 3357548.38769531 13.16587639 177 182 178
246082.40246582 3357548.16931152 13.18262863 171 173 172
246083.36914063 3357547.62725830 13.17398167 201 205 208
246083.43103027 3357549.44952393 13.13028717 49 52 61
246083.35534668 3357548.21582031 15.65348339 35 116 181
246081.76318359 3357548.72290039 15.56061172 195 233 246
246083.50085449 3357548.48303223 13.14229870 166 170 171
246083.22241211 3357547.55639648 15.21517277 128 128 126
246083.06701660 3357549.37042236 15.44042778 79 167 217
246083.20166016 3357549.55432129 15.21546268 147 187 195
246082.29504395 3357548.20074463 15.20685863 128 128 128
246081.79052734 3357548.98864746 15.49898815 176 215 232
246083.11120605 3357549.84912109 13.14231777 180 177 170
246082.09460449 3357547.81842041 15.24711514 128 128 128
246082.11840820 3357548.83398438 15.66842556 252 223 241
246081.55786133 3357548.08117676 15.33899498 6 156 232
246082.87512207 3357549.52453613 13.14031601 153 152 147
246082.49841309 3357550.16589355 13.15607166 80 93 110
246083.01477051 3357547.81591797 15.68200493 10 135 217
246082.43188477 3357547.89581299 13.24519920 180 184 183
246082.88720703 3357549.12689209 13.16674995 161 161 161
246082.97143555 3357548.43286133 15.19072056 128 128 128
246083.19665527 3357548.98437500 15.57306290 109 122 175
246083.38830566 3357548.25433350 15.65075874 10 103 181
246082.43762207 3357547.47241211 13.31715012 191 192 187
246082.08679199 3357547.66265869 15.54322624 197 214 232
246082.85412598 3357547.22552490 13.27629948 170 171 166
246083.81762695 3357548.53088379 13.13296223 153 157 160
246081.75390625 3357548.75183105 15.20605373 128 128 128
246082.34423828 3357548.05670166 15.20875645 128 128 128
246081.90966797 3357550.13262939 13.37590504 70 80 89
246081.90380859 3357550.25897217 13.35455513 60 72 84
246082.66967773 3357548.00177002 15.85454845 97 232 254
246081.45178223 3357548.22857666 13.17873573 181 186 192
246082.59729004 3357548.46795654 16.10831833 29 137 201
246083.32104492 3357547.25396729 15.29378223 118 164 226
246083.02868652 3357548.50323486 13.16458702 171 176 172
246083.20947266 3357547.38952637 15.22650146 195 197 192
246083.82873535 3357548.24023438 15.32748413 65 139 176
246083.79516602 3357549.11010742 15.24728298 150 188 211
246082.71459961 3357547.54357910 13.33334827 186 188 187
246082.70983887 3357548.63305664 13.18541431 165 167 162
246082.93786621 3357548.08746338 15.80910969 22 143 224
246082.68395996 3357549.72204590 15.18739223 128 128 126
246082.14575195 3357547.54370117 15.50430202 174 213 230
246082.37084961 3357547.76818848 13.26553535 184 188 187
246081.81079102 3357548.66711426 15.20665741 128 128 128
246082.65283203 3357549.81292725 15.20322800 128 128 126
246083.15747070 3357548.68664551 13.16031456 170 172 171
246083.55358887 3357548.61920166 15.60046196 14 116 198
246083.58691406 3357548.76965332 15.55294132 7 113 189
246081.52062988 3357548.84552002 13.21183491 83 78 74
246082.12561035 3357550.06298828 13.19618702 52 61 70
246082.31970215 3357548.56628418 13.20337296 119 122 115
246081.86022949 3357549.12469482 15.48854923 56 138 194
246083.53161621 3357549.33453369 13.12406540 94 95 99
246082.48339844 3357547.82269287 13.28694534 182 186 185
246083.15161133 3357548.62127686 13.15893078 172 176 177
246082.94177246 3357549.51000977 15.41183853 34 145 190
246082.98437500 3357547.50726318 15.61889553 9 122 216
246082.94702148 3357547.25531006 15.21731949 128 128 128
246082.47680664 3357549.01501465 15.18772602 128 128 128
246083.15063477 3357547.61938477 15.57524109 11 133 218
246082.68750000 3357548.84600830 15.76363373 19 108 188
246083.98083496 3357549.02447510 13.12483692 121 124 129
246082.46313477 3357548.31188965 13.19414997 128 129 124
246082.68359375 3357548.14270020 13.18317032 165 167 164
246082.84057617 3357547.21881104 15.54853153 82 198 245
246082.07458496 3357548.73602295 13.21327877 137 138 133
246082.59570313 3357548.64221191 13.19083881 161 163 160
246083.33300781 3357548.82366943 15.60981750 27 106 181
246081.58007813 3357547.90533447 15.57405758 12 188 248
246081.77209473 3357549.34912109 15.36928082 104 169 209
246082.05932617 3357549.76391602 13.28655243 25 25 33
246083.22521973 3357547.12640381 15.37966824 38 157 215
246083.35192871 3357547.76519775 15.51760197 188 206 255
246082.77807617 3357547.99243164 15.20207310 128 128 128
246082.41662598 3357549.68652344 13.18253899 56 62 78
246082.94555664 3357547.44006348 15.21293354 128 128 128
246083.35559082 3357547.31604004 15.27000618 111 148 216
246081.50939941 3357547.99719238 15.57606983 7 179 241
246082.14465332 3357549.12628174 13.26371765 64 73 82
246081.50085449 3357548.20971680 15.36045742 8 161 237
246082.17199707 3357550.28808594 13.21521187 85 94 103
246082.61303711 3357547.29022217 15.52493095 20 164 235
246083.73791504 3357549.04449463 15.38647556 43 144 198
246083.57800293 3357548.77569580 15.20700455 128 128 126
246083.59631348 3357548.58123779 13.14168358 168 172 171
246082.36535645 3357550.39648438 13.15144539 76 84 97
246082.42358398 3357550.12524414 13.15557480 70 82 94
246083.44836426 3357549.20483398 15.43074989 23 118 184
246081.92309570 3357550.15319824 13.36233711 63 73 83
246081.93200684 3357549.57330322 15.22848225 189 191 188
246083.23425293 3357547.07440186 13.23248482 176 176 178
246082.01818848 3357549.77203369 13.30260849 86 90 101
246082.07800293 3357547.93255615 13.18407822 151 153 152
246083.02770996 3357549.01586914 15.60275936 104 97 141
246083.64343262 3357549.04449463 15.43410206 15 122 192
246082.05358887 3357549.35943604 15.20131207 128 128 128
246083.91979980 3357548.33898926 15.23394299 84 122 141
246083.01916504 3357549.29101563 13.14979839 167 169 166
246083.21826172 3357548.27160645 13.15531158 190 194 193
246083.56518555 3357548.77453613 15.55924034 10 113 192
246081.99609375 3357549.56243896 15.21332836 127 128 130
246083.24377441 3357546.97924805 15.26111507 60 152 189
246082.89489746 3357548.64178467 15.82835197 13 85 170
246083.62194824 3357548.46154785 13.13878250 172 176 175
246082.12622070 3357550.49829102 13.19178391 68 75 83
246083.66369629 3357548.19165039 13.13847065 182 186 189
246081.94470215 3357547.71655273 15.26462173 127 127 127
246081.80163574 3357549.15618896 15.45822239 74 157 207
246082.18676758 3357550.11090088 13.16421986 68 78 88
246081.84484863 3357548.94708252 15.53046799 210 211 229
246082.78637695 3357548.20397949 13.17987156 165 167 164
246081.33837891 3357548.87713623 13.18334961 239 226 217
246083.46923828 3357547.57287598 15.39259338 17 119 204
246081.96313477 3357548.26739502 13.15873718 154 154 154
246082.82910156 3357548.41833496 15.96133995 7 91 179
246082.35107422 3357548.82495117 15.76504612 13 157 227
246082.81274414 3357548.15454102 13.17834187 174 176 173
246082.51049805 3357548.09283447 15.20501709 128 128 128
246082.91064453 3357548.11566162 15.83181667 23 142 222
246083.78027344 3357548.25762939 15.39182568 36 130 184
246082.76367188 3357549.53601074 15.17458916 128 128 128
246081.38757324 3357548.41894531 15.36743069 14 136 221
246082.73205566 3357548.36511230 15.19567871 128 128 128
246081.73901367 3357548.90466309 13.22885895 194 193 189
246081.48547363 3357548.95544434 13.21765423 111 104 98
246083.55969238 3357548.47869873 15.21323013 128 128 128
246082.90844727 3357547.21527100 13.26655293 167 168 162
246083.02514648 3357548.90228271 15.65214920 96 117 172
246083.38378906 3357549.46972656 15.27599144 129 175 191
246083.99182129 3357548.47576904 15.27204514 67 138 180
246082.16735840 3357547.51000977 15.50002670 162 217 238
246082.38708496 3357550.12878418 13.15823174 72 85 94
246082.63671875 3357547.88513184 13.26745796 177 179 178
246081.90808105 3357548.72302246 13.19797897 170 169 165
246083.20800781 3357548.41247559 15.20068169 128 128 128
246081.92272949 3357548.93670654 15.19937706 128 128 130
246082.59375000 3357549.92352295 13.14801979 151 160 165
246083.31201172 3357549.55554199 13.13922310 88 89 83
246082.77307129 3357547.68420410 15.70280838 130 232 255
246082.22375488 3357547.60888672 15.55452061 173 206 221
246083.05590820 3357548.80511475 15.68598938 56 106 175
246082.02661133 3357548.27166748 15.76799965 36 221 249
246083.60803223 3357548.13684082 15.21094608 128 128 128
246083.08764648 3357549.09381104 15.55398369 137 146 185
246083.89794922 3357548.26422119 15.21704865 128 128 128
246083.08789063 3357549.24707031 15.48813915 87 136 179
246082.79516602 3357549.03643799 15.18148899 128 128 128
246083.29284668 3357548.32678223 13.14887810 173 178 174
246081.72094727 3357548.72607422 13.19212723 182 181 177
246083.23046875 3357548.67645264 15.19540024 128 128 128
246081.90710449 3357548.16644287 13.16706562 156 157 159
246083.84545898 3357549.02270508 15.30862141 86 169 203
246082.39709473 3357548.11907959 13.18531990 186 188 187
246083.80310059 3357548.63385010 15.47084332 14 119 185
246081.78784180 3357549.05181885 15.20108795 127 129 128
246081.84606934 3357548.00573730 13.18011379 154 161 169
246082.48937988 3357547.51745605 15.59072495 83 208 252
246082.41699219 3357547.49127197 15.56227970 77 191 243
246082.54370117 3357548.08239746 15.88424873 0 175 248
246082.15368652 3357549.93750000 15.29557419 155 186 204
246082.26379395 3357549.56597900 15.20030785 128 128 128
246082.26489258 3357547.37390137 15.47508907 34 162 227
246082.20349121 3357547.75573730 15.23780918 127 129 128
246082.80468750 3357549.20245361 15.17809105 128 128 128
246081.84509277 3357547.62408447 15.51800919 110 200 226
246081.98242188 3357548.43023682 13.15788460 146 148 145
246083.51147461 3357549.39019775 15.26380730 163 196 205
246082.16027832 3357547.71905518 15.58631897 217 214 243
246082.56091309 3357548.49475098 16.08267784 35 160 218
246083.18444824 3357548.51446533 15.19734669 128 128 128
246082.38110352 3357548.29187012 13.19465923 128 129 124
246082.76379395 3357548.99554443 15.18285751 128 128 128
246082.86230469 3357548.47686768 15.93728161 5 81 165
246081.99792480 3357549.40405273 15.46509457 51 154 221
246081.88146973 3357548.83831787 13.21706676 178 177 172
246083.72705078 3357548.37860107 15.47263908 18 125 195
246082.78430176 3357547.71398926 15.71093273 132 238 255
246082.20495605 3357547.79815674 15.63679981 177 134 180
246081.54968262 3357548.51434326 15.25884247 128 128 128
246081.31823730 3357548.39825439 13.17340469 176 180 181
246083.11621094 3357549.43072510 13.13604546 157 157 155
246081.82543945 3357547.93493652 15.62677002 45 224 254
246083.88269043 3357548.59460449 15.39797115 33 132 191
246082.78869629 3357549.77032471 13.14290237 195 194 189
246082.64624023 3357547.87817383 15.77664852 36 203 245
246083.06408691 3357547.15472412 13.25067329 178 178 176
246081.97583008 3357549.13922119 13.29345894 247 252 255
246082.96582031 3357547.34832764 15.21589470 128 128 128
246082.74377441 3357548.14031982 15.91475391 86 199 231
246083.23986816 3357548.38812256 15.75881004 16 106 202
246083.01037598 3357548.17059326 13.16925144 169 173 172
246081.55834961 3357549.21130371 13.30244637 221 221 223
246083.38635254 3357547.61730957 15.46672344 28 119 208
246082.80773926 3357548.89501953 15.70960331 39 119 192
246082.40673828 3357549.79876709 15.45123196 60 154 205
246082.15222168 3357548.10992432 13.17461967 137 142 138
246082.31188965 3357549.97998047 15.41739368 37 141 196
246081.74206543 3357548.74188232 15.54805756 181 218 244
246083.33911133 3357549.37945557 13.12968922 120 120 118
246083.16369629 3357549.17810059 15.18097591 128 128 128
246083.42651367 3357547.92700195 15.21338844 127 127 127
246082.27526855 3357547.40777588 15.24595833 128 128 128
246081.93225098 3357548.12982178 15.23728657 128 128 128
246081.40124512 3357549.01678467 13.20192909 122 108 97
246083.78259277 3357548.26086426 15.20804024 128 128 128
246082.67932129 3357547.50427246 13.33763027 190 192 191
246083.06555176 3357547.95666504 15.20564461 128 128 128
246083.70068359 3357548.10247803 13.14124012 184 187 192
246082.47509766 3357547.94860840 15.78318214 1 181 240
246082.80981445 3357547.24450684 15.55365753 64 185 238
246083.53881836 3357549.07165527 15.46571541 11 112 190
246082.18151855 3357547.68048096 13.23113918 185 187 186
246083.04199219 3357548.86950684 15.66191387 90 119 177
246082.99560547 3357548.21801758 15.82358837 15 122 200
246081.98559570 3357550.06018066 13.28252888 62 70 81
246083.86486816 3357548.84460449 13.13475990 156 160 163
246081.32348633 3357548.73437500 13.17490196 167 162 158
246083.27575684 3357549.32232666 15.41484165 81 164 208
246082.44836426 3357550.04040527 15.26093864 121 131 143
246082.86743164 3357548.11822510 15.19799709 128 128 128
246083.50537109 3357549.06860352 15.47623158 13 111 184
246082.86669922 3357548.48864746 15.19081879 128 128 128
246082.21154785 3357548.04266357 13.18126965 181 183 182
246082.30432129 3357547.50756836 15.24910069 128 128 128
246083.43725586 3357548.29937744 15.63560772 8 108 196
246082.62036133 3357550.34143066 13.15147018 147 176 194
246081.57775879 3357548.15783691 13.17944527 171 176 182
246083.15100098 3357547.72082520 15.21459484 128 128 126
246083.52795410 3357548.72308350 15.20623302 128 128 128
246083.22595215 3357548.28796387 15.20431709 128 128 128
246082.47570801 3357548.57012939 15.95104790 9 169 229
246082.81677246 3357548.16571045 15.89456463 16 133 202
246083.13598633 3357548.93823242 15.60837936 107 114 169
246083.30993652 3357547.70336914 15.52255726 111 158 230
246082.01196289 3357549.28082275 13.31011486 73 73 81
246081.71862793 3357549.10327148 15.20659828 117 131 140
246082.01025391 3357549.47082520 13.30882645 120 110 121
246082.56079102 3357549.89532471 15.36932468 56 145 185
246084.05065918 3357549.04083252 13.12460899 123 126 131
246082.87670898 3357548.77868652 15.75504017 28 110 184
246082.08740234 3357549.32092285 15.52378845 17 146 227
246082.23339844 3357548.62652588 13.20758438 121 122 117
246083.15502930 3357548.13568115 15.20503998 128 128 128
246082.86865234 3357548.23101807 13.17518425 161 165 164
246082.70751953 3357548.57843018 15.94392014 3 73 158
246083.03283691 3357548.61755371 13.16432667 170 175 171
246082.73901367 3357548.41064453 13.18303680 124 126 123
246083.36804199 3357549.83032227 13.12873936 216 212 203
246081.72473145 3357549.77001953 13.47980976 124 127 132
246083.52465820 3357548.83569336 13.14828873 179 183 184
246083.49731445 3357548.37957764 13.14045238 179 183 186
246082.69641113 3357549.16918945 13.17542076 138 140 137
246083.31494141 3357547.67144775 15.51422310 64 126 209
246081.82580566 3357549.45483398 13.38565350 187 199 213
246082.32165527 3357549.32360840 13.21633625 189 188 183
246082.36315918 3357548.34362793 15.20283985 128 128 128
246083.96289063 3357548.79669189 15.35209084 51 150 205
246083.64831543 3357549.20166016 15.36322498 63 151 191
246081.69421387 3357548.46691895 15.23586273 128 128 128
246082.34619141 3357547.63677979 13.28321171 185 187 186
246082.84667969 3357549.81475830 13.14643097 166 168 167
246081.96276855 3357549.45574951 15.42903423 109 173 211
246082.20544434 3357549.46191406 15.53673077 26 148 215
246083.48095703 3357548.40454102 13.14134216 179 183 186
246083.00732422 3357548.76428223 13.16902447 159 161 158
246082.26086426 3357549.94903564 15.23235893 124 129 133
246083.23425293 3357549.53430176 15.24013042 151 188 197
246081.68420410 3357548.01678467 15.62252235 16 220 253
246082.09838867 3357549.09655762 15.58923244 17 149 221
246083.15075684 3357547.49975586 15.21632385 129 127 128
246082.70605469 3357549.93450928 13.14922237 61 73 87
246082.92687988 3357548.73687744 15.76230049 24 103 182
246082.77441406 3357547.22387695 15.53456306 20 153 218
246082.34533691 3357550.19696045 13.15788651 78 88 97
246081.58947754 3357548.35559082 15.26628780 128 128 128
246081.52307129 3357548.63610840 15.50294495 22 143 234
246082.96484375 3357549.25091553 15.17422295 128 128 128
246081.74963379 3357547.92218018 13.18739128 153 161 172
246083.80664063 3357548.30578613 15.37723160 42 130 178
246083.15478516 3357547.67901611 15.58495140 16 128 212
246081.93469238 3357548.80200195 15.60292625 243 203 212
246081.67895508 3357548.34350586 15.61065388 21 146 236
246082.20031738 3357549.38897705 13.24094296 97 97 97
246082.31457520 3357549.29742432 13.21870899 170 171 165
246082.85913086 3357547.82482910 15.73579884 7 150 218
246083.62438965 3357548.81781006 15.52237511 10 118 193
246082.77331543 3357547.71447754 15.20755577 128 128 128
246082.11987305 3357548.10388184 15.75193214 33 215 252
246083.12829590 3357549.47686768 13.13238430 150 151 146
246082.33764648 3357549.83105469 15.46068954 59 156 207
246083.10583496 3357547.36962891 15.21636868 128 128 128
246082.23376465 3357548.20300293 13.17291546 142 144 143
246082.09521484 3357549.68853760 15.21474743 117 131 142
246083.98620605 3357548.73681641 15.33104801 29 128 195
246082.92785645 3357548.18237305 15.84522820 21 133 209
246082.00708008 3357547.91809082 13.18575382 147 151 154
246083.36059570 3357548.19647217 15.64543819 86 152 202
246082.65002441 3357549.90997314 13.14673138 123 132 141
246082.50756836 3357548.92504883 13.19731712 143 144 146
246082.67846680 3357547.57189941 13.33049488 187 189 188
246081.76525879 3357549.25793457 15.21089649 107 134 151
246082.93164063 3357547.53985596 15.62884808 13 124 213
246083.47253418 3357549.19927979 15.19285774 128 129 131
246082.31225586 3357548.23602295 15.89943600 23 196 236
246083.19116211 3357547.00225830 15.36888504 28 156 217
246082.15954590 3357549.39019775 13.25567341 97 92 96
246083.76440430 3357548.24475098 15.20831871 128 128 128
246082.72314453 3357549.67358398 15.18303585 128 128 128
246081.62084961 3357548.73034668 15.50982571 39 135 196
246083.09826660 3357547.24090576 13.23850060 170 172 169
246082.49890137 3357548.15405273 15.91994572 1 168 238
246083.02966309 3357547.53576660 15.61148357 12 125 217
246082.52282715 3357549.37115479 15.17996979 128 128 128
246082.97094727 3357547.20739746 15.21814060 128 128 126
246083.40466309 3357547.98797607 15.21430111 128 128 128
246083.80932617 3357548.58477783 15.45846081 18 121 188
246083.63317871 3357547.99591064 15.46291733 67 151 211
246083.51416016 3357547.98565674 15.51585388 108 149 211
246081.84619141 3357547.65600586 15.53158665 70 177 211
246083.35180664 3357547.48834229 13.17215919 204 208 209
246083.78906250 3357548.77984619 13.13707256 159 163 166
246082.34106445 3357548.89093018 15.19261646 128 128 128
246083.32543945 3357548.64764404 13.15177536 170 174 173
246082.19812012 3357547.84497070 15.65614223 163 130 177
246082.06506348 3357548.58312988 15.71442699 128 215 245
246082.01135254 3357548.26776123 15.75964832 24 208 236
246083.53662109 3357549.13793945 13.13505650 158 162 163
246083.17041016 3357548.95928955 15.18636703 128 128 128
246083.81848145 3357548.92114258 13.13571453 146 150 153
246082.88000488 3357549.37365723 15.48620224 41 144 189
246083.34216309 3357549.64367676 13.14504147 178 178 170
246082.77441406 3357547.54693604 15.65265751 107 217 254
246083.98767090 3357549.30902100 13.12229919 123 126 131
246082.16467285 3357547.62927246 15.25665474 128 128 128
246081.63232422 3357548.29919434 15.26325989 128 128 128
246081.63720703 3357547.94189453 15.59457874 12 207 253
246081.96984863 3357548.17822266 13.16566944 138 138 138
246082.85144043 3357547.77337646 15.71643066 4 141 209
246082.62536621 3357549.20410156 15.61698151 29 131 197
246082.88452148 3357549.12365723 13.16708851 159 159 159
246082.24902344 3357548.35437012 15.88846970 86 243 255
246082.49414063 3357549.97259521 15.24167728 127 128 130
246082.80615234 3357548.91528320 15.70151234 45 119 190
246083.01232910 3357548.53643799 15.84972572 6 78 163
246083.85192871 3357548.37677002 15.34881115 49 132 174
246081.99621582 3357549.56927490 15.21366882 127 128 130
246082.12939453 3357548.63897705 15.72543526 62 178 217
246083.44384766 3357549.27630615 15.40212250 26 124 187
246082.90979004 3357549.56738281 15.16908550 128 128 128
246082.74206543 3357549.55975342 15.43773937 33 135 183
246083.36730957 3357547.85327148 13.17122078 184 188 191
246082.84277344 3357549.28039551 15.53580189 44 141 186
246082.23571777 3357549.14593506 15.63185501 27 150 227
246082.03613281 3357547.50109863 15.25455666 127 129 128
246082.20800781 3357548.16229248 13.17411423 153 155 154
246081.86169434 3357548.41711426 15.21649361 128 128 128
246082.98315430 3357547.34735107 15.21661186 128 128 128
246081.93334961 3357548.04980469 13.17600155 169 174 177
246082.54675293 3357549.76745605 15.19642925 128 128 128
246083.40930176 3357549.38140869 15.34187222 60 149 189
246083.27282715 3357548.08435059 15.64987469 192 202 227
246081.77978516 3357549.04913330 15.47878265 195 250 253
246082.06042480 3357549.75262451 15.24315548 135 181 207
246081.64624023 3357549.08410645 13.28548050 255 255 253
246081.91552734 3357549.13116455 13.30085754 254 255 255
246082.98327637 3357549.70916748 13.13855934 84 81 72
246083.35559082 3357548.27471924 15.20982647 128 128 128
246082.49548340 3357549.55676270 15.18841839 128 128 128
246081.89794922 3357547.84649658 15.59934425 109 219 246
246083.85583496 3357548.59844971 15.42179871 28 128 190
246083.44653320 3357547.93951416 15.53129196 153 171 217
246081.94860840 3357547.80541992 15.26788902 127 129 128
246082.88488770 3357548.26074219 13.17411327 156 160 159
246082.96960449 3357547.18829346 15.53324699 23 118 186
246083.16845703 3357547.75061035 15.21459675 128 128 126
246082.49060059 3357547.75927734 13.30657864 189 193 192
246083.71630859 3357548.64013672 15.21219540 128 128 128
246082.39245605 3357548.09448242 13.18654728 184 188 189
246083.00329590 3357548.18084717 15.19790077 128 128 128
246082.26452637 3357549.80194092 15.21206856 128 128 126
246082.64135742 3357549.64935303 15.43212032 46 143 188
246081.52148438 3357548.05590820 15.59021854 9 189 248
246082.51953125 3357548.82757568 15.81020927 68 156 220
246083.26782227 3357547.25097656 15.23654175 150 169 199
246081.44738770 3357548.25677490 15.51964664 13 141 238
246083.74633789 3357549.17706299 15.25407791 148 185 203
246081.96484375 3357549.19573975 15.50861263 25 140 223
246082.52661133 3357547.69665527 15.21241379 128 128 128
246082.88513184 3357549.61102295 13.13635254 175 172 165
246081.86950684 3357549.54901123 13.37312698 186 192 206
246083.45544434 3357548.15435791 15.59176254 155 211 255
246083.46105957 3357548.64916992 15.64117527 2 103 181
246081.84948730 3357548.56774902 13.17205524 162 161 159
246081.49658203 3357548.01629639 13.18249226 148 152 161
246082.72656250 3357547.13885498 15.48276329 31 163 227
246082.41271973 3357549.02880859 13.21865368 124 129 133
246082.87451172 3357547.92254639 13.22155857 180 184 185
246082.09387207 3357547.75494385 15.25412178 127 129 128
246082.32202148 3357548.60363770 15.19854355 128 128 128
246082.13098145 3357549.84375000 15.41409683 37 180 236
246083.28247070 3357547.60827637 13.17691422 208 212 215
246082.63598633 3357548.08734131 15.90472507 77 206 235
246082.05981445 3357549.38653564 15.49460888 13 143 227
246082.68432617 3357548.96002197 15.70731831 30 117 196
246081.97375488 3357549.23364258 15.50177860 28 148 234
246082.65100098 3357549.88751221 13.14563465 160 167 173
246082.92883301 3357549.48596191 15.17031670 128 128 128
246083.52636719 3357549.15515137 15.43654919 16 118 192
246081.86682129 3357548.16442871 15.69453716 42 221 244
246083.69812012 3357549.50018311 13.11937904 57 60 67
246082.07775879 3357548.18927002 13.16656208 133 132 130
246082.26721191 3357547.77600098 13.22974300 189 193 194
246083.00939941 3357547.95117188 15.72907829 18 138 216
246082.04748535 3357547.73248291 15.26303864 128 128 128
246083.81945801 3357548.87115479 13.13691807 147 151 152
246082.21777344 3357548.94372559 15.19384575 128 128 128
246082.47814941 3357547.53747559 15.59781456 85 203 243
246081.74169922 3357548.96124268 13.24456406 191 190 186
246083.76867676 3357548.33355713 15.43278027 29 127 188
246082.16833496 3357549.07611084 15.62340260 18 156 229
246081.85266113 3357548.69384766 15.60130119 234 254 252
246082.61437988 3357547.34368896 15.54460907 21 168 235
246082.07958984 3357550.41156006 13.23863125 115 122 132
246083.91601563 3357548.68249512 13.13075733 164 169 173
246082.34472656 3357548.86596680 15.19303417 128 128 128
246083.20971680 3357548.20513916 15.20560360 128 128 128
246083.34814453 3357548.69909668 15.65839195 5 103 176
246083.31127930 3357549.35107422 15.18284035 127 127 127
246082.22766113 3357548.11328125 15.79813766 10 194 228
246082.07299805 3357549.48565674 13.28599548 144 129 132
246082.87207031 3357549.08868408 13.17000866 159 159 159
246083.23217773 3357547.00677490 15.33753490 30 160 212
246082.87365723 3357548.86315918 13.17752647 159 161 156
246083.22424316 3357548.51373291 15.19896126 128 128 128
246082.04064941 3357549.10754395 13.27628422 167 174 180
246082.26281738 3357547.49707031 15.52691460 111 192 237
246082.92224121 3357548.76239014 15.74897480 24 106 180
246082.51818848 3357548.26849365 13.19139004 138 139 134
246083.66223145 3357548.16674805 15.47507286 19 115 192
246083.63537598 3357548.20947266 13.13884830 141 145 148
246081.85241699 3357548.76068115 15.20408154 129 127 128
246081.52502441 3357548.14105225 13.18159676 173 177 186
246082.50158691 3357547.52606201 15.59750652 83 205 246
246081.97204590 3357549.44165039 15.44533730 91 171 224
246082.31909180 3357548.50573730 13.20252705 118 120 115
246083.29589844 3357547.32867432 13.18921852 196 198 197
246081.61145020 3357548.05963135 15.30656052 6 153 233
246081.77856445 3357548.62738037 15.59282303 119 196 226
246082.13464355 3357547.97949219 15.69780254 85 201 242
246082.30053711 3357550.10015869 15.29058456 131 161 185
246083.10559082 3357549.57122803 13.13746357 164 165 160
246082.54711914 3357549.92626953 15.36125374 61 150 192
246081.86486816 3357548.50451660 15.20882607 128 128 128
246083.63415527 3357548.65698242 15.21203518 128 128 130
246083.29040527 3357548.80078125 15.62782955 24 103 178
246082.43786621 3357549.69366455 15.47658634 69 155 206
246082.02148438 3357548.75842285 13.20893383 135 131 130
246081.83898926 3357548.37500000 15.67487431 13 161 233
246081.53283691 3357548.27777100 15.29243660 87 143 168
246082.80773926 3357549.22705078 15.17755890 128 128 128
246082.61865234 3357547.46295166 15.59315014 55 195 248
246083.51733398 3357548.64428711 15.20765209 128 128 128
246083.59912109 3357549.53350830 13.12556839 109 114 118
246082.22412109 3357547.71704102 15.23898029 127 129 128
246082.65234375 3357548.91174316 15.73338223 20 120 195
246083.09838867 3357546.94171143 15.26205349 128 175 195
246083.63891602 3357549.07977295 13.13411903 162 166 167
246081.93273926 3357548.65789795 13.18876648 163 162 160
246083.30908203 3357548.12298584 15.64575005 231 248 255
246083.00219727 3357548.31109619 13.16632462 172 177 173
246082.33044434 3357549.42053223 13.20959091 124 126 123
246082.69885254 3357548.16571045 15.20015621 128 128 128
246083.88476563 3357548.86981201 13.13424778 150 154 155
246083.05615234 3357548.32458496 13.16273785 181 186 182
246083.01428223 3357549.22747803 13.15432549 166 168 167
246081.46228027 3357549.14373779 13.21969223 136 128 125
246082.79296875 3357549.02685547 15.18171597 128 128 128
246082.87597656 3357548.78936768 15.18480873 128 128 128
246082.50134277 3357549.87976074 13.15611935 63 76 85
246083.81750488 3357548.15802002 15.31626034 91 151 179
246082.06616211 3357547.68713379 15.26093102 128 128 128
246081.89404297 3357547.73724365 15.56319141 129 217 241
246083.40759277 3357548.30639648 15.21116734 128 128 128
246081.76757813 3357548.12255859 15.66269588 16 199 230
246082.67358398 3357549.37780762 15.17708397 128 128 128
246081.71142578 3357549.46038818 13.42776775 249 250 254
246083.14575195 3357549.78045654 13.13554573 187 187 179
246083.32299805 3357548.87811279 15.58924389 32 109 179
246081.75354004 3357548.48272705 15.22537422 128 128 128
246081.96655273 3357548.63623047 13.18656731 161 160 158
246081.69604492 3357549.68395996 13.47690201 206 206 208
246083.40844727 3357549.26257324 15.18880653 128 128 128
246082.30676270 3357547.84771729 15.21349812 128 128 128
246082.97741699 3357548.14801025 15.19762897 128 128 128
246082.25390625 3357548.70898438 15.75694370 11 170 238
246082.96264648 3357548.75170898 13.17071438 159 161 158
246082.53918457 3357549.98590088 15.33956528 43 138 184
246081.72216797 3357548.56958008 13.16804504 166 165 163
246083.16613770 3357547.09637451 13.23932648 181 181 179
246082.32824707 3357548.53576660 15.88048172 16 207 249
246082.81188965 3357547.67401123 15.68981743 122 225 255
246082.26147461 3357548.25091553 15.20649910 128 128 128
246082.56506348 3357548.55895996 15.19496727 128 128 128
246081.85693359 3357547.83758545 15.27104855 128 128 128
246082.90600586 3357547.48583984 13.28786755 179 180 182
246082.92016602 3357547.59600830 15.64196873 15 127 213
246082.35546875 3357549.89331055 15.21723175 128 128 128
246083.79785156 3357548.49499512 15.20938301 128 128 128
246083.55285645 3357548.46295166 13.14058399 179 183 184
246082.45690918 3357549.45996094 13.19235802 71 76 80
246082.52795410 3357548.68707275 15.90030003 49 162 222
246082.86145020 3357547.75793457 15.20510197 128 128 128
246083.29101563 3357548.47979736 15.20243073 128 128 128
246082.97778320 3357549.16571045 13.16012478 167 167 167
246082.61877441 3357549.73791504 15.19139671 128 128 130
246082.91906738 3357548.52947998 15.18906784 128 128 128
246081.82324219 3357549.10388184 13.30617619 239 240 242
246081.61462402 3357548.76544189 13.19613743 106 105 101
246081.78942871 3357548.18103027 13.16729641 161 162 167
246083.16589355 3357547.36071777 15.49716187 24 124 212
246081.60253906 3357548.24334717 15.27599525 108 135 144
246082.11230469 3357548.43334961 15.20568466 128 128 128
246082.98852539 3357549.13403320 15.17605972 127 129 128
246082.24328613 3357547.85144043 15.67344952 157 141 180
246082.79565430 3357549.64007568 15.39124680 40 143 184
246083.26159668 3357548.14166260 15.20917225 128 128 128
246082.88537598 3357549.35815430 13.15114784 154 155 150
246083.48669434 3357547.50970459 15.30355930 47 142 206
246081.32299805 3357548.93322754 13.18213463 243 231 219
246081.74487305 3357548.35998535 13.16137314 141 141 141
246082.39709473 3357549.56579590 15.53024483 78 160 208
246082.22583008 3357549.38806152 15.56251907 27 150 218
246082.63464355 3357548.30139160 13.18735600 140 142 137
246081.61840820 3357548.79809570 15.21108437 128 128 130
246082.20117188 3357549.60827637 15.50377941 53 162 218
246082.41455078 3357547.98736572 13.20824623 181 185 184
246083.30737305 3357549.27441406 15.18447876 128 128 128
246082.55041504 3357548.46014404 13.19215012 126 128 123
246081.80908203 3357548.49005127 15.21634293 128 128 128
246083.15417480 3357547.67083740 15.21589088 127 129 126
246083.88391113 3357548.77423096 13.13315201 164 169 173
246083.87072754 3357548.38073730 15.21260738 128 128 128
246083.60778809 3357548.27777100 15.21195889 128 128 128
246083.41088867 3357547.55822754 15.43158913 18 115 209
246083.46447754 3357548.69055176 15.62556458 6 106 184
246081.28210449 3357548.11285400 13.17800808 170 174 177
246081.75854492 3357549.62158203 13.44230461 194 201 207
246082.32763672 3357549.22924805 13.22117233 92 96 97
246083.86315918 3357549.09527588 13.12434673 139 142 147
246081.72790527 3357549.07305908 15.20487309 128 129 131
246082.38879395 3357548.38385010 13.19806767 126 127 122
246082.15490723 3357548.55242920 13.19906712 123 124 119
246083.75341797 3357549.13726807 13.12604618 160 164 167
246082.71289063 3357549.85394287 15.33288860 98 172 201
246082.37353516 3357549.20935059 15.18584156 128 128 128
