246116.75830078 3357522.45819092 13.95257950 43 52 59
246116.72802734 3357524.37768555 14.22869205 77 67 65
246116.17163086 3357525.67016602 15.35035133 207 210 203
246116.57592773 3357523.93237305 13.78880882 146 147 149
246115.26843262 3357522.39105225 13.93494987 110 150 115
246118.25598145 3357525.30352783 13.96247768 215 216 211
246118.15039063 3357526.25140381 14.01842213 175 179 180
246118.54174805 3357524.45672607 13.76616096 210 206 203
246116.43688965 3357524.88049316 16.07411385 2 153 234
246116.18286133 3357523.55163574 14.12510109 85 94 103
246115.40075684 3357523.49975586 14.04481411 120 118 119
246116.25329590 3357523.06945801 14.39810276 9 12 17
246116.74377441 3357525.55694580 16.30751610 4 165 237
246115.59631348 3357521.80535889 13.94718075 129 122 116
246117.73620605 3357525.45220947 13.96882629 203 204 199
246116.78710938 3357526.35485840 16.11317444 28 167 226
246114.58984375 3357523.30737305 13.82221413 193 188 184
246115.85766602 3357524.66021729 13.76200104 189 182 174
246117.00573730 3357522.65899658 13.82477188 81 93 105
246118.21374512 3357525.23712158 13.96356487 208 209 203
246117.14123535 3357522.47882080 13.82964039 58 68 77
246116.35461426 3357523.27532959 14.23008251 20 23 30
246119.22521973 3357525.80096436 16.04524040 53 156 214
246118.11352539 3357524.18475342 15.83704948 208 209 204
246117.53613281 3357524.15881348 16.01490593 28 152 216
246118.10192871 3357525.48449707 16.48899078 14 122 195
246115.74121094 3357523.51440430 14.01006985 90 93 98
246117.81250000 3357525.88104248 16.60639191 12 83 161
246115.69323730 3357523.30413818 14.47030735 100 104 105
246116.06323242 3357525.15454102 16.01569557 18 163 242
246115.65209961 3357523.34466553 14.30910206 90 91 95
246116.40979004 3357523.80419922 13.85035610 86 90 99
246116.78820801 3357526.11016846 16.17633057 204 248 255
246116.32385254 3357523.77813721 13.90952396 60 60 72
246119.11169434 3357526.00744629 16.07625389 68 153 184
246118.05505371 3357526.02471924 15.63446236 128 128 128
246116.07971191 3357524.38800049 13.81476307 178 168 159
246115.73742676 3357524.36737061 13.81304455 217 204 195
246117.33288574 3357525.73376465 13.92218113 112 112 112
246116.64245605 3357525.69451904 16.23161697 3 171 236
246118.38964844 3357526.21301270 16.23662567 177 177 229
246116.42663574 3357524.52380371 14.16988373 82 78 77
246117.46142578 3357525.85900879 15.50836277 128 128 128
246117.95678711 3357523.80102539 13.89497375 211 208 203
246116.00573730 3357525.27996826 15.99147701 9 152 228
246118.58203125 3357525.09057617 13.93848896 213 212 210
246116.98278809 3357526.62072754 15.35846806 128 128 128
246118.21789551 3357523.94653320 16.04115295 134 198 226
246116.06469727 3357522.34179688 14.07803154 21 26 32
246117.96142578 3357525.52252197 15.62954903 128 128 128
246116.64599609 3357526.41375732 15.54659271 83 97 106
246117.25878906 3357525.60430908 15.46886921 128 128 128
246115.39624023 3357523.41552734 14.07159615 92 92 92
246117.72851563 3357525.63995361 16.72545815 157 251 255
246117.31762695 3357527.10583496 14.14384174 195 194 190
246117.34069824 3357525.84411621 15.48238659 128 128 128
246116.71374512 3357526.77386475 15.83335876 45 91 151
246116.34680176 3357526.12628174 15.60949039 155 161 157
246117.94458008 3357524.66326904 13.89602470 210 207 202
246116.83239746 3357524.33013916 14.00240135 106 108 107
246118.93518066 3357525.50665283 13.81521416 203 202 200
246117.25122070 3357525.89233398 16.42972946 96 183 228
246117.56970215 3357525.54187012 13.95461273 181 182 177
246117.23254395 3357526.54528809 14.17660522 204 203 199
246118.59143066 3357524.63000488 15.84645844 197 199 198
246118.30456543 3357524.70550537 13.84728050 219 216 211
246118.36816406 3357524.02557373 15.88079739 30 109 140
246118.04431152 3357524.10913086 13.82346916 211 207 204
246117.74096680 3357525.10064697 15.60523987 128 128 128
246117.73657227 3357524.29986572 15.76502991 210 209 205
246116.94201660 3357524.85888672 14.32044220 208 205 200
246117.77563477 3357524.90740967 15.62471390 128 128 128
246117.74914551 3357526.82830811 15.58187771 164 169 165
246116.59069824 3357522.65893555 13.98262882 33 41 52
246117.70910645 3357525.52105713 13.96871185 203 204 199
246118.55285645 3357524.58111572 16.02684593 86 161 203
246117.87158203 3357526.54479980 15.55996037 127 127 127
246117.93469238 3357524.25848389 13.84168243 216 213 208
246117.63952637 3357524.12780762 13.84142876 199 194 191
246117.68432617 3357524.66961670 16.25602722 1 195 248
246118.42028809 3357525.10980225 13.96285725 208 207 203
246116.60351563 3357524.46978760 14.38260841 120 119 117
246118.68933105 3357524.98614502 15.84747982 128 130 129
246115.98876953 3357523.70745850 13.94150543 92 93 95
246116.45568848 3357525.97717285 15.37098312 185 191 181
246116.28723145 3357523.76080322 13.93537617 58 58 68
246117.98486328 3357524.75543213 16.29084778 47 194 238
246116.31262207 3357521.94592285 13.85052395 151 148 141
246118.36901855 3357524.55249023 13.76508236 207 204 199
246119.15759277 3357525.17388916 13.81548023 207 208 203
246115.84252930 3357525.12976074 15.49706936 112 94 94
246116.94458008 3357526.41107178 14.09877396 212 211 207
246115.54187012 3357522.53387451 14.27252102 39 51 67
246115.69726563 3357523.92852783 13.87258339 121 117 114
246118.21691895 3357525.81896973 16.44854927 6 97 180
246116.56896973 3357522.18646240 13.93799019 171 170 168
246117.67492676 3357525.35632324 13.95122814 198 199 194
246117.40417480 3357525.49407959 16.56821632 60 241 250
246116.89086914 3357527.04260254 15.67682934 178 194 227
246114.46630859 3357523.36236572 13.82092762 207 204 197
246117.03186035 3357525.96527100 16.30988693 255 249 255
246117.01989746 3357524.58917236 14.49733162 134 140 138
246118.88330078 3357525.35693359 15.87493610 118 131 139
246117.45031738 3357523.85119629 13.78970051 184 180 177
246116.93774414 3357525.70336914 15.39730644 128 128 128
246118.77307129 3357525.66137695 13.83868408 209 208 206
246118.46057129 3357524.55316162 16.09237099 58 158 208
246116.62902832 3357526.41241455 14.19792461 221 221 219
246116.00720215 3357521.76184082 13.85277462 147 147 145
246118.46960449 3357526.56890869 16.07270241 19 130 209
246115.62597656 3357521.82708740 13.95919418 129 122 116
246116.57788086 3357522.15716553 13.92237759 160 156 153
246116.57690430 3357524.70111084 14.41682816 166 149 157
246116.58081055 3357524.66217041 15.59344769 67 73 89
246116.52844238 3357526.39178467 15.93851948 187 244 255
246115.67480469 3357522.15734863 14.19595146 31 35 36
246118.19128418 3357524.50317383 13.82253170 214 211 206
246116.65649414 3357522.72955322 13.92761707 35 38 53
246117.00415039 3357522.12030029 14.10549068 11 12 17
246116.60424805 3357526.52642822 15.69522953 115 141 164
246116.60681152 3357525.72180176 14.12212372 209 210 204
246116.63586426 3357522.42675781 14.11068439 13 16 23
246118.35021973 3357524.97576904 16.25154114 149 174 231
246117.21850586 3357526.74121094 14.18601418 203 203 201
246118.54101563 3357525.68206787 13.93979740 207 207 205
246116.68029785 3357522.83807373 13.90742493 59 66 76
246115.84228516 3357524.38317871 13.79205513 213 199 190
246117.03906250 3357525.93963623 16.32122993 255 252 255
246119.16442871 3357525.69689941 16.07430077 49 162 218
246118.04187012 3357525.97198486 14.05013847 147 148 150
246116.32495117 3357525.99615479 15.97556973 64 142 206
246116.89086914 3357525.10125732 16.28100967 0 177 241
246116.58007813 3357524.45056152 14.23114586 26 25 23
246115.03027344 3357522.25195313 14.10474014 72 160 86
246116.48242188 3357525.52551270 14.14299393 215 213 216
246118.21240234 3357523.87530518 15.89933014 82 153 185
246117.15808105 3357526.10748291 16.31109047 230 66 117
246117.87524414 3357524.46899414 16.18509102 1 177 237
246118.95617676 3357526.21112061 13.80206585 202 204 201
246116.01953125 3357525.21594238 15.28258419 128 128 128
246115.83093262 3357523.04193115 14.49207592 121 156 158
246116.72595215 3357525.46246338 14.13123989 254 255 235
246115.53295898 3357522.54510498 14.27742100 39 51 67
246116.25671387 3357525.14678955 16.09393883 5 152 229
246116.67614746 3357525.22454834 16.27464867 3 168 234
246118.54931641 3357524.78839111 16.11985970 28 151 219
246118.52612305 3357524.20819092 13.79748821 196 191 187
246116.17578125 3357524.91479492 14.20305443 231 221 220
246116.01428223 3357525.46649170 15.35820770 239 235 232
246115.53234863 3357524.64263916 13.78444195 197 192 188
246116.91455078 3357524.97430420 14.23149872 201 197 196
246116.24072266 3357524.31768799 13.83343124 125 120 117
246119.19653320 3357525.97198486 16.04602242 73 156 186
246117.62451172 3357524.90777588 16.34577751 40 185 214
246115.79138184 3357522.45825195 14.43991661 60 69 76
246116.84411621 3357524.63989258 15.60128498 188 191 196
246118.84106445 3357524.14312744 13.90723324 209 211 208
246117.43298340 3357523.31195068 13.80162334 208 205 200
246116.66516113 3357524.86602783 15.32360268 167 168 172
246118.23828125 3357524.41607666 16.16225052 25 134 217
246116.76245117 3357523.02325439 13.95159340 30 34 45
246117.85327148 3357524.48822021 13.86634254 209 206 201
246118.80749512 3357524.92529297 15.89988613 191 199 202
246115.97375488 3357523.37536621 14.29883385 134 147 153
246118.35705566 3357525.84912109 14.00849152 194 196 195
246117.41967773 3357524.44842529 15.67161083 206 202 199
246117.01477051 3357524.64611816 15.55450153 200 199 195
246117.87805176 3357525.48492432 16.62418175 132 227 249
246116.78247070 3357525.26074219 15.37146854 128 128 128
246115.27966309 3357523.51947021 14.04321861 133 127 131
246116.68920898 3357526.55792236 16.01049614 36 154 216
246117.80224609 3357522.94952393 13.88199043 221 218 211
246117.53015137 3357525.94573975 13.92335510 117 119 118
246117.08435059 3357526.49151611 15.39116573 128 128 128
246117.12707520 3357527.28100586 14.01736927 191 190 186
246117.68627930 3357526.66027832 15.50994587 129 129 127
246118.00024414 3357526.34149170 16.30198288 196 237 255
246118.39526367 3357525.34704590 15.75356293 128 128 128
246116.82824707 3357524.73834229 16.14396095 0 162 245
246116.55224609 3357524.67980957 15.54790783 72 78 94
246116.28283691 3357525.67614746 15.28753185 128 128 128
246119.13269043 3357524.77832031 13.88399506 175 177 172
246116.62292480 3357524.99353027 14.25442410 193 187 187
246117.19396973 3357524.42108154 16.11976814 2 168 254
246116.56567383 3357522.31848145 14.14888477 80 81 86
246118.21496582 3357524.60565186 13.84925461 214 211 206
246116.28942871 3357526.01220703 15.55908012 215 218 211
246118.06384277 3357525.60369873 15.64921379 128 128 128
246118.64990234 3357525.07983398 16.13879585 126 189 242
246115.41455078 3357524.09783936 13.89863396 212 203 196
246114.83166504 3357523.03967285 13.83860397 199 197 198
246118.88110352 3357525.55187988 13.81553173 202 204 201
246115.54455566 3357522.40905762 14.11966610 86 96 88
246118.48632813 3357525.24523926 13.96130466 205 204 200
246117.75976563 3357526.62640381 16.23542976 13 114 192
246116.39733887 3357522.79382324 14.18186474 8 16 27
246118.20336914 3357526.67883301 14.07079887 194 198 197
246116.25378418 3357522.51837158 14.27598858 40 47 57
246117.78918457 3357526.17816162 16.43654251 11 110 201
246118.87817383 3357525.99462891 16.18022156 33 137 200
246118.18115234 3357525.44042969 13.96255112 210 211 205
246117.39794922 3357525.22039795 16.44886208 68 210 232
246117.71350098 3357526.41497803 14.13302422 108 111 116
246117.13500977 3357526.46368408 14.12309933 213 212 208
246117.75866699 3357525.50518799 13.96811867 203 204 199
246116.08117676 3357524.54620361 13.85181141 163 155 152
246117.93200684 3357526.59527588 16.20438576 19 115 199
246116.28088379 3357522.77124023 14.31052971 4 11 19
246117.23217773 3357524.36749268 14.08517838 189 180 175
246116.96557617 3357527.10937500 15.78719521 32 96 168
246116.64453125 3357522.36053467 14.18369389 177 180 187
246118.26416016 3357524.73034668 13.87309265 220 217 210
246115.71533203 3357522.23529053 14.25036621 29 33 34
246115.09570313 3357522.50872803 13.99250317 22 72 34
246117.26049805 3357524.46478271 14.13773346 189 182 176
246117.15539551 3357525.25463867 16.39315605 12 203 245
246117.63354492 3357526.11871338 16.46402931 108 216 255
246117.96374512 3357524.75500488 16.29044724 47 194 238
246116.83105469 3357524.34576416 14.25158882 137 126 122
246116.79345703 3357526.07623291 14.03706551 206 205 201
246116.75659180 3357525.35272217 16.31222343 18 192 245
246115.89721680 3357523.94775391 13.85903835 218 205 196
246118.30603027 3357524.43743896 16.13629723 31 143 209
246117.89721680 3357526.82360840 16.10806084 20 119 204
246116.50744629 3357522.66510010 14.04692364 16 23 33
246115.53320313 3357522.15380859 14.04571629 26 41 18
246118.83703613 3357525.34637451 15.86401272 125 130 134
246117.03894043 3357526.95483398 16.00535965 8 154 229
246115.36120605 3357522.75659180 14.10352230 128 131 136
246116.96374512 3357527.03527832 15.47450924 199 199 189
246117.93872070 3357526.20800781 15.60177994 128 128 128
246117.01574707 3357522.11199951 14.11079025 16 17 22
246117.77636719 3357523.29425049 13.84782314 189 181 170
246117.85107422 3357524.11486816 13.83418560 202 198 195
246116.66894531 3357526.22583008 14.15574074 218 217 215
246117.19604492 3357526.19854736 15.43927479 128 128 128
246118.40527344 3357524.98895264 16.22928810 138 176 238
246115.40527344 3357522.18402100 13.93315697 122 174 112
246116.84948730 3357525.98822021 16.23175049 151 235 255
246116.77038574 3357526.73522949 15.57301521 62 43 62
246116.73876953 3357525.45892334 14.12889194 255 255 237
246117.89355469 3357526.45074463 14.14498997 135 139 142
246116.74389648 3357526.32141113 14.15456867 219 218 214
246118.29357910 3357524.85260010 16.25337601 25 147 214
246118.56994629 3357525.43438721 13.92311668 214 213 211
246116.94091797 3357524.70037842 14.50327682 104 105 109
246117.06506348 3357527.22796631 15.81670189 25 125 211
246116.84460449 3357524.74993896 14.46583557 182 178 179
246116.34643555 3357525.74108887 15.29496670 128 128 128
246116.88659668 3357525.94934082 14.00538349 197 197 195
246118.75122070 3357525.12738037 16.11439705 69 163 215
246116.81604004 3357523.92590332 13.78793335 125 130 134
246116.00415039 3357524.90759277 14.01553154 134 114 115
246115.07836914 3357523.78680420 13.97909832 191 180 174
246118.15270996 3357523.71679688 13.93015194 195 192 187
246116.18957520 3357524.95068359 15.27693748 128 128 128
246115.02075195 3357523.14904785 13.84520721 129 129 129
246115.46093750 3357523.56079102 14.01541805 93 92 97
246118.54553223 3357526.21069336 13.89350224 211 211 209
246117.89489746 3357524.52429199 13.87030220 204 201 196
246117.60144043 3357523.29919434 13.81886578 200 193 185
246115.64978027 3357523.41058350 14.16705799 106 107 111
246116.52734375 3357525.85729980 14.11968231 219 218 214
246117.56323242 3357522.97009277 13.83740044 202 193 184
246117.52954102 3357524.17633057 16.03183174 51 169 239
246115.94165039 3357524.81762695 13.81063175 162 158 155
246116.94616699 3357523.61596680 13.82119942 121 124 133
246117.01306152 3357526.79162598 15.35197449 127 127 129
246115.70544434 3357523.09399414 14.57956886 164 184 193
246119.00073242 3357525.80535889 15.85397434 128 128 130
246116.54760742 3357524.46295166 14.19386005 23 22 20
246118.44982910 3357524.90820313 15.79230785 128 128 128
246118.05419922 3357523.72155762 13.92736244 193 190 183
246118.40112305 3357525.41729736 15.74955750 128 128 128
246118.48498535 3357524.60974121 15.81778431 128 128 128
246117.13037109 3357524.29406738 14.08686161 190 179 177
246114.95324707 3357523.18218994 13.83619690 152 148 147
246114.77832031 3357522.60009766 13.87565041 197 186 192
246116.69360352 3357524.57818604 15.77060699 119 182 226
246117.70983887 3357524.14447021 16.05531693 104 196 233
246116.88037109 3357523.21197510 13.97942734 42 47 53
246116.04785156 3357525.21533203 14.09687328 230 222 220
246116.39611816 3357525.97924805 15.41415405 205 208 201
246115.93139648 3357523.90301514 13.86358833 213 203 193
246118.58398438 3357526.24401855 16.16880417 58 135 191
246116.57788086 3357526.07934570 14.15010452 226 225 223
246117.25122070 3357524.63507080 14.17743587 197 194 189
246117.61010742 3357526.13494873 13.94647503 129 119 120
246116.89160156 3357524.45184326 15.95184135 232 252 253
246118.06701660 3357524.39691162 15.73706150 128 128 128
246117.38793945 3357524.60363770 15.57322407 201 200 196
246116.22546387 3357525.66284180 15.30558777 188 191 184
246118.69055176 3357525.94488525 16.25025558 18 124 202
246116.76281738 3357526.85961914 15.75355244 156 169 201
246116.64550781 3357525.84576416 15.33502865 128 128 128
246116.47509766 3357526.09106445 15.47664165 124 126 121
246119.27343750 3357525.71130371 15.98879242 59 148 204
246118.21728516 3357525.99548340 16.36640739 19 90 170
246116.63732910 3357526.48858643 14.19214344 223 223 221
246116.14257813 3357522.40863037 14.15156269 11 15 26
246118.41113281 3357524.20062256 15.83959198 186 213 224
246117.49414063 3357525.24450684 13.90968132 195 196 191
246115.48645020 3357522.65075684 14.25113869 130 136 150
246116.24645996 3357524.79766846 15.83717823 158 187 219
246116.53991699 3357522.62744141 14.02045155 24 30 42
246116.91870117 3357526.44549561 14.11180878 213 214 209
246115.74096680 3357523.13928223 14.61290550 145 173 177
246115.72900391 3357524.40600586 13.80454540 222 209 200
246117.04614258 3357526.21270752 16.24775314 255 225 236
246116.07580566 3357524.08392334 13.81928921 238 224 213
246115.93322754 3357523.48742676 14.10182953 107 114 120
246115.93212891 3357525.12188721 15.31409454 87 75 79
246117.68969727 3357525.54010010 16.68065453 119 253 252
246116.79272461 3357523.48437500 13.90512562 108 115 125
246116.65942383 3357523.43078613 13.94149017 114 117 126
246118.28454590 3357524.81683350 13.90493107 221 220 215
246116.75268555 3357525.11737061 15.36873913 128 128 130
246118.88720703 3357525.47534180 16.15514374 26 148 221
246116.24511719 3357525.73712158 16.01311302 13 159 234
246117.01464844 3357525.60461426 14.04957294 94 91 86
246118.51196289 3357525.67523193 15.75758457 128 128 128
246116.52563477 3357522.14117432 13.90169334 168 164 163
246116.74609375 3357526.14154053 15.34492874 128 128 128
246117.76916504 3357525.71539307 14.00952530 126 127 129
246116.78674316 3357522.70684814 13.87711716 62 70 81
246118.61376953 3357526.56262207 15.85873222 123 169 185
246114.69616699 3357523.56604004 13.81129074 200 193 185
246116.34790039 3357526.12469482 15.83520126 113 158 179
246118.21081543 3357524.22772217 15.80954456 203 202 198
246116.58764648 3357525.70037842 16.20737648 2 165 232
246119.27087402 3357524.88464355 13.90022087 197 199 196
246116.00048828 3357525.54132080 15.54905701 224 219 213
246116.56909180 3357526.00500488 14.14689636 226 225 223
246118.63464355 3357525.66284180 15.78976727 128 128 128
246117.74450684 3357525.77313232 16.68316078 87 207 255
246118.65014648 3357525.86181641 13.89522839 213 213 213
246118.44860840 3357524.19927979 13.78304005 208 203 200
246116.91125488 3357525.62652588 15.39292431 128 128 128
246115.97729492 3357523.44921875 14.18055439 124 135 141
246116.44128418 3357525.43750000 14.17831039 221 217 218
246118.31286621 3357526.51116943 13.97237682 201 203 202
246116.76379395 3357524.51330566 15.91684151 226 255 255
246116.78527832 3357526.19525146 14.08655930 213 212 207
246116.90747070 3357525.68774414 15.39099216 128 128 128
246116.17028809 3357525.21020508 16.06976891 10 155 234
246115.71923828 3357523.88433838 13.88200283 140 139 135
246115.96276855 3357523.08477783 14.53018570 147 177 179
246118.97216797 3357525.57330322 16.14139557 14 145 215
246116.37365723 3357526.08459473 15.54469109 120 125 119
246117.20104980 3357524.62451172 15.56047726 202 201 197
246117.38415527 3357523.98907471 13.80341053 200 197 192
246116.72241211 3357522.14300537 14.03072166 59 56 51
246118.84375000 3357524.09826660 13.91666698 204 210 200
246118.32373047 3357525.30706787 16.33113480 117 75 125
246114.73413086 3357522.51983643 13.87102795 183 177 179
246117.11730957 3357525.57409668 14.01241970 106 105 100
246117.94738770 3357525.67242432 15.61736012 128 128 128
246117.74328613 3357525.91760254 14.01835918 126 126 126
246116.41247559 3357526.16168213 15.94662762 185 254 255
246117.43408203 3357522.84136963 13.83211803 189 181 170
246117.71533203 3357526.22570801 16.43310738 15 111 195
246116.49597168 3357523.72576904 13.84448242 88 93 99
246118.29272461 3357523.60052490 13.94926453 179 178 173
246117.94165039 3357524.85864258 15.66873837 128 128 128
246118.54345703 3357525.59417725 15.77193356 128 128 128
246115.46618652 3357523.23229980 14.46512985 123 124 126
246117.78564453 3357525.75390625 14.01617050 112 113 115
246115.79919434 3357525.15917969 15.76845455 184 191 210
246117.82800293 3357525.93811035 16.55626869 3 83 168
246117.09960938 3357526.69262695 15.37835884 128 128 128
246117.43444824 3357525.77673340 16.55157471 3 189 240
246117.27001953 3357526.05511475 16.37388802 242 230 255
246116.85302734 3357526.25244141 16.16136932 207 253 255
246115.25744629 3357522.73449707 14.04718590 208 213 219
246117.90002441 3357524.75634766 13.91415501 210 207 202
246117.85034180 3357526.35791016 16.33660507 11 112 194
246115.25671387 3357523.46087646 14.04317760 115 109 113
246116.43066406 3357525.80926514 16.10733604 1 157 231
246118.22570801 3357525.05938721 15.72808743 128 128 128
246116.92541504 3357525.46600342 15.39885712 128 128 128
246117.13867188 3357525.54162598 15.44386101 128 128 128
246115.75439453 3357524.85711670 13.77191162 186 183 176
246116.03369141 3357525.59057617 15.58153439 225 220 214
246118.38464355 3357524.63421631 16.15420914 17 156 223
246118.77441406 3357524.84539795 13.81206989 212 213 208
246118.83874512 3357524.90960693 15.98259449 84 151 196
246117.55761719 3357526.76416016 14.24649429 169 169 171
246115.42077637 3357523.64349365 13.99301624 63 66 71
246118.42785645 3357524.60900879 15.80363178 128 128 126
246119.47558594 3357525.49285889 13.81255341 203 205 202
246117.39233398 3357522.47204590 13.90256405 150 160 161
246116.72070313 3357526.01336670 16.18089867 94 210 249
246116.46508789 3357522.56842041 14.15294647 3 10 16
246117.17236328 3357526.27038574 16.28652382 194 208 255
246116.51708984 3357525.42120361 15.32742691 128 128 128
246118.51806641 3357524.07196045 13.83780861 191 187 184
246118.80346680 3357524.17572021 13.89752007 209 211 210
246117.64355469 3357524.51440430 13.87526894 199 196 191
246115.80944824 3357523.20251465 14.53258991 109 125 124
246116.10974121 3357521.40454102 13.84854031 213 210 201
246115.66442871 3357522.18359375 14.18837738 28 33 36
246117.68530273 3357523.39123535 13.83866024 192 183 176
246116.11804199 3357522.80499268 14.44023609 131 140 149
246116.49389648 3357525.01080322 16.13978958 6 158 234
246117.07250977 3357525.13964844 14.05137348 166 163 154
246116.50671387 3357524.73736572 15.41022491 140 145 151
246118.78674316 3357526.27142334 15.81007385 114 124 99
246118.96398926 3357525.64239502 13.80573654 215 215 215
246117.20690918 3357526.95330811 16.09632874 5 162 233
246118.53247070 3357525.82397461 15.75117207 128 128 128
246115.27490234 3357524.30462646 13.82903957 209 204 198
246117.92529297 3357525.38574219 13.96660614 210 211 206
246116.29699707 3357524.77563477 15.71083260 255 254 255
246118.08996582 3357525.52520752 16.50735283 11 106 186
246115.31982422 3357522.97503662 13.98127460 52 50 55
246117.97644043 3357524.63549805 15.69005966 128 128 126
246115.61938477 3357522.06909180 14.08665276 40 42 41
246117.28613281 3357524.69592285 14.07740021 196 195 191
246116.56762695 3357522.88061523 13.97982025 47 54 64
246117.54675293 3357524.36108398 16.13373184 0 161 248
246118.55554199 3357524.89508057 13.86867714 208 207 203
246117.65527344 3357524.61022949 15.61665440 128 128 128
246117.04650879 3357524.51037598 14.48898125 197 199 196
246118.59558105 3357525.92913818 16.28067207 20 117 196
246117.55358887 3357522.74847412 13.88063335 168 163 157
246114.80810547 3357523.82812500 13.82190895 198 191 183
246117.82824707 3357524.76831055 16.29371071 4 189 255
246117.85766602 3357526.29895020 14.06864262 117 117 119
246116.10815430 3357525.66540527 15.87484169 98 143 202
246116.82141113 3357525.43939209 14.11355019 249 249 221
246118.18139648 3357526.40258789 14.03201962 183 187 188
246115.29052734 3357524.03491211 13.91292000 211 201 199
246117.31604004 3357525.70471191 15.47952652 128 128 128
246118.23181152 3357524.51293945 15.76369190 128 128 128
246116.57373047 3357526.36627197 14.20242023 221 221 219
246118.23107910 3357524.12689209 16.08510399 27 121 191
246116.50061035 3357526.40142822 14.20636559 213 213 211
246118.08520508 3357526.34649658 16.27577019 217 236 251
246116.23730469 3357525.30950928 15.29029179 128 128 128
246118.31213379 3357525.99206543 16.33788109 22 96 183
246117.59680176 3357526.43560791 15.50832939 128 128 128
246117.34692383 3357522.94256592 13.81948471 187 178 169
246116.68469238 3357526.58172607 14.18201828 209 210 205
246118.59301758 3357526.09454346 13.89868450 212 212 210
246116.44787598 3357521.88244629 13.84414101 170 165 159
246118.27050781 3357525.56311035 15.70496655 128 128 128
246116.58886719 3357524.44818115 14.24545193 26 25 23
246116.32385254 3357524.81903076 15.33309841 206 203 198
246116.03161621 3357525.03643799 14.09989548 239 223 224
246118.56750488 3357525.89410400 15.75461006 128 128 128
246118.15258789 3357524.22601318 16.12571716 62 120 193
246115.10046387 3357523.34735107 13.94120979 37 33 34
246118.14318848 3357523.79644775 13.89823723 187 182 179
246118.69445801 3357524.66632080 13.79494381 210 211 205
246117.79846191 3357526.54754639 14.21316242 145 150 154
246118.08935547 3357526.35046387 15.62343979 128 128 128
246117.91601563 3357525.97082520 16.50525856 5 97 180
246117.19970703 3357522.29595947 13.89732265 14 23 30
246118.96630859 3357525.90637207 13.81142712 214 216 213
246118.01550293 3357526.52844238 16.21166420 10 105 185
246116.19934082 3357523.29571533 14.36308384 88 92 101
246118.71887207 3357525.62347412 13.85895824 205 204 202
246117.63439941 3357526.50085449 15.51135254 128 128 128
246115.22436523 3357522.39489746 13.96137238 97 143 106
246118.25915527 3357524.89550781 16.27711296 37 140 207
246116.58142090 3357525.02514648 15.34424686 128 128 128
246117.10388184 3357525.50250244 16.44160271 0 184 240
246117.50854492 3357524.24505615 15.80619240 209 206 201
246119.40563965 3357525.38159180 13.81879997 194 196 195
246118.36779785 3357525.58953857 15.72762585 128 128 128
246116.99865723 3357524.46588135 16.06843758 4 161 240
246117.63232422 3357524.86437988 13.86220360 178 179 174
246118.75183105 3357525.43231201 16.19290924 10 139 205
246116.45361328 3357522.35247803 14.03638744 41 44 49
246117.19152832 3357525.60992432 15.45414066 128 128 128
246116.94653320 3357527.11010742 15.70768929 115 149 195
246118.10400391 3357526.01464844 15.64528751 128 128 128
246116.03027344 3357525.28381348 14.05510807 230 222 220
246118.01940918 3357525.15118408 13.96696758 200 201 195
246116.63757324 3357523.25354004 14.06668377 17 18 23
246117.62609863 3357527.08374023 16.03235626 11 116 207
246118.21997070 3357526.74182129 16.05858040 15 121 197
246116.54553223 3357524.72399902 15.43015194 102 109 119
246116.58251953 3357523.05352783 14.02768230 32 37 43
246117.78442383 3357526.77081299 16.16155624 15 116 198
246117.82653809 3357526.63061523 15.54415131 166 167 162
246116.46813965 3357524.59680176 14.29657650 62 58 57
246115.68322754 3357522.89764404 14.30672932 21 28 34
246118.13977051 3357525.09130859 15.70495033 128 128 128
246119.00146484 3357526.05279541 16.11589813 66 149 179
246117.81201172 3357523.52130127 13.87793541 192 185 177
246118.82861328 3357525.52014160 13.81658745 203 202 200
246116.86865234 3357526.65447998 16.06830215 5 163 236
246118.54248047 3357526.62628174 16.00576973 31 144 210
246118.47937012 3357526.07910156 15.72571945 128 128 130
246115.45275879 3357522.28265381 13.94972134 136 193 125
246117.03894043 3357524.71978760 14.42148113 183 184 186
246117.89904785 3357527.01861572 15.99723053 30 132 207
246118.66772461 3357525.47381592 13.88604164 212 211 207
246115.65661621 3357523.07171631 14.53668022 127 147 154
246115.43737793 3357521.98504639 13.99212074 91 92 78
246118.21350098 3357524.33587646 16.15161514 26 133 213
246114.64416504 3357522.61425781 13.86947727 187 181 181
246118.05346680 3357525.08862305 16.40103722 19 139 200
246116.75695801 3357522.37359619 14.01035118 30 37 45
246117.03747559 3357526.46264648 14.13210964 214 213 209
246117.44750977 3357523.72760010 13.78396511 163 160 155
246116.39636230 3357524.72827148 15.66069603 255 255 253
246117.34558105 3357525.37524414 15.49182034 128 128 128
246116.40307617 3357525.12237549 15.31428146 128 128 128
246118.94458008 3357525.68359375 15.86526585 128 128 128
246118.64270020 3357525.99224854 13.90076065 214 214 214
246115.32763672 3357523.60321045 14.01960468 90 91 95
246119.04577637 3357526.15032959 15.83314705 151 167 164
246118.07165527 3357523.89752197 13.85935593 213 208 204
246117.71850586 3357524.14782715 16.06577301 77 208 250
246116.31201172 3357524.49847412 13.96290779 132 128 125
246115.79394531 3357523.09613037 14.56952953 138 169 174
246116.69970703 3357521.73992920 13.88025188 165 158 152
246119.30175781 3357525.85772705 16.00232697 72 167 223
246116.52209473 3357522.32647705 14.11369705 25 28 33
246118.82409668 3357526.20898438 16.11344337 115 178 213
246115.35729980 3357522.98144531 14.01915073 85 83 88
246116.29638672 3357524.78863525 15.52462959 252 249 240
246115.25585938 3357523.63549805 14.02054882 118 118 118
246115.70861816 3357522.43426514 14.34101200 54 67 75
246119.26123047 3357525.98815918 13.77952576 204 204 202
246117.13195801 3357524.54479980 16.14618301 4 165 243
246118.00683594 3357525.96484375 14.05091000 146 147 149
246115.29260254 3357523.77526855 13.96976185 98 104 102
246116.08764648 3357525.66650391 15.58199883 219 219 209
246117.53674316 3357526.04473877 15.52142429 128 128 128
246116.03466797 3357522.25299072 13.93898678 11 15 18
246118.10546875 3357524.33544922 16.15692329 102 151 210
246116.74060059 3357526.30975342 16.10758972 20 163 233
246116.33251953 3357521.76739502 13.84151840 170 167 160
246115.60986328 3357523.42388916 14.12985229 102 103 105
246117.87646484 3357524.09643555 13.83420658 202 198 195
246117.08496094 3357525.31793213 14.03928280 129 131 120
246115.17138672 3357523.72259521 14.02210426 97 93 90
246117.16369629 3357526.37847900 16.26496696 16 167 240
246118.32153320 3357525.46032715 15.72595978 128 128 128
246117.36328125 3357527.17919922 15.59162045 145 159 162
246117.02172852 3357523.40399170 13.86520100 115 122 130
246117.53735352 3357526.45770264 14.16333008 108 111 120
246115.85620117 3357524.41851807 13.78528118 206 193 184
246118.75195313 3357526.18078613 16.14965439 86 154 199
246118.01501465 3357526.75622559 15.66509914 160 161 153
246118.36010742 3357526.76269531 16.02267838 28 122 194
246118.03576660 3357526.09997559 16.38689613 27 87 160
246117.78686523 3357525.45080566 13.96811104 202 203 198
246115.71325684 3357521.97521973 14.02650070 54 55 57
246115.47216797 3357523.76538086 13.92507935 39 43 46
246118.09338379 3357526.81921387 15.71929073 137 139 138
246117.65100098 3357523.89337158 13.80089664 205 202 197
246117.96850586 3357525.10095215 15.66181183 128 128 128
246118.45202637 3357524.02062988 13.83803177 190 185 182
246116.50292969 3357526.16009521 16.05724335 11 142 222
246116.69372559 3357526.73736572 15.84731102 32 90 154
246118.08325195 3357525.30010986 13.96497059 211 212 206
246117.27294922 3357525.77758789 16.47822189 6 190 250
246117.94995117 3357524.07281494 13.84338951 208 205 200
246117.70336914 3357524.10784912 15.93409634 154 206 227
246118.37194824 3357524.52581787 16.12991333 35 150 213
246115.38879395 3357522.92187500 14.04417610 64 63 69
246117.08142090 3357525.17932129 16.34816933 13 199 238
246116.97973633 3357524.87756348 14.29720879 215 211 208
246116.07214355 3357523.50415039 14.12800598 52 61 70
246116.89318848 3357524.33331299 14.07553768 122 121 117
246115.51440430 3357523.19506836 14.63369370 67 81 84
246115.86499023 3357521.86389160 13.88655758 130 131 126
246116.20373535 3357523.94555664 13.84279251 226 216 207
246118.00598145 3357526.00378418 14.04970932 148 149 151
246117.97485352 3357523.47192383 13.91830444 200 193 183
246118.26733398 3357525.15136719 16.32374573 157 98 154
246117.09387207 3357526.71752930 16.13138390 0 168 241
246116.79443359 3357525.06695557 16.24886322 0 162 234
246116.74377441 3357525.35882568 16.30781364 24 190 248
246116.62207031 3357524.96673584 16.17375946 5 161 235
246115.58557129 3357522.44543457 14.19581318 32 40 43
246116.93969727 3357526.69104004 16.08116913 9 162 230
246117.61877441 3357524.44976807 15.67022514 207 206 202
246117.71887207 3357525.81561279 14.00985527 118 119 121
246117.04248047 3357523.88745117 13.80005836 169 173 172
246117.52319336 3357525.88348389 13.92481613 99 103 104
246115.83349609 3357525.03942871 13.87252617 79 69 68
246116.18627930 3357524.69586182 14.11545658 112 97 94
246118.56384277 3357524.88739014 13.86349678 208 207 203
246118.39428711 3357525.50665283 13.96811771 209 210 205
246117.84973145 3357524.75244141 15.65183258 128 128 128
246116.72827148 3357525.08380127 15.36610222 128 128 128
246116.25720215 3357523.60815430 14.05893898 88 91 100
246116.87731934 3357523.79498291 13.78851891 109 112 117
246117.09265137 3357527.27368164 15.84161186 19 134 223
246116.60205078 3357525.31445313 16.26270866 27 185 250
246117.49023438 3357524.75476074 13.90789509 197 196 192
246115.91088867 3357524.99108887 15.78783989 207 192 231
246115.97680664 3357522.14337158 13.89363575 93 94 96
246114.90234375 3357523.43444824 13.86539745 191 182 175
246118.26953125 3357525.36975098 13.96180248 211 212 206
246118.85693359 3357525.76104736 16.20073318 18 138 214
246118.28906250 3357525.04595947 15.74460125 128 128 128
246117.05517578 3357524.71307373 14.41570568 183 184 186
246117.07116699 3357524.57647705 16.14348793 7 175 250
246117.63159180 3357524.92199707 15.58807850 128 128 128
246116.51245117 3357525.27178955 14.18499851 204 199 193
246116.47180176 3357523.08532715 14.13263988 15 18 23
246118.31433105 3357523.75616455 13.91588211 189 185 186
246117.17309570 3357525.39562988 13.99101543 153 154 146
246114.97143555 3357523.30944824 13.86725044 81 74 68
246118.56701660 3357526.10388184 16.22446060 42 122 191
246116.33618164 3357525.95208740 15.44134331 223 228 221
246119.34069824 3357525.78424072 15.90194511 56 146 198
246116.23449707 3357523.96069336 13.83443069 236 224 212
246115.89672852 3357521.31030273 13.82019806 210 206 203
246118.78588867 3357526.34790039 13.82187176 203 205 202
246118.41552734 3357524.98388672 13.93385220 220 219 215
246119.11267090 3357524.68817139 13.88681984 184 186 183
246118.52331543 3357524.97137451 15.80705738 127 127 127
246116.66381836 3357526.67285156 15.75954342 96 136 185
246117.68945313 3357525.38952637 15.57077694 128 128 128
246117.58056641 3357526.84814453 14.24614906 171 172 174
246116.41137695 3357524.63793945 14.29170704 88 79 80
246118.18823242 3357526.69897461 15.71571541 150 151 143
246116.31274414 3357521.29492188 13.90498829 137 134 125
246118.56884766 3357525.85577393 16.30321312 17 123 209
246118.08789063 3357525.85687256 14.05347919 141 143 142
246117.69140625 3357526.05554199 16.51349640 112 213 255
246114.61364746 3357523.51721191 13.81187534 204 197 189
246117.16271973 3357524.27941895 14.01972485 190 179 177
246117.30505371 3357523.25695801 13.80693913 222 221 219
246117.40612793 3357524.57763672 15.58966732 200 199 195
246117.33666992 3357524.89080811 15.51648808 128 128 128
246116.75817871 3357526.62969971 15.36142540 34 19 24
246117.72473145 3357526.51568604 14.21248150 135 140 146
246117.27075195 3357525.57116699 15.47205639 128 128 128
246118.57104492 3357525.96582031 16.27407646 24 115 194
246117.47167969 3357527.09948730 14.17863941 184 184 186
246117.02307129 3357525.24151611 16.35785294 2 204 250
246116.78039551 3357523.57000732 13.86489391 116 120 131
246118.09155273 3357524.31683350 16.15003014 151 204 254
246115.57312012 3357521.71850586 13.91108894 190 181 174
246117.18359375 3357526.39636230 15.42063808 128 128 128
246116.65258789 3357526.51403809 15.61081028 92 108 131
246116.57324219 3357521.71563721 13.86734390 174 167 159
246117.63464355 3357524.22387695 16.08966255 5 176 248
246117.93957520 3357526.91284180 16.05550003 15 124 207
246116.55725098 3357524.33441162 13.87787247 132 137 131
246116.87231445 3357523.79895020 13.78825569 109 112 117
246117.39477539 3357524.78369141 16.27778053 184 219 225
246118.48132324 3357523.74896240 13.92795372 192 194 189
246117.18200684 3357525.13720703 16.35431099 173 241 254
246117.99511719 3357524.14099121 16.08744431 42 194 244
246116.75073242 3357526.31286621 16.11040306 17 143 202
246117.17639160 3357526.77905273 15.38829994 128 128 130
246117.90417480 3357524.19927979 15.82841015 206 205 201
246118.23986816 3357524.20245361 15.82547951 202 203 198
246116.58605957 3357524.95324707 16.15612411 6 160 234
246115.69848633 3357523.84552002 13.88959599 93 93 93
246118.34875488 3357526.50286865 16.12963676 132 208 240
246116.08312988 3357521.75384521 13.84977055 138 140 137
246115.24401855 3357523.12225342 13.94583797 120 115 119
246116.98803711 3357524.08764648 13.81005001 157 162 158
246116.48535156 3357524.65570068 14.36283302 252 252 252
246117.42834473 3357523.70294189 13.78479195 162 159 154
246116.85363770 3357526.48937988 16.10673714 4 171 241
246116.09484863 3357524.92401123 15.92364788 62 154 227
246119.12304688 3357525.49603271 16.02292824 73 169 217
246114.50207520 3357522.96545410 13.82389641 195 190 187
246116.29016113 3357521.36145020 13.88733864 119 116 107
246117.88208008 3357525.55920410 13.96596241 207 208 202
246118.68920898 3357525.63549805 15.80577946 128 128 128
246118.03576660 3357524.53070068 13.87244320 215 212 207
246117.98742676 3357525.78247070 16.57085991 5 83 166
246115.72009277 3357522.66009521 14.41640282 166 175 184
246116.13891602 3357522.46331787 14.26947403 14 22 33
246116.48022461 3357525.39733887 14.17702866 239 238 236
246116.60229492 3357525.19982910 14.18641663 183 177 165
246116.71972656 3357525.30456543 14.14431381 255 255 237
246116.97497559 3357527.05145264 15.89443874 26 154 245
246117.32604980 3357526.36621094 15.45437431 128 128 128
246116.94763184 3357526.23022461 13.98993874 198 197 193
246116.41870117 3357522.03851318 13.85928535 175 170 166
246116.41271973 3357525.72735596 15.30478668 128 128 128
246115.59875488 3357524.21691895 13.85638428 220 210 201
246115.11816406 3357522.74035645 13.94904041 198 200 212
246116.64489746 3357525.46582031 14.14247608 253 255 233
246117.91650391 3357524.85089111 15.66291428 128 128 128
246118.58044434 3357525.72863770 15.77083778 128 128 128
246117.40893555 3357526.87506104 16.19093895 94 200 255
246117.64489746 3357525.95928955 16.57031250 85 214 253
246115.96923828 3357525.10229492 14.01491928 249 230 232
246117.61962891 3357524.17321777 16.05600739 29 174 241
246116.18701172 3357524.85351563 15.44247437 216 198 198
246117.89636230 3357526.31170654 14.07448292 116 117 119
246116.98437500 3357524.68310547 15.52978325 199 199 197
246114.60705566 3357523.21075439 13.82530403 196 191 187
246116.21447754 3357524.47857666 13.88330746 161 152 153
246118.96643066 3357524.77697754 13.83632755 197 199 194
246116.80261230 3357523.57165527 13.86547565 122 126 137
246118.27160645 3357526.60089111 16.10623169 86 170 206
246116.78894043 3357525.22857666 15.37343884 128 128 128
246119.33154297 3357525.78259277 15.87552547 127 129 128
246116.96960449 3357526.40350342 16.17511749 5 175 250
246116.96203613 3357525.12878418 14.10938549 163 158 138
246118.13635254 3357525.17309570 15.69950867 128 128 128
246116.97741699 3357525.41101074 16.38501930 5 195 243
246117.76159668 3357526.23730469 13.99952412 111 109 110
246117.54174805 3357524.23498535 13.84823036 211 207 204
246116.69018555 3357522.34704590 14.14444637 87 92 96
246118.15014648 3357525.46441650 15.68205738 128 128 128
246116.90539551 3357523.36743164 13.92501354 64 71 79
246116.68969727 3357526.56469727 15.59065342 52 60 83
246116.81713867 3357522.08026123 14.06083584 55 51 52
246117.41845703 3357525.65893555 15.50259590 128 128 128
246116.23913574 3357522.46514893 14.19052696 53 57 68
246117.81457520 3357524.95703125 15.63160801 128 128 128
246116.76855469 3357526.80828857 15.56002998 134 121 131
246116.42541504 3357524.71734619 14.35303688 240 240 240
246116.25415039 3357525.48248291 16.06582832 12 153 232
246115.50878906 3357523.48309326 14.05350208 89 90 94
246118.24414063 3357523.96899414 13.83198166 196 193 188
246116.68371582 3357524.37646484 14.14073753 37 33 30
246118.47229004 3357524.95611572 15.79521179 128 128 128
246118.72631836 3357525.91253662 15.79356575 128 128 128
246115.95300293 3357525.30426025 15.28823662 131 122 127
246116.59692383 3357524.10388184 13.78785038 146 147 151
246117.06176758 3357523.25555420 13.89663792 96 99 104
246117.74975586 3357523.53204346 13.85698318 197 188 183
246117.38525391 3357524.56091309 15.60031891 204 201 196
246115.94726563 3357524.91894531 13.90341949 50 36 36
246118.36132813 3357525.70617676 15.71688461 128 128 128
246114.92883301 3357522.37213135 14.12666225 161 212 156
246116.29492188 3357525.67425537 15.28931046 128 128 128
246115.97534180 3357525.25701904 14.01684761 229 221 218
246116.80712891 3357522.71057129 13.87724590 69 77 88
246117.92761230 3357524.77465820 15.66993237 128 128 128
246116.35314941 3357524.75354004 15.58218002 255 255 253
246117.82299805 3357525.13269043 16.45549202 30 203 233
246118.00634766 3357523.47241211 13.92728519 190 183 173
246116.90844727 3357526.52423096 14.14673710 224 223 219
246118.42895508 3357524.88214111 15.78859425 128 128 128
246115.81835938 3357524.53704834 13.76825333 210 199 193
246118.28540039 3357524.73931885 15.76088619 128 128 128
246116.66406250 3357525.12805176 14.18507671 255 253 244
246117.93395996 3357524.82928467 16.31881523 25 181 230
246118.36401367 3357524.77880859 15.77821732 128 128 128
246116.84997559 3357521.97723389 13.98480129 161 157 154
246114.87243652 3357523.89617920 13.83021450 197 190 182
246117.05895996 3357523.12390137 13.88054657 215 218 223
246117.96801758 3357523.54736328 13.93002892 153 149 140
246115.91809082 3357525.06457520 15.91234875 53 148 230
246117.63256836 3357526.78601074 16.19324112 18 116 205
246118.11096191 3357524.74682617 13.91264343 200 197 192
246116.07897949 3357522.46539307 14.32605839 15 22 32
246116.80175781 3357523.94201660 13.78735542 125 130 134
246116.80493164 3357525.01000977 15.38082600 128 128 128
246118.45849609 3357525.85131836 13.98372936 202 204 203
246117.34411621 3357523.43145752 13.79655933 172 171 169
246116.59399414 3357526.17218018 15.43877888 146 151 145
246116.96862793 3357526.96301270 15.95429611 16 155 236
246118.20104980 3357524.45794678 16.19139671 23 133 218
246116.15307617 3357523.36743164 14.32913399 75 84 93
246118.09545898 3357524.65826416 16.25829506 32 145 215
246115.94665527 3357524.97088623 15.81426334 204 194 229
246115.00109863 3357522.86529541 13.85340786 174 169 173
246115.94836426 3357521.23461914 13.84707355 252 251 247
246117.48205566 3357523.64099121 13.78207493 153 148 144
246117.63513184 3357523.07305908 13.83883190 199 194 188
246116.13610840 3357525.15466309 14.16203976 241 236 230
246115.60229492 3357523.24090576 14.68552876 134 142 145
246117.50488281 3357526.12908936 16.43787384 10 173 238
246118.40722656 3357524.21649170 13.77394104 212 208 205
246119.08886719 3357525.98693848 13.78320217 212 214 213
246118.09448242 3357526.08801270 15.64189529 128 128 128
246116.84973145 3357522.34649658 13.95712948 35 44 51
246116.06579590 3357525.64709473 15.64269829 240 237 232
246117.60913086 3357527.16503906 15.68382549 75 116 148
246117.84057617 3357526.78430176 15.60372829 168 169 163
246115.49890137 3357523.40466309 14.09453106 105 105 107
246117.60314941 3357526.32513428 14.03638458 72 72 80
246116.86694336 3357526.71868896 16.04062843 8 155 233
246117.88940430 3357526.74688721 15.61047554 166 167 159
246116.39086914 3357524.77258301 15.36377525 232 231 227
246116.74377441 3357524.52661133 15.86806583 218 255 255
246115.56701660 3357524.54791260 13.78434753 214 205 200
246117.55114746 3357527.01361084 14.23153591 188 189 191
246117.12060547 3357525.08062744 16.32164764 150 232 244
246117.88928223 3357525.89996338 16.55812454 7 82 163
246116.55297852 3357526.00671387 14.14448357 225 224 222
246116.51538086 3357525.94879150 14.12993908 222 221 219
246118.26538086 3357525.58972168 16.43097496 13 116 195
246117.44592285 3357527.23260498 15.65363407 116 142 157
246116.79492188 3357524.84197998 15.43802547 188 188 188
246116.24475098 3357522.81549072 14.35873032 8 12 21
246115.97998047 3357524.93353271 13.98978424 61 39 41
246118.18615723 3357524.12597656 15.85323429 180 190 192
246116.45300293 3357523.43328857 14.01367569 19 24 28
246116.58886719 3357525.12249756 14.20368671 144 134 124
246118.83569336 3357524.85083008 15.96175766 102 164 203
246116.52722168 3357526.26751709 14.18656254 221 220 216
246117.51293945 3357524.67016602 13.90380096 184 183 179
246116.73144531 3357522.63916016 13.89981556 42 50 61
246116.98925781 3357524.72161865 14.45638657 150 150 152
246115.46655273 3357523.18804932 14.40169621 98 98 98
246117.10375977 3357526.67266846 14.17044830 212 213 208
246116.65295410 3357525.40783691 14.15011406 255 255 229
246116.45141602 3357524.70629883 15.66574001 197 202 205
246117.66040039 3357522.88824463 13.87286758 169 162 152
246116.16052246 3357525.08642578 15.27329063 128 128 128
246117.29003906 3357525.32006836 13.95429039 189 192 183
246117.05944824 3357526.40197754 16.21482658 11 178 246
246114.72216797 3357523.53442383 13.81890774 204 195 188
246116.79138184 3357525.34667969 14.12659836 255 255 238
246116.84423828 3357526.99169922 14.09802532 206 207 202
246117.68505859 3357526.53466797 15.51977348 127 127 127
246116.59228516 3357524.65747070 15.59640312 66 78 94
246117.84667969 3357526.29809570 14.06788826 117 117 119
246118.14306641 3357526.27587891 14.02689934 170 174 177
246118.72375488 3357525.42248535 16.19984055 13 136 204
246116.92187500 3357522.20166016 14.01202488 60 63 68
246118.76843262 3357525.91888428 13.85206223 205 205 203
246118.25634766 3357526.71832275 15.75031662 140 141 135
246116.62109375 3357524.44622803 14.32817841 97 93 90
246117.98986816 3357526.09539795 15.61902332 128 128 128
246117.11938477 3357523.27319336 13.87360001 117 118 123
246116.99414063 3357522.78625488 13.84644127 92 104 118
246114.81909180 3357522.70458984 13.86673260 191 182 183
246117.31665039 3357526.87664795 15.42216778 190 191 185
246116.52600098 3357522.92651367 14.03619099 35 39 48
246117.87585449 3357526.41058350 15.57167721 128 128 128
246118.93994141 3357526.15051270 15.81676865 124 131 124
246118.28369141 3357526.15667725 16.28943443 191 153 194
246118.62609863 3357524.53234863 13.78164768 207 203 202
246119.12170410 3357525.88983154 16.10989380 29 154 218
246117.30261230 3357524.77301025 16.25494003 167 195 209
246114.83801270 3357523.57525635 13.83919334 198 188 179
246117.13244629 3357525.20758057 15.44848728 128 128 128
246117.78369141 3357525.19146729 16.48117256 9 208 237
246118.62670898 3357524.43719482 13.78274345 206 202 199
246117.83227539 3357525.20416260 16.49977493 52 214 237
246115.50012207 3357524.00878906 13.88089943 206 201 195
246117.15087891 3357525.57879639 16.46199226 0 184 231
246117.33361816 3357525.46185303 15.48767281 128 128 128
246118.12280273 3357524.49353027 16.20817757 20 125 206
246117.26660156 3357523.93444824 13.80700302 180 177 172
246118.34667969 3357524.11901855 15.85305023 114 156 172
246117.88085938 3357524.36047363 16.14860535 6 190 244
246115.12524414 3357522.65893555 13.95410919 189 181 196
246116.82775879 3357526.58666992 15.34007645 128 128 128
246115.99963379 3357525.43646240 15.34755611 212 211 206
246117.19604492 3357526.15808105 13.86533928 136 134 137
