245790.60723877 3357560.39813232 17.80948257 90 110 98
245791.20220947 3357559.30120850 19.36627769 96 120 94
245790.88330078 3357563.48260498 22.08759117 145 163 137
245787.80755615 3357562.74548340 23.63654709 155 163 152
245789.36584473 3357564.26177979 17.48280144 179 190 156
245791.48986816 3357563.95709229 16.93066025 107 119 105
245790.44409180 3357559.74713135 18.01330376 120 139 117
245785.98370361 3357562.57385254 20.73211288 122 139 120
245785.52471924 3357559.45483398 16.86582756 213 214 208
245791.10406494 3357564.81860352 17.82950020 60 98 73
245791.11572266 3357561.27398682 23.24851036 97 113 112
245790.44403076 3357564.73236084 17.46211433 141 163 140
245786.29785156 3357563.23699951 23.42061043 155 173 161
245791.36053467 3357564.36187744 21.30644035 174 191 181
245788.19696045 3357558.94012451 21.22400856 165 185 173
245785.95208740 3357564.73895264 16.67841530 157 156 154
245786.06561279 3357559.52966309 18.93358612 148 156 143
245789.42163086 3357562.04553223 17.19856453 100 118 104
245785.17919922 3357565.16906738 16.61898804 252 252 252
245786.04388428 3357563.68029785 23.41458511 119 136 130
245785.95135498 3357560.71527100 16.94746399 160 163 152
245791.07189941 3357561.95800781 18.62498093 117 137 110
245785.57519531 3357564.71606445 16.66751671 209 209 207
245790.03277588 3357565.25946045 22.95015907 177 192 169
245790.41687012 3357564.04840088 20.14159203 156 163 130
245787.19537354 3357560.02874756 17.05658722 125 140 117
245791.06317139 3357565.43457031 23.27768135 137 150 141
245786.20855713 3357562.91687012 16.81393433 100 110 102
245785.99285889 3357562.36193848 18.63538551 179 190 174
245785.93737793 3357562.99719238 18.49428940 146 160 145
245785.54016113 3357563.70666504 16.69972229 102 103 98
245786.10198975 3357560.77685547 19.35884285 195 207 195
245788.03485107 3357558.79626465 22.66071701 115 143 121
245785.99456787 3357565.13476563 18.06128693 157 174 164
245786.03216553 3357561.21875000 17.00605392 126 128 123
245786.83007813 3357564.49780273 18.13383102 157 178 163
245789.52124023 3357564.82733154 21.90838432 142 164 141
245787.54168701 3357564.99609375 21.55806541 140 158 142
245791.20861816 3357561.13861084 22.77855301 145 162 130
245789.63366699 3357560.70397949 16.44180489 66 85 81
245788.89459229 3357559.07946777 18.49395561 99 117 119
245786.58160400 3357564.59252930 22.21130943 111 126 97
245790.63732910 3357560.37164307 23.30946922 115 134 130
245789.60186768 3357563.15032959 16.45267868 106 121 116
245790.76361084 3357560.25823975 17.39445877 87 108 101
245786.10852051 3357563.20812988 18.10611153 175 192 173
245789.73126221 3357559.05206299 18.44002724 182 197 202
245788.67578125 3357565.02502441 20.54131317 180 195 176
245786.47119141 3357561.87658691 18.29979134 156 173 155
245790.76348877 3357562.37030029 20.60808372 157 173 146
245785.72515869 3357563.58514404 22.18424606 158 174 164
245787.15063477 3357565.38757324 23.41865730 131 144 134
245791.30432129 3357564.49884033 21.43577003 177 189 175
245785.53656006 3357559.17596436 20.50970078 248 255 248
245785.68640137 3357561.31481934 21.12731934 215 224 205
245790.02117920 3357558.78405762 23.11846924 133 158 139
245786.15228271 3357561.87609863 20.60141945 128 145 126
245787.26898193 3357564.87506104 19.09699249 109 133 120
245790.90991211 3357561.34204102 16.89844322 55 78 70
245789.90155029 3357563.29632568 17.71011162 125 147 135
245791.19805908 3357558.85260010 17.22623825 224 242 226
245791.14788818 3357559.99804688 17.11630630 152 178 169
245791.31323242 3357560.25634766 23.00491333 137 152 123
245791.36590576 3357562.26739502 21.27544785 110 132 111
245790.50494385 3357563.45611572 23.46941376 124 139 136
245789.72900391 3357564.98431396 21.47612381 133 154 137
245786.32366943 3357561.49664307 19.37301445 250 252 247
245787.54730225 3357564.26263428 16.68741798 147 169 157
245786.68371582 3357561.72064209 20.12012863 150 170 145
245789.12139893 3357565.19500732 22.63768768 163 180 162
245791.24627686 3357559.61828613 23.26094818 175 186 182
245791.50842285 3357563.08636475 16.94231987 84 100 90
245787.14605713 3357562.50219727 17.72838020 171 186 165
245791.73400879 3357563.33874512 23.34974098 121 135 122
245790.41888428 3357559.32110596 19.44796753 117 139 127
245791.37036133 3357564.30334473 17.02341843 152 174 153
245790.44396973 3357561.51190186 18.25492096 122 145 116
245786.15386963 3357562.39154053 23.31497002 149 164 157
245785.61798096 3357559.51776123 19.00827789 240 242 229
245786.06738281 3357560.01287842 20.60105324 139 157 131
245786.66003418 3357564.41644287 16.70755959 209 210 204
245785.63250732 3357565.10723877 16.92385101 151 157 147
245786.58673096 3357559.60363770 21.52827835 186 200 201
245785.81536865 3357559.23834229 17.48489189 181 194 185
245787.12176514 3357562.91912842 21.39241219 219 231 209
245790.22027588 3357564.14788818 19.86925507 152 163 129
245791.30987549 3357564.93682861 17.07604408 110 128 112
245791.32159424 3357563.47833252 22.63835144 156 174 152
245791.36883545 3357558.89813232 22.35012627 122 142 130
245790.85559082 3357562.50903320 19.28394508 110 128 112
245785.80474854 3357564.87579346 18.26373100 127 143 130
245785.77697754 3357559.07641602 17.72071838 154 166 154
245791.10363770 3357558.93463135 17.62655067 233 244 227
245788.11120605 3357558.99609375 20.28528786 128 157 139
245785.03259277 3357560.27941895 16.61774254 211 201 189
245785.75286865 3357562.55773926 21.22280121 227 229 224
245786.76983643 3357563.37463379 17.33144188 147 164 146
245787.01165771 3357560.26312256 19.33856583 197 209 189
245788.51159668 3357558.76641846 16.91627884 130 148 122
245791.31170654 3357563.23632813 23.46570778 125 135 127
245786.47637939 3357559.66351318 20.03266525 147 165 153
245791.22961426 3357565.13018799 22.48672104 165 183 167
245786.37310791 3357562.10107422 19.02478027 147 164 156
245786.44091797 3357559.93206787 21.29316139 145 161 148
245790.46014404 3357559.76324463 23.30058670 174 192 192
245787.46026611 3357559.52160645 21.17395020 133 156 148
245787.04284668 3357563.30505371 21.68161774 170 186 157
245791.41131592 3357560.94573975 16.98115730 95 110 107
245786.49188232 3357564.80957031 18.91824913 163 176 166
245791.52532959 3357558.86431885 23.52483940 145 162 156
245785.74267578 3357565.34960938 22.73773956 255 255 255
245785.77410889 3357564.18109131 23.42478180 243 242 240
245785.62817383 3357563.63482666 19.83235931 163 175 161
245790.45263672 3357564.80639648 18.93615913 72 105 76
245790.88629150 3357562.66717529 22.55106163 167 182 149
245790.91583252 3357560.54980469 18.43609810 132 152 115
245789.58319092 3357564.40270996 17.41752243 115 133 121
245789.94122314 3357562.32672119 16.17844009 50 71 64
245785.76031494 3357565.36614990 17.07332802 150 173 167
245785.77929688 3357562.45819092 18.77326202 196 203 195
245790.07861328 3357559.00177002 18.62224579 120 138 138
245786.07684326 3357559.08178711 20.86662292 175 186 178
245788.02685547 3357559.40130615 18.34186745 138 159 154
245790.34509277 3357563.75677490 19.76764297 145 160 127
245787.51074219 3357564.99267578 18.56540680 131 148 138
245790.72290039 3357561.83007813 18.40942574 125 148 119
245786.27917480 3357561.98706055 20.52242661 112 134 111
245786.13439941 3357562.80242920 23.26094246 186 206 194
245790.56958008 3357559.67651367 18.26092911 130 150 123
245785.54772949 3357561.30938721 22.83989716 165 183 167
245791.36065674 3357564.97332764 19.52760696 111 138 119
245786.44201660 3357563.94250488 21.82121277 150 168 146
245791.46093750 3357558.80413818 18.98560905 107 128 119
245785.70446777 3357565.44677734 22.60301208 191 196 192
245790.25598145 3357565.02941895 22.46320724 150 169 147
245789.97497559 3357561.49029541 20.13759995 160 176 149
245786.16162109 3357565.15911865 18.66251183 148 167 161
245791.34100342 3357563.45239258 20.85566902 134 150 123
245788.64758301 3357560.69604492 23.56756592 150 171 162
245786.58239746 3357559.61114502 21.54306602 205 219 220
245785.99530029 3357559.47106934 18.18702507 177 190 172
245785.56018066 3357559.25573730 19.70205879 200 212 200
245790.92401123 3357562.80029297 23.31968880 99 119 110
245790.87182617 3357563.25268555 16.76735306 98 113 106
245785.77899170 3357564.13507080 20.92719650 189 197 184
245786.30218506 3357562.34832764 20.49258041 112 131 111
245790.87652588 3357559.42919922 22.13483810 169 187 171
245786.50665283 3357564.07409668 21.74880981 118 134 107
245787.26049805 3357562.57067871 17.48432922 147 160 142
245787.34283447 3357558.97723389 19.01220512 203 220 204
245785.24328613 3357565.60577393 16.63207436 255 255 251
245787.09436035 3357562.81658936 21.33320427 168 181 164
245790.47515869 3357565.15167236 22.59624481 155 173 151
245787.50177002 3357564.99322510 16.93213654 173 186 168
245786.09210205 3357559.15136719 22.79512787 170 189 183
245790.12750244 3357561.52758789 20.30644798 160 177 145
245786.54870605 3357563.34973145 16.94717026 141 153 141
245791.38995361 3357561.52655029 20.91393280 116 135 105
245790.32934570 3357563.18896484 16.77565765 162 179 171
245788.05554199 3357564.51715088 17.99242210 112 128 117
245791.18078613 3357559.24981689 22.74234009 175 192 174
245791.27392578 3357560.17138672 20.80595016 128 143 122
245786.53674316 3357559.94262695 17.55952072 158 169 155
245785.70434570 3357563.61437988 21.64742470 172 184 172
245788.45092773 3357564.61120605 19.37901688 122 138 127
245791.63195801 3357565.12414551 22.41496658 94 111 101
245789.49749756 3357563.32843018 17.32343292 112 135 119
245791.47857666 3357563.82031250 21.16082764 107 127 116
245790.88836670 3357559.17108154 17.93259621 121 136 117
245787.21820068 3357565.03149414 19.05389214 126 148 135
245786.31304932 3357560.29028320 20.37848282 109 128 106
245787.60723877 3357563.58953857 17.09891510 105 121 108
245786.77893066 3357561.89837646 16.91839600 210 212 188
245785.83856201 3357562.19329834 21.27467346 168 178 170
245786.71502686 3357564.46649170 23.56678200 166 176 165
245786.34423828 3357559.46484375 17.28671074 129 142 122
245785.68591309 3357558.87115479 17.71856499 217 238 239
245791.42626953 3357560.58038330 18.81356049 83 102 96
245785.87139893 3357559.24731445 18.41279793 190 195 191
245788.65783691 3357559.09869385 17.74718285 71 94 84
245790.08380127 3357561.08843994 20.08643532 119 136 117
245785.64398193 3357558.89538574 22.03393173 223 238 235
245791.43951416 3357560.98626709 18.96993828 55 74 68
245787.11297607 3357561.22875977 17.65671730 153 164 150
245791.32983398 3357564.84722900 19.18320084 165 186 169
245786.69995117 3357559.91094971 17.21854019 178 186 165
245786.61114502 3357561.10754395 16.78001595 94 94 82
245786.09796143 3357564.08593750 16.62581062 195 194 190
245787.46710205 3357559.83038330 18.07591629 140 160 149
245790.18884277 3357563.94628906 19.51495361 173 188 155
245791.26928711 3357559.56677246 18.75204849 88 108 96
245786.04980469 3357565.45733643 21.02051353 80 93 84
245790.90393066 3357562.96545410 23.35199738 133 146 139
245791.22283936 3357559.63702393 23.23878288 171 182 176
245790.01782227 3357565.05163574 18.70000458 105 122 112
245788.16149902 3357563.35797119 23.64073753 122 143 138
245791.50329590 3357564.77770996 22.38317680 177 194 175
245788.71575928 3357558.97485352 21.41396141 101 123 102
245786.65570068 3357563.33917236 17.52323914 151 165 148
245790.00622559 3357558.99621582 17.11093521 120 131 114
245788.99499512 3357564.91107178 22.15186691 149 166 147
245791.71447754 3357563.51568604 23.42017365 126 141 136
245789.49707031 3357561.99053955 17.44637108 114 133 113
245790.65295410 3357564.25512695 18.46569061 141 160 128
245789.18829346 3357564.88500977 20.36673546 177 194 175
245787.21838379 3357562.45880127 19.52006912 110 124 107
245785.73547363 3357563.64739990 19.41561508 141 153 143
245787.70452881 3357564.93750000 19.05644226 89 105 92
245789.82971191 3357563.29925537 17.45889282 147 167 158
245787.24481201 3357560.79174805 17.03616524 239 237 222
245791.38970947 3357562.57775879 19.02197075 119 139 128
245785.85870361 3357563.62158203 23.51281929 104 115 107
245785.72253418 3357563.62255859 19.35553169 135 145 134
245787.41857910 3357559.24578857 22.71847534 122 153 135
245787.97814941 3357558.91790771 19.45368576 127 145 145
245789.37890625 3357562.56420898 16.99405670 115 131 120
245785.88366699 3357561.72265625 22.55927467 158 172 157
245785.47180176 3357563.55108643 17.28835678 160 169 166
245791.10113525 3357563.77630615 20.65314484 150 159 128
245789.81793213 3357560.66003418 16.79646301 78 95 85
245785.37750244 3357558.91442871 16.86805344 190 195 189
245787.86499023 3357564.82232666 20.42330933 167 190 174
245788.81469727 3357563.60766602 23.47080612 123 143 134
245790.73541260 3357563.48858643 20.27943420 174 186 150
245791.47070313 3357565.27667236 18.90081978 87 114 97
245785.98944092 3357561.21875000 21.87627411 107 130 112
245785.82202148 3357559.45404053 19.05898476 157 165 152
245787.66674805 3357559.06066895 22.42496109 217 233 222
245785.54083252 3357558.92504883 19.82185364 232 239 231
245788.44323730 3357564.95550537 23.31008530 168 184 173
245790.79705811 3357562.49127197 20.61408043 159 175 146
245785.91210938 3357558.94824219 23.26036644 125 142 136
245790.58215332 3357559.09936523 19.20538902 99 119 110
245787.28332520 3357560.65167236 17.18821907 192 197 190
245791.71667480 3357561.77069092 23.55849266 101 112 106
245791.60021973 3357564.92248535 19.77547455 143 173 163
245786.28631592 3357563.24755859 23.61050987 130 142 130
245790.74444580 3357559.19140625 18.18823051 121 149 108
245791.12847900 3357564.78582764 16.96441650 149 164 143
245786.63116455 3357563.16351318 23.43937492 149 165 152
245788.04162598 3357558.80090332 22.68366241 115 143 121
245789.87628174 3357564.61053467 18.03521156 111 127 116
245787.17126465 3357562.86621094 21.60858536 160 178 156
245791.24761963 3357560.22399902 17.06164742 156 176 175
245787.20861816 3357564.42919922 23.54957199 141 153 141
245789.11273193 3357561.13220215 23.56628609 143 160 154
245789.28448486 3357563.88793945 23.43517303 159 167 156
245787.51013184 3357564.37927246 19.22457695 135 148 139
245791.25781250 3357562.64916992 23.23863792 123 133 124
245789.50799561 3357558.86816406 21.77171707 111 132 117
245788.72406006 3357565.01483154 20.51579475 180 195 176
245786.27124023 3357563.85559082 16.65739250 122 127 121
245791.32507324 3357559.87298584 23.32009506 181 192 188
245791.17779541 3357563.86682129 22.33503723 121 142 125
245785.89447021 3357561.40740967 23.36282349 131 141 130
245786.38781738 3357565.11383057 22.73651695 172 191 172
245791.28350830 3357558.80999756 23.42045021 145 158 151
245789.54479980 3357564.83508301 18.38129425 118 134 124
245787.10388184 3357559.32092285 18.72138977 179 196 178
245789.46783447 3357559.09234619 22.51680374 122 145 127
245785.77288818 3357558.87524414 21.02946281 198 215 209
245785.16198730 3357562.91802979 16.64208031 248 247 243
245788.80255127 3357561.80853271 23.45989227 139 159 150
245786.86132813 3357562.81219482 22.05164337 125 148 120
245785.99841309 3357559.09869385 17.28736305 95 117 104
245788.56451416 3357565.05047607 22.20807076 147 166 146
245790.79949951 3357559.62310791 21.95662689 132 147 128
245787.11206055 3357561.71582031 23.35905647 113 134 125
245787.29986572 3357558.84362793 23.42056274 192 203 189
245787.19079590 3357559.55773926 19.98188782 152 168 157
245788.82800293 3357564.92425537 23.33771706 143 159 146
245788.85400391 3357564.74688721 18.22198296 144 162 146
245786.06774902 3357563.79290771 16.70397186 58 57 53
245791.78668213 3357564.35113525 23.44598389 91 110 106
245791.58294678 3357565.41119385 23.36347198 80 99 97
245790.45935059 3357564.90332031 23.22650337 154 169 166
245786.92291260 3357564.88122559 18.93826103 123 149 136
245789.32220459 3357564.19439697 17.45726967 111 129 117
245791.46514893 3357564.80279541 22.28636169 175 188 171
245785.76782227 3357565.03222656 20.63319588 236 247 233
245786.22479248 3357564.14001465 19.51043892 166 183 164
245786.20715332 3357564.95501709 18.23415184 183 199 188
245791.49450684 3357560.12036133 16.80970192 40 54 54
245788.10003662 3357564.03765869 23.43556595 163 180 170
245785.89782715 3357563.28009033 19.49771309 183 197 182
245790.78552246 3357560.10034180 21.90711975 140 162 141
245786.72546387 3357562.68737793 20.02110672 110 128 116
245786.89056396 3357564.21313477 19.15865517 168 186 170
245789.96954346 3357561.74450684 19.90275955 166 188 150
245789.40344238 3357558.95031738 18.57853699 110 124 125
245786.48065186 3357560.63800049 20.95096397 244 251 235
245791.40454102 3357559.22943115 16.85639191 36 50 51
245791.29571533 3357558.81085205 22.60050201 223 240 230
245789.88232422 3357564.73718262 19.97827530 148 171 155
245789.75323486 3357559.11614990 17.84951210 133 156 150
245790.65283203 3357561.85101318 20.53573418 169 186 152
245787.20520020 3357564.82757568 22.05278969 164 182 168
245788.81835938 3357565.16278076 18.93249321 125 141 128
245786.04614258 3357564.61181641 19.46903038 174 189 170
245789.96343994 3357559.21569824 17.96261597 116 132 132
245788.90509033 3357562.44458008 23.45060158 129 148 142
245785.08367920 3357564.47686768 16.59152985 111 116 119
245785.88409424 3357563.42095947 23.67960358 147 159 149
245789.11041260 3357565.02874756 21.37675285 179 198 178
245786.64324951 3357559.58874512 22.53807449 172 189 179
245788.88220215 3357560.00036621 23.58609009 147 164 154
245790.60498047 3357564.86303711 20.21971321 88 109 90
245786.08850098 3357561.22888184 18.56458282 206 217 200
245791.38482666 3357564.03674316 21.40430069 172 188 177
245787.02905273 3357562.76043701 17.77623558 150 167 148
245787.07336426 3357564.36798096 19.21248436 162 180 168
245785.85125732 3357560.87054443 19.35097313 217 227 218
245789.47222900 3357559.31744385 19.98992729 93 118 99
245791.30706787 3357560.10144043 21.20738220 125 143 129
245789.40252686 3357563.21551514 16.68166351 136 151 146
245791.03698730 3357560.18084717 20.63014412 153 171 145
245789.43353271 3357564.86859131 19.24237633 114 130 120
245789.29608154 3357563.49230957 17.41223717 110 128 106
245790.78424072 3357560.62207031 20.44980049 142 158 132
245790.24530029 3357563.09844971 19.45964241 136 157 138
245785.90399170 3357561.03796387 22.59150696 132 150 126
245786.76165771 3357563.04064941 23.32181549 115 136 121
245785.87872314 3357563.05419922 23.35678673 192 203 189
245791.41180420 3357564.88311768 19.96918488 178 195 185
245788.25415039 3357563.19488525 23.64536285 147 164 158
245788.30261230 3357564.91674805 18.97448730 145 162 146
245788.43273926 3357559.93707275 23.61279297 135 152 144
245787.12280273 3357559.58520508 23.48371124 166 179 169
245786.44610596 3357564.09667969 19.09718895 167 185 169
245788.53143311 3357560.99450684 23.67766953 153 170 164
245790.93133545 3357561.98394775 21.44549942 125 147 126
245788.25396729 3357559.23608398 17.79373932 114 137 129
245788.28082275 3357562.56335449 23.54392815 133 156 148
245790.34210205 3357564.84558105 20.25676346 129 142 125
245789.63330078 3357564.39367676 23.61180687 143 154 148
245785.78314209 3357564.10705566 21.01154327 223 224 218
245785.87115479 3357564.34045410 20.77561378 80 93 75
245789.64068604 3357559.34039307 20.61226845 106 149 106
245786.75616455 3357560.54931641 21.08412743 107 132 111
245785.65545654 3357563.40661621 17.23447800 229 244 237
245786.06823730 3357565.15246582 18.57986259 162 182 173
245790.18817139 3357560.95837402 19.61994553 141 162 147
245791.38745117 3357562.48358154 23.41278648 110 115 109
245788.29364014 3357565.35180664 23.03057671 166 182 169
245790.47430420 3357559.42419434 17.38344765 82 114 91
245786.06060791 3357559.38671875 20.14541817 196 206 195
245791.57598877 3357564.87664795 19.18043900 144 167 157
245789.55468750 3357558.86730957 17.00993729 202 230 207
245791.26263428 3357559.30102539 19.29422379 100 124 102
245785.59332275 3357563.65893555 23.06734657 168 178 170
245791.36230469 3357565.15026855 21.87808800 181 202 183
245790.27661133 3357564.60766602 16.81808853 141 157 144
245785.87060547 3357561.64050293 18.69855118 173 180 172
245786.74871826 3357563.11096191 23.43071556 131 149 133
245791.24914551 3357559.12243652 18.59291840 113 136 107
245787.76983643 3357558.84039307 23.66854095 182 195 188
245789.25073242 3357562.86767578 16.65219498 151 169 157
245787.17230225 3357562.36230469 23.37732506 121 142 137
245788.33599854 3357565.20703125 22.69698906 144 162 146
245785.66937256 3357559.38403320 20.34853172 187 202 183
245786.99298096 3357565.12695313 20.66174889 174 192 178
245791.51843262 3357561.08471680 21.00916862 119 137 115
245789.21343994 3357564.92749023 18.42974281 125 143 129
245789.19683838 3357563.52636719 17.32439804 129 143 120
245790.68731689 3357561.40820313 18.38445091 128 149 118
245789.86090088 3357561.92053223 23.48560333 128 144 141
245785.72125244 3357560.47448730 23.15101624 222 228 214
245786.76666260 3357562.34429932 21.19838333 120 138 124
245787.34722900 3357565.49151611 16.78625870 62 90 65
245787.90661621 3357565.41033936 23.17008400 119 137 125
245790.54168701 3357562.55841064 20.46922302 172 188 159
245791.73126221 3357563.40612793 16.79053688 50 71 52
245791.70312500 3357560.83380127 23.61757469 170 191 176
245787.89514160 3357564.74768066 20.29443359 163 184 169
245791.47198486 3357563.02984619 20.96132088 112 131 109
245786.02099609 3357562.04779053 19.13123322 167 179 167
245791.42883301 3357558.83160400 18.67756271 153 174 167
245791.49023438 3357558.76586914 23.12136459 123 142 120
245790.96197510 3357559.62445068 19.43214607 120 146 117
245791.18023682 3357558.95153809 18.28393364 124 145 126
245790.06060791 3357564.31146240 19.32179070 142 159 140
245790.97503662 3357561.89562988 22.53508949 172 188 159
245786.25140381 3357564.50952148 16.65210915 206 205 200
245787.42132568 3357560.16802979 17.13767624 189 212 186
245785.24700928 3357558.81689453 16.72275352 245 246 238
245788.80908203 3357565.22613525 22.65859032 163 181 165
245786.76428223 3357562.26898193 19.11130333 130 151 142
245787.78521729 3357558.84094238 18.44439888 237 251 238
245791.20697021 3357558.72021484 20.99342537 184 204 192
245786.05303955 3357563.97064209 21.58539200 123 137 124
245786.08843994 3357565.19818115 20.58462524 175 196 191
245786.82604980 3357561.46765137 19.89956665 169 185 159
245789.34814453 3357564.85406494 22.17992783 134 153 131
245786.60168457 3357563.74206543 23.42588043 172 188 185
245787.34008789 3357559.35260010 18.64987755 172 189 173
245790.12371826 3357559.59619141 23.27249527 167 185 185
245785.39868164 3357559.70989990 16.76255226 192 193 188
245788.48663330 3357558.98193359 23.14464569 165 186 171
245785.87097168 3357559.97875977 23.34763908 158 169 165
245786.10192871 3357563.34478760 17.07347870 143 156 146
245785.83630371 3357564.90417480 20.60809708 99 117 103
245790.97460938 3357559.38031006 19.75329399 97 118 103
245790.98419189 3357563.37866211 23.43982697 107 122 119
245791.26257324 3357564.23822021 22.18022728 111 129 113
245790.00463867 3357564.71563721 23.29193306 161 179 181
245790.68084717 3357559.17846680 17.08394623 144 157 140
245788.74450684 3357561.12634277 23.57925034 146 169 161
245790.49322510 3357561.88397217 20.43596268 169 186 150
245786.46954346 3357565.03588867 16.88873863 159 169 158
245789.34613037 3357559.31109619 19.97639084 88 109 92
245790.78149414 3357562.20574951 18.46521187 132 148 119
245785.71716309 3357563.70983887 22.55474472 141 160 141
245791.27661133 3357558.76062012 17.48575020 195 226 210
245789.46826172 3357558.93035889 21.90401077 95 117 104
245791.18780518 3357561.18365479 21.72852516 177 194 175
245786.28973389 3357562.08514404 20.52582359 115 134 114
245786.72015381 3357560.23522949 18.00048828 137 145 134
245791.11340332 3357558.81445313 22.92763329 173 199 186
245785.93737793 3357562.47839355 21.20866394 153 169 159
245786.15704346 3357559.56188965 22.59691429 233 244 228
245786.38330078 3357564.83856201 18.94766235 179 191 181
245790.82751465 3357560.29223633 22.67281532 154 170 143
245785.74633789 3357561.63696289 17.03340530 193 197 183
245789.91418457 3357559.45605469 20.48043633 132 169 135
245791.43701172 3357564.09533691 18.93080330 119 140 125
245790.77819824 3357564.94665527 20.28517532 61 91 67
245788.75000000 3357562.98614502 23.52082253 126 147 138
245787.53521729 3357559.17742920 22.71186638 130 157 142
245786.91198730 3357561.29089355 17.86891174 165 178 160
245788.61560059 3357563.82128906 17.00449371 117 129 119
245789.55212402 3357558.88067627 21.31955528 156 175 153
245791.84472656 3357564.37170410 23.48588562 113 130 124
245785.93682861 3357562.91778564 22.85360146 149 164 145
245785.93273926 3357563.45330811 23.67741013 114 127 117
245790.94445801 3357563.50335693 23.38432884 116 135 131
245791.42773438 3357563.98358154 18.91060638 112 134 122
245790.57312012 3357558.79779053 23.22353363 172 193 178
245791.15057373 3357559.54357910 19.29818726 105 131 106
245789.95251465 3357558.89587402 19.16743088 137 153 150
245786.02319336 3357560.39263916 21.17296982 149 160 152
245786.29315186 3357564.66180420 18.89618683 175 185 174
245790.74792480 3357559.15283203 22.34770393 96 117 100
245791.59051514 3357563.35681152 23.02665138 123 136 118
245790.90417480 3357561.69323730 22.19675064 140 159 137
245787.81317139 3357558.78985596 20.41685486 220 233 216
245791.03668213 3357559.72473145 19.31240273 103 131 108
245786.67926025 3357562.34936523 23.28635979 119 144 138
245789.65710449 3357564.93450928 16.90594482 124 145 126
245791.57879639 3357560.99505615 16.74375534 53 69 69
245791.16796875 3357559.82250977 21.38535309 168 191 173
245786.18341064 3357560.01422119 23.33112526 168 181 187
245787.14483643 3357563.56958008 16.67053223 119 136 126
245785.47448730 3357563.49377441 18.16799736 232 242 231
245790.59252930 3357562.59197998 20.49485970 171 187 158
245790.25579834 3357559.12530518 21.86587524 147 168 151
245789.30108643 3357562.25939941 16.29481888 112 125 118
245791.03759766 3357561.64709473 16.90628815 48 72 72
245789.91137695 3357562.91290283 16.37423325 50 67 59
245789.33544922 3357562.86175537 23.46671486 148 162 145
245790.61175537 3357563.32507324 20.24519920 182 192 158
245788.88061523 3357564.19464111 17.60188675 102 119 111
245786.20538330 3357562.96166992 21.16085243 103 123 114
245786.31805420 3357560.62658691 22.68182564 134 149 126
245790.28503418 3357562.55023193 16.49201393 54 73 67
245786.10308838 3357563.20928955 23.43121147 123 139 129
245786.59527588 3357559.46069336 19.34081650 129 143 128
245789.41448975 3357564.78485107 20.12218094 137 160 144
245786.00415039 3357565.18579102 20.21201515 104 127 119
245788.24768066 3357558.96704102 21.04435158 107 130 112
245785.54785156 3357559.17755127 20.04413414 246 248 243
245787.14306641 3357561.82434082 17.04694366 224 226 205
245790.27545166 3357564.84881592 19.47153282 133 151 135
245787.33209229 3357560.00610352 16.98146439 185 200 171
245786.03582764 3357560.07293701 18.60998917 206 217 200
245786.15588379 3357561.94616699 23.34318924 117 135 123
245791.66864014 3357565.09222412 22.68865395 95 113 99
245785.65905762 3357558.86785889 17.50110817 210 232 229
245786.95062256 3357559.90515137 19.78044701 136 153 134
245787.42535400 3357559.13946533 19.10649300 142 158 145
245785.89166260 3357565.40875244 16.99116325 115 140 136
245786.52966309 3357559.53228760 22.05912209 174 192 178
245787.77172852 3357562.77752686 23.61489296 152 158 146
245786.23956299 3357562.36462402 21.15307617 143 157 142
245789.47985840 3357560.98248291 16.77005196 74 91 85
245791.25390625 3357561.11187744 23.24866104 120 135 128
245787.17614746 3357559.41198730 16.92626572 108 117 98
245786.93200684 3357560.24060059 17.66522026 153 165 151
245785.87078857 3357564.62194824 23.01576614 144 155 138
245786.48278809 3357559.55303955 22.42208481 202 216 203
245790.70605469 3357560.14031982 20.13473701 153 172 150
245790.50878906 3357564.11730957 16.61110115 166 179 172
245785.61474609 3357560.06072998 17.00829506 253 254 249
245786.15289307 3357559.40625000 23.33473969 156 172 169
245787.60162354 3357559.79431152 17.39228439 137 161 148
245790.49133301 3357559.85662842 23.32570648 166 186 185
245789.36151123 3357561.62670898 16.64002037 106 127 122
245791.01690674 3357563.00152588 16.82634544 61 88 83
245785.81347656 3357560.45507813 20.82017517 124 138 121
245789.18951416 3357558.80969238 18.94269753 166 178 178
245790.52648926 3357562.26110840 16.62274551 40 55 48
245786.39312744 3357560.68249512 23.36161804 164 180 179
245785.91357422 3357563.25140381 20.18159866 181 194 184
245790.85101318 3357561.78460693 22.20149612 166 185 163
245787.87182617 3357563.77819824 23.62128830 144 161 153
245790.08319092 3357561.95245361 23.44556808 133 153 152
245785.78540039 3357561.43341064 21.35300446 210 218 203
245787.86370850 3357558.80853271 18.59812737 167 188 181
245790.26281738 3357559.51556396 20.48545265 109 132 112
245787.70361328 3357564.33685303 19.58805847 138 153 146
245786.29998779 3357560.80816650 21.46381760 103 121 105
245786.65209961 3357562.88439941 20.08585167 134 152 138
245790.20483398 3357564.06140137 23.34554482 136 152 151
245787.78173828 3357558.86572266 18.12420273 194 211 203
245788.45739746 3357558.55578613 16.92815590 108 133 49
245788.91253662 3357564.72204590 18.18560219 150 168 154
245790.79895020 3357562.96411133 19.10730171 110 128 116
245788.37316895 3357558.94744873 19.05545044 202 222 223
245790.15319824 3357559.25982666 19.54484940 80 103 97
245787.53515625 3357565.65539551 16.78198242 30 66 22
245785.71697998 3357565.37469482 21.53114128 255 255 255
245790.98596191 3357564.90991211 23.14076805 171 181 180
245787.22198486 3357562.42364502 19.31891251 235 244 225
245790.51379395 3357563.62133789 18.41378212 133 153 125
245785.88671875 3357563.94354248 19.73370552 115 132 113
245791.22381592 3357561.97308350 16.99002647 129 163 162
245786.85076904 3357561.44628906 17.94242859 167 184 165
245786.35095215 3357559.44171143 17.28572083 125 138 118
245789.98156738 3357564.90405273 21.55335236 162 185 169
245786.68505859 3357564.63366699 23.48584938 170 182 170
245785.79229736 3357558.92889404 20.59320831 238 249 253
245790.76171875 3357565.09399414 21.01151276 119 137 123
245786.45367432 3357564.82885742 22.12162399 146 161 138
245785.72271729 3357563.32916260 22.84867096 237 249 235
245791.26556396 3357559.98901367 19.13027954 163 182 176
245785.98907471 3357565.46148682 18.96546745 99 116 110
245791.67065430 3357561.93414307 16.62435913 39 51 51
245786.30377197 3357559.29284668 23.34257889 160 175 168
245790.08386230 3357561.02325439 17.64377594 102 121 102
245786.41131592 3357563.94000244 22.01410294 147 165 139
245787.11682129 3357561.20385742 23.48351097 118 134 123
245791.41644287 3357562.00122070 19.01232147 110 131 126
245786.74890137 3357564.66772461 16.76731873 204 206 195
245786.89031982 3357559.81201172 19.92049408 171 191 180
245790.14080811 3357564.62860107 17.67080307 113 127 114
245787.80712891 3357564.94171143 22.21878815 140 161 144
245787.37927246 3357559.24774170 23.49128342 141 155 140
245787.22723389 3357564.68469238 20.25818443 168 190 178
245786.76849365 3357559.23150635 17.11602211 109 126 107
245787.61322021 3357559.37731934 21.75024033 142 173 158
245790.55621338 3357558.45727539 16.87269020 116 153 57
245790.96954346 3357563.62561035 21.98805618 160 182 159
245787.00598145 3357563.93109131 17.55591583 147 160 142
245785.54559326 3357559.37957764 23.17620277 156 161 155
245786.20001221 3357559.37286377 22.11396790 184 200 189
245785.98852539 3357558.98736572 23.23513794 128 143 138
245787.34460449 3357559.38964844 23.45745850 145 159 146
245786.41723633 3357558.66241455 16.99147606 119 155 65
245790.56054688 3357564.71716309 17.19328880 142 159 141
245789.08557129 3357559.43298340 20.57876778 105 138 107
245790.89556885 3357558.56652832 16.95892906 115 140 72
245790.71582031 3357563.81665039 18.90800095 126 150 128
245790.98663330 3357564.77136230 17.19615746 132 150 134
245790.20751953 3357563.02069092 19.99007607 192 211 181
245789.58288574 3357562.54113770 23.56588554 131 148 142
245785.40802002 3357565.35009766 16.74634552 255 255 253
245790.10461426 3357564.71319580 18.09893036 101 113 103
245791.07238770 3357564.62463379 21.46652985 169 181 161
245791.02032471 3357560.51342773 17.09870338 96 119 113
245786.20812988 3357559.01208496 19.06759834 197 205 192
245786.85467529 3357559.73321533 20.24550247 173 190 174
245790.46569824 3357561.71606445 16.59390259 63 80 72
245788.39111328 3357565.06335449 18.73839188 113 129 119
245790.19659424 3357564.53192139 19.80717468 154 163 144
245785.87084961 3357563.83593750 20.36203957 133 154 137
245785.98779297 3357561.18774414 21.77935791 107 130 112
245790.14801025 3357564.79949951 19.66518211 135 156 137
245790.72583008 3357560.05419922 18.14242935 124 147 119
245788.50524902 3357564.99414063 21.96551704 174 193 171
245790.01165771 3357558.97283936 21.81384659 153 176 158
245785.49798584 3357558.89978027 23.19384575 180 197 191
245786.00585938 3357559.58013916 17.39731598 143 151 138
245786.82366943 3357563.12939453 19.72434425 133 152 130
245786.99890137 3357562.64056396 21.87379074 150 172 149
245786.26727295 3357560.74639893 21.18148804 164 176 156
245790.48803711 3357562.36383057 23.41843796 123 139 136
245790.67047119 3357560.43066406 20.28871155 158 176 152
245785.65100098 3357558.92236328 18.37068939 220 235 240
245786.69842529 3357559.54034424 19.41968346 139 155 142
245786.41491699 3357564.92126465 18.98003960 184 197 187
245787.60351563 3357559.68609619 17.38080788 167 190 180
245788.00909424 3357563.88861084 17.32422066 140 160 148
245789.35168457 3357558.99377441 17.30671883 95 106 89
245786.92303467 3357560.01745605 21.40744019 141 160 140
245785.76391602 3357565.46539307 20.76423836 138 152 137
245786.72308350 3357560.57989502 21.05171967 106 129 109
245791.18438721 3357559.07666016 19.73657608 133 159 148
245791.01916504 3357563.18072510 16.87969208 42 66 52
245791.23712158 3357564.84387207 19.07530403 128 149 134
245786.70074463 3357559.02923584 21.22517014 197 213 212
245787.58282471 3357559.62121582 23.61019135 156 168 156
245791.17303467 3357560.38800049 17.07315636 123 150 145
245790.69488525 3357565.24169922 16.79591179 39 65 54
245786.77099609 3357561.15313721 16.88352585 184 186 164
245790.65289307 3357565.59289551 16.88646698 19 56 25
245791.08660889 3357563.49114990 16.81502724 125 142 132
245786.24615479 3357562.21447754 23.31918335 124 141 133
245789.00500488 3357564.93957520 22.21943474 156 175 155
245786.49584961 3357559.94030762 17.30217552 159 167 146
245790.16540527 3357561.92803955 19.57437134 182 202 177
245785.79217529 3357565.48559570 23.05848312 145 156 148
245791.24902344 3357564.91912842 19.76443863 72 102 78
245789.97668457 3357559.46124268 19.98203087 98 126 112
245786.58416748 3357560.23571777 16.76885605 184 186 172
245787.30895996 3357565.26660156 22.87877083 151 167 154
245790.95428467 3357564.52813721 16.68927574 161 175 150
245785.90325928 3357560.17156982 23.35236931 173 183 184
245787.45312500 3357564.69104004 20.27307129 164 186 174
245790.64331055 3357564.73052979 17.32512856 125 144 125
245790.27020264 3357564.76129150 20.09004211 137 155 139
245788.30810547 3357565.31433105 22.94528580 167 184 168
245787.49096680 3357561.88983154 23.40932846 171 188 178
245790.95593262 3357560.79998779 23.44869423 145 158 149
245790.40509033 3357564.60168457 18.16764069 133 158 128
245787.83892822 3357563.69482422 17.12843704 134 152 138
245786.48999023 3357562.94976807 22.37250900 146 168 145
245790.67828369 3357562.88006592 16.59149742 0 10 3
245786.13146973 3357561.35333252 23.36683655 124 144 133
245787.27862549 3357558.85565186 23.39635468 185 197 183
245789.64410400 3357559.12316895 18.16295052 141 161 160
245786.02380371 3357564.65588379 21.20257568 126 136 128
245790.93957520 3357564.90423584 19.28671265 76 109 82
245786.10070801 3357561.21740723 21.86643791 106 127 112
245789.72979736 3357561.29144287 17.32541275 94 112 98
245785.71466064 3357561.93927002 22.76569939 194 212 188
245786.10961914 3357559.32299805 18.66651726 184 196 186
245786.10028076 3357559.08856201 23.41449356 158 173 166
245785.93615723 3357563.59289551 22.32566261 144 162 146
245786.38995361 3357558.60821533 17.00525284 108 145 50
245786.04302979 3357563.28631592 19.94027710 121 142 125
245790.82183838 3357562.83056641 19.14744949 102 118 107
245791.73431396 3357562.41888428 23.43583298 139 151 131
245788.63757324 3357565.02429199 21.46870804 180 199 180
245790.64544678 3357561.32879639 16.71850014 65 82 76
245791.50805664 3357564.77410889 18.79940224 112 133 116
245785.83941650 3357559.37622070 20.14594078 177 190 170
245785.47265625 3357563.54357910 17.34605598 103 113 112
245791.74267578 3357560.55712891 23.56347275 98 117 111
245786.99304199 3357564.01843262 17.60381126 154 167 150
245788.65545654 3357564.31829834 23.51932144 161 178 160
245785.94757080 3357562.58148193 20.76357651 123 140 121
245786.21850586 3357559.48626709 23.32873535 159 174 167
245785.08740234 3357562.46246338 16.70271301 104 108 109
245789.70947266 3357558.89196777 19.16752815 157 172 165
245788.83288574 3357563.41687012 23.55441284 119 136 130
245791.25927734 3357565.36291504 23.20298576 122 138 127
245790.99755859 3357561.03161621 21.98546982 160 185 155
245785.32171631 3357564.67559814 16.58906937 152 152 152
245788.19512939 3357565.49914551 23.52884293 158 174 171
245791.71093750 3357565.28179932 23.19814873 117 133 122
245790.87298584 3357563.27239990 22.20997047 190 207 171
245791.46282959 3357563.63903809 22.71681023 189 207 181
245790.87750244 3357562.47814941 21.42318344 140 159 140
245789.88275146 3357562.92797852 17.93401527 164 181 145
245786.53576660 3357559.47369385 19.37401199 132 145 135
245787.90209961 3357559.02325439 18.49018097 154 175 168
245791.01641846 3357563.94909668 16.77837372 118 139 124
245786.68719482 3357559.26159668 23.38781548 206 218 214
245791.18518066 3357561.73571777 22.82120895 151 167 138
245786.06256104 3357559.63977051 17.53966713 155 167 155
245786.67584229 3357560.38824463 21.20056725 129 154 132
245790.86712646 3357559.29382324 17.66592026 122 137 116
245785.81500244 3357559.18096924 18.19580650 152 158 156
245786.55944824 3357559.06262207 21.30071640 156 172 169
245785.95178223 3357563.31030273 21.49702644 156 170 157
245788.32092285 3357564.71374512 23.41356468 168 180 166
245786.57006836 3357564.50366211 18.05762863 136 154 140
245790.23236084 3357560.90588379 16.65344238 64 79 72
245790.89953613 3357558.94488525 21.30800819 133 153 142
245787.78698730 3357564.39080811 19.70581245 156 172 162
245791.44750977 3357558.81048584 20.31116486 126 144 132
245785.93170166 3357559.16528320 21.72192764 150 164 164
245789.50793457 3357564.47863770 16.74213028 128 141 134
245785.74884033 3357564.31579590 19.03838730 253 255 254
245785.43707275 3357559.65081787 16.78744316 186 187 182
245790.57769775 3357564.41876221 16.61880493 168 181 171
245786.06854248 3357559.69628906 17.73324013 160 174 161
245791.36407471 3357562.34197998 21.28040504 110 132 111
245790.47717285 3357561.90240479 20.42719841 169 186 150
245791.16015625 3357563.89819336 21.76358032 139 160 143
245786.35870361 3357562.15393066 19.04887390 149 166 158
245790.71252441 3357559.93939209 20.08252525 155 175 150
245786.02868652 3357565.36572266 22.12454987 118 130 118
245785.77941895 3357559.93420410 23.14244652 238 243 237
245790.83367920 3357559.17712402 18.07126999 107 123 110
245791.25695801 3357561.96209717 18.73002815 100 123 97
245791.20587158 3357564.32501221 21.76467896 172 184 170
245789.29449463 3357562.79156494 16.72603989 143 161 149
245786.56774902 3357559.72454834 22.42376709 153 170 152
245789.95532227 3357564.88256836 19.17064285 121 143 131
245785.64465332 3357560.81921387 19.07397270 255 255 251
245789.59582520 3357561.94976807 15.76450825 51 67 66
245791.13372803 3357561.07562256 21.76500702 164 182 158
245790.02099609 3357561.47027588 23.41682243 128 148 147
245786.77465820 3357560.35723877 16.77585793 170 174 159
245790.85015869 3357560.96301270 16.96182251 80 99 93
245787.79913330 3357558.80541992 21.91210365 233 240 233
245785.41400146 3357560.90722656 16.85931396 222 225 218
245787.62915039 3357560.11291504 23.65333176 167 173 159
245790.62719727 3357562.47698975 19.44943428 118 140 127
245786.76110840 3357564.15185547 16.66504288 146 155 150
245791.25549316 3357564.98266602 21.20355797 144 159 136
245791.20428467 3357559.66143799 22.84770012 142 157 134
245786.88775635 3357565.26464844 23.41329384 162 178 167
245789.10766602 3357558.90631104 21.58874321 70 94 72
245786.44348145 3357563.81494141 23.37138748 128 147 143
245787.22009277 3357560.19433594 17.26022339 105 127 114
245785.68719482 3357559.33154297 18.25893402 173 187 174
245785.87536621 3357563.08691406 21.28166008 144 160 150
245788.68280029 3357560.61901855 23.55248451 142 165 155
245785.94537354 3357565.28259277 17.27195358 112 135 127
245785.49005127 3357563.46765137 17.63624001 213 226 217
245787.23468018 3357562.53289795 19.47787857 118 132 117
245786.61212158 3357563.49670410 21.89731598 142 165 139
245787.81201172 3357563.58288574 16.97958946 145 161 148
245786.08331299 3357565.44409180 23.25059891 120 132 122
245791.38507080 3357558.84539795 19.31871796 116 142 133
245790.11749268 3357565.11444092 21.06173325 178 195 187
245785.73956299 3357565.33508301 22.92090416 248 249 243
245790.54779053 3357564.82055664 18.23772621 89 105 94
245785.67864990 3357561.33825684 22.66584206 142 158 145
245790.88635254 3357559.35034180 17.16356468 116 134 118
245791.34887695 3357558.80273438 21.52059174 222 239 231
245790.13024902 3357563.22723389 23.59514999 169 182 175
245787.10546875 3357560.72796631 17.75354576 136 144 133
245787.81433105 3357558.81878662 23.64809418 182 195 186
245786.45025635 3357560.99957275 19.86180496 219 225 221
245787.88342285 3357564.97314453 20.59180832 183 201 189
245790.54418945 3357564.69622803 21.84700775 164 186 165
245787.13745117 3357565.27624512 23.48936844 141 159 147
245790.85754395 3357563.38336182 23.47534752 109 124 119
245790.87469482 3357563.60144043 23.36823463 133 149 148
245790.86828613 3357562.32043457 21.40103340 134 153 131
245790.19500732 3357561.85192871 23.42969894 131 149 151
245786.33959961 3357564.15307617 21.55332184 106 129 101
245791.59100342 3357564.92639160 20.02467728 156 181 178
245790.18432617 3357563.24969482 17.17555237 155 170 165
245790.83666992 3357559.09649658 18.51963043 91 113 110
245790.67504883 3357559.94366455 22.16258430 148 167 139
245790.03143311 3357560.80664063 16.59186935 65 82 74
245790.98907471 3357559.55755615 21.67039299 174 182 167
245790.14019775 3357564.72247314 19.03938293 117 145 120
245787.12158203 3357560.34881592 21.53905296 167 182 159
245791.34771729 3357563.70166016 23.20741463 149 165 155
245789.31842041 3357564.94165039 21.64896965 173 192 170
245787.34912109 3357559.38732910 16.83168030 178 186 165
245791.37054443 3357565.20349121 22.25592232 181 199 185
245788.21807861 3357559.17156982 20.15793228 119 147 135
245786.42913818 3357563.68280029 17.60875702 152 169 153
245788.56146240 3357559.26477051 20.74953842 100 129 99
245788.96063232 3357558.91711426 21.31465912 154 176 153
245791.27032471 3357565.17962646 18.93593025 110 131 116
245786.41809082 3357560.79333496 19.26972389 152 169 151
245786.78289795 3357564.41546631 19.99190712 148 169 154
245787.91436768 3357563.91619873 17.37490463 112 130 116
245790.86877441 3357558.84527588 23.14823914 185 203 189
245790.82965088 3357562.16705322 23.41738510 104 123 119
245790.74096680 3357564.81207275 23.17790985 147 163 160
245791.30670166 3357565.06115723 17.07348442 119 143 129
245786.16156006 3357561.98883057 23.33978081 117 133 122
245791.42211914 3357560.52026367 16.95047951 66 81 76
245791.25866699 3357564.60046387 21.85208511 140 155 136
245791.19091797 3357563.54058838 18.68825912 112 134 111
245787.50073242 3357559.50189209 19.08835983 107 123 113
245791.34924316 3357563.16448975 16.99047470 184 205 200
245790.16552734 3357564.80139160 19.58220863 136 155 136
245786.20703125 3357559.73028564 17.95596123 172 186 169
245787.76458740 3357558.87268066 17.49059486 220 241 236
245787.20513916 3357564.31262207 23.55146217 131 145 132
245789.55017090 3357565.31964111 23.06068039 152 164 150
245790.23577881 3357560.97985840 19.49406624 133 157 143
245789.04699707 3357558.82434082 23.35715675 218 232 219
245786.25006104 3357565.21655273 22.83187103 178 196 180
245786.76068115 3357560.77734375 19.87524986 139 152 132
245785.88635254 3357562.76617432 17.05339813 168 177 172
245787.62322998 3357559.14105225 19.17397881 216 229 219
245790.52630615 3357564.71606445 19.88023758 111 124 114
245791.79180908 3357565.20019531 23.31157494 99 111 97
245785.69287109 3357561.87261963 22.73122597 191 206 183
245791.42974854 3357564.66375732 20.67418671 157 170 150
245791.46063232 3357564.83209229 22.17024612 165 180 161
245788.40985107 3357565.42352295 16.83507156 21 54 27
245790.32952881 3357564.55181885 18.16977310 143 167 133
245785.75946045 3357564.06616211 21.36795616 197 202 195
245786.86035156 3357564.26098633 16.68835258 169 178 175
245787.63714600 3357561.41516113 23.42946625 183 196 189
245786.71679688 3357559.75994873 22.28120613 123 146 136
245788.61804199 3357559.33496094 20.71382332 97 126 98
245790.77862549 3357564.41888428 20.39120483 155 169 134
245787.91143799 3357563.17034912 23.68996811 169 176 169
245790.22363281 3357561.03460693 17.83736992 106 125 106
245788.36120605 3357564.94024658 20.43371964 160 178 162
245786.28857422 3357562.05084229 18.44090843 164 181 163
245785.91711426 3357559.23852539 19.35935593 139 153 136
245791.21948242 3357563.35375977 16.93609619 111 132 123
245790.64483643 3357558.85607910 16.98130608 208 232 200
245786.64886475 3357563.14624023 16.81644249 193 194 178
245789.18103027 3357559.30810547 20.73958206 119 147 122
245786.25494385 3357563.45013428 21.83764839 117 132 109
245791.36859131 3357560.08666992 23.03499031 134 150 121
245785.94708252 3357564.95623779 19.36165619 159 179 167
245790.32800293 3357563.60546875 19.40466499 206 221 190
245788.81445313 3357564.47375488 23.50028992 156 173 157
245790.29595947 3357564.51263428 16.74948692 134 147 137
245789.42315674 3357563.97589111 17.75742722 127 139 115
245790.71734619 3357560.27911377 22.14104080 154 172 146
245786.27569580 3357560.48077393 21.06172752 145 156 148
245791.24926758 3357563.12780762 18.69487000 117 137 112
245789.28796387 3357559.10504150 20.89407921 132 159 142
245785.96844482 3357564.74609375 18.27463150 73 96 68
245785.50506592 3357561.76208496 22.81203079 169 186 168
245785.85302734 3357559.37945557 17.75896263 187 195 182
245789.80029297 3357563.83416748 18.13204956 135 151 122
245787.51525879 3357565.19525146 18.81515312 120 136 125
245790.54547119 3357560.54559326 17.47001457 84 104 93
245785.51000977 3357564.63562012 16.62509918 226 225 223
245786.85565186 3357564.27148438 19.76524544 170 191 176
245786.50830078 3357561.72723389 18.97249031 151 167 166
245789.54901123 3357565.13201904 20.71857834 145 159 142
245786.53210449 3357560.89483643 21.24728012 123 141 125
245790.13031006 3357562.42785645 23.40704918 133 153 152
245786.58337402 3357562.59930420 20.23817444 96 115 96
245785.71081543 3357562.62493896 21.14484024 248 250 247
245786.83758545 3357562.92614746 23.26988220 104 124 112
245791.35784912 3357558.76507568 23.41536140 154 169 162
245787.41644287 3357565.14782715 17.02082634 193 208 187
245791.01922607 3357565.75292969 16.89640236 17 52 19
245785.94934082 3357559.75701904 22.91041756 175 189 166
245790.71142578 3357560.42938232 18.19183159 131 152 121
245786.83184814 3357563.16369629 21.29476547 211 224 207
245785.93426514 3357561.18994141 20.67196846 195 209 186
245791.72491455 3357563.32720947 23.33189011 121 135 122
245785.61779785 3357559.49896240 21.16460419 217 223 219
245786.64666748 3357564.94982910 22.56907845 178 195 177
245790.30462646 3357559.52838135 19.72858620 108 136 121
245788.96911621 3357564.17388916 16.83530426 118 139 124
