246091.30969238 3357563.06182861 14.59439373 218 65 96
246092.08520508 3357562.99322510 13.89071274 234 237 242
246094.25134277 3357563.52764893 13.68571091 80 94 105
246090.84118652 3357563.70880127 13.74700832 70 66 65
246091.90063477 3357563.02978516 14.46508121 231 234 239
246095.14477539 3357563.41796875 13.87533951 145 158 174
246090.38220215 3357563.46734619 14.25642490 81 0 13
246095.89416504 3357563.33081055 14.67580509 242 250 253
246095.51562500 3357562.98620605 14.23012352 241 240 246
246094.92102051 3357562.91369629 13.66101646 197 201 204
246093.86181641 3357563.42584229 13.94393158 153 166 182
246090.60205078 3357563.04803467 15.03572655 192 51 83
246095.41076660 3357563.33117676 14.49539089 172 169 186
246095.19042969 3357562.94665527 13.98929405 232 231 236
246094.85278320 3357562.96057129 13.86013794 237 237 245
246093.71289063 3357562.84393311 13.61668301 190 189 187
246095.74414063 3357563.68029785 13.67509460 83 70 77
246091.39550781 3357563.39819336 14.30184460 92 26 38
246091.29565430 3357562.76055908 13.63242149 190 176 173
246094.06616211 3357563.00085449 14.15079594 240 210 218
246092.26843262 3357562.99481201 13.89965057 235 238 243
246093.15307617 3357563.30682373 14.49520779 239 248 253
246094.37524414 3357562.89038086 13.65942669 215 215 213
246093.64294434 3357563.31335449 14.86521149 179 179 191
246093.55175781 3357563.37243652 14.91236210 170 177 195
246091.19091797 3357563.39111328 14.71759701 107 37 47
246095.74218750 3357563.39935303 14.19663334 156 172 187
246093.68762207 3357562.91638184 13.64664745 198 198 198
246091.60729980 3357563.43908691 14.13211346 227 227 237
246092.79846191 3357563.19201660 14.84226322 248 255 255
246093.39794922 3357563.21759033 14.60337067 244 244 246
246095.55078125 3357562.92370605 13.79482937 238 243 246
246090.95251465 3357563.40753174 14.39214611 111 34 50
246093.11718750 3357562.96527100 13.87907314 235 237 236
246094.45178223 3357563.03485107 14.92454338 173 41 62
246095.83679199 3357562.92456055 13.77634716 241 245 244
246095.78149414 3357563.68920898 13.67671585 86 71 78
246092.41979980 3357563.41400146 14.65426254 170 186 202
246096.25244141 3357563.45709229 13.70026112 61 66 70
246095.38110352 3357563.35961914 14.23396778 210 209 225
246090.86816406 3357563.65136719 13.75868320 63 59 56
246093.35949707 3357563.83666992 13.68089771 97 98 100
246095.38049316 3357563.25964355 15.02406979 247 251 254
246096.30615234 3357562.88116455 13.65754795 186 186 188
246094.35217285 3357563.38793945 14.94091702 121 20 38
246092.05627441 3357563.10296631 15.03160000 239 243 246
246095.86889648 3357563.82055664 13.67026520 98 98 100
246095.24792480 3357563.25921631 14.43699074 212 126 151
246095.10083008 3357562.88482666 13.66811752 179 182 187
246091.41162109 3357563.35791016 14.64238644 94 38 47
246093.78588867 3357563.64831543 13.67436695 79 86 94
246090.23547363 3357563.01794434 14.08316803 211 68 88
246089.95483398 3357563.78955078 13.71894264 189 184 178
246090.60229492 3357563.42559814 14.33424568 107 23 39
246092.75012207 3357563.44384766 13.99015045 146 163 173
246092.71411133 3357563.38702393 14.70643425 180 189 198
246094.01843262 3357563.42004395 13.93459606 162 173 191
246091.53491211 3357563.31823730 14.84150791 209 187 190
246092.76245117 3357563.18981934 14.81926918 237 248 254
246095.89758301 3357562.85620117 13.65106964 198 199 194
246092.10266113 3357563.01055908 14.04499054 234 237 242
246092.21728516 3357563.38238525 14.34992218 176 193 211
246091.60192871 3357563.66442871 13.68074989 60 61 63
246094.49584961 3357562.97186279 14.01390648 241 240 246
246096.20654297 3357563.10827637 14.97719860 210 217 223
246096.00573730 3357563.37573242 14.34459496 144 165 186
246095.48327637 3357562.92523193 13.89603424 231 241 242
246093.66796875 3357563.12860107 14.88628864 165 161 175
246091.95556641 3357562.83251953 13.63830185 181 181 183
246091.45788574 3357563.33636475 14.56789303 85 42 49
246094.14074707 3357563.39337158 14.13337040 151 124 141
246094.30529785 3357563.42285156 13.83441067 140 167 184
246090.24438477 3357563.36907959 14.82619190 236 75 119
246092.79064941 3357563.44439697 13.99361706 170 186 199
246095.06250000 3357562.96966553 14.06102562 253 240 247
246093.57299805 3357563.26464844 15.04905891 173 188 211
246092.65991211 3357563.44213867 13.92579746 129 147 161
246090.48596191 3357563.00903320 14.08895874 201 49 74
246091.87402344 3357563.03076172 14.42381573 235 236 241
246090.14160156 3357563.51306152 14.14921474 111 29 43
246093.43139648 3357563.00677490 14.25944138 251 251 251
246091.66320801 3357563.80590820 13.67294025 97 96 94
246093.24560547 3357563.46331787 13.78081226 143 157 168
246089.92175293 3357563.11938477 14.01977730 225 100 114
246093.67980957 3357563.20794678 14.73157024 248 246 251
246090.99462891 3357563.45892334 14.00282764 86 19 26
246091.90393066 3357563.00781250 14.02162075 234 235 240
246092.68334961 3357563.44274902 13.94011879 131 147 162
246093.39196777 3357563.59851074 13.68991947 79 86 94
246094.85888672 3357563.42694092 13.79148197 134 153 167
246093.54479980 3357563.37359619 14.92403698 164 173 190
246095.01184082 3357563.03863525 14.25018215 198 65 94
246095.82580566 3357563.01989746 14.36519814 254 255 255
246091.80334473 3357562.84887695 13.64163589 180 179 184
246090.14721680 3357562.82275391 13.73367310 179 164 157
246091.59619141 3357563.38909912 14.26140594 229 234 240
246092.59997559 3357563.04675293 14.49431324 235 239 242
246092.88769531 3357563.38629150 14.86355591 165 174 183
246095.57592773 3357563.40991211 14.11173725 161 177 193
246091.68054199 3357563.18048096 14.88116074 237 240 247
246091.41430664 3357563.00097656 14.10716057 201 87 113
246093.02917480 3357563.40252686 14.34915543 147 173 186
246094.63317871 3357563.04748535 14.30446053 196 69 86
246091.95263672 3357563.03222656 14.32396412 236 237 241
246092.02062988 3357563.76733398 13.68633652 64 65 67
246094.83239746 3357563.12268066 14.96870232 165 69 81
246096.04809570 3357562.93707275 13.80818558 248 253 255
246094.03210449 3357562.85571289 13.61397648 181 180 176
246090.77856445 3357563.48687744 13.91637611 76 19 28
246090.92614746 3357563.02081299 14.21743679 215 62 93
246089.79528809 3357562.94488525 13.72425079 192 191 189
246090.87268066 3357563.10754395 14.58629322 188 44 71
246092.61840820 3357563.04858398 14.54765034 232 237 240
246092.78515625 3357563.39916992 14.23356438 230 247 254
246093.48681641 3357562.98474121 14.12768364 248 248 248
246094.83166504 3357563.05450439 14.42719841 165 38 59
246094.87805176 3357563.11682129 14.89100838 152 58 74
246091.18481445 3357563.39123535 14.71404171 107 37 47
246095.69055176 3357563.81451416 13.66398239 107 109 108
246089.98718262 3357563.26928711 14.26440239 235 75 119
246095.64624023 3357563.08062744 14.96322536 208 221 238
246094.80920410 3357563.13623047 15.00224876 176 69 87
246090.65478516 3357563.49017334 15.01073742 173 68 85
246091.06262207 3357563.40563965 14.74991798 100 24 36
246094.87133789 3357563.22625732 14.61649323 205 124 131
246091.22961426 3357563.50512695 13.87637901 76 23 31
246095.62609863 3357563.30987549 14.62364197 229 239 249
246090.63549805 3357563.45971680 14.12334633 100 24 34
246094.52416992 3357563.19946289 15.11589813 209 86 117
246092.97827148 3357562.99963379 14.08289242 249 249 247
246091.68469238 3357562.75549316 13.62105656 179 178 176
246094.79724121 3357563.32476807 14.25944710 102 25 45
246094.47143555 3357563.38507080 14.08802319 178 180 201
246094.54821777 3357563.01525879 14.17771530 232 192 193
246091.64306641 3357562.98651123 13.89944077 229 229 237
246094.28295898 3357563.04766846 14.67126083 207 59 83
246094.61157227 3357562.93823242 13.73647213 236 240 243
246094.79772949 3357563.07427979 14.51759148 174 48 70
246090.51306152 3357563.52587891 13.88738441 70 20 29
246096.14196777 3357562.95727539 13.89958668 163 168 174
246091.44775391 3357563.13916016 14.98370838 196 111 132
246096.12768555 3357563.06195068 14.37416363 177 183 197
246096.18701172 3357562.99151611 13.80195332 141 146 152
246096.09301758 3357563.41589355 13.74321842 152 158 174
246093.53247070 3357563.72521973 13.67503071 85 92 98
246090.32165527 3357563.47937012 14.21979523 94 10 23
246090.18920898 3357563.49310303 14.59778500 122 13 32
246091.09240723 3357563.42687988 14.16029358 87 13 26
246090.95458984 3357562.78277588 13.64878368 188 175 169
246093.80432129 3357563.71875000 13.68080521 85 92 98
246094.25732422 3357563.26452637 15.02397156 213 43 92
246094.50512695 3357562.93518066 13.72919464 235 237 236
246094.82055664 3357563.00842285 14.14659500 217 155 166
246094.34545898 3357562.76898193 13.59445763 203 196 190
246089.96813965 3357563.37658691 14.25675488 236 86 124
246095.62182617 3357563.05572510 14.56679630 204 210 224
246095.14672852 3357562.79589844 13.63473511 181 181 183
246090.79968262 3357562.98223877 13.86112690 186 60 74
246095.77673340 3357562.81750488 13.63222218 184 185 180
246095.52978516 3357563.03424072 14.78278732 238 245 255
246093.14941406 3357562.96490479 13.90464115 241 243 242
246093.32666016 3357562.95422363 13.92732525 242 242 244
246095.29040527 3357563.29187012 14.80517960 231 236 239
246096.16503906 3357563.09991455 14.71050835 183 190 200
246092.61865234 3357562.80200195 13.61714268 196 198 197
246094.49621582 3357563.58398438 13.67369461 80 90 99
246095.55590820 3357563.04345703 14.77826023 231 239 250
246096.14392090 3357563.00329590 14.14256287 243 247 255
246090.95593262 3357563.39746094 14.49700069 103 26 42
246094.74035645 3357563.38568115 14.01555634 160 167 183
246090.26049805 3357563.67297363 13.73663235 88 84 81
246094.72143555 3357563.28527832 15.09817219 226 97 125
246091.89587402 3357563.41424561 14.24405098 180 196 211
246095.67736816 3357563.30297852 14.96094799 180 185 191
246091.93078613 3357563.10198975 14.97169590 241 245 248
246094.26562500 3357563.45117188 13.78369141 145 172 189
246094.58825684 3357563.34539795 14.40756702 135 78 97
246094.43322754 3357563.38378906 14.10389423 178 176 198
246095.67626953 3357563.31671143 14.94060612 213 218 224
246092.54809570 3357563.59259033 13.67658997 62 66 69
246091.97009277 3357563.71270752 13.68493557 57 61 64
246094.30126953 3357563.03839111 14.70066643 205 55 82
246092.35595703 3357563.43780518 13.91169071 137 154 170
246093.22119141 3357563.38708496 14.98546505 173 183 193
246091.79040527 3357563.46533203 13.94733810 129 142 159
246093.32812500 3357563.01019287 14.27570152 250 250 250
246094.70178223 3357563.01373291 15.03564930 216 93 113
246094.73559570 3357563.52685547 13.66636562 79 86 96
246094.46850586 3357563.53002930 13.67320538 77 87 97
246094.44079590 3357562.86370850 13.62182236 206 205 201
246091.40478516 3357562.98565674 13.98946857 236 202 218
246092.74194336 3357563.37377930 14.29599953 236 249 255
246090.17626953 3357563.04919434 14.53231430 210 49 80
246090.28576660 3357563.48773193 14.17530251 105 23 35
246091.15563965 3357562.79882813 13.64811611 189 175 172
246094.79882813 3357563.25518799 15.00616932 172 65 81
246094.30761719 3357563.35339355 14.33584023 108 23 46
246094.89501953 3357563.28460693 14.35867786 154 52 73
246093.88098145 3357563.06237793 14.38388824 181 62 90
246092.20629883 3357563.44494629 15.06700611 160 174 187
246090.58093262 3357563.00506592 14.11323452 204 56 80
246094.32714844 3357563.04302979 14.29971886 183 76 96
246091.06945801 3357563.35595703 15.05439568 149 35 60
246095.76525879 3357563.40069580 14.02518845 139 156 176
246095.66821289 3357562.83441162 13.63579655 187 187 187
246091.96313477 3357563.08874512 14.97681618 239 243 246
246095.35534668 3357563.06420898 14.48973465 244 243 248
246090.51000977 3357563.05621338 14.44345188 157 11 34
246090.47119141 3357563.44958496 14.31255627 87 7 18
246093.70214844 3357562.99798584 14.22791100 248 247 245
246090.55236816 3357562.96105957 13.72517872 208 136 137
246094.85437012 3357563.29077148 14.42924213 143 37 59
246096.12695313 3357562.99334717 14.18774509 201 206 212
246095.96362305 3357563.39611816 13.86331749 149 162 179
246090.64904785 3357563.46179199 14.93209553 215 110 127
246091.10913086 3357563.28076172 15.05378246 237 117 152
246091.34033203 3357563.04711914 14.79208374 200 52 78
246092.22277832 3357562.97912598 13.76288223 236 241 245
246090.92004395 3357563.36749268 14.60211182 102 21 36
246091.61328125 3357563.13085938 14.78746796 200 192 205
246093.67260742 3357563.41424561 14.08752537 205 225 236
246096.01428223 3357563.36682129 14.69501400 157 171 182
246095.32885742 3357563.34991455 14.81185532 207 212 216
246090.40148926 3357563.01135254 14.10643959 206 60 81
246092.47766113 3357563.08117676 14.93915749 220 226 238
246093.09960938 3357563.04797363 14.63041592 199 206 214
246091.26550293 3357563.02679443 14.89082718 207 56 87
246092.07861328 3357563.40313721 14.42543983 175 193 213
246094.99475098 3357563.17468262 14.68471146 140 56 82
246093.48571777 3357563.38366699 14.99245262 158 171 188
246093.68273926 3357563.11846924 14.60286236 221 204 210
246095.33666992 3357563.25048828 14.95494747 247 251 252
246093.95336914 3357563.41186523 14.08083153 193 190 207
246090.39099121 3357563.50555420 13.98332691 90 24 36
246094.31774902 3357563.03570557 14.47936630 207 71 93
246096.13989258 3357563.22540283 14.74785805 167 180 188
246090.68505859 3357563.01232910 14.20827866 199 55 78
246091.07299805 3357563.40460205 14.52966690 96 18 34
246091.72509766 3357563.48126221 13.77932262 135 137 150
246092.97766113 3357563.58538818 13.67907333 73 80 86
246096.00830078 3357563.09545898 15.01650810 239 240 245
246092.56445313 3357563.05523682 14.77298450 236 241 247
246090.39099121 3357563.50939941 13.95310593 85 25 35
246090.66394043 3357563.60595703 13.80206394 73 53 55
246092.13098145 3357563.00335693 13.97982693 234 237 242
246091.75207520 3357563.04412842 14.77005577 237 236 242
246092.28479004 3357563.43927002 15.06703949 166 179 195
246094.42712402 3357563.82879639 13.66904545 111 114 119
246094.88122559 3357562.89935303 13.65244675 188 194 194
246092.29357910 3357563.08734131 15.02287197 229 234 240
246094.63342285 3357563.65399170 13.67176819 93 102 107
246095.92871094 3357563.35583496 14.94532776 193 198 202
246096.15429688 3357563.08453369 14.69192982 189 196 206
246091.54846191 3357563.38134766 14.29131603 223 214 219
246092.62927246 3357563.04919434 14.54019642 232 237 240
246095.31396484 3357563.31921387 14.90285683 244 248 251
246093.54748535 3357563.70727539 13.67362595 84 91 97
246092.16516113 3357563.02990723 14.37211990 238 239 243
246095.82019043 3357563.10467529 14.62593079 205 219 230
246096.15148926 3357563.25354004 14.03578568 145 160 183
246089.75585938 3357563.17785645 13.78554821 188 180 178
246092.83129883 3357563.36437988 14.39194393 220 231 237
246094.82519531 3357563.01611328 14.16740036 188 106 120
246091.55419922 3357563.46801758 13.99798107 58 30 42
246092.03259277 3357563.02191162 14.90331841 221 222 227
246093.32299805 3357563.34228516 14.34923363 248 255 255
246090.23474121 3357563.56854248 13.79085922 74 63 61
246090.38391113 3357562.98803711 13.73642254 196 141 136
246094.90869141 3357563.67285156 13.66520977 79 87 90
246092.05529785 3357563.33410645 15.11591148 249 255 253
246095.00305176 3357563.05975342 14.32367420 214 74 103
246094.47631836 3357562.93280029 13.72037125 237 239 238
246095.71777344 3357563.43682861 13.76753044 147 156 171
246093.77697754 3357563.18640137 14.55469894 238 198 209
246095.01770020 3357563.41674805 13.86770821 142 158 173
246092.04101563 3357563.62805176 13.68776417 66 70 73
246092.67382813 3357563.39501953 14.20656967 235 250 255
246091.39904785 3357563.35321045 14.48433399 93 32 40
246093.27270508 3357562.95611572 13.88246250 228 229 231
246093.69213867 3357562.76550293 13.59367371 192 189 184
246093.06372070 3357563.38537598 15.06147003 233 236 241
246090.32348633 3357563.50286865 14.90423107 174 50 76
246092.27124023 3357563.38714600 14.32301331 181 199 213
246092.98522949 3357562.88879395 13.67266369 198 198 196
246089.77136230 3357563.73504639 13.70913696 226 221 215
246093.02795410 3357562.97674561 13.91382408 246 248 247
246095.31250000 3357562.92321777 13.68454361 214 221 229
246092.56176758 3357563.35406494 14.52274132 171 183 195
246093.12976074 3357562.95593262 13.75303555 238 239 241
246095.21679688 3357563.16839600 14.74252224 209 201 212
246090.09216309 3357563.02496338 13.86278629 207 113 114
246096.16552734 3357562.98352051 14.00888824 149 156 162
246095.38244629 3357562.93267822 13.90750504 230 238 241
246093.24389648 3357563.06817627 14.75575256 189 198 205
246093.79528809 3357563.08660889 14.46315384 181 114 131
246092.95361328 3357563.41467285 14.27061844 172 191 205
246095.44482422 3357563.41564941 13.91908360 143 154 174
246093.07312012 3357563.39459229 14.94384670 157 169 185
246092.19335938 3357563.76123047 13.68313026 62 63 65
246096.02307129 3357563.03979492 14.52359200 230 233 240
246093.00805664 3357563.02001953 14.27824211 249 249 249
246095.91601563 3357562.99945068 14.34401798 244 245 250
246090.52502441 3357563.51190186 15.04408932 126 7 27
246091.29064941 3357563.79864502 13.73856544 81 81 81
246093.18347168 3357563.06237793 15.01448250 248 254 254
246096.10693359 3357563.24707031 14.66388702 165 178 187
246094.21960449 3357563.49139404 13.75720692 96 115 132
246094.72497559 3357563.38787842 14.00995731 160 167 183
246091.10656738 3357563.59722900 13.78714466 73 54 56
246094.99450684 3357563.36151123 14.15378857 115 71 88
246095.55004883 3357563.20611572 15.09503174 255 254 255
246092.30432129 3357563.03106689 14.26700878 239 240 244
246089.89489746 3357563.28570557 13.97913742 225 108 124
246092.41210938 3357563.45001221 13.74149513 117 131 144
246091.65551758 3357563.22021484 14.87539291 197 197 207
246096.17089844 3357562.99169922 13.85072327 155 160 166
246094.77734375 3357563.34472656 14.97103977 98 0 6
246093.40747070 3357562.94726563 13.82334995 237 238 240
246090.76965332 3357563.40447998 14.34991932 119 42 58
246095.77709961 3357563.10156250 14.65294838 192 210 222
246092.02319336 3357563.43750000 15.08172321 159 166 176
246091.04870605 3357563.42364502 14.18402386 94 20 35
246095.18884277 3357563.05767822 14.35882759 190 101 123
246094.30065918 3357562.93829346 13.72217369 246 248 245
246090.18652344 3357563.01928711 14.12360287 206 56 81
246095.81750488 3357563.10565186 14.93145657 200 210 219
246090.82275391 3357563.32946777 14.54875278 190 93 113
246094.97155762 3357562.94830322 13.80585384 235 238 245
246092.73791504 3357563.09277344 14.77388096 223 236 244
246094.31201172 3357562.99511719 14.06177902 238 239 243
246089.93762207 3357563.10992432 14.07213497 228 91 111
246092.49157715 3357563.38073730 14.23721409 169 187 199
246092.35705566 3357563.03369141 14.70449257 235 240 243
246093.41076660 3357563.34875488 14.87752151 181 185 194
246095.86669922 3357562.99023438 14.29619503 248 249 253
246095.90185547 3357563.37176514 14.44818783 231 250 255
246096.12207031 3357563.19793701 14.49568462 175 187 201
246093.36889648 3357563.46209717 13.84915257 140 159 166
246092.78784180 3357563.37957764 14.30417061 236 251 255
246094.34130859 3357563.41412354 13.93426323 148 165 183
246092.41381836 3357563.23699951 15.06016064 203 217 230
246095.44482422 3357563.36529541 14.83560848 169 176 184
246095.46020508 3357563.81500244 13.66104794 121 121 123
246093.38989258 3357563.08099365 15.10631657 248 253 255
246093.50744629 3357563.37884521 14.37199593 192 209 219
246094.38977051 3357563.38366699 14.91220474 119 18 34
246090.32409668 3357563.50866699 14.81445217 124 17 35
246096.00524902 3357562.98992920 14.23595047 243 246 251
246096.40246582 3357563.82873535 13.65548515 113 124 126
246092.91003418 3357563.49597168 13.68201733 99 105 117
246089.89916992 3357563.49450684 13.97801113 171 89 91
246095.19128418 3357562.73571777 13.60702133 187 182 178
246089.91455078 3357563.60101318 13.73884678 164 155 146
246090.33312988 3357563.47485352 14.26954937 85 1 14
246091.14343262 3357563.40832520 15.06855392 132 18 43
246096.14453125 3357563.34210205 15.02528191 179 188 187
246092.50512695 3357563.13580322 14.95014381 212 224 238
246094.75671387 3357563.05908203 14.89821529 192 73 92
246090.74023438 3357563.05438232 14.38018131 201 54 83
246094.65722656 3357563.35913086 14.15742970 84 59 80
246095.57470703 3357563.83923340 13.66244221 116 116 116
246092.18933105 3357563.42919922 15.12038231 205 214 219
246091.64392090 3357563.53430176 13.73937035 55 55 65
246094.44592285 3357563.17156982 15.09302998 222 83 122
246092.43212891 3357563.01275635 14.06136608 235 239 242
246096.13427734 3357563.32977295 13.88960552 133 141 160
246094.71789551 3357563.42352295 13.81201267 140 156 169
246091.65063477 3357563.38085938 14.28951168 226 235 242
246094.63647461 3357563.06469727 14.46202087 200 72 87
246094.64147949 3357563.03698730 14.72555637 221 88 107
246095.30761719 3357563.00231934 14.23223972 243 236 244
246096.08398438 3357563.08941650 15.05634880 228 231 236
246090.75671387 3357563.49554443 13.90572929 78 21 30
246092.97839355 3357562.80529785 13.60969448 201 201 199
246095.31030273 3357563.28491211 14.70266914 200 203 208
246090.72216797 3357563.13061523 14.58061981 140 25 42
246090.68383789 3357563.08868408 14.52119827 152 24 47
246090.97485352 3357563.06677246 14.69705391 206 51 82
246091.34802246 3357563.40771484 14.28446674 102 21 36
246095.96411133 3357563.37860107 14.32812500 144 165 186
246095.29516602 3357562.98516846 14.17227364 253 248 254
246093.95751953 3357563.38317871 14.24805164 76 32 49
246094.30371094 3357563.39672852 14.07855988 176 177 197
246094.88928223 3357562.72113037 13.58295441 193 190 185
246095.88793945 3357563.33496094 14.88034153 203 204 208
246092.85388184 3357563.44573975 13.94434166 138 156 168
246093.41809082 3357563.11022949 14.56754971 223 228 231
246095.22766113 3357563.13427734 14.51839447 188 176 186
246095.47167969 3357563.35772705 14.71047497 165 171 185
246091.57873535 3357563.07714844 14.36614513 203 166 184
246091.82507324 3357563.03375244 14.55097103 236 237 242
246093.10571289 3357563.42639160 14.06367016 208 228 235
246092.18652344 3357563.07952881 15.02099323 229 232 237
246093.32531738 3357563.37567139 14.96190548 174 184 193
246091.34082031 3357563.70745850 13.74820042 61 63 62
246090.92736816 3357563.39471436 14.85544300 118 38 49
246094.08715820 3357562.75988770 13.58810425 194 190 181
246095.31408691 3357563.63421631 13.67101479 82 85 90
246090.27124023 3357563.47296143 14.89199734 203 68 100
246095.25134277 3357563.32794189 14.26176929 140 87 107
246093.31237793 3357563.35870361 14.90924263 184 191 199
246094.85424805 3357563.29522705 14.39313507 143 40 61
246091.29577637 3357562.96777344 13.81485176 161 98 109
246095.55200195 3357563.50360107 13.70327473 62 66 75
246095.77868652 3357563.82275391 13.66362476 98 102 103
246091.95202637 3357562.89184570 13.67903805 177 178 180
246094.92028809 3357563.40539551 13.93892384 147 161 174
246091.83679199 3357563.03320313 14.60700035 235 236 241
246093.70007324 3357563.03741455 14.39794922 234 211 217
246095.98474121 3357563.37066650 14.45351410 151 170 187
246089.99108887 3357563.49731445 14.28188324 186 49 77
246091.14001465 3357563.20898438 15.05768681 236 110 147
246091.98388672 3357563.33337402 15.08397961 253 254 255
246093.17553711 3357562.95977783 13.82070827 236 237 239
246092.13488770 3357563.02795410 14.19899368 236 237 242
246092.60534668 3357562.99505615 13.86819077 243 244 246
246093.69189453 3357563.03436279 14.38890266 244 233 237
246093.50866699 3357563.76892090 13.67764950 81 89 91
246090.84143066 3357563.47906494 13.93535805 79 17 28
246094.53991699 3357563.42285156 13.80916023 142 157 178
246094.44079590 3357563.05072021 14.66129112 193 60 77
246095.26220703 3357562.97241211 14.11864376 251 248 255
246091.07141113 3357563.40948486 14.87872219 103 21 33
246092.21923828 3357563.02459717 14.68594551 156 160 169
246095.28051758 3357562.88806152 13.65359974 173 181 184
246092.74462891 3357563.64434814 13.67613602 66 71 74
246091.08325195 3357563.45141602 14.04672909 96 23 34
246094.06262207 3357563.45117188 13.76128864 148 169 188
246090.53491211 3357563.01507568 14.20371819 206 53 83
246094.77282715 3357562.94732666 13.78729534 238 239 244
246092.12463379 3357563.02630615 14.56692123 196 197 201
246095.87683105 3357563.32836914 14.65341949 242 250 253
246091.82263184 3357562.98638916 13.82158566 229 232 237
246091.18493652 3357563.08215332 15.03607559 216 72 105
246090.54284668 3357563.40008545 14.51099586 116 25 42
246095.82604980 3357563.35339355 14.45946121 231 244 252
246096.11376953 3357563.23883057 14.53547668 161 175 188
246090.24084473 3357563.51831055 13.91773605 78 31 39
246092.49768066 3357563.42138672 14.89192104 171 187 202
246090.86889648 3357562.97436523 13.78462505 195 114 120
246090.81433105 3357562.95764160 13.77513218 188 103 106
246090.58874512 3357563.36791992 14.55759907 135 43 58
246091.00122070 3357563.40606689 14.28589153 98 24 39
246092.71374512 3357562.95495605 13.72507381 231 235 238
246091.50085449 3357562.81750488 13.65158081 187 179 177
246094.25781250 3357563.18908691 15.08119869 224 71 117
246091.06945801 3357563.80029297 13.73995209 97 93 90
246093.22045898 3357563.42584229 14.09151554 203 223 232
246092.39819336 3357563.01928711 14.11580658 236 240 243
246092.44274902 3357563.60565186 13.67736435 67 68 72
246090.82275391 3357562.92779541 13.75104809 212 165 159
246094.68395996 3357563.27294922 15.11835098 225 94 125
246093.24768066 3357563.24157715 14.78278255 187 196 203
246092.00183105 3357563.03015137 14.41322231 236 237 242
246090.58410645 3357563.45983887 14.15842152 106 29 39
246094.34301758 3357563.30517578 15.07204723 245 96 136
246092.91406250 3357563.52661133 13.66841412 63 72 79
246094.14636230 3357563.32403564 14.44229889 161 26 56
246094.57592773 3357563.36621094 14.14641094 137 125 149
246094.37915039 3357563.04144287 14.94835377 195 59 83
246092.32641602 3357563.02972412 14.32822514 239 239 247
246096.34985352 3357563.07489014 13.68707943 88 91 96
246091.77478027 3357563.11846924 14.89892387 245 246 248
246093.93554688 3357563.02874756 14.26958561 172 80 103
246096.10144043 3357563.03460693 14.71805859 232 236 245
246095.52465820 3357563.28363037 15.08367252 253 255 254
246093.43591309 3357563.79498291 13.68174267 74 78 77
246095.50585938 3357563.39349365 15.07524204 171 178 188
246090.01818848 3357563.06085205 13.99710560 214 66 92
246095.86975098 3357563.61016846 13.68314934 105 57 73
246090.51647949 3357563.08996582 14.65594959 206 89 107
246095.95349121 3357563.04895020 14.50653648 247 248 252
246089.85668945 3357562.84625244 13.73666954 164 160 159
246093.59497070 3357563.09637451 15.00078583 182 191 208
246094.54565430 3357563.03393555 14.24063873 218 145 154
246090.83752441 3357563.40960693 14.29877472 90 16 31
246091.39367676 3357563.38739014 14.92845821 99 25 40
246095.47949219 3357563.07263184 15.00600433 248 252 253
246092.46765137 3357563.37170410 14.41738033 175 193 207
246094.59643555 3357563.06439209 14.42442989 194 68 82
246093.52746582 3357563.26251221 14.61040974 249 248 254
246094.82922363 3357563.35528564 14.11695576 149 130 149
246091.22241211 3357563.39263916 14.76531982 97 27 37
246089.83886719 3357563.05157471 13.79493427 202 176 175
246096.11584473 3357563.07855225 15.04877853 225 230 234
246095.47912598 3357563.05944824 14.92818546 238 241 246
246094.71923828 3357562.95135498 13.80832767 235 239 242
246094.06274414 3357563.21807861 14.51438713 177 43 70
246093.94665527 3357563.19592285 14.51162529 193 76 102
246091.30249023 3357563.39050293 14.80220413 101 25 37
246094.88476563 3357563.54962158 13.66308975 86 89 96
246090.08361816 3357563.14996338 14.43290329 237 72 114
246093.84753418 3357563.22088623 14.53472805 174 85 107
246091.52600098 3357563.47906494 13.92305088 51 24 33
246094.04162598 3357562.95300293 13.65315533 234 234 232
246093.34960938 3357563.65826416 13.68013763 88 93 99
246094.55297852 3357563.05029297 14.73785591 201 68 85
246093.20947266 3357562.85485840 13.63104630 202 201 199
246093.32861328 3357563.42248535 14.10289001 200 217 227
246093.23034668 3357563.34173584 14.90817356 183 192 199
246091.66369629 3357563.35736084 14.59760952 184 183 189
246091.17822266 3357563.04974365 14.56864357 162 8 34
246090.83935547 3357563.06842041 14.41682053 141 3 28
246089.92626953 3357562.92175293 13.73825455 174 165 160
246093.72436523 3357563.34039307 14.49043179 245 239 243
246094.55700684 3357562.96130371 13.96067238 239 240 244
246093.02209473 3357562.96173096 13.75418663 243 244 246
246096.11926270 3357563.11621094 14.32862377 148 160 176
246095.37658691 3357563.41003418 14.08449268 169 176 194
246091.04125977 3357563.01940918 14.20112705 195 55 84
246089.82263184 3357563.78387451 13.71023560 199 194 188
246096.01635742 3357563.80688477 13.67377567 100 99 104
246092.18737793 3357563.43560791 14.86477661 158 179 196
246091.89477539 3357563.36206055 15.04288197 255 255 255
246090.15954590 3357563.04980469 14.41529751 210 49 82
246092.04565430 3357562.81506348 13.63023949 185 187 186
246093.52539063 3357563.03729248 14.99838161 207 216 223
246095.40917969 3357562.93164063 13.96896172 227 235 237
246096.37963867 3357563.16735840 13.68232250 57 61 70
246095.45544434 3357563.35681152 14.71929359 166 172 184
246091.65661621 3357563.00073242 14.02936554 231 230 236
246093.61596680 3357562.95770264 13.95532608 246 248 247
246092.29565430 3357563.40490723 14.51416492 171 188 204
246095.44750977 3357563.34173584 14.43054199 163 172 187
246095.92382813 3357563.35516357 14.64425850 243 254 255
246091.83410645 3357563.43121338 14.18207836 212 228 243
246090.56591797 3357563.40216064 14.63914490 165 71 85
246092.73962402 3357563.02868652 14.16105461 245 249 250
246092.87854004 3357563.43371582 14.14368439 224 245 250
246093.92614746 3357563.11614990 14.50761890 197 78 108
246092.08325195 3357563.02728271 14.53212738 224 225 229
246093.36035156 3357563.56677246 13.69737911 78 87 94
246091.39978027 3357563.07885742 14.68171883 197 61 85
246093.68420410 3357563.17492676 14.74838161 233 228 234
246090.11914063 3357563.72955322 13.72606277 149 144 138
246095.34741211 3357563.62567139 13.67099667 80 84 87
246092.44140625 3357563.44342041 13.76921272 121 137 152
246093.59289551 3357563.22064209 15.02005100 169 184 207
246091.01452637 3357562.86029053 13.67281246 200 176 174
246095.23474121 3357563.00854492 14.22521591 199 148 167
246092.51281738 3357563.38281250 14.52846241 172 185 201
246095.18725586 3357563.02874756 14.27303791 179 74 104
246090.66052246 3357563.34313965 15.11964035 224 96 131
246093.83679199 3357563.21466064 14.53785706 168 95 112
246090.42736816 3357562.99279785 13.75165939 215 156 152
246090.71057129 3357563.35284424 14.41154194 155 68 87
246094.68347168 3357563.03887939 14.74541664 220 89 107
246094.45996094 3357563.35968018 15.05704117 153 29 55
246093.10083008 3357563.35723877 14.42937088 207 226 240
246090.27929688 3357563.35955811 14.89712048 233 70 115
246091.38928223 3357563.36236572 14.61011505 89 26 35
246090.72497559 3357563.37780762 15.08779716 207 111 125
246091.23327637 3357563.36389160 15.05535507 141 12 43
246092.78503418 3357563.01837158 14.09512806 248 250 249
246092.16430664 3357563.01141357 14.05054474 234 237 242
246090.51245117 3357563.06628418 14.88221264 192 42 69
246096.10729980 3357563.72143555 13.68027210 93 91 96
246091.98205566 3357563.44348145 14.93641758 155 168 185
246091.14453125 3357563.04797363 14.62731457 187 33 61
246090.12500000 3357563.07501221 14.37525272 217 56 89
246091.76879883 3357563.46264648 13.98054790 148 160 176
246090.34558105 3357563.05755615 14.46625900 203 44 72
246095.52270508 3357563.37292480 14.34032249 148 166 178
246092.72277832 3357563.83050537 13.69257164 71 77 77
246093.37292480 3357562.98181152 14.12726688 249 249 249
246091.89843750 3357563.02673340 14.19698715 234 235 240
246093.51525879 3357563.45782471 13.81057453 146 162 175
246094.40563965 3357563.36102295 14.63910580 105 23 35
246095.15808105 3357563.39306641 14.08205509 172 164 179
246093.60839844 3357563.01049805 14.86624241 229 226 233
246094.42846680 3357562.89996338 13.67040157 213 213 213
246092.92407227 3357562.94793701 13.72897720 233 234 236
246092.57336426 3357563.43792725 13.92684841 129 147 159
246094.78125000 3357563.35308838 14.14248562 121 92 112
246095.24511719 3357563.01586914 14.25271988 184 125 143
246094.32238770 3357563.35302734 15.00932026 137 19 45
246093.53259277 3357563.36578369 14.86473846 177 181 193
246091.58166504 3357563.13439941 14.78835487 193 172 189
246090.49169922 3357563.49755859 13.97461891 88 22 34
246090.83349609 3357563.34820557 14.44264698 126 45 60
246094.98400879 3357562.80194092 13.61546993 183 185 182
246090.90393066 3357563.40942383 14.28313732 115 41 56
246089.85498047 3357563.02832031 13.77750111 194 180 179
246093.62463379 3357563.16717529 14.97050285 179 181 204
246092.46447754 3357563.43511963 13.95903873 146 164 178
246094.74182129 3357563.63067627 13.66850376 81 88 96
246095.51647949 3357563.35437012 14.55144024 158 172 181
246095.73632813 3357562.91015625 13.71302223 228 228 226
246092.78283691 3357562.85968018 13.64569092 200 200 200
246092.70434570 3357563.39562988 14.21419621 233 248 255
246091.82019043 3357563.03479004 14.77989769 237 238 242
246094.68896484 3357563.34179688 14.88615131 96 4 17
246093.59875488 3357563.45751953 13.77805328 131 145 158
246095.14965820 3357563.19696045 14.53120327 213 132 149
246090.46032715 3357563.46850586 15.07594109 171 35 71
246095.21264648 3357563.16314697 14.77359390 211 208 217
246096.08935547 3357563.32641602 15.07669067 235 239 242
246094.11865234 3357563.43725586 13.80239010 162 184 205
246093.26391602 3357563.37182617 14.32441998 238 252 255
246093.77868652 3357563.43145752 13.89446354 141 153 169
246091.67114258 3357563.46881104 13.97472095 153 159 175
246094.31359863 3357563.34582520 14.59427357 135 29 49
246093.32385254 3357563.40240479 15.03820896 174 184 194
246094.32604980 3357563.37011719 14.19101810 95 64 82
246096.23266602 3357563.23547363 13.73196411 45 53 66
246093.56311035 3357562.95507813 13.94062805 243 245 244
246091.35803223 3357563.28601074 15.01925659 167 57 84
246094.82531738 3357563.41668701 13.85314083 130 146 159
246090.96740723 3357563.60400391 13.77440548 70 58 58
246096.37316895 3357563.55474854 13.67689705 59 73 74
246091.86584473 3357562.94982910 13.75638294 202 203 208
246093.56762695 3357563.36950684 14.85270786 171 175 187
246093.31262207 3357563.35809326 15.07806396 224 233 240
246091.83105469 3357563.03338623 14.56078148 236 237 242
246091.11462402 3357563.04498291 14.98511124 185 40 71
246089.89990234 3357563.05749512 13.87558556 176 114 117
246094.29785156 3357563.34875488 14.96561432 160 25 57
246093.51184082 3357563.50238037 13.75150108 91 103 115
246092.62390137 3357562.73968506 13.59491730 182 181 179
246090.44470215 3357563.46850586 14.18939590 93 15 28
246092.04064941 3357563.01184082 14.05860043 233 236 241
246090.76464844 3357563.11047363 15.04641914 144 71 80
246090.76062012 3357563.12231445 14.56153011 157 23 48
246095.18054199 3357563.13751221 14.84025955 185 184 192
246093.46301270 3357562.80718994 13.60806656 195 190 186
246091.07788086 3357563.04315186 14.75410843 206 56 85
246096.11303711 3357562.94348145 13.81314945 223 231 234
246091.55456543 3357563.02655029 14.18732262 238 216 229
246093.30358887 3357563.18969727 15.11199379 251 255 255
246090.42871094 3357563.48626709 14.68071270 119 22 39
246090.25952148 3357563.24316406 14.84260178 235 69 117
246092.38256836 3357563.18774414 15.07369804 205 217 229
246090.82434082 3357563.35827637 14.74330521 201 113 127
246093.12927246 3357563.42938232 14.03032875 193 213 220
246091.61389160 3357563.33673096 14.45298958 252 254 253
246091.04223633 3357562.97833252 13.90149117 197 138 156
246090.44946289 3357563.01855469 13.85199356 205 93 105
246090.57617188 3357563.40600586 14.66999149 179 83 97
246095.87512207 3357563.10784912 14.84983158 231 241 243
246091.75451660 3357563.02416992 14.19770241 232 233 238
246095.23071289 3357563.40411377 13.97684193 170 179 194
246090.90344238 3357563.48645020 13.89625454 72 16 25
246092.14306641 3357563.44689941 14.12903976 194 216 230
246093.96911621 3357562.95697021 13.89830494 240 241 243
246091.74511719 3357563.36480713 14.36837292 192 204 218
246092.17065430 3357563.00964355 14.03438950 234 237 242
246092.90417480 3357563.04882813 14.59431458 242 246 245
246092.52380371 3357563.00354004 13.95914459 237 242 245
246095.24157715 3357563.25555420 14.44089317 212 126 151
246095.83642578 3357562.80480957 13.64031315 165 166 161
246095.62573242 3357563.39752197 14.24112892 148 161 180
246091.85766602 3357563.48602295 13.79490757 124 130 146
246096.21875000 3357562.75231934 13.63505077 182 184 183
246095.80493164 3357562.98114014 14.25427914 238 242 243
246090.37353516 3357563.04858398 14.57335186 205 48 75
246095.70288086 3357563.22973633 14.99678040 112 114 127
246095.34509277 3357563.08709717 14.63798141 243 242 247
246092.37902832 3357563.03198242 14.44133568 229 232 237
246094.66198730 3357563.39300537 14.00289440 156 165 182
246091.34692383 3357563.70727539 13.74574757 61 63 62
246091.19421387 3357562.95892334 13.74201679 185 132 138
246090.82641602 3357563.61920166 13.76639557 70 65 62
246096.13623047 3357563.08569336 14.18898010 171 182 200
246095.25134277 3357562.85101318 13.64436340 181 185 188
246094.33508301 3357562.95574951 13.86467743 240 240 240
246091.82775879 3357563.63000488 13.68060112 60 65 68
246094.47741699 3357563.67944336 13.67628193 92 101 106
246094.23681641 3357563.19543457 14.69227600 191 26 60
246090.35974121 3357563.30279541 15.01221561 225 72 118
246091.43481445 3357563.35119629 14.65206718 94 38 47
246095.32678223 3357563.04516602 14.38195229 227 226 231
246093.12390137 3357563.36456299 14.88886547 175 189 198
246093.23815918 3357563.44921875 13.81608868 142 156 167
246091.57678223 3357563.31622314 14.65302944 197 191 193
246091.11108398 3357562.86090088 13.66848946 192 172 171
246094.15686035 3357562.81915283 13.61993217 192 189 184
246091.97314453 3357563.41046143 14.27221680 179 197 211
246091.52124023 3357562.94537354 13.76461697 197 178 180
246096.14038086 3357563.04626465 14.98756695 220 225 229
246095.15747070 3357562.99597168 14.15568447 249 207 221
246091.95654297 3357562.99462891 13.89864063 231 235 238
246095.67529297 3357563.40289307 14.02842045 139 154 175
246094.52893066 3357563.03405762 14.98903084 199 67 91
246093.27966309 3357563.10906982 14.57197380 187 192 196
246093.04394531 3357563.55920410 13.68454647 74 81 87
246092.10266113 3357563.03179932 14.29611015 236 237 241
246093.51550293 3357563.14440918 15.10067844 208 220 234
246090.69934082 3357563.35681152 14.41197109 144 57 76
246092.74731445 3357563.05261230 14.51099205 217 226 231
246092.77685547 3357563.34112549 14.43439484 249 254 255
246093.42053223 3357563.04394531 14.37430096 253 253 253
246090.11828613 3357563.02789307 13.89129734 189 84 89
246090.51916504 3357563.05950928 14.45553875 157 11 34
246095.47863770 3357563.36181641 14.32903957 151 168 178
246094.80993652 3357563.32299805 14.26300430 117 30 49
246090.21972656 3357563.61193848 13.76629639 79 71 68
246095.58142090 3357563.13067627 15.07559776 254 255 255
246096.13476563 3357563.16058350 14.16609383 162 177 200
246091.58447266 3357563.32073975 14.63469887 197 191 193
246094.74328613 3357563.33624268 14.83879280 98 1 10
246092.52453613 3357563.02349854 14.12186623 242 243 248
246090.74011230 3357562.99969482 14.11199379 205 57 81
246096.03759766 3357563.35058594 14.35394669 150 167 187
246095.34704590 3357563.31939697 14.67666054 185 185 193
246096.09106445 3357563.25280762 15.08597565 242 245 250
246095.77343750 3357563.28454590 14.70575237 223 223 231
246090.40551758 3357563.49023438 14.07299232 103 29 42
246094.75000000 3357563.49749756 13.68167591 74 84 96
246096.12976074 3357563.01135254 14.22680569 165 172 182
246091.59362793 3357563.07916260 14.61064720 178 172 186
246093.34802246 3357563.23217773 15.11552525 250 255 255
246090.39685059 3357563.48272705 14.12666988 104 28 41
246096.55187988 3357562.71466064 13.64563179 168 168 168
246093.14489746 3357563.39599609 14.33802414 202 224 235
246092.17407227 3357563.02416992 14.65929794 141 144 151
246090.21228027 3357563.56414795 13.79157352 76 65 63
246089.74975586 3357562.86370850 13.72909355 130 130 132
246094.62292480 3357563.75415039 13.67424870 83 93 95
246095.56042480 3357563.04010010 14.58973694 227 230 237
246094.43469238 3357562.91864014 13.70598793 224 224 224
246093.88928223 3357562.74920654 13.58823299 190 186 177
246094.89929199 3357563.04583740 14.34008694 175 48 69
246093.36560059 3357563.65832520 13.67971325 87 92 98
246090.85424805 3357563.29858398 15.04511166 210 137 144
246094.76489258 3357563.04296875 14.35970402 190 58 81
246094.95483398 3357562.96929932 13.96148586 237 238 243
246090.04931641 3357563.39147949 14.42383099 235 86 124
246093.63171387 3357563.03057861 14.37334156 254 255 255
246091.65002441 3357563.27703857 14.88315487 207 204 211
246091.45349121 3357563.07543945 14.42353344 192 74 98
246094.11560059 3357562.72967529 13.58033276 191 184 174
246090.42626953 3357563.20996094 15.07172298 233 83 131
246093.94055176 3357563.41625977 14.03618050 189 195 211
246095.19665527 3357562.94055176 13.94532681 233 234 238
246092.36535645 3357563.45330811 13.76716423 122 135 152
246090.19738770 3357563.49194336 14.61855125 121 12 31
246096.09350586 3357563.26477051 14.58021736 159 173 186
246095.44287109 3357562.94085693 14.05790138 229 234 240
246092.55822754 3357563.31176758 14.92178822 225 238 246
246092.61389160 3357562.90856934 13.66895390 192 196 199
246092.15563965 3357563.39984131 14.41860390 174 192 212
246092.78198242 3357563.46630859 13.72961712 132 144 156
246092.98168945 3357563.39721680 14.92390823 154 167 183
246092.29528809 3357562.93444824 13.67027473 183 188 192
246094.55847168 3357563.02337646 14.97070789 202 70 91
246095.79809570 3357563.05407715 14.43184948 251 255 255
246094.27148438 3357563.07635498 14.86314583 200 40 76
246094.02478027 3357563.04644775 14.34428978 193 54 83
246094.75744629 3357563.40881348 13.90678501 140 154 167
246095.19653320 3357562.99255371 14.15933418 250 226 239
246094.52807617 3357563.01837158 14.18991184 232 192 193
246092.83984375 3357563.00030518 13.97918320 249 249 251
246092.83215332 3357563.49261475 13.68480682 84 94 103
246089.98107910 3357563.33245850 14.27407932 236 81 121
246093.27075195 3357562.95648193 13.90625954 234 235 237
246094.45336914 3357562.90167236 13.67015076 212 212 212
246091.91516113 3357563.41052246 14.25900364 177 193 208
246095.79492188 3357563.00805664 14.31934166 252 253 255
246093.49035645 3357563.24456787 14.61728764 248 247 252
246095.98291016 3357562.99707031 14.29860687 234 237 242
246090.11010742 3357563.51275635 14.24352360 117 26 43
246091.70690918 3357563.48229980 13.77054882 135 137 150
246093.60620117 3357562.81463623 13.60574913 192 189 184
246093.55541992 3357563.41619873 14.08055782 186 205 220
246090.90710449 3357563.38983154 14.85872746 184 113 119
246091.57385254 3357563.00592041 14.11496735 235 204 219
246092.70361328 3357563.36718750 14.62273502 179 186 196
246091.28723145 3357563.39715576 14.88424110 95 17 30
246091.22070313 3357563.45989990 14.02633381 97 20 36
246092.48583984 3357563.41894531 14.82785511 169 185 201
246091.86901855 3357563.43750000 14.17209816 207 225 239
246090.99511719 3357563.05541992 14.76275349 204 49 80
246094.13574219 3357563.39672852 14.12046623 154 127 144
246094.47485352 3357563.76104736 13.67057705 86 96 98
246093.52001953 3357563.09533691 14.69608116 229 234 237
246089.86401367 3357562.93157959 13.73152637 172 168 165
246092.59558105 3357562.92858887 13.67848587 192 196 199
246090.96057129 3357562.98883057 14.03265381 201 82 112
246090.54968262 3357563.15777588 15.12823296 237 98 137
246095.47924805 3357562.80792236 13.65325832 190 192 191
246095.40991211 3357563.00726318 14.28707314 230 235 239
246094.29931641 3357563.03936768 14.69755554 205 55 82
246095.64819336 3357563.06842041 14.69209671 191 207 220
246095.56237793 3357562.93713379 14.07218456 235 235 243
246096.14855957 3357562.95220947 13.85625362 169 174 180
246091.67895508 3357563.06036377 14.33055592 231 231 239
246095.50524902 3357563.55255127 13.69729042 71 74 81
246093.51403809 3357563.11303711 14.64434052 235 239 242
246090.07531738 3357563.13714600 14.36883354 233 68 108
246092.11596680 3357563.02294922 14.95080376 190 193 202
246091.80285645 3357562.91064453 13.66008472 180 181 186
246095.01574707 3357563.46588135 13.71134567 83 95 107
246091.20031738 3357563.53601074 13.84909344 73 28 35
246092.50720215 3357563.43359375 13.98703575 163 182 196
246090.54980469 3357563.06414795 15.10024929 221 72 110
246091.57226563 3357563.66656494 13.68857193 60 61 63
246095.01501465 3357563.15124512 14.82218647 147 67 94
246095.81420898 3357563.39501953 14.11424923 158 176 196
246094.91040039 3357563.55487061 13.66248703 86 89 96
246091.69018555 3357563.74468994 13.67277145 68 68 68
246095.50341797 3357563.35858154 14.70484161 163 167 179
246093.93420410 3357563.55340576 13.67668819 80 90 100
246091.13037109 3357563.41143799 14.95622921 102 11 26
246091.40759277 3357563.45678711 14.06171894 105 24 39
246091.43933105 3357563.40356445 14.24580383 103 53 64
246092.46423340 3357563.45098877 13.75473976 107 119 131
246092.89892578 3357563.37994385 14.78125668 159 173 186
246090.55627441 3357563.00683594 14.08266258 204 54 81
246096.46557617 3357563.53594971 13.66496181 60 71 75
246090.86096191 3357562.98260498 13.90093422 161 42 61
246094.64624023 3357562.99682617 14.10549641 235 210 216
246095.77087402 3357563.08062744 14.50149250 221 230 235
246093.26025391 3357563.28900146 14.47574234 254 255 255
246091.28479004 3357563.39843750 14.90020370 96 16 29
246091.72180176 3357562.98626709 13.86626625 230 230 232
246090.37182617 3357563.01922607 13.79087162 203 132 130
246092.34033203 3357563.34893799 15.11216831 231 238 246
246095.77331543 3357562.77038574 13.63137531 207 209 204
246092.07800293 3357563.45593262 14.00258064 152 169 187
246090.30993652 3357563.50793457 14.85144901 141 19 42
246091.96142578 3357562.94104004 13.73177052 186 187 191
246091.61389160 3357563.47290039 13.96313095 153 155 168
246092.06494141 3357563.46514893 13.82903385 122 135 152
246092.12548828 3357563.02807617 14.47765350 235 236 241
