246101.41137695 3357487.14169312 14.00524521 180 181 185
246100.66027832 3357488.16561890 14.22651672 199 201 198
246099.11718750 3357487.08370972 16.20953751 57 216 238
246100.90209961 3357487.69613647 16.51187515 21 113 188
246100.31884766 3357486.74624634 14.10196304 158 152 154
246100.28491211 3357487.42929077 15.85398102 128 128 128
246100.68969727 3357487.72717285 16.56079865 55 143 215
246099.92309570 3357487.13754272 16.61553764 123 230 240
246099.17041016 3357487.07873535 15.78034782 128 128 128
246099.40136719 3357488.33193970 14.63215637 191 185 195
246099.86132813 3357486.88055420 16.58801460 84 220 234
246101.34692383 3357488.11743164 14.12641907 170 174 177
246098.81250000 3357487.51882935 14.08794498 155 155 157
246099.12573242 3357486.01840210 14.09168911 138 137 133
246100.89428711 3357487.30819702 14.02364063 181 182 184
246101.34313965 3357486.77856445 16.01086807 193 176 166
246099.25024414 3357486.31378174 16.27000809 53 219 243
246099.40844727 3357486.23501587 14.05691624 98 91 85
246099.02978516 3357487.48226929 14.15652943 55 50 54
246101.16223145 3357488.18865967 14.24122238 170 174 177
246100.67907715 3357488.67938232 14.25363159 132 132 134
246099.01391602 3357487.49765015 15.90134048 158 179 162
246099.36694336 3357486.97045898 16.33631134 77 217 242
246099.13403320 3357487.89013672 14.56488705 145 146 151
246099.39282227 3357486.73941040 15.73188972 128 128 128
246100.61499023 3357486.08258057 14.00953197 233 233 233
246099.81628418 3357488.71755981 14.25651932 46 44 47
246099.00634766 3357486.31253052 14.14028835 150 141 134
246098.83862305 3357485.95855713 15.44469070 77 96 68
246100.08776855 3357485.96240234 16.21888924 10 153 229
246101.54321289 3357487.05541992 16.25813293 40 162 209
246099.24792480 3357488.27938843 14.53424454 142 145 150
246100.76977539 3357486.53778076 14.07105541 163 168 174
246100.49865723 3357486.01681519 16.22804451 22 155 224
246099.59045410 3357487.84509277 16.47838211 77 214 230
246101.55541992 3357488.48452759 14.12259388 173 180 186
246100.43151855 3357487.16024780 14.01598072 177 179 178
246100.58825684 3357488.72259521 14.26080132 113 112 117
246100.45288086 3357485.90621948 16.15368271 87 175 225
246101.35913086 3357488.24932861 16.06714439 91 123 99
246100.45483398 3357487.34124756 14.03165150 195 197 196
246099.11975098 3357486.69699097 14.17846489 181 171 170
246100.16931152 3357487.72708130 16.60992050 17 137 215
246101.11389160 3357486.83908081 15.94867229 128 128 128
246100.87805176 3357487.17694092 15.91831589 128 128 128
246098.94335938 3357486.17425537 15.99913502 63 137 174
246101.51538086 3357487.54022217 14.00234127 184 188 191
246099.98583984 3357486.85321045 15.82821083 128 128 128
246100.49780273 3357488.10131836 14.19711876 198 200 197
246101.13562012 3357487.34729004 14.01430035 187 188 190
246101.14306641 3357487.96795654 16.39171028 13 154 207
246099.04272461 3357488.46740723 14.13427734 162 162 164
246100.39746094 3357487.61892700 15.86076450 128 128 128
246099.30297852 3357488.09902954 16.35610008 79 213 238
246099.99719238 3357487.42819214 14.13704395 180 182 181
246100.84570313 3357486.06405640 16.16932678 124 188 215
246099.54333496 3357486.63217163 15.74343300 128 128 128
246100.60217285 3357487.07495117 16.72842407 24 163 232
246101.63525391 3357486.86053467 16.11443901 166 172 168
246099.08569336 3357488.39108276 16.10094833 162 187 181
246099.70751953 3357486.15618896 15.68585682 128 128 128
246099.15270996 3357485.79635620 16.14570427 57 128 192
246099.80053711 3357488.24047852 16.22940636 42 160 208
246098.71630859 3357488.67108154 14.06018829 175 173 174
246100.16259766 3357486.31625366 14.15204716 196 197 201
246099.07824707 3357486.08407593 15.46654606 86 109 65
246101.32104492 3357487.52182007 14.01205254 177 178 180
246100.41381836 3357485.95535278 16.01144981 206 206 204
246099.37805176 3357486.64627075 15.71993637 128 128 128
246098.99865723 3357487.50534058 16.14150810 30 166 206
246101.05200195 3357487.77014160 16.44251060 24 142 212
246100.26489258 3357488.09667969 15.92827225 128 128 128
246100.58825684 3357488.38415527 14.23275089 190 191 185
246099.37121582 3357487.94757080 14.64832401 202 205 210
246099.33666992 3357487.31295776 14.31824017 108 109 113
246098.91491699 3357485.88671875 15.87602425 176 185 226
246100.42333984 3357487.99627686 14.20549297 195 196 191
246099.85961914 3357485.90057373 16.19366264 36 154 228
246098.95629883 3357487.62792969 15.98287487 221 238 245
246100.23962402 3357486.63824463 14.14475155 153 147 147
246098.98864746 3357485.80096436 16.08775711 163 222 255
246099.89294434 3357486.36303711 16.38743210 2 159 236
246099.22180176 3357488.42007446 16.20185852 66 155 185
246101.29345703 3357487.06063843 16.37976837 86 153 205
246100.16442871 3357487.40081787 16.81235504 82 217 236
246101.28063965 3357486.17471313 14.01425076 255 247 240
246099.24682617 3357488.33944702 14.49412632 179 182 187
246099.14636230 3357488.02792358 16.00030708 128 128 128
246099.94799805 3357486.72207642 14.16919041 204 199 203
246101.33593750 3357487.92968750 16.28628540 44 177 218
246100.07788086 3357486.87060547 14.11004829 195 195 197
246099.76110840 3357486.47689819 14.14172363 242 244 243
246099.18212891 3357488.18206787 16.30654716 87 223 245
246099.80163574 3357486.27075195 14.11685181 231 231 229
246100.70727539 3357488.06564331 14.23657131 201 203 200
246099.66198730 3357487.67681885 14.44972134 197 199 198
246101.46655273 3357488.42956543 14.14827919 177 184 192
246101.30139160 3357487.82247925 14.05064678 177 181 184
246099.26208496 3357487.25860596 14.24063110 175 179 180
246100.01977539 3357487.05953979 15.84631157 128 128 128
246099.92004395 3357486.24319458 15.75980568 128 128 128
246101.19091797 3357487.63714600 16.37741089 33 116 192
246100.40466309 3357488.31161499 16.27687454 106 143 172
246099.74487305 3357486.06436157 15.68185425 128 128 128
246099.04162598 3357486.72055054 14.16942787 142 132 130
246101.55676270 3357486.78222656 16.09494591 183 171 159
246099.82666016 3357487.76809692 14.36898708 195 197 194
246098.87536621 3357487.69796753 14.13473225 171 167 166
246100.93688965 3357487.65826416 14.07378197 173 177 178
246100.61401367 3357488.01416016 14.22485638 200 202 199
246099.44152832 3357488.13574219 16.00304031 67 82 61
246098.96862793 3357487.26171875 14.14732170 225 228 237
246100.84997559 3357487.80325317 16.52474403 65 164 231
246101.31958008 3357488.23309326 16.26268768 42 177 206
246100.39062500 3357486.32089233 16.35949135 194 209 228
246100.26342773 3357487.03985596 14.02211380 186 184 187
246100.27539063 3357486.22473145 15.82196522 172 167 164
246101.18798828 3357486.87606812 15.96112633 129 128 126
246099.04760742 3357486.52569580 15.78429890 121 134 117
246099.80029297 3357488.09841919 15.97711182 71 92 59
246099.77783203 3357487.34231567 16.54435349 246 247 249
246098.75622559 3357486.44433594 14.08813381 204 196 194
246099.77185059 3357488.08544922 14.52241516 165 168 183
246099.46337891 3357487.41824341 16.38824654 250 241 244
246100.65551758 3357488.38568115 15.99126148 80 127 111
246100.23730469 3357487.58972168 14.09239578 203 202 200
246099.80383301 3357486.50778198 14.15050125 242 242 242
246101.26586914 3357486.44955444 16.10562134 208 200 197
246099.83300781 3357487.28262329 15.85510254 128 128 128
246100.21337891 3357487.60525513 16.69033813 29 142 222
246100.60778809 3357488.41665649 14.24946213 192 191 186
246099.95141602 3357487.29522705 15.87432003 128 128 128
246099.03527832 3357488.17617798 16.19000435 79 215 231
246099.94067383 3357488.28091431 16.18827438 56 160 197
246099.36059570 3357486.00134277 15.55723953 128 128 128
246099.02148438 3357486.00656128 16.14586067 32 186 238
246100.99621582 3357486.29306030 16.30246735 41 168 221
246100.92333984 3357487.16717529 14.02271175 180 181 183
246101.37207031 3357486.22854614 14.01227951 253 246 240
246101.11267090 3357488.18780518 16.31181908 43 160 213
246100.06616211 3357486.20355225 15.77011013 126 127 129
246099.56359863 3357485.77493286 15.93617630 60 98 143
246101.13452148 3357487.38897705 15.96318531 128 128 128
246101.35888672 3357488.21914673 14.14314365 169 172 177
246101.62451172 3357487.88598633 16.09042740 123 170 178
246099.47937012 3357487.12817383 15.78553104 128 128 128
246100.01501465 3357486.47390747 14.15970039 221 221 219
246101.42419434 3357487.42065430 16.28988838 127 185 207
246100.92016602 3357488.05407715 16.38982010 17 137 213
246099.11633301 3357488.06497192 16.00876999 128 128 128
246099.02001953 3357487.96969604 14.40394497 188 188 190
246101.56347656 3357487.79592896 16.03372002 130 168 181
246100.33203125 3357487.32937622 16.88739204 137 228 246
246100.01708984 3357487.95785522 14.32340908 200 199 195
246100.93847656 3357486.92456055 15.92269707 128 128 128
246099.79650879 3357485.78173828 15.87270355 119 131 143
246099.54455566 3357487.01498413 16.42416573 209 237 241
246099.31677246 3357488.32168579 16.30168343 43 158 205
246100.01647949 3357485.95217896 15.83410072 170 180 182
246098.75659180 3357488.15628052 14.06641865 173 174 176
246099.18286133 3357487.11160278 16.23745155 57 194 213
246100.35620117 3357486.87863159 14.05304909 156 154 157
246099.19409180 3357487.84683228 14.61634350 191 192 197
246100.61425781 3357487.76220703 16.54743385 32 117 198
246099.89111328 3357486.39453125 15.77121353 128 128 128
246101.27587891 3357487.81375122 14.05048180 177 181 182
246099.67993164 3357488.76730347 14.12841702 71 75 76
246099.60864258 3357488.43722534 14.64021397 194 186 199
246101.27893066 3357487.85528564 14.05813217 175 179 182
246099.67419434 3357486.04663086 15.65886116 128 128 128
246099.74389648 3357487.79284668 15.91082287 128 128 128
246099.95202637 3357486.24365234 14.12658119 246 246 246
246100.48522949 3357488.24649048 14.17702484 196 195 190
246099.18054199 3357487.21423340 14.20865536 222 226 227
246098.94885254 3357486.81250000 16.00071335 230 245 248
246099.16638184 3357485.96154785 14.07832718 135 135 135
246099.00195313 3357488.48403931 16.18286705 130 182 169
246100.50891113 3357488.22079468 16.32144547 109 147 192
246101.56701660 3357487.08908081 16.03063965 127 129 128
246100.86352539 3357486.16726685 14.02159214 255 255 255
246099.44067383 3357486.24035645 14.06274223 98 91 85
246099.83483887 3357488.25314331 16.22127342 42 158 205
246099.53027344 3357486.74856567 14.22220612 255 255 255
246101.37255859 3357486.86245728 15.99268055 186 177 172
246099.71887207 3357487.67062378 16.54250908 90 217 234
246098.77185059 3357487.99075317 14.06740665 164 164 164
246100.54943848 3357486.53283691 16.46446228 236 237 241
246099.85070801 3357485.78390503 16.00534058 91 128 173
246098.85327148 3357485.90454102 15.64725208 160 165 159
246101.49511719 3357487.17962646 16.28033829 138 223 244
246098.98034668 3357486.17492676 15.66454506 100 111 105
246100.98083496 3357487.89059448 15.94765377 128 128 128
246099.72937012 3357488.08773804 14.55118179 163 169 185
246099.95275879 3357486.25524902 15.76600647 127 129 128
246100.28784180 3357486.89108276 15.81920910 128 128 128
246099.30346680 3357486.75494385 16.32599640 56 223 242
246100.61755371 3357486.69689941 16.53722954 14 146 210
246101.42834473 3357486.66848755 16.07851982 193 176 166
246099.32836914 3357487.42837524 16.31335258 96 196 219
246099.10412598 3357486.62637329 15.75648499 137 150 130
246099.02929688 3357486.15585327 14.12321281 141 136 132
246099.89062500 3357487.59375000 14.26421928 190 192 191
246101.07446289 3357486.70394897 16.47241783 0 128 191
246100.69152832 3357486.72634888 16.54128456 8 156 228
246101.08386230 3357487.49948120 15.95743656 128 128 128
246101.60314941 3357487.15847778 16.22366524 104 184 217
246100.08581543 3357487.26638794 16.73974419 100 226 240
246098.82666016 3357488.25863647 14.08493042 175 175 177
246098.85876465 3357485.81906128 15.65980148 250 250 252
246101.26391602 3357487.53109741 14.01337910 177 178 180
246100.71923828 3357485.99847412 16.10447311 178 201 207
246100.73583984 3357487.90493774 16.46782875 19 136 205
246099.70983887 3357488.22912598 14.61330032 140 149 180
246099.05480957 3357488.73254395 14.07896614 188 187 185
246100.83386230 3357487.70352173 15.92211342 128 128 128
246099.05371094 3357486.16143799 16.17843246 54 196 234
246100.91296387 3357486.44073486 14.05779743 173 177 186
246100.69311523 3357486.46865845 14.06273174 172 175 182
246101.54516602 3357488.05374146 16.14720535 107 157 166
246100.06359863 3357487.56588745 16.68202591 69 195 235
246101.16259766 3357486.89224243 15.95745754 128 128 128
246098.94055176 3357487.95013428 14.28262520 181 181 181
246100.63415527 3357486.50436401 16.45439911 115 194 235
246100.96240234 3357487.45883179 16.50108337 29 111 171
246099.63281250 3357487.02743530 15.79821110 128 128 128
246099.82983398 3357487.43597412 14.26075268 187 188 192
246101.21289063 3357487.35238647 16.39488411 251 219 232
246099.88403320 3357487.33947754 15.86876488 128 128 128
246100.14782715 3357487.88250732 16.52377129 63 148 212
246100.21057129 3357486.21279907 14.12568665 175 176 178
246101.09777832 3357487.07177734 15.95087433 128 128 128
246099.47131348 3357487.07211304 14.28150654 245 247 246
246099.26635742 3357487.07049561 16.27920532 189 244 249
246099.79370117 3357486.14721680 15.71108532 128 128 128
246101.04174805 3357487.89562988 16.44161606 9 148 203
246101.18432617 3357487.51980591 14.01498127 182 183 185
246101.54846191 3357487.92764282 16.03728867 118 132 135
246099.13549805 3357487.98428345 14.55924129 134 138 141
246100.10144043 3357486.02767944 14.11353874 133 135 134
246101.15759277 3357486.61236572 16.42535019 3 131 192
246098.98645020 3357487.88931274 14.39495087 194 192 193
246099.73706055 3357486.85800171 15.79629230 128 128 128
246099.09277344 3357485.78622437 15.26497269 203 209 209
246098.95080566 3357487.32852173 14.13889217 183 183 195
246099.40673828 3357485.96826172 14.02081108 127 125 128
246099.51916504 3357487.90145874 16.43719292 102 227 245
246099.55639648 3357486.23617554 16.36682892 12 163 236
246099.42309570 3357486.96981812 15.76050186 128 128 128
246100.49645996 3357486.38839722 14.08814144 145 150 154
246098.89282227 3357485.94754028 15.86036873 123 141 181
246100.61303711 3357488.04711914 16.39795876 60 121 178
246099.06030273 3357487.64508057 16.19298172 21 191 250
246101.07043457 3357488.20648193 14.25700665 174 175 177
246100.69042969 3357487.72064209 15.89980125 128 128 128
246101.15661621 3357488.23614502 16.27806664 49 164 208
246101.17089844 3357486.63186646 14.05315781 160 164 173
246101.44348145 3357486.49942017 16.28259659 123 202 232
246100.76159668 3357486.85015869 16.58545303 10 155 222
246099.41943359 3357487.16500854 15.78396511 128 128 128
246098.81726074 3357487.80459595 14.11098862 163 162 160
246099.09313965 3357487.89263916 14.50859070 167 166 171
246101.38134766 3357488.60244751 14.17969990 183 195 207
246098.84472656 3357486.23498535 14.14701176 191 186 182
246101.30395508 3357486.65213013 16.38427544 13 154 210
246100.99230957 3357486.42352295 16.01152611 206 195 189
246099.37097168 3357487.20483398 15.79667759 128 128 128
246098.93518066 3357486.69934082 14.13290977 182 175 169
246098.95056152 3357486.78286743 16.00188828 230 245 250
246101.35925293 3357487.76477051 15.99769688 128 128 128
246101.17639160 3357486.72546387 14.04679775 166 169 178
246101.39929199 3357487.81179810 16.25440598 53 157 192
246101.49719238 3357488.19421387 16.07547951 103 138 132
246099.55493164 3357487.01449585 14.27400017 236 237 239
246100.79248047 3357488.03652954 15.92239952 128 128 128
246099.81518555 3357485.87481689 16.17068481 77 175 248
246099.80566406 3357485.77908325 15.96105862 126 157 188
246100.85522461 3357486.29632568 16.01348495 207 198 193
246100.18164063 3357486.57043457 16.46446609 187 222 252
246101.55969238 3357487.02084351 16.03196335 128 127 123
246098.75244141 3357487.00067139 14.06388378 173 173 175
246098.99963379 3357486.75210571 14.15544319 125 118 112
246100.15332031 3357488.10632324 15.94283676 128 128 128
246099.37011719 3357487.72994995 15.92119312 128 128 128
246099.21166992 3357485.76116943 16.10134697 13 31 79
246099.45996094 3357487.09396362 15.77903080 128 128 128
246100.56994629 3357487.44241333 14.05952930 195 197 196
246099.65698242 3357488.29553223 16.18064880 34 160 201
246100.00915527 3357486.59533691 16.47744942 3 164 236
246099.44738770 3357486.20745850 14.05753708 109 104 100
246099.79174805 3357487.54284668 14.31819057 179 183 182
246098.91918945 3357488.25109863 14.13126945 163 165 164
246100.13708496 3357487.21524048 14.04165268 174 175 177
246100.05114746 3357487.77493286 14.24940586 183 184 179
246099.62609863 3357486.78973389 16.48199654 83 223 238
246099.98840332 3357487.50906372 14.16968727 190 190 190
246099.21606445 3357486.22409058 16.25899124 37 207 240
246101.13500977 3357487.05102539 15.95634460 128 128 128
246100.40698242 3357487.76452637 14.14562321 191 191 189
246099.53027344 3357485.77276611 15.69022942 197 197 195
246100.17968750 3357487.96231079 15.92413330 128 128 128
246099.56762695 3357486.24996948 15.66919518 129 127 128
246099.53527832 3357485.93554688 16.22862625 8 160 233
246099.50549316 3357488.13400269 15.99984360 66 84 58
246101.59252930 3357487.62539673 16.16952324 115 177 192
246100.41088867 3357487.86727905 15.88587475 128 128 128
246099.71350098 3357487.68673706 14.41507912 197 197 197
246099.93151855 3357488.17669678 16.33043480 17 136 202
246099.07177734 3357488.07034302 16.22298622 52 209 240
246101.42102051 3357486.60375977 14.02204609 167 168 172
246101.20874023 3357488.12139893 16.00739288 98 138 140
246100.42724609 3357485.89935303 16.06007385 200 211 213
246099.06701660 3357487.51022339 14.18107414 53 47 47
246099.98193359 3357486.55151367 15.79619884 128 128 128
246098.95568848 3357487.05642700 15.97158718 225 233 236
246100.25146484 3357488.29006958 14.24849892 190 189 185
246099.82690430 3357487.25357056 16.56177711 166 221 228
246100.36450195 3357487.10052490 16.80519295 11 157 216
246100.64746094 3357488.07522583 15.90027332 128 128 128
246099.32556152 3357487.59454346 14.51290894 57 61 64
246101.62097168 3357486.85226440 16.16855621 166 195 201
246099.14697266 3357487.09332275 15.78539753 128 128 128
246100.48120117 3357487.14505005 15.85496330 128 128 128
246100.76635742 3357486.64138794 16.49800682 4 154 230
246100.21875000 3357487.04653931 14.02734661 189 189 191
246100.01745605 3357486.65261841 16.50953484 3 166 235
246099.93713379 3357487.66064453 14.25794506 197 197 195
246099.91638184 3357486.49926758 14.15655041 238 238 236
246100.06127930 3357487.53631592 15.89262772 128 128 128
246100.04211426 3357488.08874512 15.95443535 127 129 126
246099.26879883 3357488.23175049 16.04113388 65 83 69
246099.09558105 3357485.90255737 15.31802845 199 209 208
246098.96069336 3357487.20181274 16.07891464 192 235 242
246100.82019043 3357486.20581055 16.03889084 203 199 198
246099.39843750 3357486.59033203 16.37468910 80 225 242
246099.82031250 3357487.19515991 14.21662521 194 197 204
246101.66796875 3357487.21215820 16.15212440 153 202 219
246100.78540039 3357488.06347656 14.24419975 184 184 184
246099.21997070 3357487.34848022 15.84093475 128 128 128
246100.45593262 3357486.30822754 14.08234024 153 158 162
246099.03369141 3357486.06451416 16.15887642 36 182 233
246098.83410645 3357487.20202637 14.10064507 163 164 169
246099.07116699 3357488.60910034 14.11710739 170 168 169
246099.35314941 3357486.50698853 14.14738655 114 106 104
246100.55725098 3357486.55401611 16.47452164 230 239 248
246100.68969727 3357488.38156128 15.97415257 80 123 106
246101.51135254 3357488.11584473 16.06420708 113 151 152
246100.53894043 3357486.65100098 14.09887218 122 123 127
246099.80297852 3357486.12722778 15.70793438 128 128 128
246099.23413086 3357486.99118042 14.23521423 215 216 218
246100.38793945 3357487.62152100 16.64920998 12 123 205
246100.05737305 3357487.13424683 14.06524277 189 193 194
246101.27246094 3357486.34698486 16.22612190 194 202 204
246099.80920410 3357486.56558228 14.16218567 242 240 243
246099.25146484 3357486.78570557 14.21561813 246 244 245
246099.11083984 3357485.99642944 14.09910488 138 138 136
246101.25683594 3357487.35031128 16.37463951 222 210 230
246099.63110352 3357486.10235596 14.05884075 125 121 120
246100.29602051 3357488.64297485 14.35680389 138 143 137
246100.57092285 3357487.75201416 16.55645180 36 120 206
246099.04895020 3357488.62350464 14.11721325 180 179 177
246099.02502441 3357486.02450562 14.13288307 136 135 133
246099.39770508 3357486.64706421 16.37834358 43 204 222
246100.40747070 3357487.02426147 14.02650547 167 169 168
246101.61584473 3357487.74029541 16.13901329 118 174 187
246100.33129883 3357487.72720337 14.12861156 191 193 190
246099.38659668 3357488.50671387 14.51817036 252 246 250
246099.71435547 3357485.78045654 15.98048782 80 118 155
246101.38964844 3357487.33657837 16.31415176 144 188 223
246099.84545898 3357487.20565796 14.19901848 192 195 202
246099.21118164 3357486.00332642 16.25238419 77 204 237
246100.69079590 3357486.32754517 16.36564445 31 160 226
246101.57604980 3357486.32897949 14.01214981 249 244 241
246099.74279785 3357487.94201660 14.48739147 198 197 202
246101.15014648 3357487.40972900 15.96608162 128 128 128
246099.24194336 3357487.75775146 15.93645954 128 128 128
246100.16479492 3357487.69638062 14.16385365 197 193 192
246100.98303223 3357488.24804688 15.99346733 111 143 138
246101.18090820 3357486.96166992 16.43570709 27 157 215
246099.30651855 3357486.62429810 14.18542099 186 177 180
246100.50488281 3357487.10989380 15.85797501 128 128 128
246100.80395508 3357487.20669556 16.60955620 17 113 187
246100.53186035 3357487.51477051 16.72751617 8 104 190
246099.27453613 3357486.79302979 16.30864525 41 221 244
246099.52136230 3357486.95709229 14.26163673 254 254 254
246098.97094727 3357487.05731201 14.14888859 186 186 188
246099.19934082 3357488.77340698 14.06506634 210 211 205
246101.21728516 3357486.92739868 16.41917038 22 158 218
246099.92211914 3357488.11196899 15.98662949 68 94 49
246100.22839355 3357487.23495483 16.84305191 103 216 232
246099.48413086 3357485.90881348 15.59581280 128 128 128
246099.64489746 3357487.44396973 14.37490177 80 83 88
246100.36828613 3357488.71554565 14.33222771 117 134 128
246101.40917969 3357486.97155762 16.32666016 25 166 220
246099.29565430 3357486.57040405 16.32119560 80 235 255
246101.24182129 3357487.93270874 14.08463669 174 178 179
246099.48461914 3357486.02487183 15.59751129 128 128 128
246099.55114746 3357485.78744507 16.05992889 15 83 154
246099.45629883 3357488.22705078 14.65660572 99 127 175
246098.97900391 3357486.23095703 16.04825783 124 187 204
246101.05200195 3357486.35882568 16.33699036 40 175 230
246099.98645020 3357486.20748901 15.75861645 128 130 129
246099.04101563 3357488.28964233 14.19162750 166 167 169
246099.87548828 3357486.74002075 14.17351151 230 230 232
246100.20654297 3357486.32739258 15.79482937 128 128 128
246100.17004395 3357487.28134155 14.03395081 184 184 184
246099.14941406 3357487.41110229 14.19047451 57 52 56
246100.41748047 3357488.18872070 15.91968155 128 128 128
246099.99438477 3357488.32058716 16.11134720 118 170 158
246101.03271484 3357488.31546021 16.04439545 130 166 152
246100.12158203 3357487.48226929 14.09048557 188 188 188
246100.65026855 3357488.04254150 14.23206806 203 205 202
246100.51940918 3357488.40222168 16.08875847 81 147 133
246099.81127930 3357486.56805420 14.16288090 242 240 243
246101.51013184 3357488.31289673 14.09977818 173 178 182
246101.51818848 3357486.64834595 16.11817932 202 193 186
246098.83959961 3357488.23626709 14.09308434 172 172 174
246099.14428711 3357487.02655029 15.76975060 128 128 128
246100.32641602 3357486.02081299 15.93936443 205 205 203
246099.04711914 3357488.41839600 16.11146355 160 189 185
246100.72717285 3357487.65762329 14.12310123 195 193 194
246099.96093750 3357488.22021484 16.05374336 88 121 78
246099.73376465 3357486.45913696 16.45387268 2 150 220
246099.84301758 3357485.97680664 15.73270130 166 172 172
246101.61083984 3357487.43585205 13.99056339 176 180 181
246099.42590332 3357486.08038330 16.30663872 8 157 237
246101.18029785 3357486.91690063 15.96074772 128 128 128
246099.83166504 3357488.05526733 14.47047520 168 168 176
246099.51123047 3357487.26284790 14.33645344 188 195 201
246099.13513184 3357488.13415527 14.48399067 144 142 145
246100.79187012 3357486.64706421 15.89385128 128 128 128
246099.33374023 3357486.49523926 14.14009666 132 123 118
246099.92675781 3357488.23614502 16.06578064 86 119 74
246099.46728516 3357487.23742676 14.31890488 194 199 205
246101.25378418 3357487.65234375 15.98023987 128 128 128
246100.34411621 3357485.91845703 16.01491547 211 213 212
246099.94177246 3357487.57125854 14.22261238 195 195 195
246100.91088867 3357487.23919678 14.02309513 179 180 182
246100.14782715 3357488.19662476 15.96825790 85 118 71
246099.12353516 3357486.96545410 15.76418304 106 123 105
246100.30651855 3357488.58956909 14.33749866 145 150 144
246099.36218262 3357487.57012939 16.33824539 65 209 236
246099.94055176 3357487.22534180 15.86538887 128 128 128
246099.46862793 3357486.51657104 15.71886158 128 128 128
246100.16271973 3357485.90924072 16.17871666 67 168 236
246101.40454102 3357486.71475220 16.05435371 190 174 161
246099.03955078 3357485.99816895 15.36177063 96 125 69
246101.31677246 3357487.64117432 15.98778915 128 128 128
246099.94250488 3357487.78076172 16.61580467 22 138 225
246099.37133789 3357488.07638550 16.38914108 91 217 240
246100.10986328 3357487.28567505 14.05584049 172 173 175
246101.08056641 3357486.62817383 16.45134926 32 164 226
246098.96740723 3357487.67834473 15.97402287 220 235 238
246100.16394043 3357486.27056885 14.14420033 192 193 197
246101.36096191 3357487.18682861 16.34208870 144 186 226
246099.69189453 3357485.95343018 16.22633743 16 163 243
246099.53771973 3357488.51550293 14.60948181 239 236 243
246101.56958008 3357488.09942627 16.07113647 126 159 164
246099.59265137 3357487.94647217 15.95746326 128 128 128
246099.16186523 3357487.78900146 14.55047512 107 108 112
246100.33374023 3357487.05691528 15.82984829 128 128 128
246100.61474609 3357487.48785400 15.88307858 128 128 128
246099.80200195 3357485.78302002 15.86498928 121 135 148
246100.82446289 3357488.60073853 14.23600864 156 157 159
246099.27880859 3357488.21496582 14.55553055 79 83 94
246098.97290039 3357486.47332764 14.13659096 186 177 170
246099.23376465 3357488.61788940 14.15194130 164 163 161
246100.82629395 3357488.13043213 14.24799252 177 177 177
246099.09118652 3357486.57781982 14.15560627 164 155 150
246099.54687500 3357487.74563599 15.91296291 128 128 128
246098.93261719 3357486.27148438 15.88896751 101 121 122
246099.78125000 3357486.62203979 14.18141079 244 243 248
246100.18823242 3357488.37258911 16.16631317 104 160 147
246098.87695313 3357486.01113892 15.49700356 66 84 62
246099.61157227 3357487.01608276 16.45988846 209 238 246
246100.44860840 3357486.13598633 14.06364155 167 170 175
246100.70239258 3357487.74282837 14.15958595 192 192 192
246100.03869629 3357488.02273560 14.31633282 203 202 198
246101.27441406 3357487.82632446 14.05294037 177 181 182
246101.57910156 3357487.96499634 14.02646732 168 172 175
246100.38073730 3357486.27392578 15.84247589 175 167 164
246100.77343750 3357487.40505981 15.90646458 128 128 128
246099.57849121 3357487.82284546 15.92912483 128 128 128
246098.96472168 3357487.63125610 15.95448208 157 174 158
246101.40539551 3357486.53750610 16.31296349 99 197 236
246099.59912109 3357485.78512573 16.03400612 25 86 149
246100.12329102 3357487.14205933 15.84264565 128 128 128
246099.49804688 3357488.04306030 15.98292542 128 128 128
246100.34790039 3357488.43890381 16.09183311 68 129 96
246098.96032715 3357485.74609375 15.89594555 218 217 248
246099.49658203 3357487.29412842 16.39689255 255 236 242
246100.27246094 3357488.46633911 14.29566956 169 170 165
246099.42687988 3357487.62841797 15.89329147 128 128 128
246100.65771484 3357487.47772217 16.67781258 12 98 175
246100.76000977 3357488.07131958 15.91798592 128 128 128
246100.90808105 3357487.52725220 15.93024254 128 128 128
246099.81481934 3357487.13964844 16.56063080 170 227 238
246101.62451172 3357487.91629028 16.08892632 124 168 177
246099.23791504 3357487.18539429 14.23195648 212 216 215
246100.26574707 3357485.84637451 16.09185028 190 216 229
246100.06274414 3357485.82894897 15.90460968 136 157 178
246099.10266113 3357487.76388550 15.94732666 128 128 128
246101.36096191 3357487.69323730 15.99466705 128 128 128
246100.37304688 3357488.01730347 14.20854664 202 203 198
246100.08496094 3357486.15066528 16.28367615 6 158 231
246100.90612793 3357486.34259033 16.01314926 208 197 193
246100.28845215 3357486.59225464 16.47724533 207 110 163
246099.59765625 3357487.87835693 16.48208237 81 213 228
246100.19311523 3357488.36514282 16.19615555 124 177 167
246100.78454590 3357487.26797485 14.03167915 177 177 179
246100.45031738 3357487.95538330 14.20092964 195 196 191
246100.46008301 3357487.79824829 16.54156303 32 122 208
246099.21740723 3357488.38433838 14.37782478 144 145 149
246100.82775879 3357486.83343506 15.90333557 128 128 128
246099.34399414 3357487.34091187 15.83075523 128 128 128
246101.52929688 3357487.49737549 16.22526550 115 186 206
246099.06835938 3357487.92166138 15.98542309 128 128 126
246099.80041504 3357488.21020508 16.04382706 79 120 88
246101.07592773 3357486.98675537 15.94569588 129 128 126
246099.64038086 3357486.12277222 15.65379524 127 127 127
246100.31140137 3357488.23150635 15.93240070 129 129 131
246100.17590332 3357486.36041260 14.15687275 185 185 187
246099.76306152 3357488.14569092 16.34753227 17 143 219
246099.60546875 3357488.52218628 14.61168861 219 218 224
246100.55090332 3357488.62750244 14.28741550 135 139 138
246100.87316895 3357486.96847534 14.03488541 174 173 178
246100.86718750 3357486.73876953 14.07079029 157 160 167
246098.95251465 3357486.21737671 14.14292717 146 141 135
246101.41064453 3357488.19363403 16.06084251 96 133 125
246100.24609375 3357487.07049561 15.82005119 128 128 128
246100.24145508 3357488.25759888 15.95382118 81 114 61
246100.17749023 3357485.97760010 16.22375679 10 153 231
246099.32507324 3357487.12686157 16.30172729 225 240 237
246101.55676270 3357487.96484375 16.14423180 98 156 167
246098.95080566 3357486.51205444 15.96118641 200 221 212
246100.90283203 3357486.84005737 15.91533661 128 128 128
246098.90173340 3357487.34695435 14.12507343 118 121 130
246099.54113770 3357485.79904175 15.63894463 195 197 194
246100.72790527 3357487.80880737 16.51854134 35 138 205
246101.27221680 3357486.41665649 14.02288342 201 199 200
246099.23681641 3357487.95190430 15.98128319 128 128 128
246099.57751465 3357486.35156250 14.10318565 77 74 69
246100.76928711 3357488.34997559 15.93303204 113 153 145
246101.40576172 3357486.66540527 16.32255554 53 180 233
246099.00781250 3357487.12716675 16.14875793 170 229 247
246100.78466797 3357486.14477539 16.05143547 200 200 200
246100.43676758 3357488.22491455 14.16407871 198 199 193
246100.29028320 3357485.84533691 16.09251404 189 215 230
246099.56762695 3357486.88446045 15.77344322 128 128 128
246099.78759766 3357487.99816895 14.47911263 182 183 187
246099.21691895 3357487.22509766 14.22237587 217 221 222
246100.88098145 3357487.43145752 14.02693653 179 180 182
246099.09277344 3357487.44607544 16.20342255 10 188 236
246099.54223633 3357486.13507080 16.32107925 9 162 232
246101.62048340 3357487.99270630 16.08760643 121 159 168
246099.67224121 3357487.27755737 15.83027840 128 128 128
246101.18225098 3357486.33169556 16.12411880 212 208 207
246100.38818359 3357488.37829590 15.96772480 71 99 48
246100.33776855 3357487.55352783 16.72015572 18 129 211
246100.19909668 3357487.58908081 14.10179520 202 201 199
246101.63500977 3357487.73666382 16.11401176 120 173 187
246099.76757813 3357488.28067017 16.08959389 76 137 122
246099.13916016 3357487.49578857 14.23023605 76 75 70
246099.28857422 3357486.94174194 14.24898434 226 226 228
246100.16906738 3357488.17874146 16.35901260 85 133 173
246101.42041016 3357487.24710083 16.00006485 128 128 128
246101.24780273 3357486.35403442 16.16023445 197 206 211
246099.03393555 3357486.90908813 14.16878986 178 178 178
246100.57751465 3357486.54711914 16.47273445 219 236 243
246099.88879395 3357486.60479736 14.17193699 231 231 233
246099.63317871 3357486.63018799 14.19145012 250 252 251
246100.27050781 3357487.02490234 14.02348137 186 184 187
246100.60729980 3357486.15112305 15.98045444 198 197 195
246099.64074707 3357486.11685181 16.30325890 11 163 239
246099.02294922 3357487.77752686 14.36249256 97 91 91
246099.61718750 3357486.44064331 16.44335556 110 234 255
246099.60034180 3357488.74887085 14.14941788 143 143 143
246101.28186035 3357487.39340210 15.98352718 128 128 128
246100.72619629 3357487.49090576 15.90075493 128 128 128
246100.76196289 3357487.78793335 14.16416264 187 189 188
246098.94018555 3357485.74136353 15.84296227 142 139 168
246099.27038574 3357485.95623779 16.24277115 7 153 212
246100.77856445 3357487.18615723 15.90279388 128 128 128
246100.49438477 3357486.84246826 15.85083961 128 128 128
246101.61157227 3357487.64880371 16.15502548 120 176 191
246100.41809082 3357486.68121338 14.12222195 134 132 133
246100.64221191 3357486.09207153 16.24571991 35 160 216
246100.15075684 3357486.49966431 14.17452908 193 189 188
246099.63964844 3357485.98068237 15.64684772 128 128 128
246098.74548340 3357486.52105713 14.07857132 194 189 186
246100.79785156 3357488.45016479 14.26021576 167 168 170
246100.62097168 3357488.32629395 14.22955322 198 197 192
246100.34289551 3357488.62078857 14.34201908 145 152 145
246098.89367676 3357487.34085083 14.12308121 177 180 189
246099.38940430 3357486.37283325 15.64899921 128 128 128
246099.55505371 3357488.16305542 14.64079285 130 160 194
246099.09423828 3357486.39166260 16.20643044 92 232 247
246100.12390137 3357486.16165161 14.13158321 168 169 171
246100.08813477 3357487.24545288 16.73846436 101 229 242
246100.99584961 3357488.64059448 14.18882942 168 173 177
246101.16271973 3357486.92501831 15.95814037 128 128 128
246098.95117188 3357486.72601318 15.97951889 228 243 246
246099.51269531 3357485.84326172 16.16680717 38 153 234
246099.15759277 3357486.52957153 15.65576935 136 151 130
246100.97277832 3357487.05194092 14.02095413 187 188 192
246100.82275391 3357488.52441406 14.24772644 157 161 162
246099.93444824 3357487.40243530 15.88296032 128 128 128
246100.27148438 3357487.44284058 15.85708046 128 128 128
246100.29602051 3357486.80358887 15.81870842 128 128 128
246099.39025879 3357486.35705566 16.34161949 34 191 222
246100.24792480 3357487.63104248 16.66110229 24 137 215
246100.65576172 3357486.97824097 15.87913609 128 128 128
246099.73388672 3357486.90927124 15.80116177 128 128 128
246100.17846680 3357486.83352661 14.09069633 183 179 180
246099.06201172 3357487.15994263 15.82094288 123 148 126
246099.02514648 3357488.10815430 16.02891922 108 209 219
246101.51000977 3357487.50302124 16.23565483 119 191 213
246100.78283691 3357488.36077881 16.01628685 81 126 121
246099.01428223 3357486.24731445 15.67288685 114 124 126
246099.05712891 3357486.89294434 16.19741249 118 229 249
246101.34338379 3357487.17886353 16.35103989 144 186 226
246098.92065430 3357486.92071533 14.13029671 182 182 182
246099.99719238 3357488.15109253 16.00848007 76 108 59
246101.06140137 3357486.20855713 14.02883816 255 255 253
246101.07690430 3357488.09152222 15.96506405 128 128 128
246100.00170898 3357487.01608276 14.09580135 193 194 196
246098.98767090 3357485.95254517 16.07130241 16 162 222
246100.22448730 3357487.79110718 16.56588745 31 131 206
246101.02551270 3357487.89407349 16.44823074 9 145 205
246098.99511719 3357486.73904419 15.88696384 198 203 197
246100.45361328 3357487.51773071 16.73635864 14 113 194
246098.98962402 3357486.60034180 14.14015007 177 168 161
246101.59436035 3357487.23391724 16.22636223 93 174 204
246100.07116699 3357487.93728638 15.93459511 128 128 128
246099.59582520 3357488.78369141 14.09229088 112 111 109
246100.32226563 3357488.33306885 15.97484589 72 105 50
246100.42211914 3357487.16128540 14.01569271 177 179 178
246101.06042480 3357487.75610352 15.95713711 128 128 128
246100.79125977 3357487.51034546 14.05436993 187 187 187
246101.34545898 3357487.80502319 14.04479408 177 181 184
246099.96215820 3357487.67218018 16.66455269 34 165 211
246098.98181152 3357488.37628174 14.14608479 163 163 163
246099.13024902 3357487.63098145 16.22308731 14 188 241
246101.28454590 3357488.17208862 16.03591347 91 129 114
246099.94836426 3357486.34188843 15.77437592 128 128 128
246099.61474609 3357487.52859497 16.47729492 173 223 230
246100.55261230 3357486.66760254 15.85645866 128 128 128
246099.82849121 3357487.61553955 15.88917065 128 128 128
246099.70874023 3357487.61129761 14.39749050 188 189 191
246099.97802734 3357487.15496826 15.86164856 128 128 128
246099.70678711 3357488.67074585 14.33285809 242 237 234
246098.95263672 3357487.14654541 16.05869484 221 241 248
246101.57434082 3357486.95700073 16.04980659 171 171 163
246100.42333984 3357487.67449951 16.61199760 9 118 201
246100.59619141 3357488.49667358 14.27791309 187 188 183
246098.84411621 3357487.22891235 14.10516739 165 166 171
246099.51403809 3357488.79614258 14.06948471 177 176 172
246098.79064941 3357487.15847778 14.08215046 165 166 171
246101.39282227 3357487.54702759 14.01075554 181 182 184
246101.08569336 3357487.46343994 15.95699883 128 128 128
246099.98083496 3357486.98074341 14.11566830 201 202 206
246098.81628418 3357487.12469482 14.09206963 167 168 172
246100.00830078 3357486.03884888 16.24551582 12 159 237
246099.84191895 3357487.55609131 15.88499832 128 128 128
246101.54028320 3357487.93142700 14.03155327 166 170 173
246099.52380371 3357486.90969849 14.25269508 253 255 254
246100.53906250 3357485.95025635 16.06071854 196 200 201
246099.12207031 3357486.13977051 16.21157837 45 211 249
246099.59179688 3357487.56509399 14.44588757 143 144 148
246099.49816895 3357486.13623047 15.61175442 128 128 128
246099.72387695 3357487.29916382 14.28487110 213 217 226
246100.09765625 3357487.50772095 15.88512993 128 128 128
246100.83190918 3357486.47064209 15.93501854 210 193 186
246101.53466797 3357487.36056519 13.99688911 178 179 181
246100.04809570 3357487.07635498 16.67925835 85 215 231
246101.52514648 3357488.26739502 16.10778427 98 129 121
246099.67272949 3357486.65863037 16.51142311 84 221 240
246100.63452148 3357486.69439697 15.86995983 127 129 128
246099.12170410 3357487.62091064 16.21917725 14 188 241
246100.55029297 3357487.53350830 16.70727348 7 101 189
246099.27209473 3357487.53375244 15.88131618 128 128 128
246099.57763672 3357488.26641846 16.25137711 20 150 210
246100.69372559 3357486.09439087 16.04055405 195 199 200
246098.84912109 3357488.30441284 14.08710384 174 175 177
246099.20166016 3357487.56478882 14.39004230 85 83 84
246100.18920898 3357485.91458130 16.18031693 53 160 230
246099.38061523 3357487.57003784 16.34787750 81 213 238
246098.99340820 3357486.81063843 16.12566566 176 231 238
246100.27844238 3357488.70132446 14.33907700 130 139 134
246100.95397949 3357487.48196411 16.50273132 15 109 173
246101.53039551 3357487.95101929 16.03868866 107 158 175
246100.28662109 3357487.11236572 15.82353973 128 128 128
246099.35363770 3357488.70520020 14.10864830 181 177 174
246101.24975586 3357487.65783691 16.34799385 32 127 193
246101.49804688 3357487.82519531 16.02399635 127 127 127
246100.19360352 3357487.01043701 14.03528404 193 193 195
246099.04089355 3357486.26177979 14.11783409 133 124 119
246100.57580566 3357487.18344116 15.87069988 128 128 128
246101.47802734 3357486.49209595 14.00998783 200 201 205
246100.43383789 3357486.99212646 15.84434700 128 128 128
246099.94909668 3357488.52337646 14.43523121 133 114 116
246100.72070313 3357487.43463135 16.65472603 11 103 178
246100.51757813 3357486.08059692 15.98013306 197 197 195
246100.06347656 3357486.35531616 16.35418510 4 162 235
246099.58398438 3357485.78018188 15.69861889 192 192 190
246100.64489746 3357487.31213379 16.72958374 7 101 175
246100.26318359 3357487.18740845 16.84017563 101 209 222
246101.05102539 3357488.48751831 14.20929813 178 181 186
246101.55993652 3357486.53753662 14.00939655 201 201 203
246099.08886719 3357486.94546509 14.18789864 170 170 170
246098.88195801 3357486.51873779 14.12703323 190 185 179
246100.72644043 3357488.34240723 15.91738987 128 128 128
246099.62561035 3357485.88909912 16.19898415 22 155 234
246099.27221680 3357486.77566528 15.71743774 128 128 128
246100.69653320 3357486.47305298 16.43462563 19 142 212
246099.07104492 3357486.18041992 15.57925510 121 130 129
246100.00512695 3357488.08395386 16.41442299 30 139 195
246099.74243164 3357486.61010742 16.51208115 95 211 236
246099.31286621 3357488.68408203 14.11239624 188 184 181
246100.63146973 3357486.87582397 15.87319469 128 128 128
246100.50939941 3357487.13626099 14.01961899 172 174 173
246100.25268555 3357487.07473755 14.01904774 183 181 182
246099.92480469 3357488.74301147 14.23169613 177 178 180
246099.07531738 3357487.77175903 14.45053577 102 100 105
246101.08618164 3357487.67971802 14.03624058 182 183 185
246099.68859863 3357488.14443970 14.59936142 146 156 181
246099.57519531 3357488.59970093 14.48862839 255 253 254
246099.12536621 3357487.80685425 16.22693253 8 195 246
246099.09655762 3357485.93917847 16.19455910 26 169 211
246099.44421387 3357488.35363770 16.21238708 64 170 210
246101.62255859 3357487.35437012 16.04058647 141 167 182
246100.20520020 3357486.83200073 15.80493164 128 128 128
246099.94445801 3357488.15112305 14.41358662 173 172 178
246100.96948242 3357488.42883301 14.23004055 168 172 175
246099.25415039 3357486.87805176 16.29094696 40 222 246
246100.37365723 3357487.71328735 16.59477806 13 126 206
246100.49963379 3357488.11611938 16.37348366 172 171 205
246100.06079102 3357487.93783569 14.30142498 193 194 189
246099.38500977 3357485.81756592 16.14512062 33 134 204
246098.84509277 3357487.19857788 14.10506344 169 172 177
246098.84143066 3357485.98577881 15.48250580 57 75 53
246099.56066895 3357487.98107910 14.60998344 193 198 201
246099.10400391 3357486.21511841 15.56691647 131 140 139
246099.75695801 3357486.60958862 14.17885017 244 244 246
246100.62890625 3357487.89755249 16.47513962 32 125 195
246099.13061523 3357487.52960205 16.22142220 6 192 239
246099.79614258 3357487.17364502 15.83816624 128 128 128
246099.00268555 3357485.74325562 16.04767036 51 62 94
246100.69494629 3357488.01519775 16.40831566 30 131 199
246100.63793945 3357487.26705933 14.03981209 176 178 177
246098.92431641 3357486.82397461 14.13054466 184 180 179
246099.50158691 3357487.81484985 16.42385292 80 213 228
246100.33898926 3357486.32717896 15.81573677 131 127 126
246100.52453613 3357487.70025635 15.87316608 128 128 128
246100.61047363 3357486.38436890 14.06208134 174 179 185
246100.89111328 3357486.44458008 14.05874348 172 176 185
246100.22802734 3357487.61135864 15.88049412 128 128 128
246099.93481445 3357487.94335938 16.50845718 29 155 231
246100.51281738 3357486.15890503 16.29691124 124 205 235
246099.26965332 3357487.93585205 16.30928040 31 200 229
246099.05529785 3357487.29434204 16.18440247 19 165 212
246100.24060059 3357487.85955811 16.52797699 114 162 224
246098.82556152 3357487.69757080 14.10599995 164 162 163
246101.46398926 3357488.06332397 16.04710770 103 148 154
246100.10083008 3357487.04409790 15.83483028 128 128 128
246100.46301270 3357488.17825317 15.91303349 128 128 128
246100.26391602 3357487.96765137 16.46924019 160 140 177
246098.98559570 3357486.59774780 15.90587330 162 170 157
246098.81311035 3357488.75393677 14.07813454 180 178 179
246100.36486816 3357487.03399658 15.83430290 128 128 128
246099.88049316 3357487.41558838 15.87617302 128 128 128
246098.90417480 3357487.94030762 14.21700668 176 176 176
246099.06018066 3357486.42861938 14.14969349 217 208 201
246101.42285156 3357486.51919556 16.29882622 109 198 232
246101.47558594 3357488.31521606 16.18591690 76 159 167
246098.87792969 3357486.09420776 15.71919537 94 106 96
246100.48608398 3357486.94799805 15.85170364 128 128 128
246099.39697266 3357485.92645264 16.22478676 7 163 237
246099.46667480 3357486.40579224 15.68424129 128 128 128
246099.24072266 3357487.38424683 15.84800911 128 128 128
246101.25695801 3357488.68133545 14.16717434 193 200 206
246099.49243164 3357487.01608276 16.39631271 155 219 231
246100.78247070 3357488.08328247 16.37301254 28 135 205
246099.43115234 3357487.72286987 16.38203621 85 219 230
246099.49218750 3357488.66445923 14.30626202 111 112 116
246100.75769043 3357488.19924927 15.92022419 128 128 128
246100.72424316 3357487.82601929 16.50932693 35 138 205
246100.66430664 3357488.66778564 14.26768494 136 136 136
246099.50415039 3357488.57550049 14.54330540 153 151 156
246100.92895508 3357488.00534058 16.41549492 26 143 220
246100.76147461 3357486.89901733 15.89421463 128 128 128
246100.42285156 3357488.02075195 14.20075226 194 195 190
246101.38171387 3357487.08712769 14.00637054 177 178 180
246099.32739258 3357487.09130859 15.77271366 128 128 128
246098.89794922 3357486.94137573 14.12234306 181 181 181
246100.96508789 3357488.11212158 16.35046005 18 139 210
246099.38659668 3357487.28741455 16.33781242 230 237 243
246099.37670898 3357487.93054199 16.36533737 86 225 244
246100.06848145 3357486.80624390 16.59574127 5 169 230
246099.59240723 3357485.78558350 16.03895950 25 86 149
246101.25817871 3357488.28533936 16.08881187 92 125 98
246099.30664063 3357488.21575928 16.36952782 101 229 254
246099.78881836 3357487.78237915 15.90530777 128 128 128
246098.78015137 3357488.56973267 14.07818317 166 166 166
246099.93212891 3357486.63217163 16.50957680 4 159 226
246100.40930176 3357486.66165161 15.83370304 128 128 128
246100.58312988 3357488.38327026 16.09539604 77 142 134
246100.56689453 3357488.38241577 15.91320038 84 102 78
246099.78405762 3357485.77914429 15.88530350 119 131 143
246100.12512207 3357486.51492310 14.17414188 199 195 194
246100.06091309 3357486.53646851 14.17345333 221 220 218
246100.57092285 3357486.82598877 14.07861042 153 154 156
246100.37890625 3357487.89901733 14.17919350 201 200 198
246099.00256348 3357487.89160156 14.43718052 182 182 182
246101.04846191 3357488.11306763 16.36467934 47 171 235
246100.96704102 3357487.29455566 15.93477726 128 128 128
246099.76879883 3357486.26211548 14.11296463 198 198 196
246100.61254883 3357486.54989624 16.47597694 175 227 249
246101.31396484 3357487.79803467 16.30624962 64 172 219
246099.63061523 3357488.68603516 14.29672432 171 171 169
246099.44946289 3357488.35623169 16.18163300 65 161 199
246100.22656250 3357485.85974121 15.99106979 192 209 229
246099.03576660 3357486.32565308 16.13237000 138 236 247
246099.55346680 3357487.85293579 15.93794250 128 128 126
246101.45214844 3357488.55679321 14.16150665 179 192 201
246101.03295898 3357488.13354492 15.95958233 128 128 128
246101.28369141 3357487.26736450 16.37021255 167 163 200
246099.54125977 3357488.19967651 16.02038383 65 86 55
246100.87561035 3357486.58786011 14.07324505 165 169 178
246099.11352539 3357487.71154785 14.44525242 52 50 53
246101.27783203 3357487.33654785 16.36618233 129 142 177
246099.60888672 3357488.18994141 16.01465225 66 87 54
246100.38452148 3357488.34466553 15.92212677 82 108 61
246101.03967285 3357488.29364014 16.17616463 86 164 166
246101.28198242 3357488.12588501 14.15986919 170 174 177
246099.00488281 3357487.89688110 16.14910698 39 174 238
246100.38574219 3357487.92245483 15.89485931 128 128 130
246100.12316895 3357486.46148682 15.78438759 128 128 128
246100.80664063 3357486.71868896 15.89766121 128 128 128
246100.78039551 3357487.31838989 16.62340164 13 109 185
246100.51269531 3357488.08410645 14.20270538 197 199 196
246099.62402344 3357488.60369873 14.47432995 255 255 253
246100.21972656 3357486.88452148 16.64769173 7 171 234
246099.26367188 3357485.97860718 14.03888512 127 127 127
246099.82507324 3357488.78326416 14.15626907 31 30 35
246100.41711426 3357487.34844971 14.03240299 194 196 195
246101.03881836 3357487.79968262 16.44886780 16 147 217
246100.18823242 3357488.31649780 16.03735352 77 110 63
246098.84899902 3357485.73919678 15.54857349 246 246 248
