245845.16455078 3357497.45977783 18.80838013 210 206 194
245844.65289307 3357502.03845215 18.70744705 22 41 39
245841.73974609 3357496.13485718 18.77508736 64 64 66
245842.53442383 3357500.22119141 18.80675125 224 217 201
245846.24273682 3357497.15191650 16.96113777 65 76 62
245842.02471924 3357498.69982910 16.90033913 157 112 93
245845.95385742 3357494.42041016 17.28634071 70 73 62
245841.91577148 3357496.83392334 16.96293068 120 87 78
245844.53118896 3357496.33148193 18.83295441 196 197 189
245841.90740967 3357498.87072754 18.82734108 201 193 180
245844.59051514 3357500.47576904 18.78935242 211 207 195
245846.37719727 3357499.62475586 17.98606873 65 79 64
245846.08782959 3357494.65213013 19.13020515 37 40 33
245842.89617920 3357499.61956787 18.81832504 222 214 201
245846.06640625 3357499.03320313 17.78989983 52 58 44
245841.96923828 3357499.54690552 16.55803871 68 67 47
245842.34979248 3357496.65118408 18.84141731 96 107 111
245844.60198975 3357496.84225464 18.82355118 206 200 186
245844.99340820 3357497.15338135 18.81199455 197 191 175
245842.73895264 3357500.68643188 18.81191063 217 213 201
245846.09820557 3357498.29980469 17.87409210 82 96 73
245846.22460938 3357502.43920898 17.10864449 34 45 37
245842.40039063 3357500.82977295 18.81168175 169 179 170
245843.45916748 3357501.74969482 18.76872063 216 208 197
245845.98248291 3357498.53582764 17.71018410 74 88 65
245846.39434814 3357498.66128540 16.82208061 61 72 58
245845.85937500 3357495.92089844 18.80538750 89 94 98
245842.01214600 3357499.38613892 16.72496414 141 105 89
245846.25054932 3357501.28503418 18.20105553 48 58 50
245841.98352051 3357500.21191406 17.07586479 127 85 73
245846.27014160 3357498.78512573 16.82465363 66 74 61
245841.92138672 3357496.96929932 17.46673393 109 77 66
245846.21948242 3357502.01608276 18.61518669 30 39 34
245845.88116455 3357494.99438477 16.68114281 40 46 42
245842.28472900 3357501.74060059 17.91780663 84 77 67
245842.76501465 3357501.26089478 18.80486679 205 203 190
245844.55511475 3357502.19100952 18.46139336 55 71 68
245842.10833740 3357500.54278564 17.82452965 146 84 59
245843.16101074 3357497.28857422 18.84054947 209 205 193
245842.95550537 3357502.23281860 16.90287018 46 34 18
245844.19464111 3357496.85311890 18.83837318 206 202 191
245842.87585449 3357498.53521729 18.83128548 221 215 203
245844.89605713 3357502.23007202 18.34175301 39 55 55
245846.14447021 3357496.04858398 16.96191406 47 54 46
245846.14807129 3357495.73583984 18.38187408 73 88 81
245845.16894531 3357496.06341553 18.81243324 130 133 138
245846.11273193 3357497.14233398 18.68825722 45 47 42
245842.04132080 3357499.87652588 17.91288757 232 182 147
245841.79907227 3357497.39151001 16.47410011 36 36 38
245842.19470215 3357501.63842773 16.76611519 98 81 71
245846.45587158 3357498.19619751 16.85705185 55 62 55
245842.61224365 3357501.85317993 18.34482765 59 56 51
245842.06353760 3357500.94143677 18.10514069 137 92 69
245842.03198242 3357499.66226196 18.06899834 250 196 162
245843.98974609 3357499.42883301 18.80868721 219 211 200
245842.23010254 3357501.64047241 17.20497704 111 88 82
245842.78277588 3357495.91775513 18.84313202 95 102 108
245842.12579346 3357501.54550171 17.49821472 106 79 70
245841.87646484 3357496.04678345 16.66237068 112 78 68
245846.03833008 3357495.72576904 17.73787498 45 50 44
245846.08166504 3357495.28622437 18.60696602 60 65 59
245846.16961670 3357500.93753052 17.91577148 77 89 77
245846.47235107 3357496.62197876 16.50903702 49 58 55
245845.99737549 3357495.38873291 16.87989044 43 45 44
245845.75585938 3357497.01565552 18.78734970 205 199 187
245844.62707520 3357496.69442749 18.82179451 197 191 177
245845.62835693 3357500.84838867 18.76252937 210 206 194
245842.34613037 3357500.49685669 18.80768776 218 218 206
245844.03710938 3357499.27145386 18.81014633 218 210 199
245841.72399902 3357496.11215210 18.75180244 64 64 66
245842.56243896 3357501.32876587 18.80285645 212 205 187
245846.03869629 3357495.69909668 17.19628906 64 70 60
245844.89886475 3357497.03381348 18.81350708 201 195 181
245844.68011475 3357501.42013550 18.77013397 195 188 178
245841.80187988 3357495.81607056 17.40154076 194 144 121
245844.44274902 3357500.07543945 18.79806137 210 207 192
245842.78533936 3357501.81594849 17.70412827 90 77 69
245842.28503418 3357500.44534302 18.80494118 193 195 184
245844.58941650 3357500.87554932 18.78547859 199 191 178
245841.75500488 3357499.69216919 16.42352676 41 52 38
245846.29547119 3357498.24414063 16.87115479 78 86 73
245844.61120605 3357496.04348755 18.81840706 123 133 132
245846.55804443 3357498.67840576 16.81550789 48 58 50
245843.13140869 3357495.50433350 18.84481812 102 107 111
245846.26977539 3357499.21539307 18.15570068 51 63 51
245845.55255127 3357500.13806152 18.76790810 199 194 190
245845.87115479 3357494.59927368 18.85135460 109 110 115
245845.74774170 3357499.49694824 18.76928520 221 214 208
245842.30383301 3357494.77185059 18.84775925 103 106 115
245844.30645752 3357502.10479736 18.55242348 43 57 57
245844.57952881 3357499.09902954 18.80105209 210 202 191
245845.39282227 3357501.23281860 18.76049232 197 191 177
245842.72436523 3357494.84997559 18.84105492 116 120 131
245845.58557129 3357498.95053101 18.78062439 192 188 179
245845.03283691 3357494.52374268 18.81050491 92 96 99
245842.92083740 3357497.11273193 18.83464432 103 112 111
245845.27600098 3357495.15759277 18.82198906 109 117 120
245843.71539307 3357500.17370605 18.80574608 209 203 189
245846.36877441 3357499.17251587 18.32858467 45 55 44
245846.14111328 3357498.72009277 16.81534576 48 58 47
245844.37475586 3357495.37207031 18.83019066 90 98 101
245846.24072266 3357498.71133423 18.27354431 50 59 42
245846.25170898 3357499.42648315 18.93204689 53 57 56
245846.21026611 3357501.48809814 17.88252449 55 57 52
245845.64648438 3357494.90612793 18.80711365 96 101 107
245841.80334473 3357500.19729614 18.70186806 100 68 45
245846.18859863 3357501.16784668 17.84596062 50 52 47
245846.11376953 3357496.03317261 18.50705528 63 74 70
245844.78637695 3357496.49981689 18.82681274 177 169 156
245846.18048096 3357495.16186523 16.48295593 33 38 41
245841.90228271 3357501.64743042 18.40450287 158 124 99
245844.53167725 3357500.75039673 18.78790855 214 208 194
245845.40045166 3357495.25875854 18.81723022 97 106 111
245843.53460693 3357497.63711548 18.83011246 208 202 186
245845.26678467 3357499.10006714 18.78605270 193 186 176
245846.00274658 3357502.35372925 18.29501724 41 51 42
245846.57843018 3357501.76504517 16.77209473 33 42 37
245846.13336182 3357494.75302124 18.06389809 100 107 91
245845.76708984 3357498.84466553 18.77334404 204 197 187
245844.87133789 3357494.87954712 18.82814217 107 115 118
245841.98242188 3357500.63317871 18.28670120 192 143 126
245842.72839355 3357501.30178833 18.80317307 215 214 196
245846.25976563 3357494.73187256 18.24504089 57 63 53
245841.97479248 3357499.29617310 18.25913620 250 196 160
245841.69989014 3357495.55288696 18.53675652 117 100 92
245841.93029785 3357497.69360352 17.33554649 103 73 63
245845.39770508 3357497.43527222 18.80777550 218 211 195
245841.86938477 3357496.28042603 16.66728973 114 80 70
245841.72491455 3357496.61865234 18.67586136 69 58 56
245843.09674072 3357498.50765991 18.83145142 233 227 215
245846.39428711 3357499.92288208 17.41103363 41 46 40
245841.96826172 3357498.85946655 18.82744217 196 188 175
245844.78631592 3357498.64556885 18.80372238 209 205 194
245842.09539795 3357501.16552734 17.76242447 152 109 92
245843.19128418 3357498.52453613 18.83109093 235 228 212
245845.93621826 3357494.72702026 16.54577065 53 58 51
245844.25073242 3357500.32211304 18.79891014 218 215 198
245846.22967529 3357496.89822388 17.87132072 53 56 45
245845.75073242 3357500.07449341 18.76374245 210 207 202
245846.20739746 3357498.64407349 18.15910149 64 78 55
245842.90008545 3357497.23529053 18.84665871 176 182 178
245846.09820557 3357499.00732422 17.51596451 52 59 43
245842.35821533 3357501.68551636 17.11041069 116 99 91
245845.43560791 3357500.58447266 18.76826096 192 188 177
245844.29254150 3357494.74923706 18.82397461 93 98 104
245843.97375488 3357494.99914551 18.82898140 103 108 114
245844.30462646 3357495.68002319 18.83242607 102 112 114
245845.89422607 3357495.03283691 16.56579018 39 45 43
245846.14666748 3357496.24084473 18.54063797 41 46 40
245844.58648682 3357495.78271484 18.82157707 94 102 105
245844.93457031 3357494.75341797 18.82966805 111 116 122
245845.07012939 3357501.09753418 18.77032471 217 209 196
245845.97552490 3357501.35238647 18.73853302 220 210 198
245842.02502441 3357500.27752686 18.28927231 195 141 113
245845.66235352 3357501.90826416 18.71716499 22 13 4
245846.33587646 3357495.69204712 16.63412094 35 41 39
245844.62976074 3357499.56903076 18.79251480 215 208 200
245845.90057373 3357498.25320435 18.77538681 184 177 159
245841.96838379 3357500.21890259 16.71099472 132 94 83
245846.33575439 3357499.46621704 18.04013634 65 80 61
245846.15362549 3357495.56457520 18.20505714 71 92 85
245844.40905762 3357501.09786987 18.78357506 209 201 188
245841.92889404 3357498.16519165 17.94283295 108 72 56
245842.01086426 3357498.72003174 17.25515366 174 122 101
245846.48504639 3357498.08361816 16.86295891 40 46 44
245841.76843262 3357496.54898071 18.81527138 49 58 67
245841.82989502 3357499.22714233 18.59127808 206 151 130
245846.33020020 3357501.24526978 17.22213936 42 46 45
245842.63854980 3357501.71249390 17.31859398 63 49 46
245843.89123535 3357500.29541016 18.80430984 207 206 188
245841.94030762 3357496.26119995 17.60190392 105 69 53
245844.14050293 3357498.42672729 18.82205009 203 199 187
245841.73541260 3357496.34683228 18.70861626 56 52 53
245841.92730713 3357500.94299316 18.43202400 118 75 56
245842.41516113 3357498.91305542 18.82613373 224 218 206
245841.72235107 3357495.78448486 18.57455444 59 49 40
245841.82562256 3357500.78042603 18.60121346 117 82 63
245841.74145508 3357498.40042114 18.72228050 212 170 145
245844.31335449 3357500.24465942 18.79881477 205 203 188
245841.89935303 3357500.75411987 16.65496063 134 134 132
245844.79968262 3357496.78259277 18.81632042 197 191 177
245846.13446045 3357495.11349487 18.62573624 50 55 51
245846.21575928 3357497.72909546 18.28870773 78 91 73
245842.52685547 3357500.20663452 18.80623436 227 220 202
245842.22613525 3357501.67681885 16.57860756 97 87 77
245842.36523438 3357498.92370605 18.82603073 230 224 212
245845.83599854 3357494.43936157 19.76603889 32 34 31
245841.85070801 3357500.35556030 16.46128845 39 41 28
245846.17657471 3357499.21453857 18.90104866 40 41 43
245843.64862061 3357495.58444214 18.84102821 96 103 109
245846.09234619 3357495.24145508 18.77558327 49 58 53
245846.17169189 3357501.84625244 18.18008041 54 61 53
245846.01361084 3357495.30621338 18.52558517 67 78 70
245844.54846191 3357498.92364502 18.80450439 215 206 197
245844.11224365 3357501.29095459 18.78660393 199 193 181
245841.72442627 3357496.89654541 18.65416527 75 64 62
245844.05725098 3357498.57861328 18.82275581 213 207 193
245842.03698730 3357499.95495605 18.21546173 248 193 154
245845.99780273 3357494.62908936 20.22409821 33 35 30
245844.93603516 3357501.89300537 18.75070763 175 172 165
245846.34704590 3357499.34948730 18.23907852 61 74 57
245841.85546875 3357497.16204834 18.13372040 100 74 59
245846.14312744 3357495.07244873 18.61772537 39 45 43
245842.05950928 3357501.12158203 17.21227264 152 107 88
245846.04840088 3357497.57919312 17.78283119 90 99 78
245842.67846680 3357501.86199951 18.76058197 231 224 208
245845.87695313 3357494.78085327 16.73068810 38 44 40
245841.79626465 3357496.84503174 18.51566887 69 56 50
245846.36120605 3357501.76379395 18.48518944 53 63 54
245843.63824463 3357498.85882568 18.82649422 225 218 202
245843.18164063 3357501.09509277 18.80792999 168 165 150
245844.10614014 3357496.15209961 18.83359528 176 178 173
245845.46844482 3357496.85610962 18.79414749 195 187 174
245846.21118164 3357501.35443115 17.81118774 47 52 46
245841.90490723 3357495.87149048 17.73409843 117 88 74
245842.02362061 3357498.82901001 17.08353806 164 113 94
245845.64172363 3357498.01132202 18.80126190 197 190 174
245842.26739502 3357501.35455322 18.80205536 208 200 181
245846.15039063 3357501.82077026 17.67936707 64 66 61
245846.35803223 3357498.43005371 16.81397629 65 71 59
245842.02801514 3357500.11123657 17.12805557 127 84 68
245846.15991211 3357496.20431519 17.30525398 53 59 49
245845.97100830 3357494.52664185 17.42479134 62 68 56
245846.16998291 3357501.31106567 18.73360825 36 33 28
245846.09985352 3357495.50201416 18.32674408 70 86 83
245842.05841064 3357499.97409058 17.91591644 238 190 152
245841.97955322 3357496.12167358 18.84767151 82 88 100
245841.83905029 3357501.29681396 18.69205666 230 192 171
245842.02490234 3357500.30947876 17.26736832 128 91 75
245841.90344238 3357497.17520142 16.95967293 121 107 98
245846.06610107 3357495.46435547 18.49252129 68 79 75
245845.63513184 3357496.72808838 18.79289818 192 191 173
245842.25872803 3357498.60543823 18.83092690 227 219 208
245843.52502441 3357500.71511841 18.79190254 222 219 200
245846.02325439 3357495.28771973 18.36551476 78 89 85
245841.84466553 3357501.24884033 16.40330696 23 25 20
245844.04083252 3357498.96185303 18.81565285 231 227 215
245843.78106689 3357501.23355103 18.79449844 228 220 207
245846.16381836 3357499.29339600 17.56373596 50 53 42
245842.08862305 3357501.50863647 17.28610039 114 86 75
245842.73138428 3357498.80093384 18.82746124 219 213 199
245844.95074463 3357499.06347656 18.79351997 213 206 196
245842.46801758 3357498.18130493 18.83647728 216 213 206
245842.00970459 3357499.50244141 18.08580780 238 184 148
245845.90002441 3357494.61239624 19.67143059 42 44 41
245843.18389893 3357496.94311523 18.83970642 81 92 94
245841.76843262 3357497.79879761 18.47972298 84 61 47
245843.63006592 3357502.02410889 18.54291153 26 58 43
245842.09674072 3357501.49810791 16.93495178 124 94 83
245845.16229248 3357499.77764893 18.77919006 204 199 193
245846.35235596 3357501.37533569 18.35142136 39 49 41
245845.84375000 3357502.12976074 18.56524086 34 39 32
245846.36743164 3357500.05187988 17.66878319 41 46 40
245844.79150391 3357495.00244141 18.82902718 110 117 123
245844.23388672 3357495.89645386 18.82913399 111 120 125
245846.05456543 3357496.03851318 17.91704750 43 50 42
245842.09246826 3357500.53543091 18.11403656 170 120 95
245842.02429199 3357498.54489136 17.48247719 136 94 70
245842.24096680 3357498.61257935 18.83084106 227 219 208
245843.64746094 3357498.87490845 18.82631493 225 218 202
245844.10198975 3357495.79568481 18.83325958 106 115 120
245843.32342529 3357501.91265869 18.73579788 183 178 172
245841.75305176 3357498.85247803 18.67002106 234 180 154
245844.93487549 3357494.53826904 18.81714249 101 104 109
245841.83050537 3357497.80270386 18.21437073 91 63 51
245841.74627686 3357498.52209473 18.70579529 229 180 150
245846.27728271 3357496.73361206 17.20910645 51 54 45
245844.50256348 3357497.90975952 18.81406212 211 205 193
245843.55139160 3357497.24984741 18.82244682 181 182 174
245842.05065918 3357497.35269165 18.83711243 114 120 118
245842.11749268 3357500.89834595 17.89744759 124 80 51
245846.57116699 3357498.66485596 16.81450462 44 53 48
245843.08654785 3357494.87619019 18.83444977 137 139 151
245846.09277344 3357495.73840332 17.42354202 45 46 40
245841.81365967 3357500.15759277 18.69401741 101 65 39
245845.53118896 3357496.44085693 18.80436325 123 123 115
245845.04766846 3357502.05636597 18.68717384 19 40 33
245846.33135986 3357500.56030273 17.94364548 53 64 56
245844.29937744 3357498.28198242 18.81817818 210 202 191
245846.18322754 3357496.35644531 17.40084839 48 54 42
245841.99993896 3357501.59243774 16.45508766 55 65 56
245846.02258301 3357498.87200928 16.88721085 68 81 61
245842.85638428 3357498.31500244 18.83461380 226 220 208
245841.96350098 3357496.65478516 17.27111626 123 84 69
245845.36688232 3357500.37133789 18.77091980 203 194 187
245846.11572266 3357495.19879150 18.79140091 37 43 39
245846.08245850 3357495.38211060 17.84158134 70 82 72
245843.29473877 3357501.98559570 18.53594971 34 49 44
245846.05383301 3357495.65914917 16.86250305 37 39 34
245842.55407715 3357502.20385742 21.74390984 138 155 103
245842.04534912 3357497.29928589 18.83661652 118 127 126
245843.39575195 3357497.38113403 18.82409096 208 205 190
245845.98114014 3357495.13348389 18.23115349 80 89 84
245843.92742920 3357496.96539307 18.84877586 200 204 203
245843.99212646 3357500.23291016 18.80351448 212 211 193
245841.88519287 3357496.94537354 17.91886139 103 73 63
245846.31414795 3357496.06402588 16.68322945 43 49 45
245846.36706543 3357499.66693115 17.08237648 39 49 38
245843.33715820 3357495.88607788 18.84794617 90 97 103
245846.01580811 3357494.63595581 20.38823318 35 37 32
245844.82348633 3357499.45925903 18.79002953 229 222 216
245842.01562500 3357498.89819336 16.61287117 118 92 75
245846.05285645 3357495.32562256 18.14641380 78 95 87
245842.99255371 3357497.80252075 18.83658028 227 218 203
245846.08886719 3357495.50588989 17.59351349 46 49 42
245845.87310791 3357495.30300903 18.80952263 118 121 128
245845.10266113 3357501.29064941 18.76487541 215 209 193
245846.03643799 3357495.56149292 17.23357773 49 52 45
245846.08459473 3357495.39462280 17.66992569 44 51 44
245844.79333496 3357496.34451294 18.83396721 172 173 165
245846.27642822 3357495.14550781 16.48153305 44 45 49
245844.96545410 3357499.18289185 18.79130936 209 200 191
245844.20233154 3357498.40127563 18.82078362 209 205 193
245846.23229980 3357498.77902222 18.23052025 54 63 46
245844.47467041 3357496.74923706 18.82762337 170 162 149
245843.49743652 3357502.31378174 18.26776505 89 116 97
245843.43560791 3357497.89041138 18.82580185 232 226 212
245843.74938965 3357502.08755493 18.48264694 24 60 48
245844.69476318 3357495.58761597 18.82323456 100 109 114
245846.57928467 3357501.48519897 16.81061745 30 39 38
245845.77484131 3357499.20654297 18.77069855 216 215 211
245841.98956299 3357494.93740845 18.83558083 121 123 136
245843.10961914 3357497.39996338 18.84922218 201 195 179
245846.43798828 3357496.71932983 16.64306068 52 62 54
245842.03643799 3357500.01461792 18.21671486 240 185 146
245846.32092285 3357502.14782715 17.13033867 31 40 37
245845.96112061 3357494.55706787 16.62813568 35 42 35
245843.03045654 3357496.45336914 18.84166527 82 91 96
245846.31359863 3357495.15173340 16.48544121 40 41 43
245843.19140625 3357502.27468872 18.19428253 31 62 47
245844.34051514 3357497.67147827 18.82363510 195 187 176
245841.99920654 3357499.37347412 18.19354057 248 196 157
245841.84552002 3357496.63989258 18.25189781 88 64 54
245844.24700928 3357502.04302979 18.60916138 30 49 45
245844.72729492 3357498.42123413 18.80921936 203 199 188
245843.33453369 3357498.53051758 18.83084106 228 220 207
245844.08868408 3357500.29913330 18.80145836 218 213 194
245846.18029785 3357497.45535278 18.44182396 77 85 70
245842.70910645 3357501.92483521 18.59242249 73 70 61
245845.12768555 3357501.25698853 18.76521111 214 208 194
245845.99090576 3357499.22866821 18.79430008 237 228 223
245842.04254150 3357499.56478882 17.42102623 107 65 49
245841.90057373 3357498.36868286 16.50670815 61 63 52
245841.72467041 3357497.35473633 18.77172661 94 87 81
245843.01062012 3357499.14721680 18.82335472 214 208 194
245845.29980469 3357497.83309937 18.80424309 208 200 189
245842.00958252 3357498.14703369 17.15015030 149 103 87
245844.92449951 3357499.18301392 18.79220009 191 182 173
245845.19378662 3357495.59445190 18.82080269 93 100 106
245841.93426514 3357496.80926514 18.83736801 82 91 98
245844.35101318 3357498.54052734 18.81621552 205 201 189
245842.04626465 3357501.25906372 16.96607590 146 106 94
245843.81396484 3357499.69476318 18.80916405 222 212 200
245846.37469482 3357499.83493042 17.66092682 40 47 39
245842.04193115 3357499.62893677 16.93286705 127 90 74
245841.88146973 3357496.31402588 18.05609703 85 61 51
245843.13763428 3357497.88577271 18.82996750 228 221 205
245841.86450195 3357499.22174072 18.82280731 191 178 162
245846.21130371 3357501.38726807 17.82929039 46 51 45
245841.85083008 3357498.06826782 18.15151787 76 49 32
245846.29187012 3357501.33374023 17.37051010 43 48 42
245845.57989502 3357499.42196655 18.77412987 209 204 198
245843.87414551 3357500.03463745 18.80723763 210 204 190
245842.06683350 3357501.14328003 17.29200935 149 101 81
245842.58435059 3357501.83468628 18.14665222 58 57 53
245841.91473389 3357496.85885620 17.14074707 121 88 79
245843.76873779 3357496.88064575 18.84893417 195 203 205
245842.78338623 3357500.08316040 18.81041527 225 218 200
245842.53918457 3357495.57705688 18.83888245 126 130 142
245841.96112061 3357500.62356567 18.79331017 98 100 99
245846.22796631 3357498.54022217 18.44953918 53 65 55
245841.84234619 3357500.43438721 16.43791771 64 68 54
245841.89666748 3357497.63565063 17.50791740 108 80 69
245843.03088379 3357494.72778320 18.83527946 99 102 109
245846.41680908 3357501.77770996 17.02192116 40 46 42
245845.50549316 3357502.29315186 18.20270920 10 19 18
245846.04248047 3357495.00219727 18.24466324 42 51 48
245846.12426758 3357496.14038086 18.48876953 53 62 57
245841.98406982 3357501.53338623 18.32627296 222 183 154
245841.79528809 3357500.01119995 18.74333954 191 157 132
245845.68884277 3357499.45251465 18.77127266 217 208 203
245846.25555420 3357496.66430664 17.24001884 51 54 47
245846.04992676 3357502.30847168 18.23151588 47 57 48
245842.10656738 3357501.92803955 18.61680984 66 54 40
245841.78051758 3357495.61157227 16.98620415 113 74 59
245845.98419189 3357494.98178101 17.32614708 47 52 45
245842.03680420 3357498.70169067 17.50509071 144 98 75
245846.45721436 3357499.85491943 17.15077019 35 47 37
245843.15545654 3357499.89041138 18.81618309 226 218 205
245841.90399170 3357497.14675903 16.96492195 127 110 102
245844.82427979 3357498.61386108 18.80339622 207 203 192
245843.24896240 3357498.11431885 18.82675171 223 214 197
245846.07519531 3357497.75494385 18.81122017 52 57 50
245842.01873779 3357500.05743408 18.26014328 236 178 140
245845.28454590 3357499.78143311 18.77644157 203 198 194
245842.80456543 3357499.42559814 18.82028389 223 216 200
245845.38763428 3357501.51770020 18.74631882 204 196 183
245846.27062988 3357499.33422852 16.91807747 38 48 39
245844.20764160 3357501.22891235 18.77896118 215 207 196
245845.50476074 3357497.23983765 18.80273247 204 198 184
245843.29772949 3357500.88027954 18.79767799 205 201 189
245845.97961426 3357500.71029663 18.75527382 218 205 196
245841.87518311 3357496.12963867 17.11299706 159 98 70
245842.02252197 3357500.94393921 17.08570290 124 86 77
245846.48657227 3357497.65347290 16.85339737 41 47 47
245844.79724121 3357495.83621216 18.81404495 125 130 134
245844.20977783 3357497.06341553 18.83862305 219 215 203
245845.85675049 3357494.47146606 19.35167122 42 45 38
245842.39807129 3357495.28314209 18.84133339 116 118 130
245845.15734863 3357502.22488403 18.22396088 21 43 40
245843.21697998 3357496.16452026 18.84511757 94 104 105
245845.85235596 3357494.80984497 18.82583427 122 123 128
245843.15795898 3357501.55911255 18.78905106 213 207 191
245844.72119141 3357494.73516846 18.82503319 102 107 111
245845.08270264 3357502.37557983 18.17505074 45 64 60
245846.15423584 3357499.11257935 16.85288620 44 52 39
245846.17114258 3357496.24951172 17.15531158 51 57 47
245842.07366943 3357501.40393066 17.52273941 122 86 72
245843.14727783 3357496.33044434 18.84344673 106 116 117
245842.00836182 3357498.54809570 17.90590858 222 180 156
245845.67449951 3357499.52551270 18.77042770 208 200 197
245841.70635986 3357495.50686646 18.48790932 106 87 80
245841.97302246 3357500.21746826 17.03744698 121 79 65
245841.76794434 3357495.43795776 16.86948586 106 73 58
245842.81750488 3357501.47198486 18.79272461 211 208 193
245844.44042969 3357496.57678223 18.82687569 191 185 171
245845.47918701 3357495.99285889 18.81909180 175 178 183
245841.85443115 3357501.70434570 18.72600937 220 200 176
245843.60498047 3357501.12469482 18.80002594 215 208 192
245846.14440918 3357494.94204712 18.49315834 39 49 41
245844.94635010 3357495.18164063 18.82590675 116 124 127
245841.93310547 3357497.51605225 18.83461571 108 114 112
245846.01409912 3357495.06509399 17.38252258 49 54 47
245846.21630859 3357496.92047119 17.98176003 50 53 42
245841.74218750 3357495.47103882 17.03865051 100 68 55
245843.42407227 3357496.29272461 18.84632111 117 125 128
245845.95141602 3357498.21423340 18.77567101 173 167 153
245846.30487061 3357497.25692749 16.85765839 54 68 55
245842.23181152 3357501.95507813 18.62155533 60 61 45
245844.76214600 3357497.30670166 18.81813431 208 202 190
245844.74597168 3357498.98516846 18.79922485 220 214 202
245845.06518555 3357500.60708618 18.77654648 207 204 189
245841.74969482 3357499.10467529 18.73462868 229 175 151
245842.14916992 3357498.85058594 18.82737160 214 208 196
245845.66058350 3357499.11892700 18.77612114 212 205 199
245845.66369629 3357494.49996948 18.80785942 132 135 144
245846.21929932 3357499.04235840 18.13499069 49 57 44
245843.06494141 3357502.00491333 17.12246132 57 47 35
245842.97961426 3357498.64859009 18.82946777 222 216 204
245842.49810791 3357497.56320190 18.84688377 198 192 180
245842.16009521 3357501.89617920 18.53445625 54 45 30
245842.69586182 3357496.47583008 18.84835625 108 119 121
245842.49090576 3357495.02603149 18.84334373 106 109 118
245841.91827393 3357496.08731079 17.95462227 88 64 52
245846.10095215 3357498.55404663 18.70414925 43 54 40
245846.39160156 3357499.19372559 16.84116364 66 77 63
245842.01989746 3357500.67239380 17.25041389 133 94 77
245842.46142578 3357502.04257202 16.62841797 43 42 38
245841.83825684 3357497.37582397 16.49049568 48 48 48
245846.22735596 3357496.69662476 17.79987526 55 57 46
245844.31402588 3357502.22140503 18.50779152 51 63 63
245842.82977295 3357499.55758667 18.81897163 219 212 196
245845.91619873 3357502.28091431 18.43552017 41 47 43
245845.33709717 3357497.76724243 18.80475044 214 206 193
245841.82653809 3357497.87649536 18.23591614 86 60 45
245841.91369629 3357499.17498779 18.42175102 208 148 120
245843.30621338 3357495.87976074 18.84772873 84 92 95
245841.99957275 3357498.25765991 16.61623955 118 91 80
245841.89221191 3357500.73284912 16.74513435 129 121 118
245842.53338623 3357496.54522705 18.85400963 132 146 149
245846.12652588 3357498.58416748 17.98273659 74 88 65
245842.45880127 3357498.07177734 18.83335495 201 202 196
245846.14129639 3357497.48269653 18.64847565 39 42 33
245844.04681396 3357499.91534424 18.80572128 212 204 191
245841.84863281 3357495.78479004 16.72553635 134 101 86
245842.49938965 3357501.71844482 17.20408821 84 73 69
245842.99676514 3357496.14489746 18.84359550 110 120 121
245844.13128662 3357499.66043091 18.80193329 217 209 198
245845.40130615 3357495.95693970 18.81827354 90 96 96
245842.02075195 3357500.01708984 17.61876678 127 76 55
245842.71948242 3357495.96826172 18.84250069 114 123 130
245845.80438232 3357494.39810181 19.71071815 33 35 32
245844.05395508 3357497.52996826 18.83004189 198 190 179
245844.69543457 3357495.17803955 18.83044434 93 98 102
245846.46820068 3357494.90646362 16.42895889 52 56 55
245842.57452393 3357496.84259033 18.85748100 126 138 138
245842.32574463 3357502.00799561 16.43400192 22 34 24
245845.47863770 3357498.10305786 18.80095673 200 194 180
245844.63867188 3357500.11605835 18.79394531 220 217 200
245843.48114014 3357499.89187622 18.81116295 227 220 204
245843.64483643 3357500.22372437 18.80329323 208 202 188
245846.17114258 3357500.53475952 18.68998146 54 53 49
245846.32220459 3357497.30410767 16.85053062 48 61 51
245846.02508545 3357494.62704468 19.23604012 37 38 32
245846.28198242 3357501.23236084 18.37218285 37 42 35
245844.23944092 3357497.72528076 18.82199669 182 174 161
245841.91821289 3357496.99862671 17.49355125 108 78 67
245844.96942139 3357500.77230835 18.77786827 211 205 191
245846.21655273 3357496.29534912 18.29959869 54 55 47
245843.04608154 3357500.74447632 18.81076813 227 224 207
245841.88629150 3357497.05313110 17.95042419 101 71 61
245846.47070313 3357499.70721436 16.98487473 37 47 38
245846.07983398 3357498.03152466 18.76988983 42 49 41
245844.47412109 3357502.21289063 18.44545555 60 75 72
245846.40814209 3357497.46124268 16.82547951 29 39 40
245846.09356689 3357494.61822510 17.73294258 74 78 64
245841.96539307 3357499.09310913 17.99173164 199 155 120
245844.37615967 3357498.91815186 18.80834770 212 208 197
245846.25469971 3357496.63973999 18.37671280 49 53 39
245843.06921387 3357499.51040649 18.81931496 226 220 206
245842.58044434 3357497.18008423 18.85791397 117 127 126
245846.32849121 3357501.47363281 18.21852684 48 54 50
245846.12524414 3357498.34600830 18.65778542 53 59 47
245843.87664795 3357497.82879639 18.82193565 191 185 173
245846.16625977 3357497.67160034 18.70659447 42 47 40
245842.15167236 3357501.91909790 18.58219528 53 46 30
245846.09045410 3357495.48132324 17.88944244 79 89 78
245841.80609131 3357498.86373901 18.59167480 210 159 132
245844.84869385 3357502.13269043 18.68426514 30 42 40
245846.40710449 3357501.57324219 18.37854576 40 50 41
245846.07019043 3357502.19046021 18.38956642 39 50 42
245841.65637207 3357495.40640259 18.61116791 69 52 45
245845.98962402 3357495.23770142 16.61856461 30 35 31
245845.04553223 3357499.08050537 18.79118538 211 202 193
245844.73010254 3357501.84869385 18.75824928 191 184 176
245846.15869141 3357496.13952637 17.05365944 55 63 52
245841.86950684 3357496.08132935 17.40402794 191 139 115
245845.81188965 3357499.06521606 18.77038002 208 208 198
245843.51702881 3357496.12219238 18.84790611 94 101 107
245846.37542725 3357499.89266968 17.66047096 38 45 38
245843.09350586 3357498.83853149 18.82677460 226 220 206
245841.96746826 3357500.67285156 18.79158592 106 108 105
245844.56542969 3357495.35562134 18.83159828 104 115 119
245841.84002686 3357497.65182495 18.16167259 90 62 50
245841.99603271 3357498.35177612 18.83503151 200 196 187
245842.71398926 3357498.48440552 18.83223152 228 220 209
245846.17309570 3357497.07043457 18.51503181 43 46 37
245842.24395752 3357501.66790771 16.79129410 98 84 75
245842.01574707 3357498.19171143 17.13448524 138 97 77
245843.45581055 3357501.16030884 18.80217743 200 193 177
245842.84722900 3357496.08843994 18.84305382 117 124 130
245841.98437500 3357500.49093628 17.20044327 73 37 25
245845.78845215 3357497.92019653 18.80162048 189 180 163
245846.50030518 3357499.14123535 16.84039307 61 71 60
245845.49011230 3357497.25161743 18.80345917 202 196 180
245846.50158691 3357496.64529419 16.49119377 31 40 37
245844.18127441 3357499.46444702 18.80394745 216 208 197
245846.14080811 3357495.50756836 16.63690186 31 35 34
245841.85949707 3357497.16720581 18.08456802 98 72 55
245845.26678467 3357495.24984741 18.82453346 93 102 107
245846.14746094 3357499.41073608 17.18585968 61 69 56
245841.91046143 3357497.22293091 17.21511650 116 99 92
245844.18255615 3357501.75640869 18.76064491 158 149 142
245844.81298828 3357500.85461426 18.78099060 218 212 198
245845.06353760 3357498.95404053 18.79279518 217 207 198
245844.68994141 3357502.11224365 18.63286781 21 41 39
245841.93322754 3357496.01959229 17.72014046 93 60 45
245844.09271240 3357496.06628418 18.83309937 162 171 170
245846.12603760 3357502.12002563 17.77623558 47 53 49
245844.90411377 3357499.56750488 18.78655815 211 202 195
245844.99865723 3357496.01657104 18.80971718 108 116 119
245841.91174316 3357497.32534790 16.76041222 121 102 96
245846.15954590 3357496.07876587 17.35757065 59 65 53
245844.47094727 3357498.80679321 18.80804443 206 202 191
245844.26208496 3357500.08395386 18.80120087 222 219 200
245846.20367432 3357499.44677734 17.36187172 48 54 42
245843.93481445 3357500.62240601 18.79508018 218 211 195
245845.94134521 3357500.05783081 18.76026344 240 235 229
245841.98297119 3357497.93756104 16.77200699 138 102 90
245841.66003418 3357495.51458740 18.71611786 66 55 51
245843.28588867 3357498.85952759 18.82652283 224 218 204
245846.21417236 3357497.96328735 18.59621620 75 88 71
245842.19384766 3357501.62063599 17.16885376 104 84 77
245845.62548828 3357496.66360474 18.79600334 199 196 181
245841.70379639 3357496.63873291 18.74931526 70 62 60
245841.98388672 3357497.91720581 16.86366463 135 97 84
245841.95440674 3357501.20245361 16.48509979 61 56 53
245842.08862305 3357500.68786621 18.80560875 149 154 148
245843.83813477 3357502.20175171 18.45165634 93 119 110
245845.01202393 3357498.48919678 18.80127716 222 215 207
245846.21502686 3357497.95272827 18.59573936 75 88 71
245841.26129150 3357501.77264404 21.68499374 74 97 41
245842.31994629 3357497.16909790 18.84397316 92 104 104
245841.92578125 3357502.03213501 16.38189697 56 69 49
245846.18499756 3357494.40722656 17.74041939 65 71 59
245843.84338379 3357497.80853271 18.82235146 193 187 175
245842.62152100 3357502.10281372 16.80444908 70 68 53
245844.60174561 3357498.83184814 18.80479622 214 205 196
245841.89813232 3357497.82061768 16.45631218 53 54 48
245841.90979004 3357501.54159546 18.76266861 214 196 172
245845.43072510 3357494.86856079 18.81295967 88 93 97
245845.89929199 3357494.42486572 19.05347061 51 46 42
245843.74499512 3357497.80227661 18.82399940 202 196 184
245841.80456543 3357499.55990601 16.44321632 43 56 36
245843.78778076 3357500.24514771 18.80454445 208 206 191
245841.69763184 3357495.42514038 18.23589706 77 59 47
245842.65570068 3357501.85617065 18.33339691 56 53 48
245845.33892822 3357496.75347900 18.79932213 197 194 179
245842.30407715 3357501.44119263 18.79851913 205 198 179
245841.85321045 3357496.41662598 18.12877846 81 57 47
245841.81152344 3357497.48834229 18.22918892 91 65 48
245841.93304443 3357500.39682007 18.43518829 116 74 52
245842.13378906 3357499.26980591 18.82218552 211 201 189
245845.97033691 3357494.96386719 16.51664925 26 32 30
245846.45404053 3357497.16064453 16.81324387 52 62 51
245844.23071289 3357499.88308716 18.80126762 218 208 196
245843.96643066 3357502.18161011 18.49864006 92 111 105
245845.89880371 3357497.78335571 18.80015373 173 167 151
245846.00286865 3357496.69964600 18.82056618 43 40 33
245845.54229736 3357495.36172485 18.81153488 92 102 104
245845.07867432 3357502.05621338 18.63403130 21 44 36
245843.96679688 3357497.91094971 18.82102013 204 198 186
245846.27520752 3357496.51708984 18.34355164 57 61 46
245842.02227783 3357499.64257813 17.75724602 184 130 102
245841.99493408 3357501.71459961 18.32089615 108 83 61
245846.17205811 3357496.64505005 18.75386810 28 30 27
245842.98699951 3357501.69635010 18.78579330 218 214 203
245846.26153564 3357498.17578125 18.16976738 78 96 70
245846.06701660 3357497.31619263 18.73176765 74 77 68
245842.87359619 3357501.84704590 18.76238441 218 212 200
245841.17004395 3357501.85308838 21.72863388 79 102 48
245842.70617676 3357501.90277100 18.53217697 72 69 60
245841.98760986 3357499.42819214 17.85005569 179 125 99
245841.79687500 3357497.31121826 18.38745117 81 59 38
245846.08807373 3357494.87490845 19.72786522 36 38 33
245844.58331299 3357501.39395142 18.77272415 200 193 183
245842.35473633 3357497.94604492 18.83717918 141 147 145
245846.07647705 3357498.18295288 18.75220871 54 60 46
245841.99316406 3357498.34976196 17.75988960 134 89 70
245841.92822266 3357496.65731812 16.76339149 125 86 71
245841.75616455 3357496.60238647 18.59392548 61 50 44
245842.37927246 3357499.62319946 18.81857872 217 210 194
245841.93774414 3357497.87582397 17.50452995 124 91 74
245841.16918945 3357501.72552490 21.45437622 83 108 53
245842.39813232 3357500.32745361 18.80541229 209 206 191
245846.24114990 3357500.80303955 17.81169128 40 47 40
245841.74017334 3357497.59234619 18.53263092 89 68 47
245845.81036377 3357495.16278076 18.80647087 113 117 126
245845.06768799 3357500.04702759 18.78208542 206 202 191
245844.48913574 3357496.17581177 18.83362389 96 106 105
245841.83612061 3357499.11254883 18.81050682 202 183 168
245846.47131348 3357499.67984009 16.95648003 37 47 38
245841.95556641 3357496.52896118 17.12147522 125 77 57
245842.98876953 3357501.86892700 17.40573502 52 41 35
245846.42218018 3357500.06454468 17.48824883 40 45 39
245846.14758301 3357500.24237061 18.71105385 66 65 61
245841.92303467 3357496.60910034 16.78483772 128 86 70
245846.23901367 3357496.58706665 17.92463303 53 56 45
245846.20501709 3357501.10092163 18.59370422 34 39 33
245841.85217285 3357501.21478271 16.40603828 25 27 22
245844.98693848 3357500.22653198 18.78141403 203 199 188
245841.93975830 3357501.88504028 18.74729156 208 198 171
245844.58691406 3357494.94744873 18.82659149 108 115 123
245842.47937012 3357494.88375854 18.84490585 119 121 134
245845.96801758 3357498.71145630 17.10658073 63 74 58
245845.88360596 3357496.24176025 18.78794479 174 174 166
245846.13775635 3357498.14822388 17.12313080 107 117 93
245846.30651855 3357501.46603394 18.18408775 51 58 51
245842.71221924 3357501.14410400 18.80689049 159 162 155
245843.86907959 3357496.09036255 18.83987236 122 126 125
245845.33673096 3357498.95635986 18.78680229 189 185 174
245846.04516602 3357495.67822266 16.93178940 40 45 39
245841.14825439 3357501.54806519 21.60254097 60 81 25
245841.99304199 3357498.53796387 18.01985359 169 115 87
245841.96710205 3357501.06765747 16.58305168 97 79 69
245841.72711182 3357496.49121094 18.67790031 58 50 47
245844.47357178 3357495.95297241 18.82067490 100 110 112
245843.56896973 3357494.81842041 18.83052063 82 85 90
245842.78839111 3357501.00906372 18.80947685 133 139 127
245845.06701660 3357494.89562988 18.82798195 85 93 96
245845.92492676 3357494.48947144 19.16728020 41 40 35
245841.97766113 3357498.27886963 17.77242088 132 94 75
245843.00299072 3357498.12017822 18.82657433 234 227 209
245842.99639893 3357502.11596680 17.92365837 48 44 33
245842.01654053 3357500.73971558 17.18896294 127 90 72
245845.86242676 3357501.90133667 18.70533180 35 27 16
245846.51245117 3357498.36968994 16.81712341 61 71 60
245844.06256104 3357498.69461060 18.82035255 213 207 195
245841.82843018 3357498.20660400 18.26906013 98 53 30
245846.25701904 3357498.89337158 18.27875710 46 54 39
245842.77093506 3357500.09481812 18.81033325 225 218 200
245842.01922607 3357498.84735107 17.16632843 164 114 91
245844.10174561 3357499.03680420 18.81267357 217 213 202
245844.68408203 3357502.11639404 18.61676979 24 44 42
245842.00140381 3357498.10867310 17.22556496 143 100 83
245843.02050781 3357501.97534180 17.07505989 54 46 35
245841.64184570 3357495.34265137 18.13331032 85 71 62
245841.97076416 3357499.91909790 16.57840729 94 76 62
245845.32946777 3357499.59365845 18.77687073 200 193 185
245842.02813721 3357501.20065308 16.89379311 135 92 86
245846.17932129 3357502.18878174 17.58383369 44 49 45
245841.79284668 3357496.15176392 18.28351212 79 62 55
245844.90289307 3357500.48538208 18.78085518 209 203 191
245845.09667969 3357502.23233032 18.24442291 24 46 43
245846.16912842 3357496.25112915 17.59849548 51 54 43
245842.23730469 3357501.93505859 18.76311111 174 176 154
245841.79077148 3357495.79983521 17.30724525 184 134 111
245842.41955566 3357501.93252563 16.50704575 26 25 21
245844.24108887 3357500.55468750 18.79665375 197 190 174
245846.08642578 3357499.03842163 17.33778191 44 50 38
245845.92413330 3357499.07015991 18.77589035 222 218 209
245841.79162598 3357495.80874634 17.32170486 182 134 111
245846.23791504 3357496.82940674 17.59802818 54 56 43
245842.50970459 3357497.67330933 18.84282875 211 205 193
245842.26098633 3357502.31655884 16.61858559 239 233 245
245845.38433838 3357501.57235718 18.73950386 214 207 191
245843.56091309 3357495.74926758 18.84453964 95 102 108
245845.83215332 3357498.13174438 18.78389549 186 181 161
245841.88134766 3357499.47149658 16.48467255 52 60 39
245845.84942627 3357497.90304565 18.80156708 203 196 178
245846.01623535 3357500.64080811 18.75505638 226 213 204
245846.46606445 3357497.03689575 16.74300385 55 62 54
245842.03527832 3357500.19363403 17.30163574 135 89 74
245841.89385986 3357497.16650391 16.71805382 100 90 81
245841.91345215 3357496.86157227 16.89417267 119 89 79
245846.22161865 3357497.78778076 17.02298164 92 103 86
245845.62298584 3357497.73468018 18.80403328 203 196 178
245846.20465088 3357501.50225830 17.90374947 54 56 51
245841.97985840 3357499.00671387 17.99844360 187 141 107
245845.66125488 3357498.36953735 18.77978706 184 179 160
245845.95617676 3357494.51623535 18.97235107 27 28 23
245842.82287598 3357497.27987671 18.84928703 127 132 126
245846.22833252 3357499.75704956 18.78148651 78 83 79
245846.09619141 3357498.36523438 18.71566582 56 60 46
245845.93078613 3357494.97436523 17.08487320 50 53 46
245844.59625244 3357498.14614868 18.81199074 211 205 193
245843.47924805 3357502.23971558 18.27878952 42 79 62
245841.86743164 3357497.42309570 17.68737411 102 76 63
245843.48968506 3357497.56530762 18.82920647 200 193 175
245845.70916748 3357494.42294312 18.82940292 121 124 133
245841.74456787 3357495.24902344 18.83842468 103 103 113
245846.11297607 3357497.32977295 18.11912727 70 78 63
245846.43377686 3357500.21102905 17.48565865 40 45 41
245845.30029297 3357495.96353149 18.81627464 85 91 91
245846.36395264 3357495.42871094 16.56898689 37 46 45
245846.29486084 3357499.46112061 17.95931244 70 85 66
245842.83050537 3357500.73010254 18.81138039 217 214 199
245845.98541260 3357494.92291260 16.51372719 45 51 49
245846.30590820 3357499.50933838 17.02491188 39 47 36
245843.83050537 3357499.16622925 18.81686592 229 223 211
245841.82183838 3357497.60794067 18.22189140 93 67 54
245841.86804199 3357499.27700806 18.82226372 200 186 173
245846.24108887 3357496.53744507 18.63441277 39 42 35
245846.21942139 3357496.36080933 17.98507500 51 57 45
245843.11309814 3357500.08489990 18.81534576 230 224 208
245846.27752686 3357499.03713989 16.83184814 64 72 59
245846.48571777 3357496.71887207 16.53274155 34 45 41
245844.68359375 3357495.80157471 18.81824875 94 104 106
245841.77056885 3357499.68328857 18.72305107 229 174 144
245845.13415527 3357501.94332886 18.71081352 20 30 22
245842.37414551 3357494.86801147 18.84609222 115 118 127
245841.81457520 3357497.90679932 18.80239487 96 100 101
245842.69616699 3357498.94281006 18.82565689 215 207 194
245844.92742920 3357501.91192627 18.75271606 99 98 93
245842.61737061 3357495.84683228 18.83879471 107 111 120
245841.86730957 3357497.55090332 17.56133842 101 73 62
245843.89135742 3357500.10806274 18.80623627 209 206 191
245845.15698242 3357494.54827881 18.80589104 92 97 103
245843.01904297 3357494.85485840 18.83499336 98 101 108
245846.36090088 3357500.59136963 18.15257835 73 87 74
245841.88714600 3357495.86016846 17.91814995 88 59 51
245841.78619385 3357495.61752319 16.88174248 134 94 82
245843.35400391 3357501.73837280 18.76608467 225 219 205
245841.79754639 3357498.01754761 16.38946724 34 36 35
245841.81646729 3357495.70520020 17.79516602 92 64 50
245842.64947510 3357501.71145630 17.32558823 63 49 46
245845.87579346 3357494.97552490 16.58906174 43 49 45
245843.32263184 3357500.78900146 18.79464340 225 221 209
245846.14343262 3357502.34259033 17.79651451 43 52 47
245846.18212891 3357495.03015137 16.45105553 33 39 39
245846.27496338 3357501.28726196 17.48645401 51 53 48
245843.06585693 3357496.20263672 18.84361267 95 105 106
245846.23510742 3357498.95043945 18.77338219 21 23 22
245842.06262207 3357500.08139038 18.80793762 228 219 204
245844.91070557 3357498.97845459 18.79574013 217 213 202
245845.72137451 3357496.54699707 18.79637527 193 185 172
245846.15338135 3357494.80343628 18.21295166 68 76 63
245842.99926758 3357501.98553467 18.22775269 36 41 34
245842.70629883 3357501.80169678 17.73093796 44 37 29
245842.46356201 3357498.97311401 18.82534409 224 216 205
245846.13085938 3357501.87365723 18.05359077 50 60 51
245845.55224609 3357498.84646606 18.78287315 195 191 179
245843.52532959 3357495.49102783 18.84346390 90 95 99
245844.47442627 3357495.42553711 18.83171463 104 113 118
245844.33203125 3357495.68130493 18.83158684 102 112 114
245846.01348877 3357497.74948120 18.81938744 53 51 39
245842.22082520 3357501.74563599 16.43001556 74 71 66
245843.63653564 3357498.84191895 18.82668304 224 217 201
245845.99462891 3357494.68704224 17.56115341 63 63 53
245844.95800781 3357495.92654419 18.81054878 105 112 118
245842.02020264 3357498.70477295 16.99920845 157 111 88
245843.11425781 3357502.05795288 17.36242676 56 46 36
245846.52154541 3357501.39703369 16.90160370 32 41 40
245842.04998779 3357499.16192627 17.55625343 125 73 59
245844.05883789 3357496.53729248 18.83950424 181 179 166
245843.12561035 3357502.21072388 18.15119743 12 32 21
245844.69952393 3357498.88742065 18.80178642 209 205 193
245843.27490234 3357497.42547607 18.83987999 206 198 185
245845.50347900 3357495.81436157 18.82269287 102 107 111
245842.49658203 3357499.97406006 18.81006813 220 213 197
245841.85290527 3357496.09741211 18.12384987 82 60 49
245845.87506104 3357501.72378540 18.72221565 224 220 208
245843.81774902 3357495.23367310 18.83415222 98 106 109
245842.18975830 3357501.58123779 17.64792252 95 68 61
245841.88012695 3357501.71282959 18.49461555 110 78 57
245846.12664795 3357495.16296387 18.81000519 32 37 31
245846.24645996 3357498.52008057 18.40700150 64 78 63
245843.38604736 3357498.77185059 18.82748604 235 228 212
245842.07812500 3357501.43380737 17.09783554 134 98 86
245846.20831299 3357501.64474487 18.74251747 125 131 127
245846.11804199 3357497.36514282 18.20824432 83 92 75
245845.19799805 3357501.16552734 18.76607132 186 180 166
245841.98937988 3357498.44412231 16.67491150 121 89 76
245841.82635498 3357495.91061401 17.07626724 121 75 59
245842.94158936 3357501.91952515 18.46510696 50 52 41
245845.72802734 3357499.72100830 18.76616669 230 225 222
245845.43267822 3357498.20153809 18.79375267 196 190 176
245846.22387695 3357494.91647339 16.43993759 51 56 52
245845.04193115 3357502.22097778 18.28437996 25 45 43
245843.67230225 3357497.39370728 18.83007622 197 190 180
245843.92041016 3357500.70281982 18.79245567 212 205 189
245842.25537109 3357498.24087524 18.83640289 221 218 211
245843.41223145 3357497.99185181 18.82628250 219 211 198
245842.02697754 3357501.23425293 18.79193687 220 203 183
245841.94866943 3357499.86419678 16.54664230 61 56 37
245842.78900146 3357502.01544189 16.87434578 45 42 33
245841.99627686 3357498.16238403 16.61895561 113 86 75
245842.63598633 3357498.60589600 18.83049583 228 222 210
245842.78118896 3357497.06747437 18.84376335 107 117 116
245841.89331055 3357497.65139771 17.75938225 99 73 60
245846.37115479 3357496.53039551 16.74580193 50 57 49
245846.11291504 3357502.19918823 17.87566376 47 59 49
245842.27105713 3357496.68771362 18.83915329 86 97 103
245846.14208984 3357496.21282959 18.51102638 45 50 46
245846.34844971 3357500.20364380 18.05984116 77 88 74
245842.10296631 3357501.58129883 16.62152290 124 102 89
245843.11401367 3357498.98666382 18.82512665 224 218 206
245843.18121338 3357502.33096313 17.35772324 135 116 99
245846.13702393 3357494.69760132 19.16143036 39 40 34
245843.17303467 3357500.93887329 18.80907249 187 183 171
245842.04754639 3357500.93493652 17.29611778 171 119 98
245843.37536621 3357496.00775146 18.84746933 73 82 87
245846.03466797 3357498.37121582 17.25497627 49 55 43
245841.23956299 3357501.64645386 21.72767067 80 100 41
245846.22888184 3357496.82144165 18.05845642 51 54 45
245846.16412354 3357502.41824341 17.62925529 42 51 46
245846.56085205 3357499.14492798 16.83733940 56 66 57
245841.75433350 3357497.60543823 18.48157120 87 66 45
245843.13800049 3357497.62646484 18.83988380 219 216 199
245844.40191650 3357499.19601440 18.80338669 217 209 198
245846.01000977 3357499.48068237 18.76503944 122 118 115
245845.91064453 3357500.73886108 18.75669289 220 212 201
245846.08032227 3357496.16976929 18.62567711 30 35 31
245844.26483154 3357498.14276123 18.81768608 201 193 182
245844.70617676 3357499.43194580 18.79301834 211 204 196
245842.78741455 3357501.72955322 17.35678482 98 88 79
245845.40875244 3357494.88998413 18.81499863 96 101 105
245843.25219727 3357500.61126709 18.81123734 220 217 198
245846.29772949 3357496.82788086 17.12613869 50 53 44
245841.90203857 3357501.68334961 18.43557739 125 90 68
245842.07769775 3357495.59927368 18.84256363 99 105 117
245843.70324707 3357502.24270630 18.38589478 106 134 119
245844.95690918 3357501.69985962 18.75763512 188 180 169
245846.10406494 3357499.16757202 18.84592819 28 24 21
245844.92230225 3357496.68038940 18.81389046 188 187 169
