246106.33593750 3357546.48626709 15.46410751 78 69 126
246104.74963379 3357546.32708740 12.91547585 158 153 147
246105.04187012 3357545.89611816 14.92269421 128 128 128
246105.22119141 3357546.81329346 15.43346786 49 136 190
246105.01147461 3357544.95355225 13.11362648 154 148 148
246106.80090332 3357546.04016113 12.91484451 124 125 130
246106.09350586 3357546.25677490 15.00626087 128 128 128
246106.07531738 3357547.50109863 15.23371124 29 151 218
246104.76354980 3357547.05743408 15.01280975 128 128 130
246104.66760254 3357547.06036377 15.01062012 128 128 128
246106.39746094 3357547.44116211 15.04488850 177 193 193
246106.66540527 3357545.83532715 15.38737392 3 122 212
246106.13159180 3357545.25830078 12.94368458 143 141 142
246106.01940918 3357546.48669434 12.97549343 161 162 164
246105.68029785 3357546.90246582 15.45642662 11 111 197
246104.86315918 3357547.44091797 12.92052650 161 163 160
246106.12622070 3357547.18096924 15.03263092 128 128 128
246106.22192383 3357546.76513672 15.03661823 128 128 128
246105.47717285 3357546.01251221 12.98745728 160 152 141
246105.25329590 3357545.71350098 14.92312717 128 128 128
246105.73632813 3357546.16284180 14.97997952 128 128 128
246104.16467285 3357546.52832031 14.97341537 76 188 225
246104.87133789 3357547.52319336 12.91497993 139 138 134
246106.02563477 3357546.28967285 15.75356579 6 63 152
246105.44311523 3357547.09033203 15.02631855 128 128 128
246106.18347168 3357546.21459961 12.95555305 131 135 138
246105.17700195 3357547.20251465 15.25080395 188 217 231
246104.50854492 3357546.35253906 15.24977207 29 192 247
246105.09277344 3357545.09246826 14.87540150 128 128 128
246104.57165527 3357545.93060303 14.90099335 128 128 128
246105.66979980 3357547.29290771 15.02777767 199 198 193
246105.67382813 3357545.26586914 15.00496387 166 196 204
246106.28723145 3357547.41369629 12.94725609 166 166 166
246104.57592773 3357546.74835205 12.91798019 180 177 168
246106.12072754 3357546.24145508 15.00622845 128 128 128
246104.48828125 3357546.63726807 15.27288723 4 190 241
246106.67309570 3357547.05706787 15.04777813 129 127 128
246105.24426270 3357546.77581787 12.95541763 111 110 105
246105.07678223 3357547.20690918 15.02528667 197 194 187
246106.11633301 3357547.88018799 12.92361164 163 163 163
246106.35095215 3357546.94097900 12.95183086 160 160 160
246104.68811035 3357546.32824707 15.31750011 51 203 252
246105.13745117 3357546.49212646 15.56694126 71 228 255
246105.03320313 3357546.10949707 15.44444847 208 173 206
246105.47033691 3357546.11901855 14.96277332 128 128 128
246105.75463867 3357545.73773193 13.00147820 195 191 190
246105.92126465 3357546.64013672 15.03249359 128 128 128
246104.31921387 3357546.46490479 14.95462036 128 128 128
246105.76477051 3357547.52679443 12.94241428 161 161 161
246104.83764648 3357547.17102051 15.02364635 196 196 188
246106.84020996 3357546.56439209 15.18082809 75 156 212
246106.61230469 3357546.88623047 15.23991013 63 142 201
246106.11376953 3357546.19927979 15.69675350 0 62 149
246104.66992188 3357546.22155762 15.29869270 36 192 249
246104.07458496 3357546.47723389 12.90949249 163 160 153
246106.00573730 3357546.83117676 15.03393459 128 128 128
246106.46936035 3357546.16186523 12.92386150 118 123 129
246105.10620117 3357546.06793213 15.48519611 207 181 216
246106.57678223 3357546.69885254 15.30497646 44 97 147
246105.05725098 3357547.77398682 12.92820930 165 162 157
246104.56945801 3357546.43127441 15.28225517 33 195 244
246105.70898438 3357546.31689453 14.99260521 128 128 128
246105.21350098 3357545.81811523 15.42859936 190 237 255
246104.54931641 3357547.31109619 12.91300011 176 178 177
246105.71362305 3357547.13732910 13.00083160 196 196 194
246104.36413574 3357546.26501465 14.93188190 128 128 128
246106.35498047 3357545.91845703 15.50370693 3 122 214
246105.93566895 3357547.59588623 12.95109081 176 178 177
246106.27038574 3357547.49206543 15.05790424 148 186 195
246105.03674316 3357546.17266846 12.95182610 142 134 131
246106.60937500 3357547.12304688 15.14079475 62 149 192
246106.20751953 3357547.98535156 12.91501141 164 166 165
246106.46289063 3357546.07012939 15.01303768 128 128 128
246105.21313477 3357546.15069580 12.96784592 140 132 129
246104.17712402 3357546.75463867 15.15312862 113 200 217
246105.23974609 3357547.00738525 15.34990692 70 111 143
246105.24560547 3357545.55364990 13.00727749 159 149 140
246105.05456543 3357547.27471924 15.18784237 86 172 197
246106.17309570 3357545.72973633 12.93445015 144 146 141
246104.56787109 3357546.78289795 15.28092480 66 211 242
246105.31201172 3357544.81524658 15.12020111 53 181 228
246104.77111816 3357546.32269287 12.91758251 132 127 121
246104.44299316 3357545.97692871 14.89880466 128 128 128
246105.41125488 3357545.07598877 13.02875519 169 161 158
246105.80944824 3357545.38006592 15.35231686 18 156 221
246106.00170898 3357547.58203125 15.08534145 75 179 206
246104.14379883 3357546.50543213 15.04948330 73 192 234
246104.69274902 3357546.94659424 12.95169544 158 153 147
246105.36755371 3357545.24676514 14.90039635 128 128 128
246105.65075684 3357546.89916992 15.45427227 23 104 185
246106.92199707 3357545.67352295 15.16276932 81 157 191
246106.32800293 3357547.12908936 15.28909588 22 116 186
246105.15283203 3357544.86694336 13.11414623 194 185 188
246105.51062012 3357545.32507324 13.02802753 192 182 173
246105.48461914 3357547.80810547 12.93429375 171 171 169
246104.74145508 3357545.99194336 14.91500473 128 128 128
246106.07299805 3357547.49353027 12.96005726 164 166 165
246106.74926758 3357545.64019775 15.25460339 14 147 224
246105.51477051 3357546.06823730 14.96037769 128 128 128
246105.29260254 3357546.01330566 15.53675938 113 223 250
246105.35571289 3357545.44055176 15.37596130 9 182 240
246104.72302246 3357545.29797363 13.00146770 203 194 187
246104.77014160 3357546.33618164 14.94767189 128 128 128
246104.51867676 3357545.82366943 14.88891411 128 128 128
246104.11474609 3357546.58715820 15.02500534 93 197 236
246105.28820801 3357545.24871826 14.89608288 129 127 128
246105.21313477 3357544.93005371 15.24430752 27 179 218
246106.25280762 3357545.65093994 15.06863213 188 196 198
246105.39733887 3357547.21667480 12.99535179 218 217 215
246104.51623535 3357546.20794678 15.23649883 18 180 244
246105.15063477 3357545.12908936 14.88092041 128 128 128
246106.45178223 3357546.88562012 15.30602551 36 117 183
246105.62182617 3357545.58752441 14.93587971 128 128 128
246104.69238281 3357547.05877686 15.00984859 128 128 128
246104.89257813 3357547.75903320 12.92468262 154 149 145
246104.89135742 3357546.33258057 15.40673733 69 216 250
246104.94799805 3357545.99743652 14.92577171 128 128 128
246105.08374023 3357547.58386230 12.93162823 129 130 124
246106.53771973 3357546.77178955 12.91801739 152 150 151
246106.95385742 3357545.67559814 12.92737770 136 136 136
246104.59240723 3357547.32098389 12.91333389 163 165 162
246105.08361816 3357544.89312744 13.13894176 165 158 165
246104.60046387 3357546.85870361 12.93441296 183 178 172
246104.34826660 3357546.37506104 15.18898869 25 182 237
246104.69543457 3357545.86254883 14.90121841 128 128 128
246104.45385742 3357547.31787109 12.91051960 163 165 160
246106.12622070 3357547.63934326 12.94129753 168 170 169
246104.93151855 3357546.35290527 12.92987061 147 142 136
246106.68969727 3357545.67065430 15.30333805 4 138 227
246106.09521484 3357547.69921875 15.07654381 44 163 197
246106.04064941 3357545.98303223 12.96542168 132 137 143
246104.86572266 3357546.04107666 12.94953060 165 158 150
246105.17773438 3357547.49084473 12.94261265 213 212 208
246105.10815430 3357545.85766602 12.96543407 146 142 133
246105.02941895 3357546.23645020 12.94571590 122 115 109
246105.06848145 3357545.90734863 15.40654850 227 233 249
246105.19494629 3357546.61224365 15.51852989 7 147 232
246105.18811035 3357545.40313721 14.90011597 129 127 128
246104.95007324 3357546.81835938 15.35897350 38 166 227
246105.04833984 3357547.61352539 12.92765617 150 149 144
246106.20288086 3357545.88000488 14.98663044 127 129 128
246106.31396484 3357545.66107178 15.07112026 187 196 195
246106.32031250 3357546.90924072 15.03657818 128 128 128
246105.56213379 3357546.67944336 12.95415592 202 204 203
246106.11511230 3357546.00494385 15.61090946 7 114 210
246104.41809082 3357546.65844727 12.91125011 166 163 154
246104.11779785 3357546.64636230 15.00407887 96 185 219
246105.21142578 3357544.79541016 14.93096447 141 190 207
246105.63513184 3357545.40386963 14.92516613 127 129 128
246105.16369629 3357546.30267334 12.96404171 142 138 135
246106.21154785 3357545.34246826 12.93028831 128 126 127
246106.09912109 3357545.84149170 14.97842312 127 127 127
246106.83227539 3357546.74298096 15.11982632 76 153 195
246106.54785156 3357546.67181396 15.32014656 76 120 165
246105.37353516 3357545.05053711 13.03806782 87 82 78
246106.08422852 3357546.22052002 15.72175884 9 71 156
246105.45678711 3357545.56909180 14.92549896 128 128 128
246107.07348633 3357546.08898926 12.92250633 159 159 161
246104.98352051 3357547.26452637 12.95554066 223 223 223
246105.83483887 3357547.52789307 15.10532951 42 192 229
246106.00537109 3357545.45062256 15.07043934 181 199 199
246106.56164551 3357545.52380371 15.14510250 185 195 197
246105.67175293 3357546.42675781 12.97638988 178 179 181
246104.41210938 3357546.73382568 12.91587353 183 180 171
246105.18725586 3357546.56329346 14.98902607 128 128 128
246105.22814941 3357546.89654541 12.98785973 230 232 229
246104.85070801 3357547.01989746 15.01373577 128 128 128
246105.79626465 3357547.40820313 15.21878624 11 151 228
246105.22058105 3357547.03857422 13.00119495 217 222 216
246105.79003906 3357547.00659180 15.03046417 128 128 128
246105.98437500 3357545.75250244 14.96645260 127 129 128
246104.56750488 3357546.74291992 15.29740524 50 200 233
246105.38549805 3357546.16412354 14.96265411 128 128 128
246105.47937012 3357545.49090576 14.92188549 128 128 128
246106.26049805 3357545.90740967 14.99155712 128 128 126
246106.48730469 3357546.01330566 15.05404949 192 198 194
246106.55834961 3357546.77020264 12.91418743 149 147 148
246106.20568848 3357547.34722900 15.03223801 128 127 122
246105.63830566 3357547.24841309 12.98830795 203 203 201
246105.99011230 3357545.17614746 12.95516205 141 139 140
246105.30700684 3357544.78723145 13.03888321 153 148 152
246106.47143555 3357545.64941406 12.93180370 132 131 126
246106.12927246 3357545.79315186 12.94493675 152 151 146
246106.56921387 3357545.76110840 15.07721806 178 192 193
246106.58618164 3357546.55792236 15.32040977 138 157 197
246106.00793457 3357546.30541992 12.98204994 142 143 145
246106.72155762 3357546.54071045 12.90692329 135 136 140
246105.67590332 3357545.95550537 15.63839722 4 173 240
246104.34313965 3357546.56829834 14.96545029 126 196 204
246105.72314453 3357545.66400146 15.48493385 4 151 229
246105.37072754 3357547.45129395 12.95710945 203 201 202
246104.78393555 3357546.48315430 15.37456703 58 221 255
246104.49865723 3357546.23693848 15.23283672 19 180 248
246106.25927734 3357545.99523926 12.95568562 105 105 113
246106.78808594 3357545.84423828 12.91909409 140 136 135
246104.17272949 3357546.36840820 12.91271687 181 178 171
246105.43237305 3357544.88128662 13.00619793 119 118 114
246104.80590820 3357545.93664551 15.32053089 216 218 233
246105.92504883 3357545.41009521 15.35241604 169 181 205
246105.81054688 3357545.95709229 14.96949100 127 129 128
246106.63061523 3357547.16796875 15.04497147 128 128 128
246105.39001465 3357547.32379150 15.06408596 197 192 186
246106.78955078 3357546.21960449 15.04948997 115 174 204
246104.55895996 3357545.76379395 12.94694996 182 179 172
246105.61987305 3357546.63916016 15.01741982 128 128 128
246104.57519531 3357546.90075684 15.21522522 97 203 225
246105.87048340 3357546.38342285 12.99151039 196 197 201
246104.38964844 3357547.22961426 12.91447067 169 169 169
246104.62487793 3357546.58776855 15.32100010 17 198 245
246104.39953613 3357546.33386230 12.91295624 173 170 163
246106.34033203 3357545.80517578 15.45376015 4 125 214
246105.68579102 3357547.09802246 15.36373997 11 127 210
246103.90026855 3357546.73370361 12.92805099 152 153 147
246104.93627930 3357546.55603027 15.47480202 45 213 255
246104.35778809 3357546.49267578 14.95668983 128 128 128
246105.20129395 3357547.34411621 15.07634830 166 189 197
246106.41625977 3357547.10772705 12.93871021 162 164 163
246105.72717285 3357546.48022461 15.00832939 128 128 128
246106.33984375 3357547.21978760 15.25896835 30 127 196
246104.53967285 3357546.86791992 15.02184010 139 209 221
246105.92248535 3357545.27673340 15.29027748 12 163 220
246104.21459961 3357547.06671143 12.92619419 179 179 179
246106.39843750 3357545.61694336 15.34982681 12 139 220
246106.19775391 3357546.25146484 12.94583702 136 140 143
246106.44946289 3357546.41528320 15.03834724 128 128 128
246106.07751465 3357547.69989014 12.93654346 167 168 170
246106.20825195 3357545.73773193 12.93261147 134 136 131
246104.63537598 3357546.92620850 14.99687958 126 128 127
246106.92431641 3357546.09985352 15.13738823 111 171 199
246105.88439941 3357545.23553467 15.27438641 6 173 226
246106.54956055 3357546.83520508 12.91545773 156 154 155
246105.92004395 3357545.69879150 15.48155689 162 172 225
246105.42858887 3357545.85473633 15.52816963 92 219 252
246105.04016113 3357545.56250000 15.30910110 0 156 233
246105.76586914 3357545.43139648 15.38161564 12 150 215
246105.35852051 3357545.87207031 14.93890190 128 128 128
246105.96447754 3357545.90216064 15.57313728 11 125 221
246105.30285645 3357546.54876709 14.99345493 128 128 128
246104.89575195 3357547.56048584 12.91597939 149 148 144
246104.95495605 3357545.98437500 14.92492962 128 128 128
246104.90393066 3357545.74774170 12.94818115 167 161 149
246105.05236816 3357547.66961670 12.92632103 153 152 147
246105.60644531 3357546.91882324 15.02922726 128 128 128
246104.32043457 3357546.16479492 15.15434742 65 172 218
246104.70385742 3357546.34020996 14.94474125 128 128 128
246104.29919434 3357546.36462402 14.94424629 128 128 128
246106.32263184 3357545.78143311 15.44708920 6 127 218
246106.07141113 3357546.55621338 15.58820915 0 69 157
246106.52697754 3357546.21978760 15.43532848 26 105 180
246104.90185547 3357547.18872070 15.16082573 96 195 226
246105.58056641 3357545.42687988 14.92355061 128 128 128
246105.65893555 3357545.51464844 14.93341160 128 128 128
246106.00463867 3357546.22399902 12.97838211 162 166 167
246105.74475098 3357546.45892334 15.76777554 6 83 173
246105.56774902 3357546.51586914 12.96287251 141 141 141
246105.34387207 3357548.04565430 12.94301701 159 150 151
246104.48962402 3357545.96667480 15.19883633 9 157 227
246105.56127930 3357546.05004883 15.65819740 32 202 251
246104.99023438 3357546.63671875 12.94871044 130 123 115
246106.51208496 3357546.29870605 15.41862965 39 98 166
246105.33850098 3357546.62200928 12.94736195 147 149 148
246106.74609375 3357546.70147705 12.90520096 141 141 141
246104.43737793 3357546.63085938 14.96971321 128 128 128
246105.46337891 3357545.27923584 13.02142715 197 186 180
246104.68920898 3357545.75805664 12.94006634 178 175 168
246104.55676270 3357546.69464111 14.97371960 128 128 128
246106.41796875 3357547.53869629 12.92996597 169 169 169
246104.73620605 3357545.95019531 12.94704437 177 173 164
246104.12829590 3357546.73864746 15.05878735 166 205 220
246105.66101074 3357546.46643066 15.00379276 128 128 128
246105.36059570 3357547.34832764 12.97358036 219 218 216
246105.80603027 3357546.83349609 12.98374176 192 194 191
246105.92834473 3357545.46148682 12.96184158 124 126 125
246104.89770508 3357546.38336182 14.95830345 128 128 128
246104.89770508 3357545.31018066 12.99385548 201 188 179
246106.28344727 3357547.63195801 12.93526936 160 162 161
246105.26000977 3357545.13140869 15.28479004 12 180 225
246105.89709473 3357546.98315430 15.44554901 22 130 218
246104.92370605 3357546.08612061 14.93261337 128 128 128
246106.43750000 3357546.09326172 12.93747425 115 122 128
246106.50573730 3357545.93511963 12.93550682 143 139 130
246105.94482422 3357546.45434570 15.73835087 2 63 152
246106.30529785 3357547.55664063 15.05472565 129 180 201
246105.19592285 3357547.05767822 15.31725407 199 240 255
246105.60156250 3357545.22399902 14.98680019 154 197 204
246104.25170898 3357546.31994629 15.14467621 28 173 228
246104.53100586 3357545.94982910 15.21326923 12 159 226
246106.49548340 3357545.86529541 12.93928814 141 137 128
246106.86730957 3357545.93084717 12.91914177 162 161 159
246105.99304199 3357545.74829102 15.49763775 201 188 231
246106.56433105 3357545.96240234 12.92777920 140 133 125
246106.47827148 3357547.15252686 15.03642845 128 128 128
246105.54284668 3357546.91259766 15.02862358 128 128 128
246106.53723145 3357547.23956299 15.13575745 82 160 199
246105.49658203 3357545.59820557 13.07202721 180 169 149
246105.70861816 3357547.18316650 12.99861240 195 195 195
246104.91906738 3357545.21142578 13.02881908 203 189 180
246106.17114258 3357547.39746094 15.27827072 47 136 202
246104.18603516 3357546.79937744 15.04988098 189 205 205
246105.56237793 3357545.29901123 14.91455460 120 131 135
246105.09082031 3357545.14447021 15.24381638 4 181 248
246104.79272461 3357545.90057373 12.95013237 175 171 162
246106.09277344 3357546.51422119 15.59856701 1 68 157
246106.32788086 3357546.85363770 15.36589241 48 124 186
246104.66345215 3357545.56237793 12.93372631 174 165 160
246105.55017090 3357545.57092285 15.46161938 15 189 252
246105.36328125 3357547.10760498 13.01353836 217 218 213
246105.00170898 3357545.99536133 15.40428257 201 163 184
246105.58703613 3357545.28063965 15.33259106 10 175 233
246106.88366699 3357546.33453369 12.91254520 126 130 133
246106.38879395 3357545.53649902 15.08439636 189 195 193
246104.96276855 3357545.17492676 15.21663380 0 173 242
246104.73498535 3357546.02374268 14.91756821 128 128 128
246105.00891113 3357546.26684570 15.46112156 91 221 253
246106.07470703 3357545.58099365 12.92676067 115 121 121
246106.05224609 3357547.64056396 15.08057022 64 172 201
246106.16906738 3357546.44683838 12.92130756 158 159 161
246106.98022461 3357546.06274414 12.91998005 155 155 157
246106.90881348 3357545.91101074 15.30164909 66 131 187
246105.91015625 3357545.54522705 14.98276997 184 196 196
246105.98547363 3357546.54840088 12.98704529 172 174 173
246106.01623535 3357547.60876465 15.13833046 13 163 214
246106.15563965 3357546.46325684 12.92603397 155 156 158
246105.95031738 3357545.31805420 12.94053555 126 125 121
246105.91162109 3357547.24468994 12.99047279 183 183 183
246106.18261719 3357546.37078857 15.59787655 4 74 160
246105.80725098 3357546.71179199 12.98252201 187 187 185
246105.16723633 3357546.82458496 12.97849560 193 193 185
246106.19689941 3357545.27716064 12.93869400 135 133 134
246105.50573730 3357545.52178955 13.07826042 171 155 139
246106.17443848 3357547.69982910 15.15604115 64 160 218
246106.58996582 3357546.56127930 15.31846237 138 157 197
246105.42126465 3357547.33941650 15.07003212 195 196 190
246104.21057129 3357546.41589355 15.12989426 39 174 229
246106.40759277 3357545.56988525 15.32525253 15 137 220
246105.23706055 3357547.13171387 15.02391720 129 128 126
246105.65002441 3357548.00695801 12.94606876 170 170 168
246106.41967773 3357545.40930176 15.20941544 96 184 224
246105.42272949 3357547.08282471 13.01211739 219 219 217
246104.35644531 3357546.05401611 12.93159866 181 178 171
246105.40344238 3357546.57659912 15.60905933 12 132 229
246105.79650879 3357547.28265381 15.27839565 12 143 223
246105.30187988 3357546.06762695 12.98214626 135 131 122
246106.23266602 3357546.78796387 12.97032261 162 162 160
246106.37731934 3357547.34686279 12.94394779 173 173 173
246105.61633301 3357545.99822998 12.98023319 223 212 190
246104.59716797 3357546.13995361 14.92126083 128 128 128
246104.64062500 3357546.31359863 12.91172123 176 171 165
246107.11120605 3357545.73498535 15.13332462 181 208 215
246105.96105957 3357547.04010010 12.99060440 177 177 175
246104.34851074 3357546.29626465 14.93564701 128 128 128
246107.00891113 3357545.71984863 15.06529999 163 183 192
246106.31921387 3357546.04235840 15.00326443 128 128 128
246105.42761230 3357545.96875000 15.57194328 85 219 255
246105.33520508 3357546.16461182 12.98581123 117 114 105
246105.73559570 3357545.45019531 14.93367767 122 130 132
246105.91088867 3357546.25762939 15.83723736 31 92 172
246104.44616699 3357546.32672119 15.22223854 20 179 237
246105.98352051 3357546.72888184 15.03444767 128 128 128
246105.45471191 3357546.29168701 14.97767544 128 128 128
246104.23852539 3357546.61065674 15.17209721 53 209 250
246105.37756348 3357545.64868164 13.02173233 148 138 128
246105.18615723 3357546.04479980 15.50944328 207 244 255
246105.14465332 3357546.58557129 14.98893166 128 128 128
246105.42517090 3357545.22924805 13.03075600 200 189 183
246105.38183594 3357545.22851563 13.04288101 195 182 174
246106.41467285 3357546.76104736 12.93810749 157 157 157
246106.21130371 3357546.56719971 15.51569653 30 77 155
246105.46093750 3357545.85424805 14.94352150 128 128 128
246106.46093750 3357545.98510742 12.93880177 135 131 128
246105.62365723 3357545.91882324 12.98318577 224 216 195
246104.82287598 3357545.51885986 15.23914528 1 154 224
246105.00683594 3357546.76831055 14.99866486 128 128 128
246103.94787598 3357547.04443359 12.94186020 230 234 235
246105.24255371 3357544.74835205 13.05462456 108 106 111
246105.28759766 3357545.16510010 14.89083004 128 126 127
246105.34509277 3357547.27294922 12.98485088 223 224 219
246103.95532227 3357547.11798096 12.93131161 173 175 174
246105.86706543 3357546.10760498 14.98204422 128 128 128
246105.09875488 3357546.72167969 14.99899960 128 128 128
246104.95935059 3357547.71282959 12.92336750 154 151 146
246105.36096191 3357545.03735352 14.94980717 161 205 214
246105.25268555 3357547.24218750 15.03116417 194 194 186
246104.41784668 3357546.03619385 15.17829323 17 165 239
246106.14868164 3357545.94262695 12.95853519 109 113 116
246106.01293945 3357546.73107910 15.03473282 128 128 128
246106.05590820 3357546.22119141 15.73971939 2 58 143
246105.22436523 3357546.42279053 12.97754765 134 134 134
246105.56188965 3357547.60833740 12.92470169 182 182 180
246105.30773926 3357545.73614502 13.00240135 152 145 135
246104.70458984 3357545.84771729 15.27772331 200 252 255
246106.62304688 3357546.99530029 12.91487789 136 134 135
246104.37304688 3357547.09277344 12.92238998 136 132 129
246105.91955566 3357546.62097168 12.99201107 175 177 176
246107.20959473 3357545.79901123 12.91971779 143 143 143
246106.29943848 3357546.01873779 15.56504917 8 118 205
246105.62695313 3357546.82421875 15.48569584 14 105 194
246105.82287598 3357545.28497314 15.30617905 7 165 228
246106.84228516 3357546.10656738 15.26285267 109 153 190
246104.93261719 3357544.95477295 13.10149670 212 209 202
246105.00085449 3357547.28686523 15.16049480 83 180 213
246106.56494141 3357547.23162842 15.03892422 129 127 128
246104.65734863 3357546.72583008 12.92283440 178 174 165
246105.39196777 3357545.40472412 15.37763023 18 192 245
246106.60131836 3357546.49749756 15.04242611 128 128 128
246106.15820313 3357546.73077393 15.47206211 0 81 157
246105.56713867 3357546.71447754 12.95511818 202 204 201
246104.17968750 3357547.06762695 12.92772007 197 197 199
246105.53906250 3357547.18334961 12.99982738 207 207 205
246105.05078125 3357546.42089844 14.96931648 128 128 128
246104.85107422 3357546.71075439 15.37890816 38 183 240
246104.92968750 3357545.16290283 14.87067223 128 128 128
246104.72265625 3357546.44146729 15.34340668 54 212 251
246106.84265137 3357546.42529297 12.91089249 140 144 147
246104.26049805 3357546.48687744 15.16696930 33 181 241
246104.98535156 3357545.66931152 12.95309067 140 136 124
246104.50219727 3357546.86096191 15.03835773 139 214 220
246104.86511230 3357546.33636475 14.95241261 128 128 128
246104.76318359 3357546.50366211 12.90902710 178 173 167
246104.70642090 3357546.58831787 12.90993500 179 174 168
246105.74414063 3357545.95910645 14.96590424 128 128 128
246104.65270996 3357546.70666504 14.97546196 128 128 128
246105.27539063 3357546.66088867 12.95581913 112 114 109
246106.80554199 3357546.84057617 15.12462902 95 170 209
246105.13159180 3357544.82604980 15.22279358 8 178 230
246106.40136719 3357545.51068115 15.29875660 13 144 226
246106.05297852 3357545.56457520 15.40913963 178 80 105
246105.22241211 3357547.68377686 12.93825722 211 207 206
246105.94555664 3357546.15893555 14.99002934 128 128 128
246104.77185059 3357546.66864014 14.97793484 128 128 128
246104.14697266 3357546.55511475 14.98360252 77 193 232
246105.73852539 3357546.11401367 15.77716827 17 157 216
246104.14245605 3357546.56274414 14.98806381 77 193 232
246106.66418457 3357546.35906982 15.04391670 128 128 128
246104.41833496 3357546.11309814 12.93165398 182 179 172
246106.80163574 3357545.77465820 15.32495308 7 133 218
246105.61755371 3357547.41986084 15.09586906 127 181 193
246106.46020508 3357546.80664063 15.03874779 128 128 128
246105.81494141 3357547.12200928 15.36731529 3 133 219
246105.29333496 3357545.71398926 15.42049980 63 194 240
246105.71752930 3357546.33532715 14.99470043 128 128 128
246106.21081543 3357547.19427490 12.96471119 170 170 168
246106.33007813 3357545.94140625 15.52105904 2 121 213
246104.78247070 3357545.46978760 15.21866131 2 159 238
246104.20019531 3357546.98614502 12.93805027 135 131 128
246104.43823242 3357546.90625000 15.04425621 140 203 208
246104.66528320 3357546.85058594 15.26884365 76 206 240
246104.69396973 3357546.00164795 12.93931866 174 169 163
246106.40295410 3357546.17108154 15.01597786 128 128 128
246106.34594727 3357546.89434814 15.34711170 27 110 180
246105.89038086 3357547.70410156 12.94804573 163 165 164
246106.63281250 3357546.71191406 15.04119396 128 128 128
246106.18054199 3357547.63867188 12.93969250 161 163 162
246105.47302246 3357545.81335449 14.94165039 128 128 128
246106.44140625 3357546.02606201 15.02739811 193 198 194
246107.22729492 3357545.78393555 15.11799049 185 195 196
246106.20373535 3357547.40966797 12.95426464 168 170 169
246106.11413574 3357547.15539551 15.35459328 16 102 185
246105.91369629 3357547.57098389 15.11543083 26 182 223
246106.32775879 3357545.36779785 15.12485790 194 202 204
246105.60253906 3357548.19458008 12.95536804 165 165 163
246104.67175293 3357546.64697266 12.91413689 174 170 161
246106.30993652 3357547.54425049 15.21281433 43 131 202
246105.96191406 3357546.09503174 14.98656654 128 128 128
246105.98657227 3357545.35400391 15.31633568 218 245 255
246104.66662598 3357547.06842041 12.94623661 146 143 138
246106.25878906 3357546.13220215 12.94960308 128 132 135
246105.01757813 3357547.37225342 15.08743954 127 187 221
246105.70874023 3357546.29553223 12.98943615 202 203 207
246104.97595215 3357545.68389893 15.31440544 62 164 204
246105.82482910 3357545.45190430 12.98859501 233 240 232
246105.34875488 3357546.36590576 15.69252014 68 217 255
246105.84558105 3357545.74188232 14.95802879 128 128 128
246104.98303223 3357545.54278564 12.96341324 169 162 152
246106.07824707 3357546.47833252 15.62928295 4 71 160
246105.32226563 3357545.57666016 15.39223671 9 171 236
246107.01477051 3357545.87640381 15.23247719 121 174 206
246106.18725586 3357545.40948486 15.30002022 122 182 236
246106.63281250 3357545.87573242 15.41455650 3 121 209
246105.97460938 3357546.47436523 15.70949173 0 62 150
246104.36437988 3357547.39868164 12.90369225 174 173 169
246106.09643555 3357546.20660400 12.97332573 139 143 146
246104.61657715 3357546.47473145 14.95261669 128 128 128
246107.12866211 3357545.82745361 15.18106079 145 183 202
246105.32141113 3357545.72448730 13.00571156 164 155 146
246106.22424316 3357545.59509277 15.07128811 188 197 196
246104.70324707 3357545.72149658 12.93781185 182 179 172
246104.79394531 3357545.75250244 12.94230366 182 179 170
246105.24108887 3357544.67596436 14.99421597 107 183 217
246105.22839355 3357546.62670898 14.99682522 128 128 128
246105.47302246 3357545.10192871 13.01218128 177 170 164
246105.27697754 3357545.62213135 15.38930035 3 162 227
246105.84802246 3357547.13861084 15.03009987 129 129 129
246104.78076172 3357546.92468262 12.95716953 169 166 159
246106.82629395 3357546.43176270 12.91040993 140 144 147
246106.23950195 3357545.44909668 15.08298397 190 196 194
246104.16894531 3357546.74267578 15.00955391 205 217 217
246105.82336426 3357546.26794434 12.98693562 205 206 210
246106.30310059 3357546.61230469 15.44287491 82 70 118
246104.77746582 3357546.40759277 14.95452309 128 128 128
246106.38427734 3357545.80285645 12.94096947 157 155 143
246105.20483398 3357545.51885986 14.90827179 128 128 128
246105.03564453 3357545.58966064 15.31273651 2 154 227
246105.12109375 3357546.78015137 12.97387505 152 148 139
246105.06127930 3357545.35095215 13.00190449 203 191 179
246105.69836426 3357545.70544434 13.02234077 202 192 193
246105.13952637 3357546.80639648 15.00872040 128 128 128
246106.32373047 3357547.45159912 15.21838760 38 131 198
246105.75476074 3357546.95733643 12.97925949 181 182 177
246105.30273438 3357545.44476318 13.02625847 172 162 152
246105.91076660 3357545.17938232 15.20070267 33 182 225
246106.08862305 3357546.96807861 12.98125648 170 170 168
246105.18286133 3357545.22381592 15.28468323 0 178 240
246106.77856445 3357545.79345703 15.33956337 8 130 215
246105.57702637 3357545.06671143 15.07823372 92 206 232
246105.94873047 3357545.51934814 12.96357155 101 105 104
246106.12670898 3357545.73706055 15.00594330 191 197 195
246106.09533691 3357546.40899658 12.94647598 151 152 154
246106.35449219 3357546.13342285 12.93391037 108 116 119
246105.52014160 3357545.84423828 14.94620800 128 128 128
246105.63574219 3357546.60839844 15.01541996 128 128 128
246104.83959961 3357546.45843506 15.40155029 56 223 255
246104.93505859 3357546.42114258 15.44886684 62 227 255
246105.23303223 3357545.04229736 14.88011646 127 129 128
246105.08715820 3357546.99957275 15.31336784 70 156 207
246106.31726074 3357547.58526611 15.05367279 119 177 201
246104.75061035 3357546.42810059 15.35290241 55 211 249
246106.54541016 3357546.99761963 15.03823471 129 127 128
246105.19909668 3357545.31164551 13.02872276 182 168 159
246106.75476074 3357545.93627930 12.91606712 154 153 151
246104.85083008 3357545.79382324 14.90562725 128 128 128
246107.13085938 3357545.76446533 12.92998695 139 139 139
246104.40917969 3357546.85186768 15.19721985 80 204 232
246106.74414063 3357546.20867920 15.05310822 145 181 193
246104.77905273 3357546.50524902 15.37604618 51 218 254
246106.83398438 3357546.19000244 15.04817867 104 167 198
246105.17602539 3357545.70220947 14.91810226 128 128 128
246106.66650391 3357546.51727295 15.29401970 84 134 183
246104.28991699 3357546.48925781 12.90457535 176 173 166
246104.72631836 3357546.24383545 15.32331657 46 196 247
246104.09472656 3357546.62994385 12.91968822 181 180 175
246104.47558594 3357545.82763672 12.94237614 183 178 172
246104.69616699 3357545.87506104 15.27521896 223 254 255
246105.39941406 3357547.15966797 15.29274559 142 163 208
246105.38012695 3357547.95739746 12.94117451 161 157 156
246106.19409180 3357547.06555176 12.96904564 161 161 159
246105.58679199 3357547.15063477 13.00489807 206 206 206
246106.09375000 3357546.07196045 14.99250507 128 128 128
246106.57214355 3357547.09228516 15.03782082 128 128 128
246105.16674805 3357546.29400635 12.96422672 142 138 135
246105.06274414 3357545.76116943 14.91544342 128 128 128
246106.20727539 3357546.66430664 12.95942497 162 162 162
246104.39538574 3357546.77447510 15.02095985 167 208 212
246105.92346191 3357545.86486816 12.96530151 195 194 199
246105.83837891 3357546.05975342 15.70877552 0 116 215
246105.07312012 3357545.43463135 12.98796368 194 184 172
246106.30065918 3357545.28021240 12.93926907 124 122 125
246104.30236816 3357546.35076904 15.16814041 25 180 237
246104.57092285 3357546.44934082 15.28477383 34 196 245
246105.44689941 3357546.68664551 12.94159985 195 199 200
246106.67431641 3357545.75103760 15.34521580 6 130 220
246104.35571289 3357546.98492432 12.93089199 141 138 133
246105.35156250 3357547.38604736 15.08944225 171 188 195
246105.45727539 3357547.73852539 12.93040371 178 177 175
246105.10095215 3357545.01745605 13.10699368 159 149 147
246105.65429688 3357547.54028320 12.93076420 174 174 172
246105.68994141 3357545.88781738 12.98226261 222 215 199
246106.07116699 3357547.70294189 15.10531330 8 160 201
246106.74511719 3357546.55151367 15.04916763 100 136 158
246105.60363770 3357546.47070313 15.73331356 6 103 206
246105.20153809 3357545.35974121 15.31838322 2 175 241
246106.01464844 3357547.29937744 15.30968571 27 137 212
246105.49609375 3357546.39392090 15.76125336 10 140 226
246106.35424805 3357546.37377930 15.02984428 128 128 128
246105.51159668 3357545.50421143 15.43709087 7 187 246
246104.48620605 3357546.14044189 14.91579342 128 128 128
246104.96813965 3357545.11016846 13.03967285 204 194 182
246105.93395996 3357546.83123779 15.52226353 19 115 202
246106.81933594 3357546.65289307 15.09824181 76 168 215
246106.38342285 3357545.97332764 12.94813538 134 131 124
246104.74462891 3357547.67504883 12.91781616 150 142 140
246105.58752441 3357546.09649658 14.96656036 128 128 128
246105.27770996 3357546.30316162 14.96991158 128 128 128
246105.03039551 3357545.77642822 14.91458416 128 128 128
246105.55004883 3357545.63635254 13.06461430 222 210 194
246104.79052734 3357546.23339844 14.93935871 128 128 128
246105.15014648 3357546.02667236 12.97354889 143 135 132
246105.87768555 3357546.63781738 15.64276981 23 107 197
246104.56982422 3357546.29071045 14.93358803 128 128 128
246105.00671387 3357546.65185547 12.95176888 129 122 116
246105.40246582 3357546.78265381 12.93737411 168 168 168
246105.47631836 3357546.13122559 12.98931885 119 119 111
246105.29003906 3357547.09704590 15.02470875 128 128 128
246105.84558105 3357547.62689209 12.94319725 161 163 162
246105.94714355 3357545.66967773 14.95919895 127 127 129
246107.00671387 3357545.92919922 15.20699596 125 176 207
246104.64965820 3357546.38397217 14.94602203 128 128 128
246104.89135742 3357546.32159424 15.40457153 77 217 250
246105.26684570 3357546.31542969 15.63652515 54 211 244
246105.97424316 3357547.60131836 12.95465946 177 179 178
246104.98461914 3357546.96960449 15.01582813 128 128 128
246104.67065430 3357546.01568604 14.91363621 128 128 128
246106.72387695 3357546.68096924 15.24901772 105 172 225
246104.68823242 3357546.13452148 14.92529583 128 128 128
246106.32531738 3357547.80133057 15.15008450 122 175 207
246106.66662598 3357546.96398926 15.17983818 52 140 188
246106.67102051 3357546.06707764 15.39645672 28 112 185
246105.78491211 3357546.10656738 14.97738647 128 128 128
246106.50158691 3357546.08532715 12.93041706 110 115 118
246104.79992676 3357547.04193115 15.01321220 128 128 130
246105.04333496 3357546.79217529 15.39783192 29 156 225
246105.06469727 3357546.17102051 15.47555542 187 244 255
246105.53247070 3357546.77032471 15.49719906 60 116 193
246104.45983887 3357547.32843018 12.91001320 163 165 160
246105.71630859 3357545.92675781 12.97308636 224 217 201
246105.71618652 3357546.36340332 15.84625816 5 79 154
246105.98071289 3357546.55511475 15.02773476 128 128 128
246105.42724609 3357545.82629395 14.93989563 128 128 128
246106.38635254 3357546.30804443 12.90116692 131 136 139
246104.17858887 3357546.56243896 15.13253880 44 182 231
246105.72497559 3357545.97027588 14.96552753 129 127 128
246104.54235840 3357545.58123779 12.94136333 182 177 171
246106.28454590 3357545.51635742 12.91835403 104 102 103
246105.09667969 3357546.65289307 14.99265671 128 128 128
246105.58276367 3357545.12103271 15.03195000 139 202 217
246105.67517090 3357545.85021973 15.56770039 4 164 242
246105.33862305 3357546.60211182 15.00007534 128 128 128
246104.47424316 3357547.12030029 12.92291451 132 128 125
246107.12280273 3357545.88494873 12.92763424 142 142 142
246106.62561035 3357546.71545410 12.90328026 141 141 141
246105.96020508 3357545.25622559 12.94960499 139 138 136
246106.63098145 3357546.71142578 15.04117966 128 128 128
246105.24841309 3357545.25036621 14.89396095 128 128 128
246105.60046387 3357544.87969971 12.99566364 137 136 131
246106.44262695 3357546.92309570 15.03772545 128 128 128
246106.54125977 3357546.85760498 12.91685963 157 155 156
246106.91674805 3357545.73120117 15.24585629 45 154 211
246104.74621582 3357546.73101807 15.33733845 45 191 242
246105.14709473 3357544.90899658 13.11896610 175 165 166
246106.92541504 3357545.90222168 15.29439259 59 129 189
246106.59448242 3357546.02233887 15.45684624 5 100 184
246105.11535645 3357545.76184082 14.91842461 128 128 128
246105.02185059 3357545.63092041 14.90503025 128 128 128
246106.63098145 3357546.28796387 12.90385818 131 134 139
246104.86730957 3357547.43054199 12.92255783 175 177 174
246104.99865723 3357545.13555908 14.87282658 128 128 128
246105.93737793 3357547.99670410 12.93620968 168 170 169
246105.37854004 3357546.16644287 14.96251297 128 128 128
246105.52856445 3357545.55529785 15.45603848 9 187 249
246104.91870117 3357545.33630371 15.23334885 2 164 237
246105.32189941 3357546.32482910 12.97974777 131 127 126
246104.94799805 3357546.14788818 12.94687271 147 140 134
246105.04052734 3357545.51208496 15.30006027 2 167 249
246105.89685059 3357545.75244141 14.96155262 128 128 128
246106.16784668 3357546.06652832 12.96345711 116 121 125
246106.28234863 3357546.90759277 12.96379757 157 157 157
246105.75390625 3357545.60797119 14.94454384 128 128 128
246106.20544434 3357547.48980713 15.06442070 148 186 195
246105.40270996 3357547.57373047 12.93974876 189 188 186
246105.86730957 3357546.70013428 12.98925304 182 182 180
246106.06567383 3357546.64953613 15.54778099 0 80 167
246105.19128418 3357547.29907227 15.06513596 191 196 192
246105.38439941 3357546.87164307 15.43111420 133 72 106
246106.47741699 3357545.89971924 15.46429634 4 122 212
246106.50329590 3357546.84814453 15.29526806 55 129 192
246105.03710938 3357546.32501221 14.95993423 128 128 128
246105.27587891 3357544.73400879 15.10919762 66 187 234
246104.95800781 3357545.44549561 14.88988495 128 128 128
246105.69812012 3357545.51782227 15.42573357 7 154 231
246104.15551758 3357546.52697754 14.97788143 76 188 225
246105.76782227 3357548.26751709 12.94352818 163 163 161
246105.77136230 3357546.95422363 15.03065300 128 128 128
246105.72619629 3357546.56738281 12.97165775 204 206 205
246105.83349609 3357545.45111084 15.38268280 139 184 217
246104.65258789 3357546.27471924 12.91509342 173 168 162
246106.88269043 3357546.05059814 12.91707516 152 152 154
246105.79650879 3357546.76184082 12.98185921 188 190 187
246106.71606445 3357546.05743408 15.37223530 45 120 185
246105.06066895 3357547.30566406 12.95785522 225 223 224
246105.33618164 3357545.17767334 14.89433289 127 127 127
246105.96093750 3357547.89068604 12.93574905 164 164 166
246106.25720215 3357546.95214844 15.36735249 13 100 177
246105.41198730 3357546.42089844 14.98727703 128 128 128
246105.39428711 3357545.12469482 13.03643417 177 170 164
246107.22143555 3357545.78753662 15.02954197 183 194 196
246105.69641113 3357546.59912109 15.01759529 128 128 128
246105.80883789 3357547.46337891 12.95461655 173 173 173
246104.67749023 3357545.89288330 15.26785564 194 251 255
246106.67431641 3357547.03790283 15.04761314 128 128 130
246106.85290527 3357546.54656982 15.13472557 50 150 202
246106.55053711 3357546.86395264 15.27149773 39 114 179
246106.43334961 3357546.42419434 15.03835678 128 128 128
246105.71948242 3357548.33160400 12.94216061 167 167 165
246104.97412109 3357545.39898682 15.26054382 0 163 235
246106.32507324 3357546.08502197 15.57155228 9 107 196
246104.60913086 3357546.97619629 15.00743484 130 200 212
246106.10217285 3357547.05548096 12.97820950 174 174 172
246106.95458984 3357545.95977783 15.05406666 141 183 205
246105.48583984 3357547.02459717 15.37395191 175 58 113
246105.77685547 3357547.99383545 12.94648457 168 168 166
246105.70996094 3357545.21807861 15.05136585 172 197 201
246106.85107422 3357546.40991211 15.13646603 59 160 206
246105.47753906 3357544.99877930 15.07657242 90 210 234
246106.38024902 3357546.42694092 12.88007355 141 142 144
246104.65856934 3357546.92633057 14.99632835 128 130 129
246104.48962402 3357546.88122559 15.04143143 138 209 215
246105.00976563 3357546.92785645 15.01329422 128 128 128
246106.41137695 3357545.43414307 15.25997734 19 143 213
246104.43273926 3357547.25634766 12.91378307 161 161 159
246105.43164063 3357545.06683350 15.23721981 28 195 239
246105.43444824 3357546.64929199 12.94395924 216 220 223
246105.99633789 3357546.69622803 15.03481579 128 128 128
246106.22082520 3357547.80426025 15.11941624 62 153 197
246104.78967285 3357546.12255859 15.33486843 80 176 214
246106.88085938 3357545.66705322 15.11495972 143 177 186
246106.67700195 3357546.55151367 12.90564919 136 136 138
246104.81152344 3357546.41583252 12.91348076 160 153 145
246105.95996094 3357545.61163330 14.95629501 190 200 201
246106.72778320 3357546.30072021 12.90851974 130 133 138
246104.83642578 3357545.34088135 15.21067810 1 157 240
246105.02563477 3357547.13977051 12.97508907 225 225 223
246106.29418945 3357545.92675781 14.99465561 193 195 192
246105.31848145 3357544.85278320 15.18829441 9 153 214
246104.75561523 3357545.93310547 15.30008316 213 229 242
246105.52185059 3357545.84271240 13.00618172 194 192 171
246105.53588867 3357545.70294189 14.93827343 128 128 128
246106.36096191 3357546.03698730 12.94834805 117 120 125
246106.15991211 3357547.29815674 12.96541595 180 180 180
246106.01135254 3357545.77661133 14.96946049 128 128 128
246105.22631836 3357545.13146973 14.88530827 128 128 130
246105.07739258 3357545.49414063 14.89960003 128 128 128
246106.27954102 3357545.81005859 12.93928814 152 149 142
246104.79394531 3357546.60375977 14.97314835 128 128 128
246105.93505859 3357546.25708008 12.98314953 210 214 215
246106.22131348 3357545.94677734 12.95368671 118 116 119
246106.55249023 3357546.62121582 15.32519722 125 154 196
246106.63793945 3357547.16235352 15.04566002 128 128 128
