245582.85296631 3357685.38714600 18.64313507 4 16 32
245582.47448730 3357680.29156494 18.82390404 102 132 158
245582.15704346 3357679.36035156 18.06729889 94 118 146
245581.94775391 3357692.50891113 17.64289665 31 48 55
245582.52526855 3357680.13128662 18.82435226 82 107 129
245582.74414063 3357691.01281738 18.92826653 50 71 98
245583.87341309 3357692.16351318 18.68366241 24 64 113
245582.27752686 3357678.44104004 18.66707230 100 120 144
245583.10736084 3357691.53967285 19.61344910 0 69 123
245582.73345947 3357687.80590820 18.67416954 23 46 87
245582.57965088 3357693.18786621 18.17673302 14 41 70
245583.22290039 3357693.26214600 18.77624893 17 69 117
245582.25567627 3357692.14111328 18.48721695 5 47 85
245582.77441406 3357686.92712402 18.69426155 17 41 77
245582.66613770 3357689.33929443 18.63821983 47 66 108
245582.76715088 3357691.66717529 19.17040634 81 150 207
245582.59649658 3357678.59686279 18.88870049 122 143 160
245582.67016602 3357685.35363770 18.63877296 14 34 61
245583.24707031 3357681.84924316 19.61543846 91 114 44
245583.93438721 3357692.34411621 18.56840897 23 56 101
245582.04309082 3357692.30938721 17.88244820 34 57 75
245582.52722168 3357680.45184326 18.84396935 85 101 117
245582.80853271 3357690.56781006 18.59841347 5 20 39
245582.47399902 3357684.38336182 18.88042068 62 90 127
245583.63378906 3357691.55889893 18.91682816 8 41 74
245583.05816650 3357687.22216797 18.66321182 6 22 48
245583.09393311 3357684.47039795 18.76915550 41 54 47
245583.04650879 3357691.85968018 19.56756973 38 119 174
245583.00469971 3357679.97290039 18.83038902 117 137 164
245582.78936768 3357680.29498291 18.77247238 96 117 138
245582.50585938 3357681.63665771 18.81733513 92 115 146
245583.20819092 3357689.51867676 18.57285690 26 46 79
245583.58789063 3357693.30218506 18.48577881 37 76 117
245582.56231689 3357691.36688232 18.73471832 12 41 81
245582.01434326 3357692.46539307 17.74116707 28 50 61
245583.24560547 3357681.73590088 19.42257881 110 133 61
245583.06469727 3357687.42376709 18.66593933 9 27 51
245582.75140381 3357689.22869873 18.65176392 25 48 90
245583.18817139 3357691.46759033 19.61375618 12 61 117
245582.29278564 3357682.19262695 18.75948524 117 140 172
245583.23999023 3357681.97052002 19.35973549 95 118 40
245583.21624756 3357691.79333496 19.64239311 112 187 244
245582.46966553 3357684.71887207 18.71238708 54 70 104
245582.52514648 3357692.57885742 18.89139557 48 118 169
245583.55450439 3357693.22821045 18.66733360 33 74 126
245583.11694336 3357688.56958008 18.64128304 5 21 46
245582.72357178 3357679.45251465 18.77573967 121 135 146
245582.29565430 3357686.59368896 18.28133011 20 30 39
245582.59594727 3357681.10937500 18.80534744 37 54 70
245583.50292969 3357691.42785645 19.12790298 1 34 67
245582.78216553 3357693.28088379 18.43333817 1 34 75
245582.21972656 3357692.39849854 18.33952713 3 22 54
245583.24707031 3357691.46514893 19.58568382 3 40 93
245582.94372559 3357685.96527100 18.69218254 12 21 38
245582.82830811 3357684.45184326 18.65044785 6 13 19
245583.62622070 3357693.20599365 18.59429550 27 61 109
245583.23937988 3357679.64648438 18.80816460 24 37 46
245582.72650146 3357679.67816162 18.77821541 125 141 156
245582.79351807 3357683.25018311 18.63175583 21 33 49
245583.01141357 3357680.77990723 18.77164078 107 137 173
245582.30010986 3357692.88391113 17.87325478 4 36 75
245582.58117676 3357688.97283936 18.66441345 29 54 94
245583.49304199 3357693.27819824 18.61351013 19 68 109
245582.94494629 3357682.36584473 18.71417618 123 155 194
245583.78186035 3357693.01953125 18.43581009 15 49 86
245582.48846436 3357693.20904541 17.86858368 14 44 82
245582.43145752 3357689.00433350 18.51247406 14 29 58
245583.14404297 3357690.39752197 18.55105972 46 85 124
245582.44104004 3357682.15740967 18.79902649 55 76 107
245582.42846680 3357681.60644531 18.82115364 103 133 167
245583.00726318 3357691.97766113 19.45448303 81 161 220
245582.24896240 3357692.50482178 18.29122925 8 28 61
245582.86865234 3357692.33441162 19.22933006 90 174 221
245583.28332520 3357691.46832275 19.57554626 4 36 87
245582.95672607 3357687.33410645 18.65883827 6 21 40
245583.04888916 3357679.05200195 18.82156181 153 177 203
245583.31213379 3357686.08984375 18.64237785 35 49 52
245583.33544922 3357682.26239014 19.25355530 57 73 34
245583.40270996 3357693.02795410 19.08918571 21 91 143
245582.16424561 3357692.56182861 17.87452888 20 53 94
245582.71203613 3357692.88031006 18.81067085 79 154 209
245582.47698975 3357690.55853271 18.55839729 10 19 26
245583.08862305 3357686.85992432 18.66776276 25 48 80
245582.64617920 3357683.93322754 18.71977234 11 29 43
245582.49682617 3357684.67578125 18.72509384 91 106 139
245582.83587646 3357682.72113037 18.60057259 112 139 158
245582.16265869 3357679.49578857 18.17833328 106 132 159
245582.65008545 3357680.65344238 18.76403809 54 67 84
245583.24267578 3357684.52551270 18.87711716 49 60 44
245583.34356689 3357687.11175537 18.64690208 28 67 108
245583.27166748 3357685.03454590 18.67308998 30 59 57
245583.25134277 3357693.28759766 18.71158218 33 91 137
245582.08233643 3357692.23651123 18.18208885 37 69 92
245582.33398438 3357692.13787842 18.57672119 35 78 129
245583.29315186 3357683.24102783 18.83079529 7 16 15
245582.74737549 3357691.20971680 19.06098366 31 69 108
245583.35107422 3357689.30517578 18.62071419 28 56 95
245583.60266113 3357693.34881592 18.10773468 28 58 84
245583.45745850 3357692.28515625 19.39334106 11 54 99
245582.49633789 3357692.57501221 18.84852028 12 75 129
245582.72406006 3357684.30609131 18.69770813 0 11 28
245582.25292969 3357678.89990234 18.80325317 118 149 180
245583.28283691 3357681.58239746 19.36732674 83 105 40
245583.03240967 3357680.62225342 18.77389526 99 123 157
245583.25988770 3357689.48071289 18.60814095 31 53 90
245583.10668945 3357689.19989014 18.53309059 18 38 62
245583.05017090 3357691.19451904 19.33636665 14 47 90
245582.23553467 3357680.87353516 18.53813171 116 148 186
245582.69891357 3357685.90850830 18.70668983 21 43 82
245582.69989014 3357688.56536865 18.65109062 22 47 87
245583.18280029 3357687.34942627 18.69513702 25 54 96
245583.79907227 3357692.84503174 18.58280182 13 46 79
245583.32904053 3357684.84375000 18.71880150 26 39 30
245582.51586914 3357680.35919189 18.82602119 94 116 139
245582.82452393 3357683.74377441 18.64143753 12 27 30
245582.76654053 3357692.67437744 19.13100433 72 125 169
245582.98522949 3357691.86163330 19.45609474 80 165 219
245582.50537109 3357683.15081787 18.79290390 26 43 69
245582.89074707 3357690.70043945 18.62962723 6 18 32
245583.31475830 3357682.77569580 18.79106331 16 26 18
245582.85119629 3357693.32708740 18.47874069 2 41 84
245583.22833252 3357687.47784424 18.69741249 31 67 119
245583.16339111 3357688.34387207 18.65378952 25 49 83
245582.60113525 3357684.99383545 18.67816353 13 39 74
245583.20135498 3357689.82867432 18.60243416 12 33 60
245582.78845215 3357686.31854248 18.68259430 11 37 64
245583.04974365 3357683.79077148 18.67056465 65 105 105
245582.62463379 3357693.15887451 18.34414673 6 49 83
245582.61987305 3357693.08020020 18.48102570 42 109 152
245583.07678223 3357693.10205078 19.09889412 30 100 152
245582.38507080 3357692.89904785 18.19336891 4 29 51
245583.00994873 3357689.37249756 18.51703072 5 14 31
245583.29449463 3357693.28460693 18.70052910 34 95 142
245583.26171875 3357687.76904297 18.66671753 30 59 103
245582.94494629 3357680.88043213 18.73844528 114 142 179
245582.80279541 3357686.45208740 18.68305206 10 35 66
245583.25970459 3357684.01159668 18.75689507 9 27 27
245583.51220703 3357691.36370850 19.06105042 3 36 71
245583.11840820 3357691.31915283 19.52100945 5 36 93
245582.30133057 3357680.04223633 18.81895447 87 131 168
245583.13165283 3357687.52038574 18.68284416 40 65 106
245583.27795410 3357684.67614746 18.80378914 43 56 38
245582.47637939 3357678.40020752 17.90165710 153 152 148
245583.00146484 3357689.42291260 18.50544739 3 11 30
245582.35723877 3357692.80108643 18.34072304 6 37 58
245582.41131592 3357687.62347412 18.53223038 12 21 38
245582.13787842 3357679.80358887 17.83610153 150 154 163
245582.74133301 3357691.20697021 19.04997444 31 69 108
245582.84735107 3357680.87158203 18.69552612 123 146 178
245583.19757080 3357685.10504150 18.67677307 98 130 127
245583.07586670 3357688.70874023 18.62097549 0 13 32
245583.14337158 3357681.80267334 18.87882042 94 119 124
245582.48413086 3357686.04925537 18.70846176 17 37 62
245582.55151367 3357683.77795410 18.76087189 30 47 73
245583.24713135 3357682.00946045 19.31689262 113 134 65
245583.24761963 3357681.99603271 19.28191566 103 125 50
245582.84002686 3357678.39025879 18.57183266 114 119 125
245583.38391113 3357691.96014404 19.45223808 16 53 97
245582.37774658 3357684.13671875 18.82292175 48 68 103
245582.67724609 3357680.94104004 18.71257401 49 61 77
245582.85668945 3357689.43927002 18.58805847 11 32 63
245582.53662109 3357683.56738281 18.77121162 42 62 86
245583.52929688 3357693.30535889 18.52652931 29 71 113
245582.99877930 3357693.44519043 18.34443665 18 88 140
245582.69042969 3357680.77294922 18.72615623 52 68 84
245582.30303955 3357682.96185303 18.75935364 25 48 79
245582.35943604 3357683.41235352 18.76805496 35 58 90
245582.92315674 3357681.09747314 18.77912903 114 145 174
245582.22442627 3357691.85583496 18.47067451 22 55 88
245583.27587891 3357684.55621338 18.89768600 54 68 45
245582.32293701 3357692.95111084 17.85678101 48 86 125
245583.33227539 3357681.52124023 19.40751839 91 112 55
245583.67895508 3357693.25000000 17.77664566 24 49 46
245583.15209961 3357693.49829102 18.05491066 17 49 87
245582.99877930 3357684.05822754 18.67709160 53 85 84
245583.28820801 3357682.10467529 19.53826523 69 85 38
245583.28991699 3357684.61706543 18.89672470 71 85 62
245582.52087402 3357686.09356689 18.74989319 13 32 62
245582.49383545 3357683.15295410 18.79917526 26 43 69
245583.26000977 3357690.52545166 18.54009247 22 35 51
245583.80371094 3357692.77069092 18.64244080 12 38 73
245583.18963623 3357687.91552734 18.66292381 32 55 99
245583.08282471 3357693.49157715 18.16629219 13 73 125
245583.11804199 3357692.10424805 19.58006859 59 140 193
245582.77209473 3357685.40954590 18.63899040 0 12 29
245583.29724121 3357678.68579102 18.75195122 25 40 47
245582.97656250 3357690.23449707 18.53992081 23 42 75
245583.29742432 3357691.41760254 19.50315475 29 52 96
245582.76513672 3357678.45910645 18.89503098 122 142 166
245582.97814941 3357682.36041260 18.73619080 134 166 205
245583.33172607 3357681.69036865 19.65298080 82 107 41
245582.99804688 3357680.34692383 18.79560089 118 145 172
245582.35784912 3357680.46917725 18.85674858 116 148 173
245583.98126221 3357692.35162354 18.41830063 18 46 85
245583.12426758 3357681.21990967 18.88364792 127 152 182
245583.10571289 3357692.91534424 19.33119965 38 111 156
245583.04547119 3357681.59313965 18.86833572 125 156 176
245583.16943359 3357685.10815430 18.67754936 99 130 125
245582.29974365 3357681.73870850 18.77495575 118 142 178
245583.30096436 3357680.31890869 18.78437996 3 19 9
245583.48413086 3357692.65832520 19.34256363 15 46 92
245583.38995361 3357681.50103760 19.46764183 82 107 49
245583.59240723 3357692.33618164 19.18071938 10 53 106
245582.63696289 3357683.40667725 18.68976021 8 23 44
245582.98156738 3357689.86688232 18.50898361 3 18 41
245583.49475098 3357692.12182617 19.28194046 14 55 101
245583.08123779 3357685.16815186 18.65978813 107 132 129
245582.76989746 3357688.52416992 18.64080620 9 38 70
245583.05072021 3357683.86492920 18.67955399 41 81 81
245583.24719238 3357682.02117920 19.33889389 113 134 65
245582.91143799 3357684.29791260 18.66353989 28 37 36
245582.78955078 3357691.01507568 18.97744179 39 63 91
245582.25799561 3357692.56250000 18.37245560 12 36 72
245582.47045898 3357691.17767334 18.63079643 12 39 68
245582.99389648 3357684.63385010 18.67485046 72 77 73
245583.73809814 3357692.76940918 18.79384613 17 45 85
245582.40374756 3357678.62957764 18.88955688 97 122 152
245582.28509521 3357678.60076904 18.83343697 107 137 173
245582.91735840 3357691.43377686 19.36163139 49 105 162
245583.98358154 3357691.85736084 18.41582680 14 42 79
245582.48162842 3357687.74530029 18.61068535 16 30 56
245583.17120361 3357679.57550049 18.82604980 95 112 128
245583.11975098 3357692.36163330 19.54964256 91 173 220
245582.79125977 3357690.58752441 18.60734177 6 19 35
245583.27740479 3357686.01013184 18.68628311 33 47 48
245582.69610596 3357683.40692139 18.62762833 11 27 43
245582.60424805 3357686.16668701 18.73942947 24 46 83
245582.52142334 3357680.73919678 18.82989883 91 109 131
245583.65295410 3357691.93927002 18.95861053 9 51 99
245583.21575928 3357690.70532227 18.52923965 5 16 22
245582.93487549 3357683.24414063 18.65735817 18 45 54
245582.52514648 3357693.20947266 17.93640137 13 39 72
245582.75817871 3357681.73181152 18.73323822 76 97 116
245582.38598633 3357691.42224121 18.58066559 10 51 95
245583.08642578 3357679.40527344 18.82338905 90 117 146
245583.13391113 3357683.36901855 18.71852112 23 52 60
245582.66223145 3357691.76922607 18.99518967 18 82 128
245582.66668701 3357691.52392578 19.01721573 22 68 117
245583.24377441 3357693.01641846 19.22326851 22 84 135
245582.92694092 3357678.96374512 18.80029106 153 169 192
245582.98571777 3357684.16510010 18.67908287 26 50 50
245583.08459473 3357680.23095703 18.81516647 100 121 148
245582.43267822 3357688.35949707 18.51460266 13 26 43
245583.02105713 3357691.73315430 19.58564186 75 160 217
245582.42242432 3357686.74664307 18.53274918 19 36 52
245582.88195801 3357688.89910889 18.63344955 7 26 56
245583.06762695 3357692.94934082 19.26045799 37 110 155
245582.65258789 3357693.36096191 17.68809700 7 28 47
245582.76129150 3357684.83886719 18.64307976 0 0 12
245582.21606445 3357682.00677490 17.97297859 157 170 187
245583.04766846 3357681.06787109 18.82213783 89 120 151
245582.20373535 3357680.61798096 18.33724785 104 133 163
245583.26922607 3357682.06445313 19.51396942 88 105 50
245582.79779053 3357678.79376221 18.80753517 150 167 185
245583.09338379 3357685.07940674 18.66454315 123 148 144
245582.95544434 3357685.81457520 18.70303535 14 23 38
245582.88616943 3357688.65435791 18.63678932 2 23 50
245582.60394287 3357693.12371826 18.36092377 39 88 128
245583.26824951 3357688.68243408 18.64373016 35 66 112
245582.92822266 3357692.69940186 19.30147552 8 73 115
245583.14575195 3357691.20855713 19.38442230 13 45 86
245582.65454102 3357687.16473389 18.69841194 25 48 90
245583.86999512 3357692.22845459 18.69688988 18 54 102
245583.54327393 3357691.68041992 19.13250351 17 54 96
245583.08178711 3357691.75115967 19.63774300 31 113 169
245582.95080566 3357691.04559326 19.11410141 2 30 69
245583.08557129 3357680.72399902 18.79892349 117 140 171
245582.24682617 3357692.85998535 17.67891121 20 52 91
245583.34307861 3357682.06579590 19.68134308 87 104 52
245583.80999756 3357692.91729736 18.41725349 13 46 79
245582.25372314 3357692.48266602 18.41459656 0 18 55
245583.02764893 3357692.05957031 19.46991730 69 151 207
245583.48394775 3357690.88952637 18.60016632 0 22 54
245582.89111328 3357690.10498047 18.55293465 24 49 89
245583.17071533 3357680.02593994 18.83640480 67 80 99
245582.87713623 3357684.86590576 18.62767220 11 16 20
245582.67901611 3357693.32635498 17.96727753 10 32 56
245582.42419434 3357686.57617188 18.56919670 8 24 40
245583.50201416 3357692.52362061 19.33821487 47 84 139
245582.98333740 3357682.57348633 18.73036766 115 144 188
245583.11968994 3357679.95159912 18.84259033 126 141 162
245582.99127197 3357681.54180908 18.85553551 108 141 172
245583.14709473 3357679.82550049 18.84592247 98 108 118
245582.52563477 3357679.64489746 18.83214378 103 124 151
245583.24291992 3357679.73724365 18.81569290 18 26 29
245582.77526855 3357689.68005371 18.60433006 27 55 103
245583.54791260 3357693.30462646 17.75938797 15 30 35
245582.25646973 3357692.35900879 18.43951035 10 38 77
245583.18725586 3357678.58544922 18.81269836 49 65 80
245582.30572510 3357683.42059326 18.71155167 20 41 72
245583.32653809 3357685.50335693 18.66800308 6 36 38
245583.35803223 3357682.34802246 19.46085930 97 112 69
245583.24176025 3357687.64349365 18.68686104 31 65 111
245582.56799316 3357684.24798584 18.81558228 46 69 110
245583.30230713 3357685.98986816 18.65647888 42 53 55
245583.15985107 3357684.04937744 18.72967148 12 46 48
245583.00256348 3357681.71911621 18.81934929 130 161 190
245583.39276123 3357692.43218994 19.49545860 16 64 113
245582.90985107 3357679.27551270 18.79283905 142 168 193
245583.22131348 3357693.44165039 18.19173050 3 28 69
245582.79815674 3357685.10803223 18.60681343 0 6 19
245582.23211670 3357678.67077637 17.98705673 127 139 155
245583.17700195 3357687.83135986 18.66751671 23 51 91
245583.49499512 3357693.22424316 18.74185753 20 76 127
245583.74761963 3357693.15985107 18.03346634 22 49 58
245583.26147461 3357681.97796631 19.04593849 101 125 63
245583.10339355 3357682.09039307 18.79832458 106 130 168
245582.36328125 3357679.37677002 18.83481979 119 145 180
245583.20959473 3357690.70996094 18.53443146 16 29 35
245582.28991699 3357680.79357910 18.75891304 109 143 180
245583.03143311 3357689.86572266 18.51151848 2 10 31
245582.90332031 3357679.36834717 18.80198669 132 158 183
245582.55889893 3357680.77294922 18.80273247 102 119 139
245583.33514404 3357690.09014893 18.62836266 35 86 133
245582.43011475 3357686.39520264 18.61133003 5 17 31
245583.31378174 3357678.63946533 18.72811890 24 34 36
245582.36218262 3357685.13598633 18.67575264 27 44 74
245583.33703613 3357686.49041748 18.63158417 14 42 53
245582.84356689 3357688.20318604 18.62764549 5 29 65
245582.40124512 3357688.71325684 18.45146179 12 28 44
245583.76159668 3357692.26434326 18.84922218 21 55 100
245582.83477783 3357688.74060059 18.64330864 12 32 65
245583.43597412 3357692.53192139 19.43301201 3 45 95
245582.49346924 3357692.95440674 18.41602707 47 91 128
245582.29461670 3357681.23992920 18.77265549 112 142 178
245582.70281982 3357685.62280273 18.67247772 16 39 71
245582.90368652 3357681.31054688 18.82860947 112 141 171
245583.18676758 3357693.38299561 18.50068092 19 69 118
245582.45397949 3357681.17718506 18.83222389 113 138 168
245583.79943848 3357692.74487305 18.67276764 18 44 79
245583.99468994 3357692.32458496 18.37138939 18 46 85
245582.46838379 3357692.65209961 18.74340057 47 107 159
245582.39373779 3357685.75781250 18.69753075 12 29 49
245582.45983887 3357678.37988281 18.73911476 100 108 111
245582.38177490 3357692.33630371 18.68613815 23 78 132
245583.02636719 3357688.31970215 18.60847855 2 14 36
245582.34686279 3357684.80401611 18.66887093 9 19 46
245582.74853516 3357691.83233643 19.10103416 23 99 151
245582.53118896 3357688.77117920 18.63552094 10 29 62
245582.81079102 3357678.98278809 18.76347351 149 167 189
245582.83489990 3357693.12725830 18.78232384 38 116 165
245582.62896729 3357679.24963379 18.79133987 89 102 119
245583.14343262 3357692.04028320 19.60400200 96 176 229
245583.15850830 3357687.15979004 18.67892075 21 46 86
245582.74981689 3357691.51165771 19.16879845 99 155 212
245583.24096680 3357684.68939209 18.76005363 57 69 59
245583.02087402 3357692.03747559 19.46241951 70 152 208
245582.51367188 3357691.27215576 18.68450546 17 51 89
245582.57403564 3357678.41601563 18.86252022 126 140 153
245583.02813721 3357680.77117920 18.77936172 115 143 180
245582.48815918 3357690.77709961 18.60258675 15 25 35
245582.53564453 3357689.31640625 18.63179588 20 39 69
245582.85662842 3357692.68444824 19.22435570 39 99 136
245583.30236816 3357691.68328857 19.57571793 0 44 99
245582.38897705 3357690.13171387 18.36795235 21 39 59
245582.90460205 3357691.84350586 19.31639862 84 169 223
245582.64556885 3357678.38543701 18.58547401 114 114 114
245583.13415527 3357679.88684082 18.84836006 127 142 161
245582.67419434 3357678.91888428 18.77028275 146 165 180
245583.04229736 3357687.83734131 18.63704300 0 7 32
245583.06457520 3357681.97674561 18.79971313 144 173 213
245582.85174561 3357686.90356445 18.68184280 11 32 61
245582.26177979 3357678.51245117 18.28322601 108 124 147
245582.86114502 3357685.15783691 18.61636543 13 18 24
245582.38922119 3357683.28051758 18.79564667 36 57 88
245582.56591797 3357693.30987549 17.72033310 17 45 69
245582.45288086 3357689.45117188 18.55689240 27 39 63
245583.04302979 3357690.36755371 18.53389359 40 58 94
245582.32421875 3357679.13293457 18.83377266 116 146 184
245582.82806396 3357691.67242432 19.25310135 85 160 215
245582.50756836 3357685.13305664 18.68140030 36 63 108
245582.76416016 3357692.77484131 18.99797440 89 160 216
245583.45428467 3357682.48858643 19.61334419 129 143 92
245582.41973877 3357686.75543213 18.52879333 19 36 52
245582.53002930 3357678.88909912 18.80857086 57 78 99
245582.89801025 3357691.42242432 19.33505058 32 84 141
245582.37835693 3357680.04675293 18.85158348 107 149 187
245583.98889160 3357692.29473877 18.45381927 15 47 88
245583.34820557 3357690.61914063 18.51048088 2 7 13
245582.49871826 3357679.38513184 18.83626175 85 102 122
245582.74908447 3357691.82232666 19.10482788 23 99 151
245582.82824707 3357683.77990723 18.64651489 18 33 36
245582.83282471 3357693.37591553 18.34946442 36 77 121
245582.44171143 3357687.31604004 18.55326271 18 34 50
245582.70300293 3357678.38378906 18.11207008 62 63 68
245583.32989502 3357680.27032471 18.78596878 8 24 14
245582.39562988 3357680.38128662 18.85984230 91 125 152
245582.56164551 3357686.23358154 18.72675323 29 52 83
245582.47351074 3357692.59393311 18.79793167 8 71 125
245582.21484375 3357678.66424561 17.78326797 156 151 145
245583.05358887 3357684.42437744 18.74542046 32 44 42
245582.62615967 3357684.23431396 18.77060890 33 54 85
245583.43188477 3357691.95019531 19.35686493 13 50 92
245582.35070801 3357691.00726318 18.47666931 38 47 52
245583.91046143 3357692.59643555 18.22428703 9 32 63
245584.03570557 3357692.14318848 18.40867996 17 49 88
245582.42108154 3357679.42553711 18.83031273 115 139 167
245583.50286865 3357692.39154053 19.33542061 14 57 110
245583.15753174 3357682.80395508 18.79524422 79 96 103
245583.05059814 3357681.12719727 18.84051704 92 123 152
245582.15252686 3357679.46307373 17.93859863 147 160 177
245582.31762695 3357680.33435059 18.84772110 89 126 155
245583.10827637 3357691.37493896 19.54811859 0 30 88
245582.66033936 3357678.38934326 18.16169739 39 43 46
245582.15203857 3357679.26037598 18.16042900 95 120 150
245583.41796875 3357693.01434326 19.09581184 21 91 143
245582.91357422 3357691.88610840 19.31822395 83 168 222
245582.95977783 3357682.95678711 18.70736504 55 80 111
245582.78289795 3357691.89111328 19.13312721 24 101 153
245582.79083252 3357678.43347168 18.33470345 126 125 123
245582.47827148 3357680.13439941 18.83117676 91 119 143
245582.18457031 3357679.80224609 18.18037415 79 112 143
245582.47375488 3357682.02069092 18.79860878 82 103 130
245583.30627441 3357679.40429688 18.74763298 9 21 33
245582.68133545 3357682.62048340 18.65254974 9 27 39
245582.73571777 3357691.38458252 19.11982918 10 63 115
245583.26098633 3357682.05712891 19.17923355 115 136 71
245583.03082275 3357683.71313477 18.65532494 41 80 79
245582.58355713 3357691.24340820 18.77365303 15 44 88
245582.99279785 3357693.21960449 18.86018944 39 106 158
245582.50250244 3357678.37158203 17.87144279 155 154 149
245583.72589111 3357692.05346680 18.87310791 18 56 103
245583.06304932 3357691.09527588 19.21558189 12 41 81
245583.18548584 3357679.59301758 18.82377243 84 100 115
245582.93103027 3357678.73254395 18.85518265 152 169 189
245582.17700195 3357691.98858643 18.43046761 4 24 48
245583.36523438 3357684.08294678 18.79183197 10 22 18
245582.36853027 3357688.39654541 18.43219566 12 24 38
245582.29693604 3357680.22772217 18.82464600 85 129 168
245582.85797119 3357692.19653320 19.16938210 69 159 211
245582.93878174 3357681.81042480 18.77900887 125 155 189
245582.85675049 3357693.47570801 18.12525177 20 72 122
245582.11535645 3357692.62762451 17.73790932 64 108 147
245582.75585938 3357680.03625488 18.77774429 105 122 138
245582.57043457 3357686.40051270 18.68934059 15 38 69
245582.45214844 3357681.35900879 18.82366371 104 128 162
245582.53497314 3357679.35528564 18.83695793 75 90 109
245583.17114258 3357686.63372803 18.66323471 50 78 118
245583.64471436 3357693.30010986 18.08960915 6 30 54
245583.25207520 3357684.51586914 18.87751007 49 61 41
245582.25878906 3357678.54937744 18.20307159 113 126 143
245583.01812744 3357684.65515137 18.68003654 72 77 73
245582.33935547 3357691.45172119 18.55020332 18 55 97
245583.25280762 3357681.51519775 19.04413795 43 60 15
245583.06628418 3357692.16741943 19.50622177 68 151 203
245582.46557617 3357681.10009766 18.83084297 107 134 163
245582.38342285 3357691.66644287 18.57864380 24 62 111
245582.95611572 3357689.50445557 18.51717186 0 11 31
245583.88323975 3357691.66088867 18.48637390 0 18 43
245583.80865479 3357692.43194580 18.82006454 22 56 91
245583.32733154 3357692.18310547 19.55701637 1 51 104
245582.65899658 3357681.69879150 18.77468300 12 31 45
245583.97155762 3357692.06024170 18.53166771 19 61 111
245583.76586914 3357692.19885254 18.83555412 20 57 102
245582.51971436 3357692.14660645 18.81098747 9 69 121
245583.13928223 3357686.51239014 18.65286255 45 63 99
245582.73339844 3357681.92761230 18.68281937 65 81 94
245583.25140381 3357693.16394043 18.95882988 28 90 139
245582.49719238 3357687.39971924 18.63506508 17 33 58
245582.72180176 3357678.41296387 18.47723198 109 109 109
245581.97949219 3357692.76208496 17.49088287 35 49 58
245582.90399170 3357692.56451416 19.32742500 111 176 214
245583.26647949 3357680.18652344 18.80003548 10 24 25
245582.32135010 3357682.36138916 18.74138832 124 149 180
245582.10491943 3357692.34826660 17.93607140 29 61 86
245583.12512207 3357680.87298584 18.81534195 84 111 141
245582.47802734 3357683.37628174 18.77150154 38 59 88
245582.17449951 3357692.90118408 17.54267120 55 78 109
245582.36505127 3357679.18768311 18.84733009 117 147 185
245583.00805664 3357681.44720459 18.86823463 116 145 175
245583.15264893 3357692.96093750 19.31109047 11 71 123
245583.22613525 3357691.47131348 19.59908104 15 62 116
245583.49816895 3357691.03594971 18.80526352 4 32 71
245582.65777588 3357678.74676514 18.81795883 150 165 184
245582.90637207 3357691.25311279 19.24820518 10 47 92
245583.18182373 3357684.31878662 18.76143074 45 60 53
245582.72485352 3357689.55755615 18.62673569 29 56 101
245583.33172607 3357689.59197998 18.63095284 26 55 87
245583.16259766 3357686.89447021 18.67206192 24 60 108
245583.31542969 3357691.48846436 19.54384232 9 41 92
245582.57598877 3357691.18792725 18.74711609 14 42 82
245583.35278320 3357686.57189941 18.63009262 18 44 57
245582.42742920 3357679.10021973 18.84068680 121 144 175
245583.07360840 3357678.76629639 18.85920715 76 97 118
245583.11657715 3357684.06652832 18.71642113 15 53 54
245582.47198486 3357686.75262451 18.57099152 15 34 51
245582.33221436 3357693.08428955 17.73193359 17 54 96
245583.43847656 3357692.81585693 19.30715370 14 58 105
245583.05035400 3357692.21368408 19.47392273 77 160 214
245583.24560547 3357681.91320801 19.62286568 87 110 40
245583.13580322 3357681.67059326 18.89670372 111 138 129
245582.57684326 3357692.90087891 18.59435463 61 135 180
245583.23889160 3357693.11798096 19.05061340 22 80 130
245583.20526123 3357687.29577637 18.69556427 25 58 103
245582.01306152 3357692.48620605 17.72438622 26 52 67
245583.28656006 3357692.82824707 19.47220612 23 84 138
245582.93615723 3357690.70996094 18.62593269 9 21 33
245583.11621094 3357693.23590088 18.87405777 25 77 125
245583.37109375 3357691.65057373 19.46001816 33 65 112
245583.18060303 3357687.36895752 18.69563103 36 65 107
245582.45062256 3357689.64398193 18.53177071 27 45 69
245582.83135986 3357688.65966797 18.64701080 10 33 65
245582.58789063 3357681.10485840 18.80826569 37 54 70
245583.43273926 3357692.99218750 19.11377144 13 79 131
245582.84710693 3357692.04351807 19.18025398 70 160 212
245582.78564453 3357689.53356934 18.61146736 29 53 99
245582.43347168 3357683.46142578 18.78200150 54 77 109
245583.25262451 3357693.41271973 18.35102844 21 59 106
245582.79376221 3357682.78643799 18.61442566 46 73 84
245583.26007080 3357685.18090820 18.67282486 71 105 104
245583.25134277 3357685.61541748 18.70811462 21 59 60
245582.62084961 3357678.39556885 18.72743416 112 117 123
245583.17340088 3357687.53881836 18.68822289 41 72 119
245583.46936035 3357692.23297119 19.36923599 15 58 103
245582.32830811 3357685.11376953 18.65194130 30 47 73
245582.18347168 3357678.64727783 17.71208382 163 157 145
245582.39984131 3357693.06604004 17.88320923 12 50 97
245583.31573486 3357693.27331543 18.71560478 31 93 142
245582.19653320 3357680.11199951 18.08645821 94 119 149
245582.69635010 3357692.87799072 18.78832626 79 154 209
245583.33325195 3357692.13635254 19.55452347 0 50 99
245582.61016846 3357678.98089600 18.78875542 98 115 135
245583.80224609 3357693.01019287 18.31186485 10 43 74
245582.53735352 3357684.65423584 18.72734451 55 74 107
245582.26812744 3357692.69122314 18.00458145 17 40 71
245583.11541748 3357693.49359131 18.16070175 10 58 107
245583.27954102 3357684.26831055 18.78009796 23 34 26
245583.20782471 3357688.10443115 18.67381096 30 51 94
245583.01556396 3357690.94989014 18.93928146 3 26 57
245583.05755615 3357691.30358887 19.43109894 5 42 97
245583.24377441 3357681.46777344 19.03034401 56 78 29
245583.26715088 3357684.23999023 18.76789474 24 35 29
245583.24993896 3357681.73492432 19.26980782 122 149 72
245582.80792236 3357679.33276367 18.77512741 125 146 167
245582.82067871 3357678.90014648 18.77935028 150 168 188
245583.78582764 3357692.84680176 18.64793587 14 47 82
245582.56475830 3357688.40484619 18.63755798 18 39 70
245582.61621094 3357678.41217041 18.85211563 126 142 157
245583.26184082 3357682.05364990 19.15702057 115 136 71
245582.88299561 3357685.58636475 18.67644119 6 21 40
245583.31225586 3357687.13726807 18.65451050 26 65 106
245583.22387695 3357680.59503174 18.78480148 81 99 113
245583.77520752 3357692.32684326 18.85425186 12 47 89
245582.50134277 3357692.12921143 18.79257011 9 69 121
245582.73486328 3357682.66424561 18.62057877 18 37 51
245582.87908936 3357679.73370361 18.77530861 130 150 177
245583.34246826 3357685.99444580 18.63118172 33 44 46
245583.30895996 3357681.66778564 19.59833527 83 108 40
245582.59930420 3357691.56530762 18.85446548 28 69 113
245583.06927490 3357685.34912109 18.66848373 49 76 87
245582.67791748 3357678.89056396 18.78198051 146 165 180
245583.06768799 3357688.75006104 18.61631775 0 10 29
245582.34558105 3357681.51165771 18.77934647 111 145 182
245582.69940186 3357689.62310791 18.63081932 25 52 97
245583.69860840 3357693.22113037 17.85051727 16 42 39
245582.81512451 3357681.81878662 18.72221756 121 145 169
245583.56469727 3357691.92858887 19.09878731 7 48 100
245583.64752197 3357691.86828613 18.96301079 15 58 103
245582.34484863 3357685.94219971 18.58443260 16 28 42
245583.17529297 3357693.19299316 18.93348885 3 49 98
245582.78778076 3357682.58398438 18.60854149 40 62 75
245583.17321777 3357680.11065674 18.82462883 57 75 97
245582.32641602 3357686.56188965 18.39100266 15 25 35
245582.17620850 3357682.14001465 17.92289734 148 156 169
245582.38092041 3357691.09729004 18.52297401 10 23 32
245582.78137207 3357688.90924072 18.65659714 28 52 98
245582.08581543 3357692.61901855 17.70173073 61 100 139
245583.71313477 3357692.65783691 18.90793800 10 41 85
245582.19378662 3357679.99035645 18.02932167 91 115 141
245582.89929199 3357680.24078369 18.78029442 91 115 143
245583.42321777 3357691.70147705 19.35923004 26 60 105
245582.31488037 3357682.79589844 18.75147247 51 71 104
245582.30169678 3357686.16857910 18.34542084 26 36 45
245582.49908447 3357686.91424561 18.59985542 14 34 59
245582.79138184 3357690.34185791 18.59598923 18 44 77
245582.92980957 3357680.54217529 18.74238014 117 144 174
245582.34295654 3357678.53521729 17.86979103 153 152 148
245583.75305176 3357693.01269531 18.56900406 20 55 97
245582.59307861 3357679.00244141 18.79387474 73 90 110
245583.38665771 3357691.70935059 19.43232155 31 62 108
245582.32226563 3357687.13598633 18.36321831 17 27 39
245582.29693604 3357678.95379639 18.82709312 126 156 190
245583.09570313 3357678.64727783 18.86920357 98 121 139
245582.73980713 3357688.39508057 18.65070152 22 48 85
245582.73211670 3357691.93438721 19.04673195 0 67 122
245582.48327637 3357682.14855957 18.78352928 64 83 113
245583.52813721 3357691.46875000 19.09817314 5 36 67
245583.76055908 3357692.98693848 18.57880592 11 46 86
245583.73278809 3357692.90924072 18.72967911 10 42 83
245582.42633057 3357681.63134766 18.82406235 110 136 171
245582.65661621 3357690.93438721 18.77223396 17 35 55
245582.33367920 3357684.38549805 18.77793312 42 63 94
245583.21588135 3357684.08428955 18.74299622 19 40 41
245582.75946045 3357687.82574463 18.66646767 23 46 87
245583.77264404 3357691.87689209 18.78887558 19 52 95
245582.35162354 3357692.58489990 18.61276627 75 138 182
245583.05578613 3357689.14166260 18.54194641 4 15 37
245582.18786621 3357678.63726807 18.19190216 115 130 151
245583.00762939 3357679.70648193 18.84270859 125 145 172
245582.92565918 3357689.09674072 18.59865189 6 22 47
245582.76770020 3357692.48516846 19.16747856 80 151 195
245582.73974609 3357690.24176025 18.61303329 23 56 101
245583.05853271 3357692.42132568 19.49410820 69 149 200
245582.19696045 3357692.38317871 18.26377678 5 26 55
245583.59631348 3357693.33404541 18.25505447 19 58 91
245582.82659912 3357684.87426758 18.63196754 0 5 11
245582.43463135 3357691.02331543 18.57447243 27 39 53
245583.08685303 3357690.83868408 18.77357483 24 45 66
245582.42822266 3357684.62207031 18.76128960 90 96 128
245582.58038330 3357680.12286377 18.81659508 80 98 120
245583.08856201 3357691.18914795 19.34549713 14 46 87
245582.27923584 3357680.30847168 18.82312393 101 144 179
245583.24432373 3357691.49517822 19.60619545 23 74 131
245583.29510498 3357679.89031982 18.81047821 6 16 7
245582.30499268 3357679.58447266 18.82706833 134 169 201
245582.83447266 3357680.17156982 18.76890373 98 118 143
245582.63275146 3357692.63128662 18.95069313 118 184 234
245583.70904541 3357692.30847168 18.95358658 19 56 108
245582.64544678 3357690.92755127 18.75382614 19 36 54
245582.84436035 3357686.62927246 18.68596649 12 31 61
245582.97882080 3357685.55181885 18.68012238 8 30 53
245583.24133301 3357689.10095215 18.59295464 38 66 105
245582.52343750 3357682.11883545 18.76981926 68 84 109
245583.07208252 3357687.29467773 18.66719246 11 32 53
245582.63763428 3357693.31408691 17.81922722 15 42 69
245582.58880615 3357693.18890381 18.20021629 21 50 80
245582.69207764 3357689.75573730 18.62257957 38 69 115
245582.85858154 3357681.87078857 18.72068405 122 149 178
245583.20739746 3357678.64605713 18.81399918 50 65 84
245582.92785645 3357688.13476563 18.59565926 5 19 45
245582.36669922 3357685.89123535 18.62902451 16 28 42
245582.79620361 3357692.97399902 18.86712837 57 143 192
245582.68713379 3357693.13378906 18.54051971 34 101 144
245583.91308594 3357692.43566895 18.52123260 0 29 63
245583.24981689 3357681.58190918 19.01768112 65 87 38
245583.22100830 3357680.21905518 18.80267525 52 69 87
245583.08831787 3357691.99902344 19.57210732 56 137 192
245582.96435547 3357681.92657471 18.75101852 128 160 198
245582.64880371 3357692.23553467 18.93356133 63 149 196
245582.39215088 3357687.96502686 18.51877403 16 22 38
245583.16943359 3357681.36364746 18.95515060 52 77 74
245583.08953857 3357690.87530518 18.83086586 7 27 52
245583.67620850 3357691.75677490 18.91546440 0 28 64
245582.84838867 3357678.40985107 18.12491989 140 141 143
245583.61169434 3357692.32971191 19.13135910 7 53 105
245582.77252197 3357690.36834717 18.60381889 21 51 87
245583.25189209 3357682.01983643 18.96301842 92 114 75
245583.15484619 3357679.67254639 18.83452225 119 133 146
245582.15985107 3357679.42718506 18.00436783 121 139 161
245583.08648682 3357681.35559082 18.91392899 120 146 169
245583.27404785 3357681.75982666 19.09564209 132 158 85
245582.31158447 3357686.28009033 18.31295967 18 31 40
245582.55059814 3357687.83129883 18.67619896 28 51 85
245583.50677490 3357690.84246826 18.54896545 2 19 47
245583.24407959 3357687.74053955 18.68190193 31 62 106
245582.36511230 3357678.50244141 17.77111816 166 161 155
245582.84704590 3357687.13140869 18.68192863 6 25 57
245582.38098145 3357678.39105225 18.72073364 84 94 103
245582.39459229 3357690.48767090 18.46435165 9 19 29
245582.63073730 3357681.90264893 18.72521591 20 36 51
245583.37756348 3357690.99383545 18.85848618 6 31 62
245583.56628418 3357691.25268555 18.86479568 5 34 76
245583.38543701 3357690.84289551 18.62096977 2 19 45
245582.35528564 3357678.53057861 17.97047234 151 156 160
245582.46392822 3357689.05072021 18.55585670 15 32 62
245583.76214600 3357693.14410400 17.98768234 21 48 57
245583.36138916 3357684.76354980 18.80728722 19 30 14
245583.11962891 3357689.33404541 18.53625298 23 39 64
245583.91931152 3357692.54473877 18.18064117 15 38 69
245582.78857422 3357678.63519287 18.87576294 119 140 159
245582.42456055 3357682.19567871 18.80197716 60 81 112
245582.76440430 3357684.96820068 18.62719154 1 7 21
245582.86926270 3357686.39080811 18.65913200 1 21 45
245582.15942383 3357679.58190918 17.94172478 130 145 164
245582.96295166 3357692.28668213 19.35554886 75 158 210
245582.39434814 3357692.77789307 18.46224022 7 38 69
245583.09149170 3357692.73522949 19.47673798 36 112 161
245583.94525146 3357692.40332031 18.49255753 5 34 68
245583.57257080 3357693.37182617 18.14145470 37 67 95
245583.35797119 3357680.89392090 18.83394241 89 118 52
245583.39477539 3357691.82220459 19.42254066 19 50 94
245583.85876465 3357692.67199707 18.47917557 13 38 69
245582.23834229 3357692.46240234 18.33754921 0 20 53
245582.76062012 3357687.23522949 18.69753647 17 39 76
245583.36578369 3357691.73608398 19.47535324 11 45 91
245582.91583252 3357685.43444824 18.65625954 1 13 35
245582.43994141 3357686.26123047 18.64664841 10 26 42
245583.29351807 3357684.96142578 18.67062759 33 59 58
245582.81408691 3357689.48175049 18.61252785 22 46 84
245583.10064697 3357681.54034424 18.90585518 115 144 152
245582.46356201 3357689.34307861 18.56648636 27 42 65
245582.94598389 3357682.16741943 18.69011688 129 163 201
245583.01635742 3357683.53106689 18.64314270 21 55 57
245583.70190430 3357693.20965576 18.40718079 12 44 82
245582.88372803 3357682.42492676 18.66276550 125 154 184
245582.81982422 3357688.42932129 18.64175606 4 31 60
245582.39727783 3357684.57861328 18.77602005 14 29 60
245582.34527588 3357685.31097412 18.63716888 24 43 75
245583.45025635 3357691.87286377 19.31586456 13 50 95
245582.74554443 3357681.13696289 18.72469330 40 56 71
245582.96990967 3357684.03820801 18.66638756 63 92 90
245582.24145508 3357679.34179688 18.74186325 125 158 193
245582.10742188 3357692.89660645 17.49230194 27 39 61
245582.35186768 3357687.71282959 18.46208954 14 20 34
245582.45117188 3357681.60534668 18.82338715 107 134 164
245582.49688721 3357690.15100098 18.49702263 24 48 82
245583.32904053 3357688.17376709 18.66919136 24 51 98
245582.85906982 3357690.81591797 18.73435974 3 25 49
245582.60034180 3357693.07501221 18.44398880 49 107 153
245582.69476318 3357692.76135254 18.89810181 84 146 205
245582.50024414 3357687.18267822 18.62720490 17 34 62
245582.43121338 3357692.16180420 18.72233391 17 70 122
245583.92285156 3357691.88531494 18.56078339 23 55 102
245583.58367920 3357693.33349609 18.32979965 26 65 104
245582.77935791 3357692.73516846 19.06741142 1 55 102
245582.84576416 3357692.96289063 18.96144104 61 145 192
245583.18225098 3357683.52508545 18.70423317 23 63 65
245582.99841309 3357680.53350830 18.77463150 113 142 176
245583.33081055 3357686.91888428 18.64817810 17 51 89
245582.82678223 3357684.88421631 18.63074875 0 5 11
245583.05718994 3357685.87139893 18.70570946 32 47 50
245583.52923584 3357692.16998291 19.22960663 14 52 101
245583.14404297 3357691.92303467 19.60094261 96 176 229
245582.53729248 3357688.19476318 18.62849998 24 38 75
245583.12585449 3357690.16595459 18.57958221 19 65 114
245583.69415283 3357692.54931641 19.00736427 3 35 74
245582.59271240 3357679.04919434 18.79461288 71 89 109
245583.22894287 3357685.19342041 18.67676163 56 95 94
245583.22229004 3357680.34173584 18.78661156 65 82 102
245582.65246582 3357692.41613770 19.01006508 71 155 201
245582.35131836 3357688.77954102 18.39187813 10 23 39
245583.17565918 3357678.59143066 18.81998444 60 79 96
245583.76660156 3357692.43096924 18.91239166 29 62 103
245582.96746826 3357682.61822510 18.71405602 123 151 190
245582.39904785 3357693.11077881 17.83232498 21 59 104
245582.16986084 3357678.61376953 17.68449402 140 130 118
245583.34155273 3357679.81658936 18.78824043 14 21 13
245582.57592773 3357682.65374756 18.72200584 29 50 69
245582.66857910 3357691.03369141 18.84477806 47 64 92
245582.92346191 3357686.69689941 18.67239761 6 21 40
245583.19409180 3357686.81054688 18.67046547 41 79 126
245583.33923340 3357688.40802002 18.66799164 25 56 102
245582.65393066 3357681.79583740 18.75314140 13 31 45
245582.73815918 3357690.22131348 18.61305809 23 55 102
245583.78649902 3357693.05206299 18.35249901 23 53 89
245582.59490967 3357679.82769775 18.81744385 103 119 142
245583.47589111 3357682.44116211 19.70059586 94 110 63
245583.34887695 3357685.87811279 18.63652992 27 43 43
245582.97210693 3357684.67584229 18.65152550 0 1 0
245583.16693115 3357679.58843994 18.82763290 117 134 154
245582.96911621 3357685.58441162 18.68419838 0 16 36
245582.95013428 3357692.81170654 19.25363731 42 120 166
245582.21405029 3357681.54052734 18.26949501 101 125 151
245583.19958496 3357690.90283203 18.82680130 7 24 54
245582.58953857 3357691.81951904 18.86366844 20 62 104
245582.32287598 3357686.26062012 18.35270500 19 32 41
245583.16143799 3357693.08905029 19.12988472 0 50 104
245583.03521729 3357683.96948242 18.68385696 26 66 65
245583.23583984 3357690.60363770 18.50537300 4 18 21
245583.27050781 3357690.49725342 18.56277657 47 67 91
245582.48236084 3357679.75549316 18.83019638 113 138 169
245583.39312744 3357692.84753418 19.32938385 24 70 119
245583.19213867 3357693.44848633 18.21837044 0 26 73
245583.87811279 3357692.39007568 18.68386269 23 55 94
245582.59033203 3357681.06365967 18.79057693 37 54 70
245582.95129395 3357692.22589111 19.31897354 75 160 215
245583.01263428 3357685.56646729 18.68553162 23 46 64
245583.08062744 3357682.69177246 18.76253700 96 122 157
245582.58380127 3357681.54437256 18.81083488 19 40 61
245583.25494385 3357681.68115234 19.42396164 100 123 53
245583.14538574 3357689.17303467 18.54878044 27 50 81
245582.64276123 3357684.29852295 18.76416206 31 54 86
245583.71038818 3357692.17932129 18.90819168 19 57 106
245582.44995117 3357689.71838379 18.51420021 25 43 67
245582.85321045 3357682.39526367 18.64078522 123 149 174
245582.51086426 3357680.52551270 18.85205078 92 107 128
245583.67419434 3357693.28179932 18.16350746 2 23 50
245582.21685791 3357692.56164551 17.99959946 14 41 71
245582.79724121 3357687.25897217 18.69110870 12 32 67
245583.06359863 3357687.42004395 18.66563988 9 27 51
245583.35424805 3357682.23236084 19.05558968 135 152 97
245582.33428955 3357687.19549561 18.38739204 23 35 47
245583.29217529 3357690.88861084 18.74735451 1 18 46
245582.78332520 3357684.25280762 18.62492180 18 28 38
245582.11773682 3357679.83001709 17.80132484 141 142 147
245583.29296875 3357690.57135010 18.52448654 6 15 24
245583.30932617 3357692.96887207 19.23497581 30 101 153
245582.26672363 3357681.19128418 18.71481514 124 157 190
245583.20452881 3357685.17547607 18.67845154 71 103 102
245582.31939697 3357683.28356934 18.75112152 24 44 77
245583.32989502 3357683.33184814 18.82211494 5 14 11
245582.34600830 3357683.18493652 18.78167915 31 51 84
245582.96478271 3357683.08563232 18.70267677 6 31 53
245582.90698242 3357689.65032959 18.54769516 18 40 79
245582.83325195 3357685.99523926 18.68312645 3 19 44
245583.11090088 3357681.79174805 18.86128998 94 119 124
245582.83245850 3357689.76916504 18.58550453 26 54 102
245583.11566162 3357687.66540527 18.66903877 26 44 82
245582.37792969 3357686.27801514 18.55522919 28 38 48
245582.82690430 3357683.25012207 18.62705040 37 51 64
245583.34045410 3357681.29974365 19.01080132 91 112 47
245582.77343750 3357683.32989502 18.61541176 10 21 39
245582.83862305 3357692.22442627 19.14868736 79 169 221
245582.72131348 3357684.43914795 18.70978928 12 38 65
245582.50482178 3357681.63122559 18.81769943 92 115 146
245582.95190430 3357691.64617920 19.46671295 91 174 228
245583.15008545 3357693.33062744 18.59389305 8 62 109
245583.30834961 3357688.35864258 18.67339706 25 57 104
245582.58026123 3357679.33703613 18.80730057 101 114 131
245582.79827881 3357682.86688232 18.62566376 36 58 72
245582.38940430 3357686.43243408 18.55539322 11 19 32
245582.56378174 3357679.70947266 18.82756615 98 116 138
245582.49536133 3357679.60815430 18.83307266 118 139 170
245582.68103027 3357684.21295166 18.71617699 27 43 68
245582.29498291 3357692.35369873 18.51918793 27 65 110
245583.69482422 3357693.24200439 18.31979942 3 34 65
245582.29455566 3357682.34204102 18.71970367 122 146 180
245583.42907715 3357682.42407227 19.41877556 104 122 60
245583.30096436 3357679.95117188 18.81080246 6 18 8
245583.50750732 3357691.53302002 19.19011116 6 33 62
245583.40087891 3357693.11285400 18.97782326 22 97 152
245582.86340332 3357687.63970947 18.65746498 8 30 54
245582.32836914 3357693.00311279 17.80187225 65 107 147
245583.27966309 3357688.33435059 18.67647552 26 59 104
245582.90887451 3357693.51422119 18.09108925 19 75 124
245583.28027344 3357688.10223389 18.68645859 35 59 107
245582.19891357 3357680.27520752 18.16881180 81 110 144
245582.17810059 3357679.66448975 18.21596909 81 108 137
245582.17504883 3357678.70568848 17.79203606 153 150 145
245583.78204346 3357691.80554199 18.76639938 16 45 85
245582.60687256 3357686.79602051 18.67520905 30 54 90
245582.29644775 3357680.08746338 18.81683922 82 126 165
245582.40679932 3357686.80999756 18.50741577 15 34 51
245582.60333252 3357682.11376953 18.72074127 40 57 77
245582.52001953 3357683.15411377 18.78487206 31 47 72
245582.36706543 3357688.98992920 18.42923737 17 30 49
245583.23181152 3357692.71673584 19.55653954 82 153 209
245582.31066895 3357686.66265869 18.34208488 17 27 36
245583.82672119 3357691.78674316 18.68443489 5 30 70
245583.14556885 3357686.06323242 18.69424248 37 47 59
245582.62762451 3357693.37792969 17.57582092 1 15 28
245583.20898438 3357685.85009766 18.70389175 39 65 66
245583.25207520 3357681.70617676 19.46605682 108 131 61
245583.32366943 3357681.66259766 19.61148643 80 106 35
245583.21093750 3357689.61016846 18.58313179 20 40 75
245583.01269531 3357690.25427246 18.53963470 49 74 114
245583.74829102 3357693.14306641 18.06879616 18 44 61
245583.24792480 3357681.72332764 19.42900276 110 133 61
245583.37829590 3357690.65625000 18.50907326 2 2 10
245583.10650635 3357682.47833252 18.81341171 91 110 150
245582.92553711 3357683.22009277 18.65764236 23 47 59
245582.68579102 3357678.97924805 18.76737976 146 165 182
245584.01135254 3357692.23089600 18.42060089 18 50 91
245582.54412842 3357693.08233643 18.29598808 16 54 91
245582.34124756 3357681.84710693 18.79913330 117 141 175
245582.86993408 3357692.86279297 19.09341240 71 153 201
245583.30975342 3357681.58093262 19.47405052 86 108 43
245582.33276367 3357682.85729980 18.76803017 36 59 91
245583.43853760 3357691.52026367 19.31858826 1 30 64
245583.90557861 3357691.92846680 18.60619736 19 55 107
245582.88513184 3357683.87225342 18.65092087 18 38 39
245583.25445557 3357690.07104492 18.64666939 32 85 137
245583.33734131 3357690.38824463 18.60050774 21 55 80
245583.66772461 3357693.28442383 18.11463547 1 23 47
245582.47827148 3357690.16381836 18.47443581 20 43 74
245582.66064453 3357688.68212891 18.68037605 25 47 88
245582.73620605 3357689.50146484 18.63400841 30 57 102
245582.89288330 3357687.07373047 18.67364311 4 21 47
245582.69219971 3357682.19964600 18.66532898 14 31 47
245582.39111328 3357691.02740479 18.52523422 34 42 53
245583.43200684 3357693.30810547 18.57860374 9 64 105
245583.01452637 3357682.37481689 18.76161003 132 162 200
245583.11163330 3357688.57739258 18.64089012 5 21 46
245582.96990967 3357680.80822754 18.75207329 108 136 173
245582.47521973 3357691.30426025 18.65006065 14 49 89
245583.01965332 3357688.81512451 18.60536003 0 12 29
