245669.39147949 3357692.78063965 18.74357605 21 24 29
245664.46917725 3357695.47930908 18.35377502 69 78 85
245663.02239990 3357693.46679688 19.13820267 43 51 54
245665.72918701 3357693.26873779 19.44122887 158 183 203
245667.18786621 3357693.23748779 17.87231445 16 21 25
245672.13659668 3357695.28656006 18.32819366 149 152 145
245667.69445801 3357694.71179199 20.35951805 200 223 237
245669.38525391 3357694.40985107 20.07822990 174 203 221
245673.55139160 3357694.51086426 16.71168900 50 53 60
245670.98559570 3357695.57391357 17.47128487 25 26 28
245663.66412354 3357695.35333252 19.72178078 187 213 228
245666.36517334 3357694.97790527 20.06772041 182 211 229
245671.25048828 3357693.53515625 16.73048019 11 16 22
245672.39337158 3357693.81005859 18.60256195 66 81 60
245666.10614014 3357696.70727539 19.18907738 79 83 86
245664.54888916 3357695.76391602 18.46480942 92 99 105
245668.67004395 3357693.21270752 17.75210762 17 22 26
245663.95660400 3357695.25708008 18.55908966 22 33 39
245673.20513916 3357693.10015869 19.15831375 125 136 138
245668.08337402 3357694.71130371 20.56063080 169 196 207
245673.78741455 3357693.92211914 16.46186447 43 48 51
245673.35864258 3357693.41857910 16.43593407 61 66 70
245664.11444092 3357693.89147949 19.82567978 155 183 205
245670.41790771 3357696.15881348 16.75054169 45 45 43
245672.29901123 3357693.00506592 18.93786049 19 28 33
245669.24749756 3357695.44348145 19.87876892 213 230 238
245672.86529541 3357695.74993896 18.58203697 53 60 66
245672.29516602 3357695.51904297 16.80083466 27 31 34
245664.62512207 3357696.48773193 19.50730705 210 224 235
245669.74291992 3357696.38763428 18.00775337 29 33 34
245672.97808838 3357696.56640625 18.95006180 83 86 91
245670.81671143 3357692.82550049 16.50932884 61 69 71
245670.82458496 3357695.92034912 17.83149147 96 106 108
245664.25726318 3357692.77343750 16.67936707 52 61 66
245673.43389893 3357695.84155273 16.43997002 60 65 68
245672.04992676 3357696.18878174 19.49879646 211 231 240
245666.45599365 3357696.47717285 19.47889519 221 238 248
245664.29425049 3357693.50018311 19.54002953 156 182 205
245671.23577881 3357693.06262207 19.20694733 110 121 139
245673.88287354 3357693.88586426 16.43212128 52 62 63
245665.92559814 3357693.04840088 18.40821648 12 21 28
245669.24487305 3357693.14245605 17.68264198 5 10 16
245667.35876465 3357696.20336914 18.15422821 46 50 51
245674.08514404 3357692.35510254 16.40925980 110 121 127
245664.26147461 3357693.46862793 19.51912880 154 180 203
245664.52410889 3357692.80297852 16.65161896 52 59 65
245669.25909424 3357695.70043945 19.78537941 203 220 228
245672.53234863 3357693.66662598 18.69221687 84 98 81
245667.93218994 3357694.75091553 20.44632721 205 225 234
245672.30963135 3357694.75134277 18.52302361 130 138 127
245669.93676758 3357696.26373291 16.87583351 62 67 70
245670.96435547 3357695.62939453 19.88923264 208 222 235
245666.98748779 3357695.39288330 17.25557137 24 24 26
245665.45263672 3357695.19525146 17.66379356 154 158 159
245672.69549561 3357696.41821289 19.30974770 235 245 254
245670.85278320 3357696.45550537 19.23363304 198 207 212
245664.47192383 3357693.13586426 18.69294930 60 68 71
245666.71112061 3357696.76635742 19.08639336 197 200 205
245667.78649902 3357696.02020264 18.30428696 54 53 58
245672.79730225 3357694.49017334 18.88733292 70 74 75
245663.22705078 3357693.64862061 18.78378105 58 59 61
245663.56219482 3357695.20129395 18.91459846 72 76 85
245664.21472168 3357694.12170410 20.00363922 156 183 202
245667.28875732 3357695.51812744 17.40077400 39 40 42
245667.13140869 3357696.01068115 19.72551155 206 225 239
245672.39624023 3357696.41229248 19.31381226 230 243 251
245673.69049072 3357694.58093262 17.18378258 123 126 135
245670.30865479 3357692.88189697 16.51064301 43 54 60
245671.88903809 3357694.98693848 17.06612206 28 29 33
245671.87445068 3357693.35198975 18.58125305 68 84 97
245671.03741455 3357694.14752197 17.27315331 27 32 35
245664.52636719 3357693.13171387 18.67282486 41 46 49
245670.31994629 3357695.26318359 19.89977837 202 221 235
245666.62377930 3357696.26824951 16.63392639 54 60 60
245671.15032959 3357693.47192383 17.99009705 28 41 50
245669.83026123 3357692.93920898 18.17019272 13 22 27
245664.78552246 3357695.17437744 16.74063683 73 77 80
245673.71557617 3357694.96301270 16.84140968 32 46 55
245672.57666016 3357692.36486816 16.47236824 70 77 85
245664.55303955 3357693.49475098 19.53334618 156 181 203
245668.58453369 3357696.24169922 18.13607597 35 39 40
245663.09704590 3357693.75628662 19.01979256 26 34 37
245666.78143311 3357693.00268555 18.78027153 17 20 25
245670.94696045 3357693.32324219 18.05385017 37 45 56
245672.31237793 3357695.54754639 16.80613899 17 21 24
245669.58221436 3357692.83941650 18.34796143 27 35 37
245669.22491455 3357692.76190186 16.53771400 148 159 165
245665.29510498 3357693.27471924 16.84757233 14 19 23
245672.44042969 3357695.55529785 16.83629227 32 40 43
245664.38391113 3357695.51574707 16.79595947 135 142 148
245664.69110107 3357693.96142578 19.89663124 154 181 200
245671.97186279 3357695.27459717 18.03370857 117 129 129
245664.35656738 3357693.49841309 19.53625488 152 180 202
245664.73840332 3357696.17846680 16.62048912 176 177 179
245664.70660400 3357696.49237061 16.59594727 197 205 207
245664.36145020 3357695.32330322 18.31770515 47 58 64
245666.94195557 3357693.22332764 19.44678497 163 192 210
245667.17364502 3357692.78326416 16.56563568 130 139 148
245673.16357422 3357693.50048828 16.44347382 50 55 58
245669.47955322 3357694.40557861 20.04240417 175 204 222
245673.03820801 3357694.52416992 16.41677475 51 56 62
245663.78466797 3357694.21386719 18.38019562 22 27 31
245668.98895264 3357693.20367432 17.57352448 47 52 58
245664.93963623 3357696.21960449 19.71151352 206 224 236
245669.55804443 3357696.22564697 17.62336540 28 29 31
245664.53131104 3357693.47937012 18.12879372 46 50 53
245664.33148193 3357694.52124023 20.27162361 162 191 209
245673.38281250 3357695.13342285 16.47444344 35 40 46
245670.86212158 3357695.91503906 17.88551903 75 84 83
245667.54718018 3357693.28735352 16.74447823 24 29 32
245664.58319092 3357694.48803711 17.54821587 15 20 26
245670.69494629 3357692.95843506 18.91940498 17 21 30
245666.69586182 3357696.56640625 19.40801239 227 242 249
245671.94128418 3357694.60424805 20.28912354 178 196 210
245665.57336426 3357695.13928223 17.50304604 54 55 59
245664.91882324 3357693.29736328 18.21620941 44 45 49
245667.23858643 3357695.48608398 17.35990143 36 38 37
245670.69158936 3357696.16827393 18.06637383 31 35 36
245669.84600830 3357696.04522705 16.99370003 52 53 55
245671.44421387 3357694.89025879 20.44875717 217 234 242
245664.29925537 3357693.86102295 19.80771637 158 185 206
245673.37310791 3357692.81024170 16.44903374 63 70 76
245672.25335693 3357696.34771729 18.75335121 83 88 92
245664.22167969 3357693.34027100 19.43049812 155 176 203
245673.23645020 3357696.18322754 19.07483292 44 53 62
245669.57049561 3357696.11474609 19.59390640 221 234 243
245670.56341553 3357693.28100586 17.84825516 38 47 54
245671.18078613 3357693.06427002 19.15496826 62 71 86
245663.70703125 3357694.46246338 18.51116562 12 21 28
245672.73162842 3357696.20758057 19.45752716 217 235 245
245664.47326660 3357694.49615479 17.71943283 7 11 20
245666.35223389 3357693.32928467 16.97787857 20 25 28
245668.51275635 3357696.48681641 19.32385445 222 226 227
245665.74273682 3357695.77117920 18.16533661 162 171 176
245669.98242188 3357692.79345703 18.84293747 30 37 47
245665.45770264 3357694.04296875 19.94428635 167 195 216
245666.51000977 3357696.18627930 18.07376289 35 39 42
245671.15893555 3357693.72845459 16.83824921 45 46 50
245668.83679199 3357696.28698730 18.20550728 29 34 37
245665.21582031 3357693.47705078 17.45331001 8 16 18
245672.99707031 3357695.54205322 19.18847847 169 178 187
245673.25048828 3357695.04278564 16.40382004 31 36 42
245670.82049561 3357693.33404541 17.92789841 37 47 56
245670.99743652 3357693.83477783 19.84792709 184 211 228
245673.52569580 3357694.56005859 16.65633965 43 52 59
245663.84106445 3357694.83355713 19.87685966 181 212 230
245669.21508789 3357692.42919922 16.53037071 41 50 57
245664.45196533 3357693.42041016 18.23986626 25 31 29
245666.49517822 3357692.88867188 18.90361595 20 28 39
245670.88323975 3357696.31665039 19.41303444 227 240 249
245671.58605957 3357694.79492188 17.43160629 143 144 148
245665.65295410 3357693.23413086 17.40077400 79 87 90
245665.06854248 3357696.18841553 16.81749153 46 50 51
245669.17504883 3357696.37609863 18.15452576 27 28 30
245668.22332764 3357693.37664795 17.50369072 9 13 16
245671.20922852 3357694.48699951 20.24196625 201 220 234
245666.61254883 3357693.02026367 18.61321259 16 21 25
245667.34362793 3357695.47808838 17.08052063 171 175 176
245663.57037354 3357694.89611816 18.79482460 151 160 167
245667.08111572 3357696.66021729 18.68714905 65 69 72
245672.59936523 3357694.94946289 16.50821686 25 32 38
245668.18139648 3357695.77154541 17.70120811 29 30 32
245668.70434570 3357693.34667969 19.47281647 152 179 208
245663.44134521 3357695.09393311 19.54989815 184 212 233
245664.97436523 3357694.82513428 17.09505844 71 84 100
245668.33941650 3357695.59356689 16.54222298 46 51 55
245672.06799316 3357693.60217285 16.46552467 61 66 70
245664.71112061 3357695.11437988 20.70432091 206 224 234
245671.88916016 3357694.74584961 18.24398613 151 156 152
245666.96850586 3357695.86993408 17.78125954 87 88 90
245665.22961426 3357695.91668701 16.97036743 22 28 28
245672.58776855 3357693.96221924 19.62985802 193 212 229
245663.70947266 3357694.94885254 19.77122688 185 214 230
245670.77313232 3357692.87658691 16.53729630 45 50 54
245665.13836670 3357694.19763184 20.10258102 159 186 203
245664.94274902 3357695.15631104 20.59584045 186 208 222
245668.52178955 3357693.36370850 19.47722054 148 178 204
245668.25262451 3357693.44256592 16.90674400 2 6 9
245672.45489502 3357696.11242676 16.58266640 36 37 42
245671.71545410 3357695.04730225 17.80292130 32 43 49
245671.02526855 3357693.19146729 18.47037697 23 26 33
245672.66497803 3357693.95269775 18.77292252 59 66 58
245668.99395752 3357693.20196533 17.57141876 39 44 50
245664.19036865 3357693.35766602 19.44398499 156 180 204
245672.06195068 3357695.24353027 17.22894096 103 107 108
245672.99694824 3357694.02105713 19.38075447 206 219 227
245665.44580078 3357693.35333252 17.19134140 21 26 29
245663.50000000 3357695.46301270 16.56755447 56 67 73
245664.31170654 3357693.15820313 19.31917572 31 43 59
245667.18444824 3357696.60174561 19.30844688 240 248 250
245663.90039063 3357694.20288086 19.89228821 183 212 230
245671.83270264 3357694.98657227 17.17732239 68 70 67
245672.10479736 3357695.46539307 17.90924454 114 119 122
245665.90551758 3357693.02624512 18.46369553 13 24 30
245667.60711670 3357694.73425293 20.27359009 194 220 235
245672.98651123 3357695.55358887 18.97106171 45 52 60
245668.30072021 3357692.93652344 18.89461708 49 56 62
245665.79321289 3357692.92102051 16.58329010 135 144 151
245672.77490234 3357693.90576172 16.45621681 43 53 55
245667.59014893 3357694.69976807 20.26157570 194 222 236
245664.47454834 3357694.43798828 20.26044846 157 184 203
245668.45355225 3357693.32739258 16.89820862 16 20 23
245669.87988281 3357693.83367920 19.79789543 176 204 225
245663.98986816 3357693.75323486 19.73022079 154 182 204
245666.98474121 3357692.69689941 16.56896400 29 37 48
245668.74871826 3357695.58679199 19.94744492 203 222 236
245667.03381348 3357693.90502930 19.77321053 166 197 217
245663.95928955 3357692.99176025 16.67014503 53 60 66
245664.75622559 3357693.90087891 17.29594612 36 39 46
245665.40484619 3357694.49194336 20.22244644 164 191 212
245664.42864990 3357696.01098633 19.87630081 196 218 229
245668.64709473 3357693.36761475 17.21464729 17 21 24
245667.62573242 3357693.03778076 18.68764305 25 30 34
245668.73242188 3357696.19561768 16.92115021 46 49 54
245672.88598633 3357695.58190918 16.49518585 52 62 63
245665.30767822 3357695.80560303 16.99995041 17 22 25
245666.59246826 3357696.67108154 18.43976784 52 56 59
245670.70159912 3357695.52087402 16.97304344 28 29 33
245671.66339111 3357694.90692139 17.57332039 67 70 75
245673.06665039 3357696.41247559 18.85640144 109 118 125
245668.18389893 3357696.17193604 19.64237976 199 221 234
245665.92614746 3357693.63098145 19.64083481 169 196 217
245668.67150879 3357692.86956787 18.81212044 40 45 51
245665.70330811 3357692.90155029 19.01827431 15 19 22
245667.62536621 3357693.79547119 19.78096581 160 188 209
245665.94873047 3357693.22821045 17.70826530 29 36 44
245664.86499023 3357693.46795654 17.05327034 56 61 65
245666.79626465 3357693.33105469 17.43464279 8 12 15
245669.11889648 3357696.48345947 19.37150383 240 249 254
245669.86669922 3357692.89892578 18.26788712 33 40 46
245669.00225830 3357694.28894043 20.13501740 163 194 212
245672.85760498 3357694.08221436 18.92420387 75 81 81
245673.37756348 3357695.13079834 16.46918678 35 40 46
245663.42785645 3357696.29766846 19.47951889 202 229 240
245671.49884033 3357695.69299316 16.49485588 49 53 52
245670.53485107 3357693.42053223 17.03501129 37 45 47
245666.49822998 3357692.97613525 18.65025520 21 26 30
245667.06811523 3357694.65759277 20.07273293 183 214 232
245669.63043213 3357692.71820068 18.92959976 19 27 30
245673.19079590 3357693.13208008 19.23991203 178 192 201
245671.57171631 3357696.01312256 18.26099396 28 29 31
245666.25451660 3357693.05975342 18.35519791 11 16 19
245667.90313721 3357695.08856201 16.65285110 41 32 33
245672.40454102 3357693.94769287 19.72938156 189 210 227
245666.06524658 3357694.67858887 20.14126968 171 202 222
245670.59759521 3357695.06811523 19.99546432 204 220 233
245670.75964355 3357693.13024902 18.44873619 30 35 38
245671.59838867 3357694.13140869 16.61328125 12 17 21
245668.41882324 3357693.58953857 19.63327789 152 183 204
245672.89794922 3357696.40173340 16.41957092 61 71 73
245663.62426758 3357695.25158691 19.70494270 185 214 232
245663.45111084 3357695.89056396 19.25196075 79 97 119
245668.16778564 3357694.94152832 16.70012093 118 118 118
245670.81079102 3357695.52453613 17.33099556 25 27 26
245663.74951172 3357694.83325195 19.80140114 185 214 230
245671.11773682 3357694.09924316 17.62701416 44 49 52
245667.02856445 3357696.29199219 19.57209587 219 236 246
245673.68243408 3357695.28607178 16.81728745 36 47 53
245664.20111084 3357693.47094727 16.61519623 63 73 75
245671.10931396 3357693.39337158 19.53874779 179 206 223
245663.24627686 3357693.91955566 19.43215179 181 201 212
245668.69854736 3357696.05859375 16.89873505 16 19 24
245667.44598389 3357695.50836182 17.37784004 31 32 34
245672.64044189 3357693.51220703 16.45614052 61 71 73
245664.21331787 3357696.05969238 19.84047699 200 222 233
245668.85119629 3357694.97436523 20.22244263 173 200 219
245667.76385498 3357695.07855225 16.85977364 76 72 71
245672.56964111 3357695.76922607 16.53396225 38 42 45
245666.81805420 3357693.72723389 19.66403961 164 195 213
245664.53314209 3357693.45300293 19.50062561 157 184 205
245673.16125488 3357695.97198486 16.38859749 61 64 69
245669.01525879 3357694.90014648 20.18472099 177 204 223
245671.86413574 3357695.46697998 16.53279495 55 56 61
245664.11578369 3357695.43298340 20.05477905 196 214 228
245672.93579102 3357695.55914307 16.50527573 48 58 59
245667.44598389 3357693.11492920 19.31868744 158 182 208
245666.20324707 3357696.01348877 19.79121017 197 219 233
245663.49829102 3357695.07006836 19.60015678 180 211 229
245664.86944580 3357693.60522461 17.56190491 140 145 149
245671.91986084 3357694.95025635 18.33260918 69 75 73
245671.92895508 3357695.37591553 16.59385300 57 58 62
245663.69744873 3357695.62615967 16.59107018 54 63 70
245671.24591064 3357693.65252686 16.73399925 30 33 38
245665.21972656 3357696.36749268 16.79093933 28 29 31
245671.46856689 3357693.71832275 19.79437828 182 210 224
245664.60058594 3357695.03167725 20.69426537 208 228 237
245663.51092529 3357694.55059814 18.70877266 28 38 48
245671.54559326 3357692.94891357 16.46333694 120 124 133
245669.52319336 3357693.08929443 16.91008759 31 34 39
245668.99468994 3357696.44952393 19.09442711 190 193 198
245671.05383301 3357693.75805664 17.70384026 34 44 46
245671.45550537 3357696.31213379 18.79018211 142 143 145
245668.04064941 3357693.01715088 18.65666389 21 24 29
245664.01129150 3357696.74053955 19.31562996 222 230 232
245668.08721924 3357696.11633301 18.33416748 37 40 45
245665.90588379 3357693.71990967 19.69432259 168 196 217
245666.42791748 3357695.40979004 17.37769699 25 29 32
245669.58361816 3357695.94146729 19.66803932 209 226 234
245664.52899170 3357693.85900879 17.71620750 4 8 17
245664.89349365 3357694.87786865 16.87025452 40 45 49
245663.81170654 3357695.92633057 18.80917931 102 112 121
245668.87713623 3357696.26599121 18.09986687 33 34 36
245668.70928955 3357696.08898926 16.91651535 31 34 39
245666.23931885 3357693.25640869 19.44249916 161 186 206
245669.94824219 3357692.88586426 16.54197121 29 39 41
245666.71484375 3357694.57775879 20.03069496 176 209 226
245663.23645020 3357694.53326416 19.05299759 12 21 30
245663.93469238 3357694.16485596 16.59599686 60 67 73
245663.37493896 3357696.25415039 19.45585060 202 226 238
245667.78491211 3357693.02636719 18.99746132 7 16 25
245666.09143066 3357695.68499756 19.92512703 203 221 233
245670.67675781 3357693.25421143 16.87558937 41 46 50
245670.14111328 3357694.38122559 20.00305367 187 213 230
245664.68719482 3357695.29180908 20.51935959 201 219 229
245668.36999512 3357695.52569580 17.26658058 32 36 39
245664.62200928 3357693.75195313 19.73335648 152 179 200
245667.57287598 3357695.46697998 16.98045349 69 71 70
245668.84002686 3357694.11065674 20.01064682 154 184 208
245668.39263916 3357695.98352051 16.49414444 141 146 150
245669.46423340 3357693.59503174 19.65125847 161 192 213
245671.17144775 3357693.57305908 17.94237900 36 49 55
245664.04925537 3357693.56274414 18.29972458 56 59 64
245673.49243164 3357693.82006836 16.46916962 44 52 55
245664.92297363 3357695.93499756 19.93736839 194 214 225
245667.20153809 3357693.06976318 19.30047417 97 113 136
245671.02465820 3357693.24237061 19.43196678 175 202 223
245672.23754883 3357695.02844238 19.93342400 183 201 215
245664.42602539 3357694.90527344 17.99087143 136 144 157
245668.42956543 3357693.43395996 17.25530434 4 8 11
245672.81671143 3357694.71752930 19.46326828 197 216 231
245673.01336670 3357692.85156250 16.44654655 65 72 78
245668.78356934 3357693.30926514 19.45195389 151 179 203
245668.12988281 3357693.47424316 17.28151321 9 12 17
245669.37127686 3357696.04730225 19.64018250 213 229 242
245665.68695068 3357695.39117432 20.11235619 201 221 232
245670.71112061 3357692.70928955 16.48357773 162 172 174
245671.83447266 3357695.16223145 17.82596970 78 88 97
245672.44122314 3357693.09729004 19.31880188 170 187 203
245663.28442383 3357693.88421631 18.84087563 16 25 30
245664.07019043 3357695.65075684 20.00426483 232 239 249
245666.55633545 3357693.79711914 19.69685936 169 198 216
245663.61791992 3357696.54107666 19.04867935 129 137 140
245670.96899414 3357694.07727051 17.43094635 29 33 34
245663.84948730 3357694.30718994 18.34669495 7 12 18
245671.63897705 3357695.73254395 18.01211548 40 36 33
245665.32275391 3357696.71978760 16.49649620 67 75 78
245671.06243896 3357694.03747559 17.61459541 42 46 47
245668.35888672 3357695.28442383 17.03123093 27 31 32
245665.34289551 3357695.95739746 19.90563583 208 226 236
245667.35095215 3357693.31188965 19.51533890 159 188 206
245671.57092285 3357695.40936279 19.99322319 201 219 231
245669.32202148 3357694.97875977 20.06013107 180 207 226
245670.47900391 3357695.85900879 17.37938309 174 178 177
245667.66735840 3357695.52526855 20.05649376 210 224 235
245666.11566162 3357694.83496094 20.11909485 174 205 223
245665.88684082 3357694.83972168 20.19100952 171 202 222
245671.61297607 3357693.44177246 16.47728157 79 82 87
245667.00683594 3357693.85736084 19.74597168 165 196 216
245666.15203857 3357693.39874268 19.51284981 161 188 209
245672.72491455 3357692.78228760 16.46220970 67 77 79
245668.68951416 3357694.26287842 20.13966942 156 184 205
245665.52801514 3357696.36627197 18.85880470 185 192 198
245666.18298340 3357696.69317627 19.34220886 235 242 248
245672.29461670 3357694.51751709 19.90815735 186 205 220
245668.85375977 3357695.95825195 19.71734238 212 230 240
245669.32025146 3357695.10314941 20.00740433 182 209 226
245669.42553711 3357692.52832031 16.53915596 48 59 65
245663.79638672 3357694.74291992 18.53691483 36 48 64
245671.42962646 3357695.36596680 17.51787758 65 65 65
245671.10870361 3357694.04211426 17.06121445 18 21 26
245667.28521729 3357693.43646240 17.10281372 24 28 31
245670.74987793 3357695.64154053 19.83232880 221 229 240
245673.02746582 3357695.48193359 16.53580666 42 47 51
245671.43579102 3357693.11749268 18.69974518 1 10 19
245672.05297852 3357695.29632568 17.72643661 77 83 83
245668.69549561 3357696.28259277 18.18590164 52 53 57
245672.60388184 3357693.74407959 19.57068253 190 211 228
245666.86267090 3357696.65185547 19.05257034 71 73 72
245663.61730957 3357695.01617432 16.55776596 113 122 131
245663.60113525 3357694.62841797 19.67450905 191 217 230
245672.21661377 3357692.99371338 19.19549751 26 39 48
245664.44335938 3357696.42419434 19.55768776 207 224 234
245664.69049072 3357696.11883545 19.79111671 195 219 231
245668.98559570 3357692.91516113 19.03555489 56 58 70
245666.82189941 3357692.98217773 19.19824600 24 43 60
245670.30371094 3357696.02203369 17.51940918 28 31 36
245669.08050537 3357696.46484375 19.12090683 159 162 167
245666.71508789 3357694.00335693 19.79444504 169 197 219
245663.78167725 3357693.34411621 16.64254379 42 50 53
245672.26385498 3357695.32928467 19.88036728 186 205 219
245672.51416016 3357693.41351318 19.43077660 183 206 224
245672.00537109 3357695.42687988 16.62365150 55 56 60
245666.15270996 3357696.58081055 19.40638733 232 243 247
245665.39782715 3357695.37969971 20.24337769 182 205 221
245667.39160156 3357695.69836426 17.64812088 31 33 32
245663.78771973 3357695.97998047 19.75664139 209 226 233
245671.13641357 3357695.23632813 20.10075378 207 223 238
245667.74627686 3357693.05249023 18.46475220 8 12 15
245671.02459717 3357695.59167480 17.51671982 15 17 16
245664.41625977 3357695.50427246 16.78137207 130 138 141
245665.66662598 3357693.18908691 17.95975113 15 23 25
245668.76855469 3357692.91864014 19.00185966 54 65 71
245669.26708984 3357693.88562012 19.83815384 160 188 210
245663.50103760 3357693.35461426 16.65231514 45 56 60
245673.61651611 3357693.31677246 16.39459038 76 81 87
245665.19848633 3357693.37017822 17.85769844 0 0 4
245671.70983887 3357694.93182373 20.45436478 179 199 210
245663.29333496 3357693.38232422 19.42863846 175 201 224
245673.45373535 3357696.46160889 16.40190697 65 75 76
245667.94213867 3357696.32183838 19.53940582 209 226 236
245671.84234619 3357695.35278320 20.03020477 206 224 236
245664.87487793 3357693.99511719 16.66790199 23 24 29
245672.47857666 3357695.79064941 18.25672531 39 39 39
245663.23242188 3357693.21783447 18.57018471 81 81 83
245667.09802246 3357693.03265381 19.26413536 31 46 65
245666.28045654 3357692.94750977 18.68348122 9 19 21
245667.74340820 3357696.06427002 18.56327057 154 159 162
245666.44061279 3357692.81060791 16.59334373 137 150 158
245666.29504395 3357696.78582764 18.86376953 61 65 66
245672.38623047 3357693.08355713 16.45970726 51 62 68
245669.04803467 3357692.90930176 18.31306458 19 22 27
245673.81262207 3357694.87634277 16.92520142 43 57 66
245665.32116699 3357695.47955322 18.02489281 162 166 167
245671.63195801 3357693.51354980 18.34681511 117 135 149
245665.98718262 3357696.23516846 18.36905098 29 39 41
245665.54577637 3357695.35461426 17.75605202 106 109 114
245670.06329346 3357693.31713867 19.47967720 176 205 223
245668.00585938 3357692.45532227 16.56217575 46 55 60
245671.00939941 3357692.39135742 16.50714493 46 53 61
245668.64862061 3357692.85986328 18.69913101 20 23 28
245672.85217285 3357692.61437988 16.47218895 64 71 77
245671.76800537 3357695.14953613 20.21454430 198 216 228
245667.51922607 3357693.20452881 17.99355698 9 13 14
245667.61651611 3357695.81872559 16.90777397 28 32 35
245669.33026123 3357693.50970459 19.60424995 153 183 207
245669.37249756 3357693.12170410 19.35804367 149 179 203
245672.48510742 3357693.25048828 18.79693794 38 50 62
245668.42907715 3357695.96014404 17.88012505 59 63 64
245664.63513184 3357693.69604492 16.57851410 91 98 104
245666.51196289 3357693.05041504 16.60793877 31 34 39
245671.77136230 3357694.82934570 17.24530602 40 43 52
245664.84704590 3357694.35412598 16.58678818 45 50 53
245672.21411133 3357695.49670410 17.97672844 48 51 56
245672.02972412 3357693.98242188 16.44332504 54 57 62
245671.68261719 3357694.72375488 17.93384171 147 153 153
245668.23101807 3357693.38208008 17.48964882 9 13 16
245663.48822021 3357693.65209961 18.53870392 44 47 52
245665.77606201 3357694.03430176 19.89215469 168 196 217
245665.90856934 3357695.97253418 19.82789040 197 219 232
245671.08203125 3357695.43676758 16.78634071 27 31 32
245668.88659668 3357692.84619141 18.59857941 35 42 48
245672.94549561 3357695.21600342 16.55027962 37 42 46
245664.08117676 3357693.06811523 19.13798904 130 138 141
245664.29852295 3357694.12127686 17.89055061 2 10 13
245668.07183838 3357695.47003174 16.58765602 53 58 61
245667.76055908 3357693.23352051 16.63391495 88 98 100
245669.47857666 3357696.07073975 19.62152100 216 230 241
245672.90551758 3357695.20300293 16.55085564 40 45 49
245663.45117188 3357695.52929688 19.54417610 188 217 233
245663.57897949 3357695.58215332 18.90344048 36 44 57
245664.79510498 3357694.60833740 16.62175941 42 48 48
245669.00622559 3357693.20434570 17.52105904 27 34 40
245673.55712891 3357695.48937988 16.66899109 39 42 47
245668.80975342 3357695.47497559 19.97532082 202 221 236
245663.60852051 3357693.08856201 16.68371201 43 51 54
245669.86340332 3357695.42504883 19.79958916 225 235 244
245668.32830811 3357694.92816162 20.53734589 173 192 206
245671.13049316 3357695.61926270 19.88486099 201 221 232
245669.65325928 3357692.97979736 18.03232956 13 22 27
245672.75726318 3357693.82647705 19.49869537 189 210 229
245666.24487305 3357695.55908203 17.60140419 32 37 40
245672.24200439 3357696.29638672 16.55947304 71 75 74
245672.53674316 3357696.09979248 16.50957489 57 62 66
245666.78405762 3357695.81494141 17.74736023 32 33 35
245667.44555664 3357693.05426025 19.21533012 20 33 49
245671.50268555 3357695.01129150 17.27672195 48 50 47
245670.52941895 3357696.04028320 16.81234360 110 111 106
245670.82348633 3357695.47064209 16.91987610 31 35 38
245667.98901367 3357694.62927246 20.38335228 168 196 210
245663.66046143 3357693.12786865 18.77786827 77 81 80
245667.12176514 3357693.08703613 18.55741119 12 17 21
245670.53033447 3357693.07550049 16.59902382 51 56 60
245670.32794189 3357696.09838867 19.57448578 220 237 244
245667.41510010 3357695.49005127 19.99669647 197 221 233
245672.30798340 3357693.93566895 18.53995323 73 82 61
245665.32098389 3357695.11853027 16.83628845 23 27 28
245665.65808105 3357692.57910156 16.62737465 36 43 51
245666.82830811 3357695.05572510 20.04135704 185 214 230
245668.92492676 3357695.38220215 19.97781754 205 224 238
245667.95843506 3357693.33386230 17.60758209 8 12 15
245671.76446533 3357694.31817627 16.92812538 29 34 40
245671.85705566 3357695.02770996 17.24875259 67 69 68
245664.32324219 3357695.01019287 20.35229874 180 208 222
245668.16882324 3357695.16180420 16.59745216 54 57 62
245673.03118896 3357695.75299072 16.44422150 45 53 55
245665.38098145 3357693.21978760 19.38956261 163 186 202
245664.36676025 3357696.39849854 19.57812309 203 221 233
245672.57653809 3357694.69329834 19.67208481 193 212 226
245663.91229248 3357696.51208496 18.98928452 136 140 143
245667.39807129 3357696.54785156 18.60333061 46 51 55
245663.37847900 3357694.73046875 18.91895866 38 48 57
245673.21978760 3357695.44067383 16.54177284 43 47 50
245665.26391602 3357696.50085449 19.15761948 170 175 179
245671.39990234 3357693.69390869 18.03633499 38 51 57
245666.65734863 3357692.63372803 16.56763840 30 39 48
245668.08197021 3357695.04180908 20.48020935 216 229 237
245670.60052490 3357693.48339844 17.45621490 22 29 37
245668.13220215 3357692.97863770 18.97881699 34 39 43
245669.85864258 3357693.20837402 17.02924538 22 23 25
245665.98748779 3357695.91912842 16.94687462 82 87 90
245665.01000977 3357695.44165039 18.13854218 138 146 149
245667.19140625 3357696.19488525 18.11369896 32 34 33
245672.81378174 3357695.28533936 16.59383392 41 46 50
245663.20513916 3357692.95440674 18.88079262 46 56 65
245672.72235107 3357693.86260986 16.46172142 50 60 62
245668.95458984 3357695.07641602 20.11467743 177 204 223
245669.11175537 3357693.03613281 16.63651657 27 37 39
245670.28625488 3357695.96057129 19.65926743 217 234 242
245669.24475098 3357692.93414307 16.59183311 27 36 41
245672.47448730 3357693.39636230 18.72886658 60 74 77
245666.90856934 3357696.68981934 19.15196037 126 128 127
245668.41046143 3357692.93762207 18.65340614 14 17 22
245672.30633545 3357694.69726563 18.52229881 79 86 78
245667.96154785 3357693.19165039 19.40297508 156 187 207
245667.74761963 3357693.41186523 17.45003510 15 22 28
245671.20855713 3357693.26837158 19.45044708 176 205 219
245671.47167969 3357695.16198730 20.20430565 209 226 236
245672.81927490 3357694.14971924 16.48262978 49 54 58
245671.94879150 3357694.23291016 20.06101799 182 208 223
245667.91540527 3357692.95819092 16.55060196 33 38 44
245668.71929932 3357696.46557617 19.30637360 244 248 251
245666.44195557 3357694.22406006 19.91826630 171 202 222
245671.47369385 3357693.31683350 16.50851822 14 17 22
245665.81463623 3357696.37237549 18.69912148 58 66 68
245670.65887451 3357695.90124512 17.60107613 114 122 124
245671.89630127 3357693.05706787 19.31113052 61 77 92
245663.97662354 3357695.26446533 19.98940086 183 209 222
245669.14202881 3357694.39050293 20.15612221 170 198 219
245672.18652344 3357695.59521484 19.84564400 199 218 232
245663.84039307 3357696.67486572 16.55644989 80 85 91
245669.01910400 3357696.47717285 18.78108597 26 32 32
245665.04284668 3357694.85870361 17.02862740 64 74 84
245668.90814209 3357692.89703369 18.42935371 55 60 66
245673.03790283 3357693.65118408 19.20150375 122 139 149
245671.51342773 3357694.30303955 17.90664101 76 80 83
245663.50158691 3357694.87103271 18.86051750 144 153 162
245663.81750488 3357695.60803223 18.71688080 21 31 43
245664.63507080 3357694.31616211 20.19674110 156 181 203
245664.35650635 3357695.00671387 18.13680267 62 72 82
245669.09197998 3357696.51196289 19.21747208 169 174 177
245667.62103271 3357695.96929932 16.91871834 36 39 44
245672.37908936 3357696.40441895 18.84197044 89 99 101
245664.24121094 3357694.85949707 16.55514145 106 116 118
245665.52203369 3357693.30389404 17.26658440 23 26 31
245671.89636230 3357693.05987549 19.18972206 74 86 100
245663.40887451 3357696.59057617 19.38992500 212 230 240
245669.06072998 3357694.64337158 20.21990395 172 201 219
245673.60705566 3357694.31622314 16.81132126 14 23 30
245671.36877441 3357694.31512451 17.12192726 34 37 44
245663.97894287 3357694.81335449 19.99258995 182 213 231
245663.13433838 3357693.79974365 19.16707802 54 64 73
245670.50677490 3357693.57189941 19.63986206 174 203 219
245668.49255371 3357693.01928711 18.32864189 14 17 24
245663.71435547 3357695.20526123 18.74623680 32 41 48
245666.17492676 3357695.56152344 19.94829941 207 226 241
245673.87652588 3357694.36047363 16.64742470 27 32 36
245669.33068848 3357695.24737549 19.94062805 184 210 225
245671.82696533 3357693.23480225 16.44008827 53 62 67
245672.24414063 3357695.33142090 17.12575722 148 152 155
245669.49212646 3357695.51715088 19.79844856 222 235 241
245671.60675049 3357693.32147217 19.49378777 182 208 223
245667.98596191 3357693.47576904 17.30370140 4 9 13
245670.21765137 3357692.87689209 18.86173439 39 49 58
245665.94720459 3357693.09844971 16.64371490 28 37 36
245668.81591797 3357695.98736572 17.21617508 19 22 27
245673.34210205 3357693.16168213 16.43329811 64 69 75
245665.36883545 3357696.12976074 17.03193474 35 38 43
245668.83172607 3357693.72845459 19.72676277 152 184 205
245669.91113281 3357693.12902832 17.82494926 65 72 80
245663.96862793 3357696.66339111 19.38503456 210 228 232
245666.47448730 3357694.97161865 20.05676460 183 210 229
245665.47930908 3357695.32305908 16.81616211 39 43 44
245667.79870605 3357696.39819336 16.47170639 66 67 72
245666.30920410 3357695.20520020 16.76807213 81 85 88
245669.77832031 3357695.49554443 19.77596474 228 235 243
245665.83520508 3357696.43902588 18.83590698 68 73 76
245669.98266602 3357695.96929932 17.35069275 47 48 50
245672.14453125 3357693.70074463 18.51539040 83 98 79
245668.06390381 3357693.13488770 18.14154243 8 12 15
245672.54785156 3357695.73754883 18.37047958 54 62 65
245671.67022705 3357694.84106445 17.65944672 132 136 139
245672.54107666 3357693.47698975 16.46362114 68 76 79
245667.07800293 3357693.26092529 16.79632378 32 36 39
245663.84539795 3357695.54156494 19.84693909 229 232 239
245665.23950195 3357693.49237061 19.57540703 168 190 211
245672.58209229 3357694.56384277 16.38669395 83 88 94
245672.24316406 3357693.80706787 16.49948502 57 62 66
245665.65814209 3357693.12634277 16.70719719 22 29 35
245666.26513672 3357693.28369141 17.23767281 16 21 24
245664.17645264 3357696.15655518 19.76608658 199 222 230
245666.52404785 3357694.11138916 19.85230637 173 201 222
245667.63629150 3357693.03668213 18.75647545 11 16 19
245672.97021484 3357696.31072998 18.79432487 191 197 197
245671.20678711 3357695.43188477 19.97980690 193 215 228
245671.89239502 3357695.04156494 17.12178612 65 67 66
245669.49597168 3357696.23248291 17.61240578 31 32 34
245664.31732178 3357694.96179199 18.17029190 91 99 112
245671.26763916 3357693.20434570 19.40782166 176 202 217
245669.67456055 3357692.82141113 16.56977654 119 124 130
245663.96386719 3357696.32934570 19.63568306 202 222 233
245671.04583740 3357692.36328125 16.50683784 57 64 72
245667.50976563 3357693.65527344 19.69914627 158 189 209
245667.98645020 3357696.03881836 16.51571274 124 127 134
245664.86572266 3357695.74853516 16.71336937 104 104 104
245664.64916992 3357694.44506836 16.49492455 60 65 69
245663.29730225 3357696.31036377 19.34317017 180 198 210
245672.40698242 3357694.55694580 18.60197830 38 45 37
245667.30871582 3357693.43023682 17.37466621 16 24 26
245663.22564697 3357693.02716064 19.26577568 55 72 82
245672.43353271 3357692.83624268 16.46749115 61 71 73
245668.74505615 3357694.28656006 20.14216042 160 186 209
245669.34307861 3357692.78625488 19.04428482 75 83 94
245670.82403564 3357693.15325928 19.36878586 172 197 217
245669.04467773 3357695.87170410 19.74025917 208 226 236
245668.03527832 3357696.29345703 18.79493523 151 156 159
245670.56719971 3357695.90924072 16.85420418 35 37 36
245663.48358154 3357696.08123779 19.15946007 129 137 148
245665.69464111 3357693.63012695 19.66149330 166 195 213
245670.39147949 3357694.51879883 20.03544617 197 221 233
245671.99328613 3357695.12390137 18.30156708 105 114 111
245670.52838135 3357692.93908691 18.99413109 29 36 44
245671.43286133 3357694.31414795 17.83674240 70 73 78
245664.24749756 3357694.55035400 18.06673241 18 28 38
245666.72723389 3357695.25817871 17.17033958 27 28 30
245671.03369141 3357693.82244873 17.04088402 36 40 43
245667.24096680 3357696.39691162 18.27447701 42 43 45
245671.62689209 3357692.86724854 16.45362282 161 174 180
245671.62585449 3357694.12768555 16.57390213 5 10 14
245670.78454590 3357695.32055664 19.96772957 245 245 253
245664.19915771 3357693.18206787 18.66478539 68 76 79
245673.60467529 3357694.31842041 16.81712914 14 23 30
245669.56304932 3357692.73907471 18.85575294 25 29 30
245664.62811279 3357695.44891357 16.75965881 119 128 127
245663.87445068 3357696.29473877 18.94704437 127 135 138
245673.02954102 3357693.65368652 16.45402145 47 57 59
245663.31579590 3357694.27160645 19.34872818 193 215 228
245666.15533447 3357695.26043701 17.27230072 28 32 35
245666.45678711 3357693.01092529 18.52604103 19 24 28
245669.35864258 3357696.26824951 17.47197342 39 40 45
245669.96032715 3357695.93011475 17.22466660 40 41 43
245663.45477295 3357694.96911621 19.28801155 92 105 121
245665.57391357 3357695.25213623 16.84093094 83 87 88
245671.59729004 3357694.79638672 17.49995613 150 151 156
245666.31634521 3357695.26318359 16.76537514 69 73 76
245668.46673584 3357695.01971436 20.39266205 175 198 212
245664.39794922 3357695.37829590 16.79320145 90 100 102
245665.19659424 3357693.45770264 17.58041763 1 5 6
245663.80328369 3357695.07910156 19.86147118 184 213 231
245668.00646973 3357695.90618896 17.86916542 78 71 78
245664.25976563 3357695.31567383 20.19811821 190 212 225
245672.15026855 3357695.35577393 17.84487343 17 22 26
245671.20983887 3357693.06127930 18.76544952 45 49 58
245670.20013428 3357693.57067871 19.64137459 176 205 223
245672.67321777 3357696.50024414 18.94701004 99 109 111
245670.51849365 3357695.68041992 17.28607559 105 113 115
245670.72772217 3357694.86437988 20.10087013 212 228 241
245667.70520020 3357696.41070557 18.93398666 149 151 150
245671.08520508 3357693.94799805 17.03664970 22 25 30
245664.62689209 3357694.08862305 17.41231155 16 26 28
245666.40875244 3357696.70147705 19.34646034 230 241 247
245667.85083008 3357696.22613525 19.60404968 202 222 233
245672.17053223 3357696.07476807 19.56846619 211 229 241
245671.86358643 3357696.37615967 19.38332939 224 237 245
245664.69262695 3357696.70440674 16.54816055 181 191 193
245672.99218750 3357694.67041016 19.32060242 152 166 175
245672.78240967 3357695.65905762 18.54285431 65 73 76
245665.53533936 3357694.87744141 20.31828499 171 198 219
245663.63574219 3357695.13128662 18.82783318 50 50 60
245672.48559570 3357696.41210938 19.31461525 226 243 250
245671.65972900 3357692.34942627 16.46751213 63 67 76
245671.78680420 3357693.71612549 16.39826202 52 55 60
245671.46594238 3357693.08050537 18.85464287 7 16 33
245669.21331787 3357692.85040283 18.44326019 16 21 27
245668.92163086 3357696.29998779 17.08117104 28 29 34
245667.20263672 3357696.46429443 16.68371201 57 58 63
245672.08929443 3357695.29449463 16.90377045 96 100 101
245667.63287354 3357693.43670654 17.07959557 68 77 84
245673.66802979 3357695.13714600 16.75133133 20 33 41
245663.41979980 3357694.28247070 18.75820160 13 20 28
245666.40594482 3357692.43664551 16.58766747 30 40 49
245663.42700195 3357695.37567139 19.50876236 189 222 241
245665.32006836 3357695.00708008 17.04719925 38 42 41
245664.16027832 3357695.28656006 20.11773109 181 208 225
245668.70330811 3357692.97698975 19.15662193 33 42 49
245665.96832275 3357695.58532715 16.94970512 27 31 32
245671.79455566 3357693.69519043 19.76770973 189 212 228
245666.30834961 3357695.07769775 16.87006378 46 50 53
245670.20690918 3357696.36938477 19.40597153 225 242 249
245669.04394531 3357695.03491211 20.11329842 177 204 223
245664.87786865 3357693.30230713 18.22800446 48 52 53
245673.01818848 3357692.80816650 19.14515686 32 46 55
245664.26287842 3357694.48034668 16.57642937 72 77 83
245664.17590332 3357696.16168213 18.87562943 123 128 132
245672.63031006 3357693.14703369 16.43749237 61 70 75
245663.45648193 3357693.11944580 19.34945297 115 131 147
245666.02758789 3357696.59936523 18.98346901 38 42 43
245666.84423828 3357696.64025879 18.94409943 31 33 30
245668.19818115 3357695.09674072 16.62233162 58 62 65
245664.16461182 3357694.38159180 18.10132980 3 8 14
245672.58715820 3357695.15368652 16.57911491 39 47 50
245666.40490723 3357692.90026855 19.25233269 165 188 204
245664.93658447 3357695.61303711 18.24801636 119 124 128
245663.52978516 3357693.01263428 19.02830505 35 40 46
245669.47351074 3357692.86102295 19.20080948 53 72 86
245664.85711670 3357693.50781250 17.00799370 21 29 32
245668.75115967 3357692.90667725 18.95713615 55 66 72
245672.38769531 3357696.13714600 18.54358292 142 150 152
245671.67590332 3357694.66674805 17.83764458 89 93 96
245665.66876221 3357695.19238281 17.50751114 56 60 63
245673.90539551 3357694.59802246 16.60371590 51 60 67
245673.81243896 3357694.77862549 16.99345970 49 59 68
245672.51007080 3357695.83331299 19.65912056 196 216 227
245670.39276123 3357696.04803467 16.89040375 36 36 36
245665.43981934 3357696.13830566 18.58738899 118 123 127
245670.60974121 3357695.71185303 17.39458084 81 87 87
245667.30145264 3357696.08789063 19.70463181 202 224 237
245671.08544922 3357693.49066162 17.93011093 33 46 54
245667.64819336 3357695.69873047 16.89406013 50 51 53
245671.16937256 3357696.06610107 16.77189636 28 29 33
245665.73413086 3357695.37976074 16.98513985 71 72 76
245663.34808350 3357693.23645020 19.39106941 156 178 202
245664.26739502 3357695.07238770 20.28338623 181 210 224
245671.17889404 3357696.29644775 18.74247551 166 171 175
245667.88854980 3357693.42620850 17.40124512 9 14 18
245665.20898438 3357693.30920410 18.02293777 21 22 26
245666.21472168 3357696.42315674 19.50757599 221 238 245
245665.56439209 3357694.79675293 20.31079483 168 195 216
245669.58386230 3357692.76580811 18.64909935 21 30 29
245664.72747803 3357694.93701172 17.72932816 149 158 165
245669.45532227 3357696.19189453 19.56423569 225 239 248
245672.57202148 3357693.74786377 16.47787094 58 63 67
245670.89959717 3357693.80468750 17.24561119 33 38 41
245671.39288330 3357694.14202881 16.84420013 38 41 46
245667.27801514 3357692.78167725 16.56703186 129 140 146
245666.77172852 3357695.63165283 17.56977272 40 41 43
245666.15069580 3357695.31896973 17.33519936 33 37 40
245664.01434326 3357696.24176025 16.69010544 85 92 98
245668.17181396 3357694.34680176 20.22543716 155 186 206
245669.39013672 3357693.17254639 17.56832886 39 46 54
245664.39270020 3357696.12640381 18.79177094 119 124 128
245666.48022461 3357696.07849121 18.00030899 37 41 44
245669.63891602 3357692.70715332 19.06575012 23 34 38
245671.63232422 3357693.21716309 16.46225548 146 153 159
245671.14013672 3357695.33990479 16.95898438 16 17 19
245672.37988281 3357695.64965820 19.76804924 192 210 224
245673.02862549 3357692.84735107 19.20930672 29 46 62
245664.87640381 3357695.92974854 19.94304276 191 211 222
245668.40039063 3357693.75268555 19.74734688 148 183 205
245672.25775146 3357695.04339600 18.51517105 108 110 105
245667.85095215 3357693.19146729 17.98275375 10 11 16
245671.91302490 3357693.58123779 16.42825127 55 58 63
245671.06512451 3357693.41522217 17.97052765 14 25 31
245670.08361816 3357696.38519287 17.97076797 45 47 46
245665.70648193 3357694.15930176 19.97346497 168 196 217
245664.76135254 3357694.09594727 20.00504112 158 185 206
245666.68695068 3357694.60388184 20.03578949 177 208 226
245667.93841553 3357695.00396729 16.74514198 42 27 30
245668.52667236 3357693.41406250 17.11251068 8 11 16
245663.70446777 3357696.72222900 19.10562134 128 133 136
245671.86480713 3357694.79278564 18.22605896 162 166 165
245666.77294922 3357696.70227051 18.52436066 127 130 135
245664.64538574 3357695.94396973 19.93273735 194 214 225
245670.93988037 3357693.41595459 17.86882401 22 35 43
245672.29595947 3357693.33325195 16.47712326 59 69 71
245671.75250244 3357692.56610107 16.45977402 60 64 73
245670.79199219 3357696.42309570 19.02507782 213 218 224
245665.12164307 3357695.88732910 16.89581680 72 76 77
245663.40454102 3357693.25476074 16.65485001 43 52 57
245669.54602051 3357695.29388428 19.87323570 191 213 224
245672.00598145 3357696.19561768 19.49524307 207 227 236
245672.26196289 3357695.26293945 19.88852692 185 204 218
245671.75091553 3357693.06616211 19.26971817 107 122 141
245670.18670654 3357695.52691650 19.79011536 235 244 251
245667.67773438 3357696.30926514 18.78780746 109 111 110
245663.92553711 3357693.52313232 19.57098579 152 180 201
245668.08178711 3357695.05694580 20.46863365 215 228 236
245670.03051758 3357694.04400635 19.88238716 182 209 226
245667.25476074 3357695.73193359 16.83161736 31 35 38
245663.14093018 3357693.37976074 18.68433762 114 115 119
245666.14923096 3357693.24786377 17.56602859 12 17 21
245664.06042480 3357695.71160889 16.67334938 59 70 76
245671.97894287 3357695.60168457 18.00670815 169 171 170
245669.09216309 3357692.83154297 18.84309196 16 25 30
245665.73461914 3357695.46496582 17.74100113 50 54 57
245663.36364746 3357695.98443604 19.43435860 206 227 246
245665.69055176 3357696.45239258 16.65503311 57 63 63
245664.40032959 3357693.89453125 17.84686470 13 20 28
245671.63604736 3357696.37207031 19.01108742 166 174 177
245672.10394287 3357695.13049316 20.04539108 183 202 216
245667.53784180 3357696.42779541 18.96397018 127 135 137
245666.78735352 3357694.36517334 19.98267365 177 208 226
245664.61169434 3357694.50878906 17.50583839 23 28 34
245666.00988770 3357693.22247314 17.72212410 18 26 29
245666.69970703 3357693.20605469 17.89267159 24 28 31
245672.86523438 3357693.52044678 16.43313599 57 67 69
245665.74322510 3357695.73333740 19.95647049 188 210 221
245671.45562744 3357693.17114258 18.59316635 30 37 43
245672.60906982 3357695.81890869 18.41478539 59 67 70
245665.96887207 3357695.68719482 19.94373894 200 218 232
245672.96984863 3357693.84545898 19.12218475 116 129 137
245673.60180664 3357695.01165771 16.56394386 35 42 50
245671.64648438 3357695.91577148 18.19135857 30 30 30
245666.72326660 3357692.58923340 16.57146645 35 42 52
245666.68762207 3357694.57324219 20.02802467 177 208 226
245671.65722656 3357694.08898926 16.46181297 90 95 99
245668.41326904 3357695.81976318 17.74517632 25 26 28
245671.77984619 3357695.99426270 19.62469101 197 219 230
245670.63061523 3357695.53924561 17.04066849 102 106 109
245668.51135254 3357696.37420654 18.58009529 150 152 151
245670.45861816 3357695.94647217 17.45488548 49 50 54
245667.12292480 3357696.11096191 19.67262268 207 229 240
245664.46209717 3357695.32873535 16.78855324 128 133 137
245671.49810791 3357694.17205811 16.86063004 9 14 18
245671.80316162 3357694.30767822 18.14317513 72 77 70
245672.57208252 3357695.67004395 18.37385941 53 61 64
245663.62792969 3357693.26660156 19.40742302 155 179 203
245672.00732422 3357694.10430908 16.46182060 43 48 52
245667.14776611 3357696.12341309 19.67033958 206 228 239
245665.88177490 3357693.19830322 17.12618446 24 29 35
245666.27575684 3357695.15380859 20.05700684 181 210 226
245666.64837646 3357693.21887207 19.42410278 165 192 213
245668.87194824 3357694.97277832 20.21173286 171 200 218
245673.00701904 3357695.73138428 16.45038033 49 57 60
245671.43713379 3357695.41589355 17.56461525 97 97 97
245666.69134521 3357694.46026611 19.99942970 177 208 226
245664.30053711 3357693.45989990 16.61314392 58 65 71
245670.66900635 3357692.77215576 16.49789238 162 170 173
245672.07879639 3357695.94982910 18.32748413 151 151 153
245671.09686279 3357692.84106445 16.47418404 35 43 45
245668.29650879 3357692.62243652 16.54292107 26 39 48
245668.45617676 3357695.58947754 17.23208427 17 20 25
245671.46441650 3357695.67980957 16.52144051 33 37 36
245670.14739990 3357693.24816895 16.64873505 52 57 63
245664.78985596 3357695.16253662 20.66217804 192 212 223
245671.97662354 3357696.32977295 19.41137314 218 237 244
245672.40826416 3357695.93377686 16.79580879 86 94 97
245671.32128906 3357693.56512451 16.65247726 12 19 25
245668.99645996 3357692.85980225 18.87896919 45 54 61
245668.08355713 3357693.75634766 19.75305939 151 183 204
245673.36041260 3357693.89520264 16.48873138 41 48 54
245671.50146484 3357695.44958496 17.67476463 83 85 82
245667.52655029 3357694.30175781 20.03491211 172 204 219
245671.14904785 3357693.63598633 16.86262321 130 131 135
245666.74523926 3357696.77423096 19.23335838 241 246 250
245671.02819824 3357695.17181396 20.11399460 210 222 236
245669.83258057 3357696.35357666 17.92734337 38 40 39
245663.73596191 3357694.92401123 19.79244995 184 213 229
245668.17114258 3357694.27539063 20.16428566 156 187 207
245663.87274170 3357695.51330566 18.65711594 13 23 33
245667.02209473 3357693.42767334 19.54408073 158 189 209
245669.32104492 3357692.79602051 18.70946121 27 30 37
245668.91705322 3357693.23730469 17.46782494 12 13 17
245672.17883301 3357694.88555908 16.79286194 15 22 28
245667.86682129 3357693.42340088 19.55884552 154 182 203
245672.97814941 3357695.59899902 18.86653519 55 63 66
245671.35510254 3357693.27056885 16.53976059 32 35 40
245671.74072266 3357694.13879395 18.15526390 25 32 24
245664.30645752 3357694.91656494 18.16347885 135 144 159
