246093.70227051 3357464.38848877 14.86532307 82 89 82
246093.17529297 3357473.44165039 14.33072567 85 87 99
246093.23913574 3357464.25875854 14.94058990 79 85 71
246094.02087402 3357460.87091064 16.10644722 148 165 193
246091.29516602 3357458.57391357 16.19349670 77 104 89
246092.34460449 3357467.41952515 14.59215546 218 227 226
246093.49340820 3357471.33050537 16.54007149 15 125 126
246091.64147949 3357458.45608521 15.21062469 25 41 137
246092.42492676 3357459.20739746 14.39981365 25 39 84
246092.51367188 3357467.23193359 15.37120533 148 147 143
246093.93139648 3357468.39880371 14.34378433 89 89 99
246093.81799316 3357464.82177734 15.12856102 142 147 140
246093.32666016 3357473.28347778 16.52573395 23 151 226
246093.75488281 3357472.29995728 16.60118294 254 226 249
246094.26318359 3357465.52420044 16.50300789 44 131 202
246094.14440918 3357461.03585815 16.35138893 28 83 150
246094.68664551 3357459.63467407 14.34707260 147 158 186
246091.56176758 3357468.46002197 16.37966537 24 189 221
246091.41540527 3357457.15496826 17.34931183 126 133 139
246094.01513672 3357468.95855713 14.22399998 115 115 125
246092.97497559 3357468.95040894 15.81369019 177 180 173
246092.55102539 3357465.53875732 15.39846992 87 100 83
246093.23950195 3357467.60928345 15.39912891 122 121 117
246092.81359863 3357469.54666138 16.09594917 156 166 165
246091.31909180 3357473.86801147 14.28642845 105 113 124
246093.26464844 3357471.60339355 16.18272400 128 128 128
246091.51794434 3357457.49758911 14.42324257 63 63 87
246094.46691895 3357458.81689453 14.35285473 153 179 240
246091.58020020 3357456.36279297 17.55759621 173 186 194
246092.56909180 3357456.94024658 14.36652660 50 88 135
246091.13244629 3357455.62988281 14.54269695 140 167 194
246093.97265625 3357471.68661499 16.50611687 6 146 205
246091.56555176 3357463.14691162 16.46183586 4 111 191
246091.35290527 3357457.49108887 17.16106796 98 108 118
246093.88879395 3357456.48168945 14.38315964 195 231 245
246091.42443848 3357462.59646606 14.37619972 72 74 69
246091.88269043 3357461.90890503 14.37695313 140 139 135
246091.54565430 3357465.70654297 14.48152256 44 35 40
246093.93273926 3357461.40689087 15.96147442 71 90 94
246091.33947754 3357471.02066040 14.40016747 82 87 93
246091.50939941 3357462.24108887 16.49269867 27 131 204
246091.41918945 3357468.65460205 16.28927803 148 189 209
246093.88598633 3357471.19216919 14.50792122 102 72 70
246091.38977051 3357458.17422485 17.16939545 216 236 209
246091.72448730 3357468.76321411 16.52866364 58 191 226
246091.34802246 3357458.09100342 16.62298775 79 105 102
246093.40075684 3357472.23672485 16.16934776 128 128 128
246094.73437500 3357465.19674683 14.34710407 92 90 103
246092.16699219 3357459.22146606 14.70875263 37 49 133
246092.96240234 3357471.65618896 16.69686699 200 214 251
246091.52929688 3357464.02096558 16.08755875 58 65 81
246091.85241699 3357469.90084839 14.35502911 112 131 145
246091.65881348 3357455.36926270 14.55693722 52 55 74
246093.35156250 3357454.02905273 14.43215752 55 57 78
246094.91784668 3357456.75680542 14.34960747 224 240 255
246093.86975098 3357469.16119385 15.82740402 153 155 141
246094.51879883 3357455.08734131 14.44470501 49 55 69
246093.45825195 3357461.59176636 15.55167770 68 77 82
246094.24291992 3357472.75341797 16.21188354 68 93 115
246092.69042969 3357462.80331421 17.00174332 22 123 203
246092.27185059 3357468.99191284 15.96491909 107 127 138
246092.70373535 3357461.04837036 14.40472794 113 111 124
246092.15991211 3357473.09817505 14.25297260 167 165 178
246094.56787109 3357455.45800781 14.34451389 126 136 146
246092.47790527 3357473.47961426 14.20992947 121 127 141
246093.34338379 3357472.78717041 16.17841911 128 128 128
246091.36755371 3357457.00888062 17.02470207 105 121 137
246092.81066895 3357473.70285034 14.22811031 82 88 100
246093.53063965 3357463.22134399 14.47628975 79 73 85
246091.57263184 3357472.64151001 14.22986031 193 195 207
246094.25842285 3357469.72439575 16.29267311 74 169 213
246093.40319824 3357465.71261597 16.86649704 16 134 221
246093.43786621 3357467.05276489 15.33921146 131 132 126
246094.28320313 3357453.88110352 14.44907093 29 42 84
246093.91638184 3357467.91104126 15.66645813 69 74 93
246094.19311523 3357463.60086060 16.19363213 137 162 192
246093.32604980 3357473.29510498 16.51953125 23 151 226
246091.52099609 3357456.60437012 17.36697006 82 83 101
246091.47509766 3357460.91168213 14.53822231 97 111 124
246093.37951660 3357466.66607666 14.44839191 65 68 73
246091.83471680 3357469.59432983 16.20463943 121 169 173
246093.16320801 3357473.07415771 14.34433651 108 112 111
246094.95654297 3357455.13745117 14.36512756 163 167 176
246091.33020020 3357458.79080200 16.70569992 95 115 126
246091.58276367 3357468.95141602 16.41619301 27 183 221
246093.05932617 3357459.09887695 14.38641357 161 186 217
246092.44958496 3357468.30099487 15.69327927 168 164 165
246093.29431152 3357472.01937866 16.84050941 8 139 219
246093.69604492 3357472.19860840 16.18692398 128 128 128
246093.09167480 3357464.96612549 15.21705723 83 93 82
246094.44787598 3357464.00018311 15.40072060 231 235 247
246093.93078613 3357456.06954956 14.42035580 87 86 126
246092.36657715 3357468.35409546 14.60279274 66 74 97
246092.57116699 3357466.98974609 16.34356689 8 39 96
246091.10559082 3357458.33428955 14.49586868 94 106 106
246094.11938477 3357471.62475586 14.29952812 101 100 105
246091.71472168 3357454.08450317 14.86736774 72 84 132
246094.32763672 3357465.27767944 16.24965668 145 119 122
246093.35461426 3357465.65176392 14.46720695 61 61 61
246091.67468262 3357464.91836548 16.06031990 38 64 97
246091.47216797 3357464.10852051 14.42713928 100 65 61
246091.47302246 3357459.26965332 17.34643364 54 76 90
246094.44592285 3357458.99420166 14.36798382 187 213 250
246093.20568848 3357458.49511719 14.37001610 179 214 236
246094.27209473 3357467.12377930 14.44348621 116 116 128
246091.36120605 3357456.75491333 16.36819649 147 158 188
246092.67517090 3357473.22534180 14.23129749 114 122 133
246091.78527832 3357458.28405762 14.85038185 15 30 111
246091.44860840 3357473.60742188 14.25043869 129 136 152
246093.37255859 3357459.76828003 14.41147709 86 95 128
246093.77246094 3357463.77764893 14.58857250 71 80 79
246091.93298340 3357461.76773071 16.03124237 134 139 143
246092.86877441 3357461.38397217 14.52609539 43 70 141
246094.99121094 3357456.78439331 14.34700108 179 192 208
246093.93225098 3357458.68023682 14.36672115 152 182 236
246091.32214355 3357468.82415771 14.41186523 93 104 124
246091.51379395 3357464.69567871 14.34727764 122 123 127
246093.39123535 3357466.73944092 14.49211407 65 70 74
246093.26989746 3357462.32528687 16.90507126 18 132 218
246093.93200684 3357454.09371948 14.55260468 23 28 48
246092.71984863 3357455.50500488 14.55156136 82 77 133
246091.64978027 3357456.73684692 14.42795181 74 71 92
246091.62951660 3357468.27456665 14.39717865 112 111 107
246094.46533203 3357454.62197876 14.76441479 104 123 166
246091.46582031 3357461.04315186 14.52979755 149 150 154
246092.47387695 3357453.72070313 14.48188019 50 54 57
246091.94274902 3357458.47030640 14.88373280 47 65 137
246091.94958496 3357461.43954468 16.31271744 83 123 135
246094.34851074 3357466.56982422 16.27972794 19 112 169
246092.98669434 3357459.63058472 14.46278286 93 98 140
246093.97937012 3357466.89611816 16.34738541 25 70 129
246093.25988770 3357465.84011841 14.37784576 106 103 112
246091.29064941 3357457.12097168 14.42783833 129 134 138
246091.26660156 3357458.67495728 16.31015205 88 103 158
246091.38317871 3357461.66900635 16.22050476 146 168 179
246091.93164063 3357466.08636475 15.57547855 173 170 163
246094.76440430 3357454.81234741 14.36863518 117 126 141
246093.87426758 3357466.09426880 15.67483711 132 137 130
246091.75329590 3357463.33499146 14.32786942 179 178 173
246093.80847168 3357454.44589233 14.77247429 66 95 153
246094.30554199 3357464.21524048 16.08039284 161 115 117
246091.90808105 3357466.50958252 15.38047409 135 142 126
246093.51098633 3357471.80999756 16.72280502 9 144 225
246092.99853516 3357467.15307617 16.27882385 117 105 117
246092.79907227 3357470.32852173 14.55099392 107 104 115
246092.81384277 3357472.58160400 16.18735886 128 128 128
246094.09411621 3357455.08175659 15.02361012 50 57 103
246092.09863281 3357454.38082886 15.22032738 110 123 155
246094.47985840 3357457.87063599 14.37020969 145 198 232
246092.81848145 3357472.75048828 14.28854275 148 154 168
246092.29626465 3357469.84429932 16.40661621 112 208 224
246093.06115723 3357468.36462402 16.83836746 4 154 231
246092.70959473 3357467.83334351 14.73234749 94 96 95
246092.54174805 3357466.70541382 15.34606934 145 151 139
246093.92663574 3357469.00964355 16.58839417 18 157 222
246091.69604492 3357454.48388672 15.16537380 246 250 253
246093.98803711 3357471.92129517 16.21221924 128 128 128
246092.15393066 3357457.53118896 14.40107918 184 216 231
246092.70544434 3357462.17303467 17.04184723 14 135 218
246091.62646484 3357468.28125000 16.36759949 23 187 224
246092.90612793 3357457.99645996 14.41532898 192 223 241
246092.43994141 3357466.75741577 14.51344109 220 227 220
246091.32421875 3357456.96780396 16.73136139 208 218 220
246093.43420410 3357456.63488770 14.37576580 137 206 213
246091.95898438 3357454.10452271 15.12913513 114 125 181
246091.70959473 3357465.23657227 16.45808983 13 175 224
246092.29614258 3357461.94851685 16.86429405 8 146 221
246094.12609863 3357460.99142456 15.77057266 137 144 150
246091.63720703 3357458.44720459 15.19970798 25 41 137
246093.00659180 3357465.56375122 17.15764236 16 128 210
246093.11950684 3357469.21246338 16.82734871 10 135 219
246093.62268066 3357472.76861572 16.16405678 128 128 128
246092.89196777 3357473.88290405 14.25680065 93 101 112
246091.31311035 3357457.17852783 14.42755795 122 129 135
246094.32690430 3357466.47439575 16.23117828 39 109 161
246093.85290527 3357466.22207642 15.59208202 144 147 140
246091.29272461 3357456.61346436 16.41592789 214 229 226
246094.14636230 3357459.76992798 14.68469715 30 40 102
246092.19201660 3357456.39129639 14.42303085 55 69 114
246093.56250000 3357461.81823730 15.04937458 59 39 40
246091.64929199 3357465.67376709 15.92950439 48 59 63
246092.57653809 3357467.11828613 16.29588318 63 44 66
246094.44506836 3357459.67852783 14.34389877 78 93 126
246091.65759277 3357465.27395630 14.34941769 119 123 122
246091.74450684 3357455.81954956 14.58909512 103 53 52
246093.91271973 3357466.64749146 16.49589729 16 179 238
246091.29089355 3357471.97348022 14.31199646 123 145 158
246094.33325195 3357456.16455078 14.37309647 112 124 140
246091.67687988 3357461.93789673 14.34217834 133 137 138
246092.40100098 3357463.83489990 15.19947052 117 112 106
246091.47375488 3357473.83004761 14.23631763 125 135 147
246091.02478027 3357460.99301147 14.50400162 114 125 117
246092.79626465 3357468.37713623 15.66112614 55 55 53
246092.72912598 3357466.85397339 16.42065620 21 139 209
246091.51135254 3357466.93185425 16.04297447 92 91 99
246093.93652344 3357461.75076294 15.97695255 163 183 192
246093.38342285 3357463.33892822 14.70989990 60 50 51
246093.93395996 3357463.29562378 16.56471634 15 140 230
246092.20300293 3357472.90780640 16.24584770 128 128 128
246091.93798828 3357462.30776978 16.77518082 157 203 227
246092.00329590 3357464.92007446 16.56149864 8 173 229
246093.11608887 3357465.43386841 15.27077866 103 120 102
246091.87646484 3357463.85299683 14.48203945 128 58 56
246094.00170898 3357463.13330078 14.98572826 111 112 117
246093.92236328 3357456.27230835 14.38013649 120 141 168
246092.32861328 3357465.08566284 15.57309246 70 78 89
246091.30358887 3357456.53634644 16.42891121 213 225 221
246092.92163086 3357456.13119507 14.41233253 98 103 133
246093.63879395 3357472.28939819 14.60069180 184 189 208
246091.50732422 3357455.13912964 17.09626770 191 201 200
246092.95874023 3357462.05892944 16.91271019 3 145 231
246092.79711914 3357465.33923340 14.45541573 122 85 76
246094.03881836 3357462.62338257 16.55513191 8 145 223
246091.41589355 3357457.32968140 14.42618656 85 91 103
246093.31030273 3357461.85122681 16.77516174 10 152 236
246092.04003906 3357462.62091064 16.81884575 191 129 170
246094.24133301 3357465.53424072 14.48723602 132 41 59
246092.66345215 3357462.54644775 14.58283901 108 99 92
246091.80957031 3357461.78628540 14.39181614 139 139 131
246094.28515625 3357465.25198364 16.49317932 76 134 182
246094.20178223 3357465.19512939 16.50305748 15 124 206
246093.99438477 3357463.50762939 16.53342628 10 138 225
246093.39099121 3357469.72433472 14.42953491 105 107 128
246092.51550293 3357466.87313843 15.35452080 151 154 145
246093.72424316 3357464.62286377 16.68626022 12 134 220
246094.56665039 3357464.13418579 14.92696857 189 196 225
246093.03613281 3357468.85537720 15.78189468 177 180 173
246094.61560059 3357456.10910034 14.36680317 156 165 174
246093.65197754 3357473.54656982 14.57425022 85 85 97
246092.33251953 3357463.02877808 15.09657383 39 28 36
246094.25549316 3357457.29412842 14.37209225 195 231 255
246093.01000977 3357466.56732178 16.56490707 166 237 255
246091.58520508 3357472.54226685 14.22121143 195 199 208
246091.38562012 3357456.32473755 16.79220772 199 210 202
246091.41577148 3357468.96530151 14.38806343 100 112 124
246091.36987305 3357457.92645264 16.09865189 80 108 70
246091.91784668 3357456.61291504 14.43493652 71 69 106
246093.69702148 3357464.56021118 16.69847298 13 143 227
246092.84497070 3357466.18313599 14.55683899 75 70 66
246093.92944336 3357471.58590698 16.22005463 128 128 128
246092.54736328 3357469.76989746 14.55250454 166 179 195
246094.85205078 3357457.43322754 14.33824635 216 236 247
246091.30517578 3357457.18002319 16.04819298 204 220 220
246091.73498535 3357455.47378540 14.54226017 45 46 67
246093.62280273 3357463.92590332 16.46506119 0 98 187
246093.55236816 3357461.90985107 15.06215477 73 67 69
246093.19055176 3357466.22274780 16.72194862 130 184 230
246091.10827637 3357466.38806152 14.41499519 177 182 175
246091.94934082 3357454.59588623 15.31199837 159 161 156
246093.55346680 3357466.97579956 16.35025406 29 42 86
246092.82678223 3357461.33999634 14.49915886 54 68 105
246093.76110840 3357465.13363647 16.68324471 34 121 201
246093.76159668 3357468.71661377 16.66208267 196 132 166
246092.94909668 3357461.23645020 15.99474812 121 136 165
246092.73645020 3357461.82885742 15.21734428 63 88 142
246092.44580078 3357472.62002563 14.22782230 179 178 186
246094.16870117 3357467.78015137 15.90880775 67 81 107
246093.91040039 3357467.27697754 14.60841465 50 50 58
246093.74206543 3357461.64947510 14.59208298 107 50 65
246091.68652344 3357473.23834229 14.23449993 165 168 183
246091.92968750 3357467.07534790 14.75049210 223 224 226
246092.08776855 3357465.46832275 16.63746262 220 226 240
246091.28674316 3357459.08435059 16.05693626 113 137 165
246091.54418945 3357465.73107910 14.48361588 44 35 40
246091.99914551 3357465.21768188 14.40706062 182 133 119
246092.08166504 3357463.45385742 15.71780872 44 59 80
246093.65295410 3357455.69073486 14.51945210 80 80 106
246092.92578125 3357456.98373413 14.36709881 179 215 227
246093.16284180 3357461.71264648 16.74204826 3 154 237
246093.81640625 3357463.54632568 14.71183968 107 109 106
246091.68994141 3357454.79434204 17.57413292 149 157 178
246094.85864258 3357457.35699463 14.33954906 223 239 252
246094.86083984 3357454.43341064 14.38397503 103 117 128
246093.33618164 3357453.68743896 14.40131569 96 95 103
246091.33508301 3357457.08129883 16.88154030 179 193 202
246093.66235352 3357466.48269653 16.57709694 2 174 238
246094.30395508 3357468.06991577 16.34994698 80 145 201
246092.57409668 3357465.31112671 16.97847176 9 172 227
246093.96154785 3357468.66400146 14.27143574 91 91 103
246092.55627441 3357467.02441406 16.32781792 34 41 93
246091.32165527 3357457.88531494 16.12287140 211 227 253
246092.48962402 3357458.17102051 14.37052727 151 197 233
246094.17468262 3357463.26242065 16.36839485 4 101 178
246094.15356445 3357459.76516724 15.34030628 45 58 110
246091.54211426 3357453.95989990 14.66338062 77 85 131
246091.51574707 3357455.02554321 17.11026573 191 200 199
246093.66345215 3357465.06890869 16.73518753 21 125 212
246092.39697266 3357467.94421387 14.54005432 57 63 79
246094.67407227 3357464.60675049 14.70579052 200 206 228
246093.03540039 3357469.06542969 14.63009262 78 86 105
246092.42114258 3357464.38946533 15.43163395 54 65 71
246094.29858398 3357466.68298340 14.40901279 139 143 154
246094.34045410 3357466.49371338 16.38259888 20 133 211
246094.56274414 3357457.82940674 14.36773968 181 231 255
246093.17858887 3357461.90750122 16.81980133 4 156 239
246094.10839844 3357462.03668213 16.10806274 163 179 202
246093.58178711 3357462.05474854 15.07494926 44 39 45
246094.48144531 3357454.91751099 14.49968433 18 25 43
246091.32397461 3357457.31689453 16.10256386 114 123 166
246092.64062500 3357462.46392822 17.27953529 35 153 214
246093.43994141 3357462.71246338 16.81655312 37 129 194
246093.49389648 3357462.59106445 15.25937271 80 92 104
246093.52209473 3357466.74526978 15.32279491 128 128 120
246093.10754395 3357467.40008545 16.41660881 13 143 205
246091.22070313 3357458.73034668 14.55648518 56 62 84
246091.52868652 3357468.15249634 16.13164902 54 108 146
246094.25219727 3357467.65283203 16.38841248 21 163 245
246092.41076660 3357462.67565918 15.20442963 38 29 34
246094.40173340 3357455.29852295 14.41283417 57 68 86
246092.79516602 3357469.69680786 16.21198463 129 145 135
246091.93920898 3357458.67337036 14.99237061 4 17 96
246092.74218750 3357464.80404663 15.35142136 68 81 90
246092.24792480 3357461.24826050 16.28228760 80 111 142
246093.01403809 3357465.11306763 15.29997921 75 85 74
246091.59240723 3357460.96801758 14.53628254 42 54 66
246094.40698242 3357464.80490112 14.81318474 204 198 202
246093.51684570 3357470.95816040 14.63749313 142 137 131
246092.61523438 3357461.24145508 16.55093575 29 119 181
246093.49462891 3357459.76425171 14.40194798 113 122 153
246091.86242676 3357459.90539551 14.48724651 96 102 128
246093.80310059 3357461.97692871 15.87936306 184 204 211
246092.60546875 3357463.04116821 14.46609211 93 74 68
246093.77575684 3357461.62106323 15.86181355 97 117 118
246091.48937988 3357457.25833130 17.35035706 180 187 205
246093.38562012 3357461.12191772 15.88320637 79 86 105
246092.64660645 3357456.66870117 14.36543274 151 214 232
246093.49768066 3357466.99383545 14.71903992 123 127 128
246094.40686035 3357455.20373535 14.61134529 29 37 56
246093.01611328 3357472.72225952 14.32769680 157 164 182
246091.89660645 3357469.85296631 16.21439934 111 173 158
246094.35217285 3357455.23886108 14.73703671 31 40 49
246093.50610352 3357462.67990112 14.54611397 79 36 45
246092.21691895 3357456.27484131 14.45831776 81 87 139
246092.91125488 3357461.54885864 15.53133583 141 158 178
246092.26782227 3357463.87750244 15.38222885 111 115 116
246094.34606934 3357455.57376099 14.39138031 70 77 95
246093.53442383 3357454.43228149 14.57819366 67 72 101
246093.27697754 3357462.78079224 16.87388039 13 133 219
246091.42663574 3357468.95239258 16.31366730 155 192 200
246092.21923828 3357462.16375732 16.89374161 3 139 217
246092.78674316 3357453.85052490 14.46370029 45 43 48
246093.21813965 3357473.36474609 16.49476624 31 155 227
246091.54553223 3357472.34664917 14.20600224 194 203 212
246092.87683105 3357472.19259644 14.34384060 158 169 187
246093.97338867 3357467.75610352 15.61104202 151 154 169
246091.25793457 3357462.86837769 16.33980560 94 132 169
246093.77001953 3357458.19595337 14.36634254 185 217 238
246091.51232910 3357458.29809570 14.76796722 25 34 89
246094.21350098 3357467.27056885 15.45479870 202 207 203
246092.42932129 3357462.31356812 14.46910954 73 78 55
246093.37915039 3357454.54013062 14.52900124 66 71 100
246093.05456543 3357454.06921387 14.46228886 83 99 150
246093.06091309 3357470.83755493 14.44745445 115 83 88
246092.09045410 3357467.91329956 16.56137848 7 172 228
246092.41296387 3357463.39483643 14.41599178 135 130 126
246091.31652832 3357458.27569580 15.92696285 115 141 176
246093.15393066 3357470.66165161 14.45820332 84 142 179
246093.37390137 3357472.91613770 14.46155643 158 159 177
246091.38696289 3357456.73532104 17.15915680 200 206 204
246092.52478027 3357461.30825806 16.58191872 62 149 203
246094.22912598 3357467.76190186 15.97983265 120 132 154
246094.17993164 3357463.46112061 16.12244034 109 125 140
246091.53710938 3357459.17254639 17.51129341 77 84 110
246095.00280762 3357455.15350342 14.36481476 161 166 172
246092.25183105 3357473.37908936 14.23679256 153 151 165
246093.64440918 3357462.21520996 14.65833187 86 37 43
246091.74401855 3357458.48010254 15.29993439 54 79 163
246092.38488770 3357466.10870361 16.79452896 8 169 223
246094.74670410 3357455.46563721 14.36071396 146 153 161
246091.76147461 3357468.67687988 14.27243137 105 110 114
246091.74047852 3357465.67242432 14.45643425 164 148 148
246093.58093262 3357472.82104492 16.16701698 128 128 128
246092.55383301 3357463.52862549 14.93283176 68 40 37
246091.12280273 3357461.43762207 14.47577572 112 117 121
246094.29296875 3357456.14520264 14.37421894 94 102 121
246092.74682617 3357467.96667480 16.69490814 176 89 132
246091.30993652 3357458.42831421 16.77456856 160 178 202
246093.20678711 3357454.39782715 14.47857475 62 72 99
246091.37475586 3357473.90863037 14.24810028 77 86 95
246091.85717773 3357464.22195435 14.31857300 87 83 84
246093.08398438 3357462.73184204 16.96434784 15 129 217
246093.84667969 3357456.54428101 14.38167953 177 225 235
246093.69714355 3357453.95907593 14.38689232 49 48 62
246091.56115723 3357468.46282959 16.12818336 136 173 199
246094.51794434 3357463.95394897 15.05291653 218 210 231
246095.00134277 3357457.27770996 14.33708096 149 155 171
246091.43652344 3357460.46795654 14.55733299 184 151 134
246093.49987793 3357462.23513794 15.27306366 131 136 158
246092.52209473 3357455.56069946 14.49227905 69 78 145
246092.81005859 3357463.51129150 14.80934429 85 77 56
246092.25000000 3357466.14025879 15.35349941 136 153 121
246092.76452637 3357467.40432739 15.38596249 143 142 138
246092.28662109 3357461.95257568 16.86017799 8 144 222
246091.91003418 3357464.86935425 14.31361675 105 101 102
246092.22949219 3357468.28234863 14.52111816 53 66 100
246092.35253906 3357471.02505493 14.52211380 108 87 94
246091.80126953 3357466.07934570 14.41358948 168 176 179
246091.37731934 3357456.46084595 16.79831505 202 213 209
246091.25842285 3357467.69592285 14.37082195 89 98 93
246091.67492676 3357471.22735596 16.01721573 125 142 150
246091.84472656 3357454.08197021 15.06721592 120 116 141
246094.27185059 3357467.00286865 14.46278286 127 131 142
246092.49670410 3357468.55999756 14.63267136 71 80 95
246093.74743652 3357462.33761597 15.77937222 166 184 194
246092.11083984 3357461.85223389 16.70719337 13 134 189
246094.00451660 3357468.08221436 15.83948040 88 98 97
246092.37854004 3357463.34866333 14.92870331 70 33 40
246094.41931152 3357465.18902588 16.53815269 166 183 203
246093.66955566 3357462.26263428 14.80919361 88 37 44
246091.33642578 3357461.94287109 16.39934349 37 122 187
246093.43798828 3357467.64178467 15.39393806 118 117 113
246093.20715332 3357467.64147949 16.53050041 4 166 239
246093.61096191 3357469.89266968 14.60196686 121 154 187
246093.65734863 3357462.31286621 16.72503090 204 206 255
246094.12109375 3357459.85754395 14.49938679 54 66 108
246094.41918945 3357466.17941284 14.31748104 112 119 138
246093.99218750 3357460.28573608 14.51162338 141 152 174
246093.64172363 3357457.97625732 14.36322975 67 75 122
246090.99255371 3357462.24456787 14.47952080 88 105 89
246092.34802246 3357456.97604370 14.36924839 62 92 152
246092.59533691 3357462.44165039 17.22345352 28 148 211
246091.51770020 3357467.03408813 16.35719299 2 36 64
246093.99011230 3357471.76565552 14.64043331 66 65 73
246093.38806152 3357467.84640503 15.43803310 115 114 110
246094.15026855 3357460.59951782 14.61149025 134 157 201
246092.85449219 3357464.80288696 16.77902985 174 82 119
246092.82348633 3357469.17330933 15.89131832 167 170 161
246094.00183105 3357471.35430908 14.50168133 78 78 88
246092.82788086 3357463.86169434 16.48289299 72 152 205
246092.71813965 3357466.76162720 14.57150459 195 201 197
246094.04711914 3357469.63040161 16.04082680 139 141 130
246092.11657715 3357465.94345093 14.51174355 225 155 130
246092.41418457 3357458.69573975 14.38904858 111 166 222
246093.99389648 3357461.33813477 16.56635284 33 159 235
246094.19262695 3357472.51916504 14.22568321 101 108 116
246093.56860352 3357461.73031616 16.73422241 8 143 225
246094.44787598 3357464.51998901 15.70957851 228 194 148
246094.16479492 3357457.57583618 14.37650490 195 227 252
246093.51281738 3357464.07684326 14.82197952 90 99 80
246092.98266602 3357453.49795532 14.66563416 56 52 53
246091.10717773 3357459.36785889 14.54691505 93 103 105
246093.82653809 3357458.46316528 14.36813259 187 214 243
246093.31994629 3357466.81765747 15.33133316 130 131 123
246091.24951172 3357458.88851929 15.94610500 14 39 123
246092.12438965 3357472.12622070 16.58866882 206 239 254
246093.50769043 3357464.75622559 16.77222443 14 143 226
246093.34277344 3357469.61993408 16.05208588 169 187 189
246093.89453125 3357460.81814575 15.96594429 90 119 177
246092.23400879 3357466.39218140 14.61814308 97 96 101
246094.34729004 3357454.51382446 14.88618183 39 56 108
246093.59033203 3357468.50012207 16.74005508 56 150 220
246093.32104492 3357464.79470825 14.48551083 124 124 124
246091.43139648 3357456.35952759 17.03468323 75 87 99
246093.99926758 3357467.38299561 15.35902119 168 169 163
246091.70520020 3357454.70642090 15.21779728 233 251 255
246093.50280762 3357460.82156372 14.46340561 118 129 147
246093.76501465 3357463.07571411 15.34398365 98 95 104
246094.25292969 3357454.32629395 14.81158257 91 101 136
246092.09558105 3357469.62316895 16.16268730 154 190 180
246093.78381348 3357469.58798218 16.03017426 178 181 172
246091.15661621 3357466.94262695 14.39022350 172 184 184
246093.18701172 3357467.13903809 15.34964371 132 133 127
246092.77014160 3357456.24020386 14.39247990 154 178 188
246090.99377441 3357459.03921509 14.55828476 143 154 150
246092.72729492 3357473.35775757 14.22591972 100 107 115
246093.29772949 3357454.85946655 14.56484985 68 68 104
246094.02783203 3357464.97097778 15.24453545 132 134 121
246092.78381348 3357463.86630249 15.09045410 111 120 99
246094.00793457 3357454.88400269 15.03310204 206 221 244
246093.26513672 3357466.14996338 15.30177212 109 115 105
246092.21569824 3357458.44061279 14.38823032 123 179 230
246094.46386719 3357462.50933838 14.34364605 79 85 107
246094.16943359 3357463.35308838 16.05326653 156 160 172
246093.54333496 3357461.93719482 15.07577896 59 53 57
246091.35473633 3357456.36154175 16.13096237 143 149 197
246093.43066406 3357460.61300659 14.44687939 87 100 135
246091.83654785 3357462.49383545 16.73120499 143 130 173
246091.40283203 3357456.12585449 16.45352745 150 172 186
246092.79479980 3357469.13110352 15.89854240 165 168 159
246091.93664551 3357465.30541992 16.54622841 46 191 235
246094.36108398 3357465.70248413 14.46107864 80 47 68
246091.64038086 3357472.34915161 16.17839432 176 178 175
246092.21789551 3357468.02294922 16.62922287 4 174 226
246091.39135742 3357461.83139038 14.35842800 165 170 176
246092.26147461 3357465.19610596 16.73484230 8 173 231
246091.34130859 3357463.61407471 16.43772507 76 186 245
246094.04724121 3357462.65933228 16.00313568 153 170 190
246091.70117188 3357468.33953857 16.01471710 48 85 114
246093.43200684 3357465.14788818 16.86708641 15 131 218
246093.09863281 3357463.31127930 16.73595810 4 145 227
246094.07031250 3357473.94885254 14.28778553 97 104 112
246092.10546875 3357471.59063721 16.12227249 128 128 128
246093.10937500 3357464.55624390 14.48397923 97 81 81
246091.57421875 3357468.43356323 16.11777687 117 157 183
246092.20751953 3357463.52789307 15.58685493 59 67 78
246091.80517578 3357471.27124023 16.21685600 96 110 97
246091.31762695 3357464.57568359 14.37197399 87 88 90
246093.02526855 3357471.15719604 16.26374054 162 166 177
246091.97717285 3357467.59008789 15.52488804 133 133 131
246093.58239746 3357463.17639160 14.42682457 70 74 86
246094.16613770 3357459.77099609 14.90200710 27 40 93
246091.28637695 3357456.74356079 16.22080994 205 221 220
246093.08691406 3357461.55142212 14.74771976 145 171 230
246094.09143066 3357460.99627686 15.64791393 103 107 118
246094.04968262 3357465.57415771 15.87884426 95 99 85
246091.43298340 3357465.49575806 16.39911079 170 222 235
246092.77453613 3357461.34698486 15.93222618 141 170 200
246094.54492188 3357459.42776489 14.38283920 113 121 142
246092.99389648 3357471.32821655 16.17684555 124 130 126
246092.74914551 3357469.88217163 16.45467377 72 149 177
246092.09350586 3357467.82543945 16.53977585 0 166 228
246092.27075195 3357472.08856201 14.22825909 130 155 177
246092.33361816 3357468.93060303 16.76202393 121 214 245
246093.14916992 3357473.75186157 14.32176971 88 94 106
246092.13537598 3357466.40316772 14.58910084 91 88 95
246092.10510254 3357454.50738525 15.10240364 116 124 171
246092.52661133 3357462.12921143 15.00230122 33 47 108
246091.31091309 3357458.34332275 16.16797829 70 92 116
246094.49926758 3357464.62564087 15.56937981 179 152 125
246091.56994629 3357457.82312012 14.61014080 199 210 240
246093.42517090 3357463.98922729 16.48363876 47 139 206
246092.44860840 3357454.72882080 14.49036694 49 50 78
246091.40393066 3357457.48699951 17.20033264 62 71 78
246092.66064453 3357466.60006714 16.56771469 3 154 227
246091.15124512 3357461.48077393 14.46478939 85 88 93
246093.32934570 3357455.39736938 14.52671814 75 80 138
246094.18518066 3357463.12796021 16.37403107 53 112 188
246093.45996094 3357469.66726685 16.06757164 165 185 186
246091.75268555 3357468.55697632 14.28573322 102 107 111
246094.07434082 3357467.45196533 15.42642212 187 189 186
246091.42187500 3357455.33108521 17.02539253 99 100 104
246091.25378418 3357462.71090698 14.41501617 53 57 60
246091.79992676 3357468.46041870 16.45393753 6 192 231
246091.73364258 3357471.59527588 16.29439163 34 152 222
246091.28222656 3357463.07284546 16.32694435 54 96 136
246093.58166504 3357462.40472412 14.62896252 95 39 48
246094.23840332 3357471.78091431 16.37350464 117 171 199
246091.72827148 3357472.59222412 14.22224331 182 185 194
246093.62426758 3357463.46627808 14.72458076 100 100 92
246093.90820313 3357462.57125854 14.38578415 78 84 100
246092.05090332 3357469.61676025 16.16980743 145 178 171
246091.83996582 3357471.90908813 14.23698997 124 169 198
246093.22644043 3357461.37765503 15.56745815 73 70 87
246092.09191895 3357454.52539063 15.12793541 118 129 174
246094.13867188 3357471.47357178 16.44835663 39 155 202
246093.14453125 3357463.39035034 16.69601631 7 143 227
246094.67297363 3357465.24517822 14.39597511 89 88 102
246091.44702148 3357467.60800171 16.06757545 40 33 49
246092.21069336 3357466.01782227 15.43099403 105 115 88
246093.80419922 3357462.70629883 15.80152798 160 178 188
246093.40100098 3357468.85629272 16.86255836 14 126 208
246091.60632324 3357461.84756470 16.46529770 13 137 211
246091.65270996 3357466.10195923 15.90430927 73 58 61
246091.74792480 3357456.46478271 14.43362236 73 74 102
246091.71093750 3357470.53201294 14.42599583 151 205 243
246093.15515137 3357461.52288818 15.36373901 82 73 74
246093.28625488 3357469.31030273 15.84459591 178 184 180
246092.98352051 3357468.65869141 17.09910202 11 134 202
246091.27197266 3357462.80191040 14.42172718 88 91 96
246091.33142090 3357458.07946777 14.57591820 72 79 108
246092.23461914 3357468.74853516 14.39551926 52 67 96
246093.45996094 3357455.77560425 14.47698307 99 98 155
246091.09777832 3357457.06903076 14.48515034 95 105 104
246094.09558105 3357472.74502563 16.19097710 128 128 128
246093.45922852 3357464.83966064 14.44258308 137 137 137
246093.08081055 3357467.09976196 16.28709030 13 11 25
246092.84057617 3357465.65356445 14.60470581 108 102 90
246093.89294434 3357467.22833252 14.63719368 63 62 68
246093.56445313 3357472.21701050 16.17904472 128 128 128
246092.40747070 3357471.88757324 14.32833099 123 160 189
246092.11474609 3357462.60806274 14.35061264 121 83 72
246092.13256836 3357466.18273926 14.58662796 86 82 83
246093.35827637 3357468.85253906 14.43188763 53 44 49
246093.67468262 3357462.28939819 15.72565651 169 189 196
246094.00585938 3357461.65447998 14.41156292 109 108 116
246092.05737305 3357468.36019897 15.78974724 55 74 88
246092.43823242 3357466.61019897 15.34430599 148 154 140
246091.95556641 3357465.57424927 16.58071709 124 169 198
246092.89697266 3357468.73571777 14.71708107 91 98 104
246091.82165527 3357472.11007690 16.17549515 128 128 128
246094.01745605 3357462.86145020 16.54854393 8 142 229
246091.37145996 3357456.79965210 16.93177795 199 211 211
246092.98291016 3357469.05554199 16.92909622 6 128 214
246091.30639648 3357458.40182495 15.83738518 108 128 163
246093.11303711 3357473.15979004 14.33427334 94 99 103
246093.74401855 3357467.70153809 14.69910049 85 85 93
246093.67944336 3357469.68469238 14.39764023 52 60 79
246093.21643066 3357455.77383423 14.52206612 103 92 135
246093.79614258 3357466.14559937 15.51442719 116 121 115
246091.49414063 3357458.08151245 17.51337624 94 111 141
246091.66235352 3357462.10745239 16.51642799 14 136 209
246092.89416504 3357463.44891357 14.75568295 75 67 46
246094.85278320 3357454.54559326 14.37907696 109 121 133
246091.63562012 3357465.85369873 15.90449524 70 70 80
246093.11926270 3357465.59707642 16.99612427 13 125 209
246091.26245117 3357458.15051270 16.37489510 141 150 191
246093.71240234 3357464.66812134 16.69376373 8 127 211
246091.29736328 3357457.24066162 15.83125401 202 222 220
246094.83178711 3357457.07696533 14.34577560 220 244 255
246093.83935547 3357469.93600464 16.43947983 107 191 219
246093.19909668 3357471.38800049 16.55910683 27 144 198
246093.80187988 3357464.82302856 16.65443039 16 130 216
246091.83898926 3357467.25973511 16.30150986 88 106 154
246091.40576172 3357456.14224243 14.41921425 118 119 124
246092.95471191 3357466.46005249 16.62298393 120 150 188
246092.89294434 3357468.17413330 14.85777664 34 32 35
246093.93823242 3357472.63067627 14.51223087 61 72 78
246093.59545898 3357459.13168335 14.35113811 177 191 202
246091.45129395 3357455.08551025 17.17878532 253 253 255
246092.12438965 3357454.36828613 15.25197506 98 111 155
246093.06091309 3357453.71047974 14.41362286 129 121 119
246094.23205566 3357458.45532227 14.36613274 194 225 254
246093.74328613 3357468.04226685 14.69124889 68 68 76
246090.99121094 3357458.95587158 14.55005169 161 172 164
246092.98046875 3357465.85266113 16.90810394 11 137 224
246092.09033203 3357470.57116699 14.50225353 107 180 221
246091.30456543 3357458.59146118 17.09622955 196 199 192
246093.28161621 3357461.04312134 16.47347832 101 175 250
246094.17053223 3357457.10079956 14.36676216 204 233 249
246094.29284668 3357459.62094116 14.95449257 176 178 199
246092.22241211 3357469.08932495 14.48544121 46 97 144
246094.27685547 3357462.84460449 14.38654041 70 81 99
246091.80859375 3357462.56277466 16.71946716 107 112 152
246092.93811035 3357464.05947876 15.05468082 139 146 130
246094.52380371 3357463.00491333 14.36498165 88 96 119
246093.37548828 3357461.19790649 16.53438950 5 157 241
246093.46777344 3357462.54028320 15.36412525 85 96 114
246091.29577637 3357458.96969604 16.04354286 92 110 122
246092.32128906 3357463.41760254 15.16267586 66 25 41
246093.85131836 3357461.18521118 16.56591988 0 158 232
246094.11059570 3357473.21560669 16.41054344 27 177 227
246091.36206055 3357470.80419922 14.43340111 116 126 135
246092.90710449 3357455.68380737 14.71612072 219 160 84
246094.66931152 3357460.26718140 14.38853741 126 133 151
246092.03906250 3357467.30899048 15.41614914 182 181 179
246092.84057617 3357471.33029175 16.16829872 89 98 93
246093.77307129 3357465.29696655 14.39893818 75 74 79
246092.61376953 3357463.48089600 14.42287731 200 195 192
246091.41674805 3357464.46493530 16.23797989 119 136 166
246091.41979980 3357459.14636230 17.26496315 85 105 112
246094.39318848 3357465.18923950 16.34039497 124 89 109
246092.39660645 3357468.48672485 16.83351135 61 208 251
246093.40222168 3357468.40820313 16.82300949 3 151 223
246093.25451660 3357465.30746460 14.57334900 152 153 174
246091.67211914 3357471.22198486 16.07133484 122 148 147
246091.70251465 3357468.92715454 16.08570290 158 179 196
246091.47741699 3357464.67172241 14.35535622 128 129 134
246093.85839844 3357455.06381226 14.91699791 75 84 127
246093.10351563 3357464.64303589 16.72017670 18 127 196
246093.56152344 3357472.15240479 16.70277596 153 185 242
246093.97766113 3357460.96240234 16.25922012 103 147 192
246091.45336914 3357456.24401855 17.11438751 79 90 96
246094.69604492 3357454.22610474 14.40825939 54 66 80
246093.60278320 3357458.53344727 14.35295486 123 142 184
246091.09765625 3357460.25311279 14.48348618 118 123 127
246093.42761230 3357470.68200684 14.42598629 125 128 147
246093.00109863 3357466.03903198 14.52370834 120 112 110
246093.15405273 3357461.14636230 16.01709557 72 101 131
246092.62988281 3357464.22061157 15.28406715 57 67 56
246092.00048828 3357464.63906860 14.33140278 149 143 143
246091.36816406 3357457.00466919 16.72750282 62 71 114
246091.46728516 3357466.23748779 16.34284019 152 193 221
246093.40795898 3357470.41738892 14.30392456 166 160 198
246093.20043945 3357460.49633789 14.52030468 112 113 134
246093.49584961 3357466.26724243 14.26939678 116 116 118
246091.98669434 3357466.99719238 14.69417763 177 181 180
246091.69787598 3357469.35723877 14.30658245 89 98 107
246091.31433105 3357457.44589233 16.00510788 155 162 204
246091.05126953 3357457.32522583 14.51402950 119 130 132
246092.17919922 3357454.63650513 14.73225307 94 98 143
246094.23120117 3357470.10906982 14.58385181 185 181 196
246092.60290527 3357463.29666138 14.73626900 64 38 41
246093.45861816 3357471.74371338 16.72286415 14 155 235
246092.85925293 3357463.77847290 16.51918030 10 135 219
246092.30090332 3357462.01150513 15.46463871 44 85 117
246093.88537598 3357457.92462158 14.37848949 197 216 246
246093.17834473 3357467.34533691 16.39342117 93 188 242
246091.42675781 3357462.84875488 16.49499321 12 114 189
246093.39086914 3357461.42272949 15.48175907 35 40 43
246094.14794922 3357465.25326538 16.07382393 116 99 92
246093.35498047 3357461.56738281 15.21558952 105 113 124
246091.84448242 3357462.68304443 14.35572815 141 124 116
246094.93395996 3357458.09078979 14.34176445 166 179 195
246091.10534668 3357456.60058594 14.46636772 102 111 116
246092.48083496 3357465.98641968 16.83877945 3 168 224
246094.24877930 3357472.36199951 16.21274185 133 150 158
246094.41906738 3357469.09094238 16.39322281 196 149 167
246092.95019531 3357467.97946167 16.70073891 248 234 251
246091.56115723 3357471.63211060 16.16724205 126 135 140
246093.96166992 3357461.65875244 15.99767685 145 164 178
246092.00549316 3357472.04678345 16.17296791 128 128 128
246094.32641602 3357466.15240479 16.25608063 56 122 172
246093.56286621 3357461.54519653 15.03327370 145 121 121
246094.09411621 3357466.68969727 14.40192604 132 136 145
246093.39624023 3357471.81869507 16.74105072 11 150 231
246092.63146973 3357463.74111938 14.46304989 107 87 88
246091.27282715 3357458.03915405 16.66010666 155 157 180
246094.16064453 3357470.82601929 14.35406685 237 227 226
246094.14196777 3357468.61352539 16.03787804 127 109 97
246093.92663574 3357455.86618042 14.59098721 87 84 115
246091.37756348 3357458.22808838 17.39302063 112 112 120
246093.60437012 3357464.65609741 14.45043278 112 106 106
246092.21630859 3357465.48159790 14.42224693 181 112 81
246093.99487305 3357471.58340454 16.22375107 128 128 128
246094.95886230 3357460.17639160 14.37906647 111 122 150
246091.40551758 3357458.29940796 17.49425888 113 123 135
246092.17785645 3357463.27560425 16.66512108 7 124 203
246091.98400879 3357455.63265991 14.52622128 29 29 63
246091.51977539 3357454.34686279 14.88441372 213 222 239
246092.91821289 3357473.40585327 16.37628746 182 191 190
246092.36901855 3357456.70925903 14.36824131 147 214 231
246091.38024902 3357458.28439331 17.16186523 162 179 161
246094.37976074 3357466.76785278 16.19857025 89 119 147
246094.68908691 3357464.30084229 14.42327023 114 93 100
246093.70983887 3357468.35443115 16.69230652 11 153 229
246092.13073730 3357469.65573120 14.50124645 140 143 148
246093.21826172 3357466.63116455 16.51441383 6 157 228
246092.84863281 3357468.91610718 15.84063053 80 86 84
246091.47241211 3357466.95968628 14.40557575 231 236 232
246091.58886719 3357471.00378418 14.51389790 100 80 79
246091.57165527 3357466.64974976 14.32261848 141 141 139
246091.26770020 3357458.90237427 14.79545307 52 70 144
246092.54467773 3357463.13635254 14.31645775 134 126 123
246091.83508301 3357469.92880249 16.41035843 41 194 235
246094.09265137 3357463.21545410 14.79367256 134 138 149
246091.33349609 3357458.46218872 17.08312988 85 97 97
246091.02136230 3357462.49758911 14.48517513 70 82 70
246094.03686523 3357461.69949341 16.05199242 159 178 195
246094.20898438 3357472.40975952 14.20512676 101 108 116
246091.45825195 3357458.55639648 15.19153500 50 61 127
246091.73669434 3357463.13192749 14.32077122 131 126 120
246091.80664063 3357454.23458862 15.11849308 154 148 162
246091.26684570 3357465.98132324 14.44930458 184 195 201
246092.07177734 3357462.14602661 15.78296852 27 46 63
246094.14550781 3357456.61169434 14.37390900 131 157 214
246092.86572266 3357465.95431519 15.30293369 116 129 109
246093.38122559 3357462.09234619 15.38420105 96 112 125
246094.34997559 3357467.00872803 15.92998791 148 151 158
246092.04418945 3357472.51470947 16.57308769 231 241 253
246094.03454590 3357464.65872192 14.92952538 196 202 198
246091.28808594 3357458.63842773 16.18627357 77 102 81
246091.09094238 3357464.63528442 14.42201519 116 130 104
246094.38549805 3357456.74887085 14.36475372 98 118 179
246091.71166992 3357453.52609253 14.45114040 138 141 146
246092.82556152 3357460.78485107 14.41255760 134 134 162
246091.88452148 3357464.70147705 14.32104301 137 137 137
246093.74804688 3357466.11038208 15.46003723 95 99 98
246091.50231934 3357466.09844971 16.39531136 199 248 255
246094.02282715 3357455.51589966 14.73896217 146 143 154
246090.98364258 3357459.70956421 14.51986504 142 151 150
246093.79479980 3357464.09466553 14.69009495 102 112 101
246091.32958984 3357456.84878540 15.91451740 132 144 194
246092.40637207 3357468.80822754 14.46294022 46 67 98
246093.99633789 3357454.63436890 14.93725872 38 63 117
246092.16027832 3357466.29708862 14.59787941 88 88 90
246093.69006348 3357465.89154053 14.39641762 101 128 157
246093.49609375 3357470.68618774 14.42134380 122 131 146
246094.32055664 3357465.76754761 14.46260452 55 83 123
246091.37451172 3357459.39660645 17.27042770 161 168 161
246092.28869629 3357467.31591797 14.61649227 110 121 117
246093.22216797 3357467.00341797 16.34246635 76 88 126
246094.22534180 3357454.02343750 14.51781940 8 21 55
246094.14099121 3357472.09729004 16.41528702 27 156 214
246092.31359863 3357461.43234253 16.60508347 14 128 188
246093.23400879 3357472.73980713 14.43786144 151 159 180
246092.18225098 3357471.43765259 16.45369530 119 184 212
246091.58007813 3357455.61810303 14.52087307 62 60 74
246091.34704590 3357459.23907471 17.38619423 100 107 125
246092.39123535 3357471.03189087 14.53751755 113 83 91
246092.17553711 3357468.53323364 15.82091427 151 161 171
246093.77673340 3357465.13565063 16.67464447 24 119 203
246091.41113281 3357456.34240723 16.89917946 81 96 115
246093.28991699 3357464.13632202 16.51784706 2 141 224
246093.89282227 3357471.20944214 16.46724129 87 185 210
246092.18322754 3357469.44509888 16.63263130 53 193 228
246093.09631348 3357473.13388062 14.33113194 102 108 108
246092.59558105 3357466.31890869 16.73925781 4 151 221
246094.16296387 3357462.74795532 14.37867832 65 70 89
246091.31567383 3357462.13198853 16.34658623 26 97 149
246093.13122559 3357464.40042114 15.03476143 66 73 65
246093.92517090 3357466.70791626 16.46344185 24 177 235
246092.25769043 3357471.22570801 14.45836830 108 87 104
246093.84179688 3357470.34646606 14.35823059 134 118 131
246092.68151855 3357469.02755737 15.90791798 55 66 68
246091.51379395 3357455.75433350 14.50486088 92 67 71
246091.80676270 3357469.97592163 16.39208221 82 209 224
246092.72521973 3357471.64581299 16.70028305 137 199 240
246091.52099609 3357467.47082520 14.42222500 230 235 231
246091.41735840 3357465.10494995 16.22320175 29 54 85
246092.75378418 3357463.24118042 16.78680801 201 89 125
246091.72729492 3357466.46011353 14.39511204 180 190 202
246091.95922852 3357455.23678589 14.75039768 1 5 66
246093.59057617 3357468.76336670 15.59206009 167 169 158
246091.81518555 3357469.16397095 16.39748192 37 201 236
246091.66320801 3357458.13110352 14.64499664 71 84 154
246092.35522461 3357458.20913696 14.36927986 146 190 229
246093.57922363 3357462.99536133 14.41236591 70 72 84
246091.60449219 3357467.44149780 14.63598537 255 255 255
246091.32458496 3357461.36767578 16.47463799 75 136 164
246093.55346680 3357465.32336426 14.38424206 53 57 58
246092.74304199 3357460.29037476 14.56558228 38 35 82
246093.62194824 3357462.44955444 16.73319435 185 190 228
246092.04772949 3357469.20025635 16.55178642 50 209 241
246093.67761230 3357473.40216064 14.67522907 153 159 171
246091.80639648 3357473.20437622 16.32069778 105 141 155
246093.00976563 3357470.49554443 14.52789402 62 93 113
246093.13171387 3357471.06433105 14.48302078 92 75 81
246091.49365234 3357463.84222412 16.13812828 82 112 140
246091.69909668 3357467.87893677 15.84643173 60 72 88
246094.43334961 3357456.41552734 14.36864185 109 90 118
246093.06530762 3357461.45343018 15.56697750 114 118 129
246091.25439453 3357458.71780396 15.95147228 62 81 88
246093.78027344 3357471.89312744 16.59703064 14 145 217
246091.32092285 3357462.09790039 14.35524273 114 124 125
246094.22558594 3357466.40957642 15.92396259 108 119 121
246091.88806152 3357464.24337769 15.86547470 54 64 73
246093.03076172 3357464.44342041 15.10691547 56 69 62
246092.31127930 3357469.61734009 14.50935364 163 172 171
246091.34179688 3357454.81958008 14.52320290 178 186 205
246093.87341309 3357465.14743042 15.57028770 105 100 96
246091.37402344 3357457.24130249 17.17203140 191 197 195
246093.84716797 3357454.76461792 14.87547112 42 56 93
246091.13342285 3357457.04168701 14.46681976 106 112 112
246091.41540527 3357455.28213501 14.59312916 159 173 186
246092.93078613 3357468.65954590 14.74462032 87 94 102
246091.63623047 3357465.58685303 15.95959377 46 61 66
246092.76525879 3357455.51052856 14.57904243 84 74 124
246091.23449707 3357458.57528687 15.96009064 127 147 182
246091.74511719 3357464.59344482 16.05445671 66 89 123
246092.98828125 3357469.19488525 16.81460381 12 134 219
246093.88842773 3357473.02450562 14.72640133 132 150 186
246094.12854004 3357473.26568604 16.40895653 21 168 212
246092.88195801 3357472.25137329 14.33843136 160 169 186
246093.92321777 3357463.22598267 14.81908131 130 133 142
246091.87744141 3357468.13479614 15.80239773 44 60 76
246092.57849121 3357461.44277954 15.94404984 102 149 195
246091.86560059 3357464.97399902 14.32015991 108 110 109
246093.11413574 3357463.39337158 14.66897392 104 102 79
246094.28784180 3357459.93045044 14.95095921 80 82 97
246092.54040527 3357462.34136963 14.84066772 52 37 60
246091.71374512 3357462.33862305 14.36611176 156 153 160
246091.31738281 3357459.14935303 14.76509380 89 116 169
246092.16162109 3357469.50979614 16.62067795 15 160 204
246093.31616211 3357467.80291748 16.59337997 7 168 236
246092.13159180 3357464.30929565 16.43372917 14 135 216
246094.05480957 3357467.37274170 15.37379456 183 188 181
246093.56604004 3357471.39785767 16.57877541 17 129 141
246091.29443359 3357471.77880859 14.33650208 109 140 160
246093.67041016 3357466.19967651 14.27954865 138 136 139
246093.42639160 3357472.65048218 16.75606918 20 125 208
246091.99279785 3357469.77923584 14.44737339 117 131 142
246093.53381348 3357470.77188110 14.45237637 124 121 132
246093.09484863 3357463.46160889 14.64199543 97 78 74
246094.16271973 3357461.62756348 16.22335243 132 163 209
246092.34338379 3357461.91174316 15.56044960 44 101 146
246092.11499023 3357455.97610474 14.51407051 68 72 110
246091.46667480 3357454.07678223 14.61005497 177 190 198
246093.08056641 3357463.73992920 14.54183102 91 73 71
