245763.87072754 3357450.42666626 18.17875481 15 20 26
245781.81408691 3357454.58724976 17.70675087 46 55 52
245779.00854492 3357454.34112549 18.83209038 139 155 171
245761.93768311 3357449.67886353 17.61237335 48 53 56
245778.88928223 3357453.67947388 18.16502762 19 28 25
245780.60693359 3357456.05221558 18.31815910 189 207 231
245759.58197021 3357450.28002930 18.44551659 76 75 80
245781.90960693 3357454.51501465 17.67634010 79 85 81
245764.26409912 3357450.38778687 17.86744499 27 32 36
245778.48199463 3357455.53271484 18.05989838 47 52 46
245778.99230957 3357453.71331787 18.16844177 8 19 15
245763.85974121 3357450.78192139 18.18831444 22 31 36
245782.44317627 3357454.69052124 17.53703117 49 69 57
245782.41735840 3357455.22256470 17.35380745 36 74 49
245760.89550781 3357450.49472046 18.75261307 61 78 86
245760.39147949 3357450.98541260 17.98591614 58 59 61
245780.29937744 3357455.97860718 18.31992722 201 215 242
245781.64825439 3357456.00601196 18.42203140 18 26 29
245760.19909668 3357450.75558472 18.13681221 26 31 35
245780.20092773 3357455.94012451 18.29311752 199 213 239
245761.97528076 3357450.19882202 17.79922676 35 49 62
245759.60559082 3357450.61026001 18.31742668 194 189 193
245781.78631592 3357455.80758667 18.03142548 17 24 30
245781.58758545 3357456.27349854 18.22349358 16 27 29
245762.74548340 3357451.59341431 17.70165825 59 63 66
245778.77606201 3357454.26870728 18.88948059 115 132 150
245778.72753906 3357454.89196777 18.87887192 8 18 20
245763.89825439 3357450.23413086 18.15465355 19 24 30
245778.02136230 3357454.94314575 19.13692474 104 121 141
245777.78070068 3357454.29183960 19.02902985 68 73 79
245779.32763672 3357455.60144043 18.53658485 145 153 164
245780.48937988 3357454.50714111 18.58122253 33 43 42
245761.36926270 3357450.90002441 18.99427414 46 53 59
245782.25225830 3357455.26242065 17.33165550 59 82 72
245760.70764160 3357450.30130005 18.37616730 104 121 139
245759.77270508 3357449.86486816 18.73056221 247 246 252
245761.76440430 3357450.25665283 18.02686691 10 19 24
245762.23577881 3357450.98269653 18.74292374 67 88 107
245777.83398438 3357455.30816650 18.62926102 14 18 19
245778.74145508 3357453.94488525 18.62055397 25 34 29
245780.10119629 3357455.43756104 18.40743828 186 206 231
245762.17883301 3357451.21377563 18.73523903 22 30 43
245779.19073486 3357455.55847168 18.56205940 146 152 164
245763.76226807 3357450.86346436 18.16882324 17 26 31
245781.85662842 3357456.20050049 17.55014992 20 37 31
245781.09375000 3357454.74581909 17.91130066 39 53 56
245781.51574707 3357456.24774170 18.15700722 26 34 37
245779.23773193 3357455.77633667 18.00002861 39 45 43
245760.25891113 3357449.80636597 18.22843361 35 49 50
245778.66375732 3357455.55767822 18.36652756 39 44 37
245762.70898438 3357451.35333252 18.47715187 47 58 64
245761.96057129 3357451.01779175 18.00424385 75 76 80
245777.58538818 3357455.18374634 18.62262726 57 45 49
245779.29937744 3357455.78485107 17.98160934 48 54 52
245760.21246338 3357449.85260010 18.33854675 132 139 145
245778.94671631 3357454.57290649 18.85575104 2 7 11
245760.18902588 3357449.94375610 18.53011131 29 40 44
245761.53485107 3357450.26348877 18.29422951 8 16 18
245781.32940674 3357456.04043579 17.99565506 29 39 40
245779.72100830 3357454.14764404 18.41325951 127 135 148
245762.75134277 3357451.54721069 17.76763535 65 66 71
245761.45611572 3357451.06567383 17.88945007 58 62 63
245761.28857422 3357450.41516113 18.62040901 57 69 83
245760.05578613 3357449.71768188 18.59326172 131 134 143
245764.88330078 3357450.94653320 17.58030891 47 57 59
245778.38055420 3357453.83758545 18.68480110 12 22 23
245759.56384277 3357450.43255615 18.46450806 94 89 96
245781.12286377 3357456.27310181 17.35933304 50 56 42
245777.98681641 3357454.37435913 19.09338570 106 119 136
245778.85186768 3357453.53796387 17.73889923 28 39 33
245762.11267090 3357450.41223145 18.14791679 13 26 34
245760.87048340 3357450.81219482 18.93937111 35 40 43
245779.41345215 3357455.81118774 18.21552086 84 92 94
245764.15374756 3357451.45007324 17.82503128 24 34 36
245760.40936279 3357450.30230713 18.77309799 126 144 148
245778.85345459 3357455.21316528 18.79633522 138 159 186
245763.68200684 3357451.75799561 17.69263077 31 39 41
245782.28613281 3357455.64321899 17.26756096 94 103 112
245764.72229004 3357450.53549194 17.63404846 39 49 51
245762.57073975 3357451.33013916 18.24534225 40 50 52
245759.89520264 3357449.44555664 18.37172318 21 25 26
245759.69165039 3357449.69210815 18.26721954 37 49 49
245761.18640137 3357450.54864502 18.79858589 58 71 80
245760.01257324 3357450.44790649 19.04361725 54 64 76
245777.41888428 3357453.69198608 17.73677063 178 195 115
245780.37554932 3357454.40017700 18.70602798 42 53 45
245781.86627197 3357456.23733521 17.50678444 20 40 31
245763.83941650 3357451.63687134 17.97505188 15 23 25
245778.32458496 3357453.63378906 18.33440208 36 42 38
245761.55554199 3357450.23568726 18.19074249 10 15 19
245761.83361816 3357450.66390991 18.62508392 17 30 39
245762.97387695 3357450.06350708 17.92823219 27 36 41
245760.94976807 3357450.88464355 18.30507278 48 52 53
245762.25775146 3357451.59246826 17.57237816 75 78 83
245779.12164307 3357455.04943848 18.75234413 178 202 230
245763.15753174 3357451.31048584 18.37329102 28 41 50
245760.30908203 3357449.26275635 18.06833649 33 33 35
245778.18371582 3357455.26303101 18.88400078 174 175 195
245780.29101563 3357454.66876221 18.35612488 137 152 173
245762.57897949 3357450.91067505 18.64871979 27 36 41
245782.12469482 3357456.14770508 17.36627769 33 73 49
245760.30145264 3357449.56347656 18.16779327 29 37 40
245762.11175537 3357451.08621216 18.74448395 35 52 68
245779.49786377 3357455.81323242 18.22174454 120 125 131
245778.16302490 3357454.13717651 19.02788162 47 65 77
245760.34454346 3357449.61724854 18.12056351 33 42 47
245778.26892090 3357453.84570313 18.74460220 19 28 27
245778.78717041 3357454.11666870 18.76789093 25 39 40
245760.72711182 3357450.00924683 18.07273102 26 34 37
245782.25634766 3357456.49533081 17.31440735 52 71 49
245782.73315430 3357456.03564453 17.29026222 41 87 59
245778.48858643 3357454.33486938 18.99327087 132 158 175
245761.13012695 3357450.98965454 18.82304192 70 74 77
245761.17913818 3357450.26058960 18.48397446 79 93 104
245764.22015381 3357450.22610474 17.82720947 24 34 36
245781.28131104 3357454.53396606 17.87920761 25 40 37
245759.89440918 3357449.42877197 18.35665131 26 30 31
245764.75769043 3357450.56246948 17.61892319 40 50 52
245779.09027100 3357455.72427368 17.58232117 46 51 47
245760.65777588 3357450.44851685 18.61539650 73 89 88
245760.63464355 3357449.28695679 17.87649155 45 49 50
245781.56738281 3357456.27462769 18.25487900 22 33 35
245780.91760254 3357455.41854858 18.07858086 163 180 200
245782.65350342 3357455.91134644 17.28203201 36 84 58
245760.06250000 3357449.61941528 18.46947861 109 116 124
245759.95092773 3357449.81939697 18.75742531 242 241 246
245761.94116211 3357451.39294434 17.69538879 68 72 71
245760.97802734 3357449.38427734 17.75016594 63 67 66
245777.62597656 3357454.33721924 18.97872734 77 82 86
245779.52764893 3357454.21047974 18.52481842 36 47 49
245781.66351318 3357454.80960083 17.74872208 31 66 46
245760.30822754 3357450.79339600 18.81427002 57 63 61
245778.41906738 3357455.53930664 17.74164963 56 57 51
245763.20465088 3357449.94183350 17.97604179 36 39 46
245782.23114014 3357455.24850464 17.42120361 38 76 55
245778.08105469 3357453.61611938 18.46424103 38 43 37
245759.58117676 3357450.07315063 18.26683044 129 128 133
245781.18859863 3357455.62844849 17.91208076 32 43 47
245759.98510742 3357449.31817627 18.17101860 24 24 26
245763.32513428 3357451.30569458 18.29077911 38 48 60
245780.88012695 3357455.13729858 18.19658852 148 164 179
245761.59112549 3357450.65765381 18.71301842 33 42 51
245781.61828613 3357454.44598389 17.74326706 81 87 85
245782.99963379 3357455.76513672 17.27168465 151 161 127
245761.29901123 3357451.04537964 18.70581818 34 42 44
245761.49444580 3357449.75463867 17.79538155 23 30 36
245780.75592041 3357456.15811157 17.36530495 55 70 47
245780.93054199 3357454.67361450 18.26527977 174 188 201
245760.56420898 3357450.71496582 18.99638557 51 53 65
245763.28662109 3357451.46630859 18.35338211 31 43 55
245778.45092773 3357455.50222778 18.46325684 34 42 31
245760.12072754 3357449.19296265 17.97162247 43 43 45
245778.99194336 3357455.69216919 18.27277184 75 75 75
245781.05187988 3357455.23898315 17.93624878 48 66 78
245762.52789307 3357450.97073364 18.67882156 30 41 47
245780.13488770 3357455.43981934 18.44273567 185 205 229
245761.25518799 3357450.44378662 18.65771294 56 69 78
245762.98992920 3357450.29797363 18.14161873 37 46 45
245762.05920410 3357451.54266357 17.59565544 80 79 84
245761.38458252 3357451.05786133 18.84842491 32 38 38
245780.97930908 3357454.82916260 18.14428329 95 109 118
245780.85614014 3357454.79827881 18.28543282 147 161 174
245761.97595215 3357450.19259644 17.77854919 35 49 62
245778.78674316 3357454.07443237 18.72468376 21 35 35
245779.39483643 3357455.70977783 18.41357422 43 53 55
245762.46350098 3357451.31784058 18.58144760 40 52 66
245779.54437256 3357454.66732788 18.57857323 4 12 14
245779.63281250 3357455.13458252 18.61276436 11 22 24
245761.21032715 3357449.90054321 17.96314049 20 23 28
245778.70721436 3357455.58731079 18.15932083 60 60 58
245762.34057617 3357451.19702148 18.23971748 50 58 60
245763.68261719 3357451.93991089 17.55496597 72 80 82
245764.18719482 3357451.53897095 17.74347878 30 41 45
245781.14434814 3357454.89358521 17.75450516 86 103 111
245782.04760742 3357456.49938965 17.31468773 103 114 98
245780.08404541 3357455.91561890 18.06722450 161 165 174
245782.62927246 3357456.10192871 17.30912399 29 86 54
245779.37982178 3357455.80300903 18.06265259 54 60 58
245780.03106689 3357455.87637329 18.17243767 200 211 233
245762.30065918 3357451.17193604 17.96139908 82 87 83
245760.92785645 3357449.43051147 17.78700638 50 56 56
245780.24127197 3357455.59671021 18.58587265 183 204 225
245760.32653809 3357450.49411011 19.01409531 77 86 93
245763.89556885 3357451.32830811 18.14586449 15 26 32
245764.57794189 3357450.65350342 17.71749878 33 43 45
245760.37469482 3357450.25311279 18.57569885 146 166 165
245763.10101318 3357451.65106201 17.99716949 37 42 46
245761.96264648 3357451.49346924 17.63069916 82 82 84
245781.13189697 3357455.20999146 17.80811119 37 57 64
245781.96789551 3357455.96240234 17.40219688 28 59 43
245762.76416016 3357451.44836426 18.08535957 49 54 57
245781.55041504 3357456.26544189 18.18030167 19 29 31
245779.94451904 3357454.50656128 18.35774040 126 157 188
245777.61322021 3357454.59637451 18.93117714 45 50 56
245780.54437256 3357455.69808960 18.58745956 171 191 218
245779.14129639 3357454.84930420 18.74576187 170 194 220
245764.04827881 3357451.73352051 17.62285042 45 54 59
245778.72497559 3357455.56900024 18.40503120 45 46 41
245763.63018799 3357450.11950684 18.14469910 21 28 34
245778.38134766 3357455.38931274 18.72840118 17 12 18
245763.26098633 3357450.22201538 18.17874908 15 23 25
245759.79504395 3357450.63961792 17.95544243 54 58 61
245779.57232666 3357455.82516479 17.92654037 73 75 74
245760.40698242 3357449.43066406 18.05722237 43 48 51
245781.41906738 3357456.00253296 18.28512001 14 21 27
245781.16333008 3357456.28781128 17.35527802 77 83 73
245780.85321045 3357455.38830566 18.16145897 178 193 212
245762.37774658 3357451.18228149 18.10500336 57 62 65
245778.79638672 3357455.59170532 18.33697128 49 49 47
245780.76666260 3357455.87817383 18.37199974 203 219 234
245764.48236084 3357451.05722046 17.76792526 33 42 47
245778.95324707 3357455.68774414 17.58908844 42 47 41
245761.53277588 3357449.75708008 17.78949356 23 30 36
245782.67065430 3357455.85177612 17.27312851 35 85 56
245779.80322266 3357455.85491943 18.05134010 147 151 162
245759.87823486 3357449.36050415 17.98933601 37 37 37
245759.86138916 3357450.28213501 18.86737061 249 255 255
245779.91510010 3357455.25332642 18.33332634 74 91 109
245780.22375488 3357455.84280396 18.60313225 190 210 234
245761.40917969 3357450.58743286 18.74522972 50 58 69
245781.03106689 3357455.29800415 17.96313667 40 57 67
245779.29162598 3357455.65042114 18.47337532 14 20 20
245760.37225342 3357450.08200073 18.26418686 173 194 211
245781.78985596 3357455.85110474 17.52710342 29 44 39
245761.24554443 3357449.92565918 17.97919083 22 27 31
245782.91894531 3357454.78836060 17.45747757 53 71 59
245761.27532959 3357450.29586792 18.52839088 74 88 99
245761.24658203 3357450.95977783 18.45067978 74 78 79
245764.42266846 3357450.59234619 17.85542488 25 35 37
245779.72479248 3357455.84628296 18.00938606 103 104 108
245780.44281006 3357455.37442017 18.53601456 168 192 218
245781.47076416 3357454.86416626 17.73125267 24 52 40
245778.17413330 3357455.29394531 18.83339500 140 138 151
245761.80230713 3357450.66082764 18.64097023 17 30 39
245781.85821533 3357456.24749756 17.50312805 20 40 31
245763.57501221 3357452.02374268 17.55548668 78 84 84
245781.82696533 3357456.15301514 18.16761971 29 40 42
245779.85516357 3357454.43023682 18.38735008 69 88 105
245783.26788330 3357455.14086914 17.27160645 164 166 144
245779.62646484 3357455.84561157 17.88398361 86 87 89
245781.73321533 3357456.26031494 17.64152527 17 33 30
245778.21649170 3357454.22814941 19.03127289 112 133 154
245779.17980957 3357455.74499512 17.73264885 61 63 60
245779.25054932 3357453.85034180 18.32147408 12 23 17
245762.33782959 3357450.77349854 18.61530876 20 29 34
245762.37762451 3357450.38940430 18.06755447 31 41 51
245779.66876221 3357454.56393433 18.49780083 10 17 23
245779.25146484 3357455.79275513 18.19358826 120 125 129
245762.08691406 3357450.52743530 18.31769753 35 49 58
245781.42382813 3357454.74267578 17.75683212 30 58 46
245778.26049805 3357455.41586304 18.61776543 20 24 23
245778.98107910 3357455.70458984 18.04400635 68 70 69
245760.26367188 3357449.66903687 18.21130943 82 93 95
245760.22253418 3357450.91668701 17.90904617 97 98 100
245781.21502686 3357456.30694580 17.35162735 58 65 58
245782.20483398 3357455.68222046 17.26831436 105 112 122
245781.91479492 3357454.57714844 17.67077637 43 49 45
245780.19531250 3357454.56063843 18.33466339 84 90 102
245762.33111572 3357451.32235718 17.79443169 73 77 80
245781.71844482 3357454.71615601 17.73386765 43 69 56
245780.47070313 3357455.03311157 18.48804855 149 171 192
245761.45501709 3357450.98120117 18.39661598 53 57 58
245763.19415283 3357451.45330811 18.36487961 35 45 55
245762.00878906 3357451.20828247 17.83170700 115 120 124
245779.79583740 3357455.91677856 17.63570786 36 42 38
245759.82635498 3357449.98956299 18.77119064 247 246 242
245782.61920166 3357455.07666016 17.43223953 27 85 45
245763.34729004 3357450.81072998 18.19188690 20 30 42
245781.77954102 3357456.17987061 17.71711159 19 30 32
245763.12487793 3357450.43041992 18.23945236 4 11 17
245764.06799316 3357451.70202637 17.64580536 40 49 54
245761.97991943 3357450.01486206 17.65155983 25 34 41
245778.41540527 3357454.30114746 18.99901390 137 164 185
245761.95397949 3357451.17062378 18.49701309 63 67 68
245781.40808105 3357454.54321289 17.80152893 21 31 32
245761.76678467 3357451.18814087 17.81750488 91 95 98
245762.27630615 3357451.25274658 18.65699196 35 49 62
245780.48602295 3357456.08212280 18.07195091 112 113 115
245763.63269043 3357450.48983765 18.20862389 42 51 58
245761.68817139 3357450.00836182 17.83880615 14 19 22
245764.29980469 3357452.11944580 17.53126335 79 88 93
245779.65917969 3357455.33621216 18.47706413 33 44 48
245761.19097900 3357450.97244263 18.57148170 73 79 79
245781.54406738 3357456.26763916 18.20846939 18 28 30
245762.12805176 3357449.77584839 17.57192230 29 30 35
245763.28857422 3357449.97686768 18.03377533 30 33 38
245762.32714844 3357450.26721191 17.87752533 16 23 29
245763.18518066 3357451.78140259 17.66903687 59 64 68
245777.62298584 3357454.54223633 18.95853996 40 45 51
245760.88757324 3357451.07821655 17.90495491 49 49 49
245764.60241699 3357451.17410278 17.65360641 36 46 48
245779.79431152 3357454.01708984 18.32801819 35 44 43
245762.19689941 3357450.06890869 17.62684631 7 12 16
245760.90411377 3357449.75296021 17.91565323 25 30 36
245777.55017090 3357453.85705566 18.21702194 41 148 32
245760.92199707 3357450.89422607 18.31369591 48 52 53
245777.84552002 3357455.29318237 18.66989326 17 19 18
245780.24810791 3357456.02377319 17.60324097 38 37 32
245763.06011963 3357450.03787231 17.96740341 29 39 41
245781.01635742 3357454.60137939 18.33550453 35 44 39
245782.92047119 3357455.42153931 17.29980278 48 91 48
245762.83312988 3357450.77194214 18.59124565 13 23 25
245760.16088867 3357450.88183594 17.86804962 71 75 76
245761.39782715 3357450.92504883 18.98714828 49 56 62
245778.03143311 3357455.42825317 17.85623360 43 55 31
245782.93536377 3357455.42288208 17.29761887 48 91 48
245762.86999512 3357451.47396851 18.17646790 43 48 52
245760.87792969 3357450.90374756 18.38200188 50 54 55
245779.27764893 3357455.78616333 18.30930519 170 172 184
245764.51989746 3357450.47885132 17.74309540 29 39 41
245762.94824219 3357451.84069824 17.58021545 84 89 92
245777.69366455 3357454.86477661 19.00438118 47 65 69
245779.68176270 3357455.89874268 17.59064102 22 33 27
245781.90606689 3357455.64044189 17.33399391 85 98 104
245781.05987549 3357455.40390015 17.89547539 27 42 47
245778.26550293 3357455.24697876 18.91405106 152 157 179
245760.89868164 3357451.05050659 17.95919228 66 66 68
245779.94409180 3357455.91003418 17.91232872 124 124 126
245759.84503174 3357449.60067749 18.57474136 22 27 30
245763.24438477 3357451.75402832 17.73917961 45 48 53
245760.80023193 3357450.95098877 18.21109390 60 61 63
245764.48498535 3357451.33160400 17.63719368 39 49 51
245779.79406738 3357455.32867432 18.37935638 10 22 38
245779.42730713 3357455.81542969 18.14095306 64 73 72
245761.49804688 3357450.17947388 18.14466286 9 17 20
245780.67694092 3357456.05618286 17.69983482 135 143 146
245764.12274170 3357451.88653564 17.52671623 53 64 68
245778.82537842 3357453.64019775 18.07570267 25 36 30
245762.04248047 3357451.31536865 17.75183296 107 108 113
245779.94909668 3357455.88748169 18.04056168 145 145 153
245777.99139404 3357454.42602539 19.10196304 127 138 158
245763.17584229 3357451.62942505 18.14000893 10 18 21
245778.22106934 3357455.43927002 18.52545357 26 36 28
245780.07971191 3357455.78573608 18.53535080 192 212 236
245780.79144287 3357455.08145142 18.27875900 176 189 206
245777.93402100 3357453.69265747 18.63451958 54 50 51
245779.93237305 3357455.93203735 17.75028992 33 33 31
245778.97393799 3357453.92697144 18.54738426 42 49 41
245781.61151123 3357456.26602173 18.13699150 27 35 38
245759.59613037 3357450.35031128 18.59468269 109 110 115
245760.92156982 3357449.55862427 17.84145737 39 47 50
245783.24694824 3357455.42785645 17.26445389 113 115 94
245763.94561768 3357451.74151611 17.65040779 46 56 58
245779.98620605 3357455.26577759 18.32982445 47 65 87
245781.59716797 3357454.41024780 17.74847221 74 80 76
245780.22784424 3357455.17648315 18.37829018 168 189 210
245781.23913574 3357454.65557861 17.85803223 33 49 48
245780.15966797 3357454.60028076 18.33280182 18 20 32
245761.49810791 3357450.80484009 18.88636971 51 60 69
245762.61859131 3357450.41500854 18.20045853 17 24 30
245778.33471680 3357455.50451660 17.98682785 51 57 45
245780.81329346 3357455.84579468 17.89919472 130 143 159
245761.17303467 3357450.84051514 19.01569557 65 74 83
245780.79956055 3357454.50515747 18.39912796 33 45 41
245778.94464111 3357455.31427002 18.74282074 204 225 252
245761.24255371 3357449.37869263 17.66812706 58 63 57
245779.86126709 3357454.06362915 18.32901001 25 34 31
245760.25848389 3357450.09317017 18.79504395 118 131 137
245759.95147705 3357450.58810425 18.82898331 12 19 27
245780.68432617 3357455.37985229 18.50570297 150 172 196
245760.39001465 3357449.24459839 18.01753044 42 44 43
245778.64160156 3357455.55508423 18.31908798 39 41 36
245764.40563965 3357451.53283691 17.61579514 49 60 64
245778.74969482 3357454.28713989 18.91444778 120 137 157
245763.36614990 3357451.71026611 18.09761238 46 54 57
245779.40850830 3357453.92156982 18.37129593 19 30 24
245762.02606201 3357450.98519897 18.14908218 69 72 77
245781.09454346 3357455.56039429 17.91838455 42 56 59
245781.81317139 3357455.98419189 17.89843750 16 26 28
245782.05468750 3357455.27725220 17.54773140 34 81 61
245769.81713867 3357451.59393311 17.52369118 56 70 73
245762.14685059 3357450.64666748 18.46456146 46 64 76
245780.56451416 3357454.65142822 18.59635925 129 143 152
245779.22167969 3357455.78170776 18.10680580 48 52 53
245759.73431396 3357449.65533447 18.45380402 60 71 73
245782.50061035 3357456.65771484 17.27307320 154 158 133
245780.93823242 3357455.29397583 18.08931541 150 167 187
245780.77880859 3357456.19827271 17.32544136 88 96 75
245782.38317871 3357455.45437622 17.26335716 129 135 147
245764.03088379 3357451.48727417 17.92729568 14 22 24
245778.37872314 3357454.07284546 18.87982368 12 33 36
245764.00189209 3357450.41882324 18.12362671 28 33 37
245761.85906982 3357450.57653809 18.46317101 41 54 63
245778.35803223 3357454.31787109 19.01816940 118 143 165
245781.50268555 3357456.27343750 18.35015869 44 55 59
245760.46923828 3357450.08648682 18.19701385 151 174 190
245783.06909180 3357454.97625732 17.35255432 33 81 39
245764.01495361 3357450.15805054 18.01446915 11 15 18
245777.40161133 3357453.68637085 17.73223495 204 210 146
245762.38616943 3357451.49679565 17.64190292 73 76 81
245760.27026367 3357449.63528442 18.20262337 91 102 106
245778.17956543 3357453.62097168 18.31073189 40 49 46
245777.97857666 3357455.17758179 19.02999496 126 135 152
245783.32159424 3357455.01354980 17.29475975 156 163 147
245762.10424805 3357451.05496216 18.21378136 69 74 77
245764.55499268 3357451.53887939 17.56011581 57 66 71
245762.73889160 3357450.16461182 17.88675499 19 26 32
245760.29797363 3357450.14929199 18.82335281 119 134 139
245778.80255127 3357455.65539551 17.82100677 41 43 38
245763.91790771 3357451.83966064 17.60506821 58 67 72
245762.29791260 3357451.13256836 18.04152870 71 75 74
245762.76208496 3357450.20278931 17.94071198 18 25 31
245760.50738525 3357450.33496094 18.50438309 132 152 161
245761.35644531 3357449.36245728 17.64284706 56 62 62
245779.98266602 3357455.96163940 17.57848740 43 43 41
245759.64709473 3357450.61685181 18.25021744 107 101 103
245760.31701660 3357450.78506470 18.56211472 43 44 46
245761.22137451 3357450.10559082 18.24516869 25 28 33
245760.66156006 3357450.31954956 18.39288521 111 132 149
245778.38409424 3357453.75335693 18.58677864 6 12 12
245782.92657471 3357456.47915649 17.25411224 114 119 112
245781.44927979 3357454.68130493 17.78023338 40 61 56
245760.13006592 3357450.69171143 18.29943085 44 54 55
245781.26855469 3357455.99142456 17.89691544 29 38 43
245778.84564209 3357455.46862793 18.61142731 34 34 32
245763.59350586 3357451.68161011 18.20011330 109 118 123
245778.09783936 3357454.04727173 19.00321198 27 37 36
245759.61914063 3357450.21118164 18.54714394 130 131 133
245777.92492676 3357453.68261719 18.60785675 54 50 51
245762.06500244 3357451.01776123 18.08214951 87 90 95
245781.84417725 3357454.51864624 17.69989967 74 80 76
245761.19891357 3357449.98355103 18.04346848 14 22 25
245764.16278076 3357450.84194946 18.11007690 49 58 63
245780.34503174 3357456.02099609 17.70791817 100 96 93
245781.29479980 3357455.96850586 17.95553780 27 37 39
245783.14056396 3357455.34521484 17.27228165 172 183 141
245781.29974365 3357454.82714844 17.72446251 22 41 37
245760.07855225 3357450.70077515 18.12031174 34 39 42
245777.46905518 3357453.63522339 17.55994225 252 249 178
245781.55914307 3357456.27102661 18.37320137 116 125 130
245762.22485352 3357451.09222412 18.06295395 71 75 78
245779.57000732 3357453.93243408 18.33477211 28 41 34
245782.55511475 3357456.12182617 17.31963730 31 86 55
245761.11944580 3357450.20870972 18.39391518 84 100 113
245780.02850342 3357455.54452515 18.40318298 182 200 222
245778.94183350 3357454.93222046 18.82853317 42 55 64
245777.64031982 3357454.74438477 19.00115013 37 47 48
245762.30786133 3357450.51770020 18.25792694 43 55 67
245781.54058838 3357455.44531250 17.68507385 18 28 29
245760.53753662 3357450.40237427 18.62959290 118 133 138
245763.87261963 3357451.16256714 18.15808868 16 25 32
245761.11584473 3357449.74017334 17.87811089 15 20 24
245781.96453857 3357455.50152588 17.33100510 47 54 62
245781.35571289 3357455.98318481 18.10244560 21 32 34
245778.28955078 3357453.89062500 18.78465080 28 37 34
245782.64886475 3357456.05685425 17.30215073 32 87 56
245762.53930664 3357451.11148071 18.66946411 64 90 107
245763.96813965 3357451.74798584 17.63837624 48 57 62
245760.44146729 3357450.37380981 18.80400467 116 131 138
245779.99102783 3357454.53631592 18.33705711 122 149 178
245779.94873047 3357455.85952759 18.18564224 199 207 230
245760.35375977 3357450.80313110 18.56998253 29 33 32
245760.48760986 3357449.93838501 18.06001282 162 172 184
245760.24688721 3357449.85006714 18.26450539 40 54 57
245761.51007080 3357450.05209351 17.95276260 14 24 26
245761.48602295 3357450.94479370 18.29739571 76 81 84
245763.02838135 3357450.17047119 18.06528091 6 11 14
245781.21069336 3357455.39059448 17.80883980 14 28 31
245762.16717529 3357451.23809814 18.70676231 29 36 46
245761.89013672 3357451.12847900 18.71359634 54 57 62
245778.74951172 3357454.07324219 18.73900604 21 35 35
245781.53088379 3357454.98175049 17.71912384 21 51 39
245761.69433594 3357450.26184082 18.06585884 18 29 33
245771.03820801 3357451.93112183 17.56422043 64 75 79
245762.15411377 3357451.22418213 18.39954185 97 102 108
245781.38116455 3357455.37960815 17.72442055 20 28 31
245759.77911377 3357449.58496094 18.44452286 42 45 50
245763.59692383 3357451.41967773 18.25486565 17 33 48
245783.16955566 3357455.82400513 17.25530243 83 90 82
245762.27471924 3357450.20773315 17.79137611 14 21 27
245782.05108643 3357455.11984253 17.66299248 27 81 47
245759.58862305 3357450.58572388 18.21788406 114 110 109
245783.11096191 3357455.84292603 17.25637627 139 142 121
245782.27551270 3357455.02166748 17.58593559 17 76 44
245779.40722656 3357455.80596924 18.04643250 57 63 61
245782.30871582 3357456.42663574 17.34102821 40 81 51
245760.46179199 3357449.52838135 18.03170013 37 42 45
245781.80578613 3357456.10272217 17.94179916 24 32 34
245763.01702881 3357451.60946655 18.02796555 38 46 49
245759.54870605 3357450.50680542 18.39219284 94 93 98
245762.07641602 3357450.50839233 18.29455757 31 44 52
245778.12457275 3357454.80718994 19.11186218 108 125 145
245763.19232178 3357450.08377075 18.07524681 28 36 39
245780.73962402 3357455.31323242 18.29821968 196 209 226
245782.65020752 3357455.02178955 17.43505287 26 83 48
245763.82226563 3357451.63528442 18.04050446 15 23 25
245762.19409180 3357451.43353271 17.66088486 59 63 66
245779.61260986 3357455.91140747 17.56413460 31 44 37
245780.66345215 3357455.87673950 18.60989189 180 199 229
245760.88073730 3357450.90512085 18.35876846 50 54 55
245782.69531250 3357455.60397339 17.28223801 42 94 58
245781.45043945 3357455.87231445 18.22208405 12 21 26
245783.03186035 3357455.24624634 17.29332352 56 89 42
245780.22064209 3357455.94692993 18.40063286 180 196 222
245780.36096191 3357456.00527954 18.45254326 182 199 227
245762.56597900 3357451.40963745 17.85640717 46 54 56
245782.41784668 3357454.71743774 17.53886986 51 78 61
245781.78289795 3357455.85638428 17.56141472 23 35 31
245778.70434570 3357455.08349609 18.85526276 0 19 30
245770.08990479 3357451.64331055 17.51949883 65 76 82
245761.89721680 3357450.99084473 18.03234482 84 85 90
245764.59790039 3357451.14273071 17.66109467 36 46 48
245760.21997070 3357449.75302124 18.26970100 34 43 42
245762.89215088 3357450.15539551 17.96373367 10 15 18
245779.54498291 3357455.39398193 18.53310013 51 61 70
245782.10064697 3357456.25335693 17.37872314 22 64 42
245779.94073486 3357454.40994263 18.37757874 84 106 129
245778.78131104 3357455.16787720 18.81972694 59 84 104
245763.16113281 3357451.61572266 18.15285492 11 19 22
245779.57788086 3357455.79846191 18.29620743 137 144 154
245778.25762939 3357453.59225464 18.06755447 52 56 55
245762.79968262 3357450.97131348 18.60474014 19 33 34
245759.99749756 3357449.29800415 18.10022736 27 28 32
245761.97937012 3357450.48263550 18.29091835 14 24 34
245780.19702148 3357456.00088501 17.73879433 51 46 42
245763.83489990 3357450.77200317 18.18490791 19 28 33
245761.65777588 3357450.09918213 17.92197990 29 39 41
245763.99249268 3357451.50180054 17.95961761 12 22 23
245762.09790039 3357450.52432251 18.30970764 36 49 57
245781.01678467 3357455.00466919 18.04129791 61 75 84
245778.79486084 3357453.98629761 18.63764381 22 33 29
245783.30297852 3357455.45751953 17.26206589 91 96 89
245778.16296387 3357455.46096802 18.12155533 95 102 94
245762.09045410 3357449.56149292 17.57732391 52 55 60
245778.13305664 3357454.08029175 19.00552940 25 38 44
245764.08843994 3357450.42553711 18.06287956 13 17 20
245782.63006592 3357455.33554077 17.30886459 37 86 56
245778.68212891 3357455.18099976 18.82858849 52 80 101
245779.62414551 3357455.82812500 18.03334427 85 89 92
245761.71112061 3357450.89593506 18.81905365 41 51 53
245777.60076904 3357453.76565552 17.82107162 113 173 75
245782.97204590 3357455.02600098 17.35505676 23 86 39
245761.90362549 3357449.58755493 17.61429024 54 57 62
245762.25402832 3357449.91775513 17.59230995 8 11 16
245760.13220215 3357449.87896729 18.62389755 67 74 82
245778.59606934 3357455.55001831 18.21585655 45 47 42
245763.44641113 3357451.25924683 18.24424553 40 49 64
245780.12969971 3357455.06201172 18.32959747 177 189 205
245760.94604492 3357449.87908936 17.96346283 67 76 81
245778.08923340 3357454.76599121 19.12593269 102 117 136
245763.17047119 3357449.98138428 17.99211693 28 33 37
245780.92041016 3357454.39950562 18.49521446 33 44 36
245762.32324219 3357451.31567383 18.49636078 47 52 55
245763.38037109 3357450.44274902 18.24822044 44 51 61
245760.49639893 3357450.32788086 18.49156952 139 161 172
245761.63488770 3357450.68200684 18.72164917 24 33 42
245760.47467041 3357450.92843628 18.26288605 44 46 43
245777.97357178 3357454.58703613 19.12629128 92 101 118
245781.15374756 3357456.14770508 17.62874794 25 43 27
245759.67327881 3357450.63122559 18.34561157 135 130 136
245778.77532959 3357453.99484253 18.65613365 22 33 29
245778.26007080 3357453.64453125 18.39723587 32 38 34
245760.81439209 3357450.30200195 18.40840912 79 91 107
245760.01068115 3357450.65975952 18.64808083 24 28 31
245780.37646484 3357454.39035034 18.81896591 25 37 27
245763.57086182 3357451.73776245 17.89549828 21 29 32
245783.05993652 3357455.51870728 17.27522087 161 167 129
245783.10351563 3357455.38226318 17.27572441 154 166 120
245763.74786377 3357451.69360352 17.95475197 16 24 27
245761.01208496 3357450.20889282 18.35827255 57 71 80
245781.31921387 3357454.40792847 17.84168243 54 63 60
245763.60864258 3357450.07833862 18.11855316 21 26 30
245762.73321533 3357451.18130493 18.61844826 22 35 43
245762.18261719 3357451.14474487 17.88415527 72 74 73
245779.73077393 3357454.97027588 18.52371788 25 30 36
245778.89471436 3357455.46743774 18.60843658 43 43 41
245760.95153809 3357449.70129395 17.89360237 16 23 29
245778.64233398 3357455.37191772 18.71277237 149 152 171
245780.44653320 3357456.02490234 18.39561081 201 215 242
245779.20751953 3357454.98275757 18.71811867 152 171 188
245762.53741455 3357451.31674194 18.24835587 41 51 53
245782.68988037 3357455.21511841 17.38761711 35 91 54
245777.60516357 3357453.79861450 17.94757080 106 161 80
245778.81378174 3357453.58187866 17.80947495 26 37 31
245760.49597168 3357450.97644043 18.11166382 37 39 38
245763.46972656 3357451.57366943 18.33257866 27 37 46
245777.64916992 3357455.11648560 18.76472282 53 54 59
245778.35485840 3357455.19927979 18.93045044 181 197 222
245781.62017822 3357455.36917114 17.61064339 21 37 34
245761.96185303 3357451.06408691 17.90968513 64 66 65
245781.62548828 3357454.99032593 17.72152519 20 58 37
245763.36999512 3357451.73388672 17.96489143 13 17 20
245761.12536621 3357449.60510254 17.80719566 23 30 36
245762.91992188 3357451.42364502 18.39873886 45 56 62
245760.41931152 3357449.44931030 18.04997444 43 48 51
245781.76678467 3357456.07336426 18.43752289 49 57 59
245778.63751221 3357455.60623169 17.70063972 38 41 34
245778.44561768 3357453.67276001 18.38753700 20 25 21
245779.87091064 3357455.82775879 18.26214981 182 186 211
245762.63977051 3357451.56015015 17.68491554 65 64 69
245762.70703125 3357450.28121948 18.02211189 18 25 33
245764.36968994 3357451.86904907 17.52701187 68 79 83
245761.67675781 3357451.22866821 17.78568840 54 58 61
245759.84771729 3357450.65515137 18.56571770 31 34 39
245778.48193359 3357453.71035767 18.44482994 5 11 9
245780.29205322 3357455.31378174 18.48939514 173 195 218
245782.95520020 3357455.47988892 17.29200554 63 94 52
245782.99932861 3357456.43057251 17.25744247 93 98 91
245761.57171631 3357451.09890747 17.85081291 63 67 68
245762.23632813 3357451.24270630 18.38270569 66 71 77
245761.33105469 3357450.06198120 18.10129356 23 28 32
245783.00622559 3357456.14498901 17.25337982 124 126 112
245781.58386230 3357456.34683228 17.49298096 22 37 32
245761.72698975 3357450.02902222 17.83705139 10 18 20
245759.97003174 3357449.54138184 18.47381592 214 218 230
245782.75744629 3357456.17440796 17.30091476 43 87 60
245759.67120361 3357450.62149048 18.25207901 80 76 77
245760.62854004 3357450.34667969 18.42044067 107 128 145
245760.49774170 3357450.93005371 18.30895424 70 71 66
245780.24462891 3357455.55337524 18.56678200 183 204 225
245779.37902832 3357454.42071533 18.64064598 0 9 11
245761.01379395 3357450.88409424 18.89589882 33 38 41
245778.71911621 3357455.63275146 17.63366127 36 43 36
245779.69232178 3357455.44720459 18.37206268 66 79 96
245780.41766357 3357455.41278076 18.54040527 171 197 220
245778.47930908 3357454.83264160 18.95625305 152 170 192
245777.59271240 3357454.51150513 18.91985703 40 47 55
245781.55938721 3357455.83227539 18.29483795 11 22 28
245760.93908691 3357451.03704834 17.97346497 62 62 64
245779.76251221 3357454.95025635 18.49555969 21 24 31
245762.38690186 3357451.23052979 18.66326714 71 97 112
245781.86248779 3357456.01177979 18.07234573 14 23 28
245764.51715088 3357451.77404785 17.52461815 73 82 87
245762.71600342 3357451.16079712 18.63168526 22 35 43
245778.71142578 3357455.22155762 18.79021645 167 193 218
245763.46307373 3357451.99322510 17.55819321 70 75 78
245763.28332520 3357450.34570313 18.22362518 45 52 58
245760.11206055 3357450.23840332 19.04672050 51 61 70
245780.02380371 3357455.36349487 18.32970047 163 183 210
245778.08264160 3357454.62622070 19.12280273 98 111 130
245779.73486328 3357455.15893555 18.49096680 23 31 34
245779.84869385 3357455.93103027 17.60486412 38 43 39
245781.59881592 3357455.08004761 17.70857811 22 55 38
245762.08593750 3357451.01708984 18.17891502 69 72 77
245781.31500244 3357454.54571533 17.86134720 25 39 39
245759.69372559 3357450.62036133 18.21598244 52 50 51
245763.09832764 3357450.88943481 18.38198662 47 60 69
245763.50988770 3357451.73260498 18.07216644 10 15 19
245762.49603271 3357450.54223633 18.36279488 18 25 31
245764.19635010 3357451.73934937 17.58288956 55 66 70
245778.12854004 3357455.13677979 19.12046814 136 153 173
245763.40295410 3357451.33773804 18.27797318 39 51 65
245778.12640381 3357453.90298462 18.88944244 22 28 24
245761.04144287 3357450.92681885 18.83854485 45 49 50
245778.16949463 3357455.41897583 17.70944786 56 64 43
245762.02832031 3357449.77285767 17.59461212 38 43 46
245763.08502197 3357451.15133667 18.41675949 4 16 30
245780.21185303 3357455.61392212 18.57624435 186 204 228
245781.70251465 3357456.27175903 17.68560410 19 31 29
245779.36840820 3357454.65762329 18.65536690 7 16 21
245760.57397461 3357450.99655151 18.14542961 40 42 41
245782.45013428 3357455.56362915 17.26602173 52 66 69
245780.36206055 3357456.01678467 18.17740822 182 181 197
245763.30346680 3357451.76760864 17.72033119 29 34 37
245777.56311035 3357455.20996094 18.50630760 84 67 73
245782.00164795 3357456.23025513 17.43354416 21 56 36
245782.83453369 3357456.31744385 17.27434921 93 112 93
245762.19085693 3357450.84735107 18.66182709 47 59 73
245763.29949951 3357450.87637329 18.22740936 34 46 60
245761.50689697 3357450.91763306 18.90686035 41 48 56
245777.70111084 3357454.37707520 19.01652718 66 71 74
245759.90814209 3357449.33496094 17.91364288 54 54 52
245777.65795898 3357454.85842896 18.96373749 43 56 62
245781.04095459 3357455.09756470 17.98222923 70 88 100
245777.74206543 3357454.36718750 19.02904701 66 71 75
245778.35083008 3357453.57479858 17.94170761 49 53 54
245778.56945801 3357454.99688721 18.91408730 41 59 71
245762.72369385 3357451.39526367 18.33800316 33 42 49
245779.25097656 3357455.69000244 18.42046356 1 7 5
245778.48797607 3357454.41375732 19.00372505 132 155 173
245778.37866211 3357455.50006104 18.29787636 41 46 39
245762.82281494 3357450.05764771 17.81844139 15 20 26
245759.97747803 3357449.43124390 18.33348465 76 80 83
245778.84149170 3357455.66641235 17.67449570 39 44 40
245777.87194824 3357454.45254517 19.08786392 101 109 122
245760.62182617 3357449.22369385 17.86664581 52 53 55
245764.22680664 3357450.76681519 18.05309105 3 11 14
245779.78131104 3357455.90634155 17.68110466 30 36 32
245760.32818604 3357450.79739380 18.73957253 56 61 57
245779.59143066 3357454.39801025 18.53089523 54 69 72
245781.78729248 3357455.85733032 17.54170227 26 38 34
245780.54962158 3357455.73324585 18.59997177 170 190 217
245762.13452148 3357449.88592529 17.59187698 1 5 6
245778.44940186 3357453.89691162 18.71308136 18 28 29
245778.19781494 3357454.07723999 18.96476364 22 39 46
245764.79241943 3357450.66387939 17.60306931 44 54 56
245779.31152344 3357455.77438354 17.79751205 59 60 55
245760.41174316 3357449.85787964 18.05369377 138 152 165
245762.69763184 3357449.82543945 17.63269806 20 21 26
245762.05438232 3357450.42196655 18.18098068 14 27 35
245781.40924072 3357455.89227295 18.19196701 7 18 20
245782.53802490 3357455.81967163 17.27213287 53 90 73
245764.38928223 3357450.49111938 17.83346748 28 38 40
245762.43786621 3357451.30935669 18.35362053 44 54 56
245760.21752930 3357450.73706055 18.32306099 49 55 55
245760.47399902 3357450.76776123 18.95829773 29 34 38
245780.25665283 3357454.87777710 18.34147835 149 167 187
245761.44219971 3357451.06451416 18.59730339 46 52 50
245780.72961426 3357455.41339111 18.31289864 205 217 231
245764.74768066 3357450.44665527 17.62464905 37 47 49
245781.95843506 3357455.85113525 17.34082031 29 57 45
245778.08227539 3357454.21667480 19.05882835 119 135 158
245762.78857422 3357451.53884888 17.83518600 61 65 68
245780.87573242 3357455.71905518 18.02962685 130 147 165
245781.13720703 3357455.15591431 17.81027794 37 60 66
245778.73565674 3357455.25753784 18.77015495 183 202 232
245777.79541016 3357454.57272339 19.08458900 53 62 71
245762.83966064 3357450.22879028 18.01185799 16 23 29
245778.29803467 3357455.46685791 18.48456764 24 29 22
245759.94964600 3357449.57116699 18.52657127 178 182 193
245779.50213623 3357455.47436523 18.49995232 34 44 53
245781.85632324 3357454.53839111 17.69430351 58 64 60
245763.29565430 3357450.05084229 18.08148384 26 31 35
245760.15307617 3357449.87384033 18.52757454 82 87 93
245764.55505371 3357450.38589478 17.68679237 31 41 43
245781.05725098 3357455.97714233 17.64065552 16 33 27
245762.91131592 3357451.71362305 17.65384674 54 58 61
245762.53289795 3357451.04379272 18.67303085 53 72 86
245781.68695068 3357456.13217163 18.44746399 52 57 61
245777.99304199 3357454.65554810 19.13490677 89 100 118
245779.17559814 3357454.50161743 18.73425865 136 158 179
245781.80267334 3357455.84994507 17.97104645 15 25 27
245761.88104248 3357450.02044678 17.71417999 13 23 25
245760.52447510 3357449.97399902 18.06696129 122 131 146
245762.58276367 3357450.52059937 18.36356544 17 24 30
245781.91766357 3357455.38604736 17.42954254 50 71 72
245762.68438721 3357451.50534058 17.78237343 70 73 78
245780.35333252 3357455.75756836 18.61653900 179 203 229
245777.92926025 3357455.01773071 19.13409996 79 92 109
245777.53106689 3357454.46102905 18.85898781 48 52 61
245761.69500732 3357450.23687744 18.02802467 19 30 32
245763.35052490 3357450.59631348 18.22622108 45 54 63
245778.86083984 3357455.66482544 18.03786087 61 61 59
245778.43054199 3357453.66265869 18.37347984 20 25 21
245762.82421875 3357450.39187622 18.23073959 34 44 43
245778.08898926 3357453.68481445 18.58497238 4 6 1
245762.34625244 3357451.30819702 17.81360817 84 87 92
245762.64880371 3357450.00439453 17.70312691 7 11 12
245760.84790039 3357450.27352905 18.38352776 78 90 104
245764.26391602 3357450.36691284 17.85735893 26 34 37
245762.75653076 3357451.09851074 18.62082291 20 35 42
245781.06640625 3357454.86614990 17.98678589 54 67 73
245761.07489014 3357450.71408081 18.97580719 60 69 78
245763.63012695 3357451.65115356 18.31950569 71 81 93
245778.78308105 3357454.35461426 18.89877892 138 153 172
245761.72570801 3357449.78497314 17.72556305 37 42 46
245778.21563721 3357455.30944824 18.81692505 106 103 112
245762.79968262 3357449.90292358 17.69335556 19 20 24
245779.41455078 3357455.47985840 18.57629013 19 32 40
245779.76971436 3357454.51669312 18.41109657 51 67 83
245761.26031494 3357450.40853882 18.62677383 60 74 85
245762.28753662 3357451.52194214 17.59579659 85 90 93
245761.91192627 3357450.93777466 18.78605461 37 46 53
245761.83282471 3357450.99905396 18.76485062 35 42 48
245762.84204102 3357449.83248901 17.67033005 21 25 28
245781.16107178 3357456.18661499 17.57543945 36 54 38
245782.87487793 3357456.51864624 17.25764084 131 139 126
245777.96899414 3357455.39816284 18.46660233 48 59 55
245761.15637207 3357450.05245972 18.13024330 19 22 27
245760.92651367 3357450.88565063 18.53137779 61 65 66
245778.65368652 3357453.68203735 18.35323143 13 22 17
245779.29058838 3357455.64422607 18.48141479 58 63 69
245761.06555176 3357450.52600098 18.79306793 59 71 83
245764.03399658 3357450.78421021 18.18141937 6 14 17
245778.86572266 3357455.61306763 18.38858032 46 46 48
245777.52099609 3357455.04113770 18.59128380 53 49 46
245764.27252197 3357451.44320679 17.73080826 28 42 45
245778.35632324 3357455.49575806 18.28743553 41 46 39
245777.52374268 3357454.93310547 18.60151291 45 46 48
245780.86425781 3357455.11407471 18.21965599 158 174 189
245779.59094238 3357454.83029175 18.57902718 10 19 24
245780.24169922 3357455.92654419 18.56159782 187 207 232
245780.78765869 3357455.88830566 17.70544815 81 91 101
245761.94927979 3357450.54580688 18.38934135 24 37 46
245782.60418701 3357455.98101807 17.29921150 42 86 61
245762.39739990 3357451.50271606 17.63834763 65 68 73
245760.83697510 3357450.47436523 18.70021820 62 81 87
245778.73535156 3357454.18646240 18.84594154 59 77 87
245779.31536865 3357455.77151489 17.76095009 63 63 61
245781.80731201 3357456.03201294 17.83591843 20 30 29
245762.06671143 3357450.38876343 18.12778664 14 27 35
245761.38153076 3357450.25939941 18.42495155 32 41 46
245781.43811035 3357456.21176147 18.24167061 19 28 35
245780.70013428 3357455.68798828 18.48828888 209 219 229
245764.38891602 3357450.78128052 17.91061211 22 32 33
245778.73779297 3357454.10766602 18.77511978 23 39 39
245778.93896484 3357455.01837158 18.81211090 144 159 180
245777.58868408 3357453.84609985 18.15686607 45 153 33
245760.33343506 3357450.09738159 18.38219452 89 107 121
245760.31719971 3357450.75604248 18.92226601 60 65 68
245760.16326904 3357449.44848633 18.25678062 99 104 110
245781.10083008 3357455.92773438 17.70008659 24 40 40
245782.25549316 3357455.76455688 17.27032089 108 117 126
245763.14624023 3357451.67068481 17.97641945 39 44 48
245778.26428223 3357454.09982300 18.94111252 33 53 64
245780.47747803 3357455.87197876 18.64324951 190 207 235
245760.10595703 3357449.48950195 18.31081009 211 215 227
245781.37554932 3357454.97003174 17.71839523 14 39 35
245760.68981934 3357449.71115112 17.92502785 47 48 53
245762.84289551 3357451.22610474 18.55455017 39 52 58
245782.63073730 3357455.17129517 17.41036606 32 90 52
245777.96948242 3357455.43066406 18.18233109 41 42 34
245762.23760986 3357451.19119263 18.29342079 81 85 94
245782.96459961 3357456.40548706 17.25508499 118 121 112
245779.22503662 3357455.76083374 17.81296539 54 56 51
245779.17639160 3357454.01370239 18.54991722 25 36 30
245763.05853271 3357450.09042358 18.02027512 22 31 36
245763.36090088 3357451.53735352 18.34059525 30 42 54
245778.34576416 3357455.50155640 18.10779762 48 55 47
245779.65814209 3357455.87686157 17.69347191 23 28 24
245781.84790039 3357456.03698730 18.03449059 14 24 26
245781.56188965 3357456.27062988 18.37562752 147 156 161
245782.59143066 3357455.33544922 17.30248451 37 83 55
245762.72760010 3357450.68444824 18.54038239 27 38 34
245764.01196289 3357450.62997437 18.15612030 17 25 28
245759.57177734 3357450.42910767 18.51168251 69 66 75
245763.16760254 3357451.53573608 18.28545952 37 46 55
245764.23724365 3357450.67340088 18.01638985 8 16 18
245778.64880371 3357455.60949707 17.71072769 38 41 34
245762.31121826 3357451.29226685 18.43335533 49 57 59
245780.06182861 3357454.72006226 18.31010437 0 1 4
245777.84545898 3357453.88720703 18.80217934 34 35 30
245780.55499268 3357454.87011719 18.49214363 123 145 158
245780.74127197 3357455.92962646 17.84108734 122 134 146
245761.15734863 3357450.68676758 18.96312523 69 79 88
245760.97338867 3357450.16311646 18.28347969 56 70 81
245778.47875977 3357455.46435547 18.62631798 22 28 18
245764.97454834 3357450.41220093 17.54055595 48 58 60
245761.54846191 3357450.48654175 18.56461716 31 40 47
245780.33428955 3357455.68191528 18.60706139 179 201 225
245779.96337891 3357455.51757813 18.34204292 102 117 138
245770.28582764 3357451.68743896 17.50563240 63 72 77
245759.94158936 3357449.24426270 17.74365044 86 91 71
245761.58459473 3357451.08789063 18.57874298 66 70 69
245779.04980469 3357454.12023926 18.68585205 25 35 34
245761.57781982 3357450.38925171 18.42856407 18 26 29
245762.18774414 3357449.97180176 17.60690117 4 7 12
245780.52337646 3357455.63034058 18.56710434 176 195 225
245760.24127197 3357449.49716187 18.21707153 58 63 67
245782.76953125 3357454.70791626 17.50809860 37 50 41
245780.80249023 3357454.83895874 18.31388664 157 171 184
245762.50555420 3357450.48251343 18.26316261 25 35 44
245760.39379883 3357450.29580688 18.50159264 161 185 185
245778.59802246 3357455.52828979 18.47495461 32 39 31
245768.23327637 3357451.14761353 17.53507423 68 75 81
245782.76007080 3357456.65283203 17.26918221 122 129 111
245764.05084229 3357451.15106201 18.11668205 25 39 42
245760.78399658 3357449.30081177 17.78820992 49 53 54
245764.60766602 3357450.62890625 17.69347191 35 45 47
245780.95855713 3357455.62515259 17.94024277 27 45 49
245760.17852783 3357449.57891846 18.28545380 63 67 70
245780.58081055 3357455.53134155 18.52393723 168 192 218
245760.40985107 3357450.99111938 17.98715973 64 65 67
245781.23120117 3357454.72586060 17.75418854 25 44 42
245779.80804443 3357455.82470703 18.24476433 184 186 207
245781.10522461 3357456.14285278 17.58907700 25 48 30
245782.36712646 3357455.37304688 17.27598190 127 136 143
245779.30249023 3357454.26104736 18.65412903 101 115 126
245777.66119385 3357454.67337036 18.98745537 43 51 53
245780.30767822 3357456.00659180 17.95133209 139 130 133
245777.65606689 3357453.97253418 18.65913773 37 41 40
245777.69177246 3357454.23114014 18.95469093 66 69 74
245763.03466797 3357450.34307861 18.19812393 26 31 34
245760.47644043 3357450.38296509 18.71024323 127 142 147
245779.07556152 3357455.49087524 18.61404800 172 174 186
245781.83544922 3357455.12954712 17.67875290 30 76 47
245778.72674561 3357453.66528320 18.27056122 24 35 29
245779.00531006 3357454.37039185 18.83463669 138 151 167
245763.14544678 3357450.75033569 18.32416153 16 27 33
245763.42175293 3357451.43817139 18.30717468 31 43 55
245781.31665039 3357455.82580566 18.02724266 13 21 24
245759.99920654 3357450.66000366 18.61400795 23 27 30
245781.94726563 3357456.24032593 17.46416664 21 47 34
245778.20996094 3357453.68319702 18.53137207 16 21 17
245761.11230469 3357450.96636963 18.85704041 49 53 56
245763.91192627 3357451.68249512 17.74969673 24 34 35
245781.12335205 3357454.57778931 18.09350967 33 43 42
245778.61785889 3357454.48483276 18.91896057 151 172 191
245761.43548584 3357450.15008545 18.17193222 16 21 25
