246163.81848145 3357577.49786377 12.89724064 96 96 96
246158.33618164 3357572.96868896 13.21968460 205 204 209
246159.35913086 3357570.67279053 13.48458862 14 12 15
246163.03881836 3357574.21051025 13.11538982 46 41 38
246160.21093750 3357570.20031738 13.41004086 1 7 7
246168.71984863 3357574.21807861 13.36850739 33 38 42
246165.20178223 3357577.70568848 13.10919571 38 39 43
246166.80566406 3357573.29058838 13.54104042 19 20 22
246158.35559082 3357569.98742676 13.73861599 19 26 34
246166.23156738 3357574.56164551 13.27940369 29 33 34
246157.04223633 3357569.73522949 13.06836414 108 104 101
246164.30383301 3357576.05364990 12.88625240 43 43 41
246166.14636230 3357573.45440674 13.27861023 54 54 54
246159.49902344 3357571.82757568 12.93597984 94 91 86
246166.32653809 3357577.78839111 13.50704479 51 52 56
246158.31127930 3357574.75622559 12.85417366 129 124 118
246166.48461914 3357578.17504883 13.28286076 27 28 32
246165.82666016 3357578.47235107 13.05931950 18 19 23
246169.47631836 3357576.31201172 14.30807304 26 31 34
246161.88281250 3357577.05682373 12.80131149 184 167 147
246160.89501953 3357570.66302490 13.48517990 136 130 130
246166.24279785 3357577.86059570 13.40044975 36 37 41
246158.03747559 3357573.91406250 13.06753826 75 70 67
246160.13928223 3357572.30169678 12.97262192 81 75 63
246158.60668945 3357573.80773926 13.16431522 54 54 54
246164.65344238 3357572.58258057 13.34832764 36 34 37
246162.15112305 3357576.11560059 12.83195305 122 114 111
246161.25732422 3357575.52856445 13.13744640 144 134 124
246157.98742676 3357571.52636719 13.46376610 93 92 87
246158.07287598 3357569.82647705 13.78823948 108 117 116
246158.30249023 3357569.44476318 13.49412727 122 117 124
246168.11767578 3357577.09008789 13.55739975 12 16 19
246160.85852051 3357570.21386719 13.75453758 37 35 36
246169.75952148 3357574.93402100 13.98307323 42 43 45
246156.27600098 3357569.44573975 13.11478424 130 132 129
246165.96154785 3357578.57659912 13.01723289 25 26 28
246165.56262207 3357575.06762695 13.42056751 120 121 116
246155.54235840 3357571.05871582 13.30522251 102 98 89
246156.63830566 3357574.32293701 12.83040428 165 153 141
246161.21069336 3357575.43249512 13.18911457 112 103 96
246157.75842285 3357569.93444824 12.87444401 52 47 41
246168.21923828 3357577.54711914 13.70610619 23 24 28
246164.42846680 3357572.95391846 12.93447113 172 157 136
246166.98571777 3357577.31597900 14.42187309 135 134 132
246166.85144043 3357578.81176758 13.13777828 16 19 24
246167.39001465 3357576.38055420 13.62055397 71 76 82
246161.76489258 3357571.51202393 13.09005070 95 95 95
246163.08325195 3357575.36047363 13.01522827 37 37 39
246165.73986816 3357572.21746826 13.58813286 31 38 44
246165.71850586 3357575.95941162 13.34227085 32 31 36
246170.35937500 3357573.79473877 13.47498989 33 38 42
246167.34472656 3357576.58428955 13.77421951 81 89 92
246164.59899902 3357572.53411865 13.36709499 31 29 34
246155.88598633 3357571.80932617 13.79164314 54 53 49
246170.73010254 3357574.49560547 13.45533085 36 41 45
246163.07189941 3357573.08117676 13.33197880 109 102 94
246157.75317383 3357573.71002197 12.94953918 89 80 71
246166.79174805 3357577.25000000 13.24756432 62 65 72
246160.37170410 3357575.56109619 13.13068008 63 59 56
246159.71325684 3357573.00531006 13.06109428 213 205 203
246163.75305176 3357576.14068604 12.63555336 180 162 138
246166.75524902 3357577.13793945 13.30665874 148 151 156
246159.43139648 3357572.03710938 12.88930321 135 130 126
246167.16198730 3357576.86761475 14.09463024 71 80 87
246169.06372070 3357575.42218018 13.99648857 56 61 64
246155.52404785 3357570.97253418 13.15350056 156 149 143
246158.67932129 3357571.09216309 13.61139488 47 52 55
246155.87902832 3357571.79528809 13.91377449 73 70 65
246157.76501465 3357570.59118652 13.72824669 1 16 23
246156.50976563 3357574.19866943 12.83880997 183 169 156
246165.49291992 3357578.29302979 12.96372032 47 48 52
246169.13220215 3357575.36322021 14.01018238 59 64 68
246159.95861816 3357570.13415527 13.62096882 9 13 14
246159.95227051 3357570.31280518 13.46161556 12 15 20
246161.80810547 3357574.20709229 13.23908424 24 23 21
246166.48999023 3357572.72833252 13.51873207 27 30 35
246156.51843262 3357568.67584229 13.43851662 66 66 66
246166.80834961 3357577.21466064 14.32351971 114 119 122
246159.87744141 3357576.06158447 12.89365196 99 91 80
246165.52160645 3357573.25170898 13.22661781 72 67 63
246156.71704102 3357570.89447021 12.85849667 67 63 54
246165.06640625 3357573.08117676 12.91812706 30 26 23
246163.17810059 3357571.43725586 13.48476791 50 50 48
246157.43103027 3357570.78747559 13.28565407 46 47 42
246159.59448242 3357574.92333984 13.45777893 89 85 82
246163.60156250 3357576.30761719 12.72412109 185 165 140
246168.41809082 3357576.08099365 13.68672180 33 42 49
246168.28430176 3357572.81665039 13.62529945 33 34 38
246167.17602539 3357574.04486084 13.18886662 49 56 62
246159.16064453 3357574.96429443 13.10832787 135 126 129
246167.92346191 3357572.60034180 13.57072067 38 39 43
246157.56652832 3357571.45336914 13.27354813 135 132 127
246158.03674316 3357571.72241211 13.38484669 78 64 63
246163.69470215 3357573.81018066 13.32498741 142 135 125
246167.12353516 3357578.18695068 13.36434269 34 33 39
246161.74365234 3357573.94738770 13.31494427 32 31 27
246162.64526367 3357574.22674561 13.22449303 33 34 36
246155.91662598 3357571.42486572 13.45753479 216 216 216
246158.84143066 3357575.48278809 12.87269306 180 162 152
246165.91247559 3357576.82641602 13.28850937 39 40 44
246162.80859375 3357571.35827637 13.52243805 1 0 0
246161.84399414 3357575.10314941 13.22475815 31 31 33
246155.94555664 3357572.04724121 13.62490082 64 64 64
246160.74218750 3357572.26483154 13.37382030 132 124 121
246160.39440918 3357574.70788574 13.12296391 94 91 86
246156.55139160 3357569.48638916 13.13811207 86 87 82
246168.98730469 3357576.49993896 14.12323189 87 92 96
246161.61486816 3357570.59545898 13.70874596 113 115 114
246168.11816406 3357573.25665283 13.32833576 64 69 73
246170.28161621 3357576.47619629 13.96814823 27 36 41
246165.30126953 3357571.91906738 13.60762024 28 31 36
246155.14111328 3357571.77136230 13.94793892 197 199 196
246161.30676270 3357573.03100586 13.28475285 42 37 34
246168.91943359 3357577.78277588 13.70607662 75 79 90
246158.02185059 3357572.44647217 12.79515171 142 137 131
246166.84252930 3357577.20471191 13.73696709 98 103 109
246159.37866211 3357572.36651611 12.85110855 88 84 81
246160.72692871 3357575.36883545 13.24140549 66 55 49
246161.88525391 3357575.94775391 12.89121628 24 24 22
246164.72851563 3357578.28747559 12.89874077 63 64 68
246161.90380859 3357571.44195557 13.08548546 74 74 74
246162.08044434 3357574.60125732 13.12548161 60 59 57
246160.76501465 3357575.41510010 13.23929501 102 87 80
246162.30712891 3357576.14501953 12.81688309 65 62 55
246160.14892578 3357576.36834717 12.79244995 171 160 142
246162.26098633 3357570.48272705 13.55653381 23 23 25
246163.78430176 3357572.86145020 13.06646824 77 74 69
246156.54602051 3357572.16174316 13.18704128 40 42 41
246161.59338379 3357576.08966064 12.88905525 65 56 47
246161.59716797 3357570.68658447 13.65967751 102 102 104
246157.14819336 3357573.02551270 12.87131596 151 137 124
246159.55761719 3357575.02618408 13.42949581 107 102 99
246165.09204102 3357573.93963623 13.21586037 12 12 12
246159.65905762 3357575.31024170 13.13586044 55 51 48
246156.31848145 3357573.54022217 12.87450790 192 181 163
246160.68005371 3357574.14886475 13.23393536 152 152 152
246163.55810547 3357575.39196777 12.96377468 28 29 31
246160.68420410 3357570.26794434 13.69317627 17 16 14
246157.79956055 3357569.27044678 12.98909187 44 43 39
246158.88500977 3357570.41778564 13.73409271 35 54 60
246170.36413574 3357576.09588623 14.17128181 46 54 57
246162.10461426 3357572.18109131 13.08854389 76 73 68
246156.43334961 3357571.65222168 13.13953209 91 90 88
246164.61047363 3357572.29156494 13.45476627 29 33 36
246166.56433105 3357572.42077637 13.53712368 37 41 44
246166.61596680 3357573.94561768 13.25090313 171 173 168
246158.60095215 3357573.32489014 13.29335213 70 74 75
246158.98413086 3357570.26434326 14.12833691 59 97 106
246167.32983398 3357573.32055664 13.45375252 25 30 34
246159.84765625 3357570.29388428 13.54556751 24 25 29
246167.08215332 3357572.99688721 13.52432251 64 72 75
246159.29919434 3357571.13055420 13.20123863 44 46 45
246160.03881836 3357570.18963623 13.52660179 2 6 9
246155.12365723 3357573.01416016 12.97196007 83 78 74
246162.36901855 3357574.12176514 13.38338852 26 26 26
246163.51281738 3357571.55377197 13.41166496 100 101 95
246167.24902344 3357572.56176758 13.60452557 106 114 116
246158.49169922 3357569.59387207 13.70047283 119 113 115
246170.20129395 3357575.90582275 14.24426651 22 27 33
246167.17370605 3357576.99957275 14.38912106 84 91 97
246156.66442871 3357569.70269775 12.95206928 125 115 106
246169.72839355 3357575.80145264 14.15106201 20 28 31
246161.54504395 3357573.56079102 13.18973160 153 153 151
246169.06774902 3357573.23651123 13.09892368 51 54 59
246161.60632324 3357571.97167969 13.31617546 95 92 87
246163.31604004 3357575.47967529 12.99587440 28 28 28
246158.87585449 3357571.63000488 13.23320580 53 53 55
246157.59082031 3357569.18603516 13.21617699 49 45 44
246164.63073730 3357578.24334717 12.92286301 67 68 70
246158.26940918 3357575.12042236 12.88633633 173 165 152
246161.63256836 3357574.51373291 13.46517563 7 7 7
246158.24511719 3357574.35083008 12.87415504 168 161 151
246161.22705078 3357576.98437500 12.85360050 178 165 149
246157.73913574 3357572.93774414 12.85178280 59 58 54
246167.38916016 3357574.51568604 13.30746174 55 58 63
246170.36621094 3357574.96887207 13.93194294 27 33 33
246167.39770508 3357577.40435791 13.73604679 106 110 113
246161.79882813 3357573.30413818 13.10991287 54 53 51
246165.54187012 3357574.68804932 13.20392227 55 53 54
246168.24694824 3357573.33776855 13.33848476 43 48 52
246167.78222656 3357575.05670166 13.45570183 20 21 25
246155.36254883 3357573.31042480 12.87275791 194 184 174
246168.09045410 3357573.94067383 13.19349194 22 25 30
246166.40612793 3357574.23107910 13.27167130 123 124 126
246163.43774414 3357576.17785645 12.75153828 183 163 136
246160.36535645 3357570.83258057 13.10313034 24 24 24
246160.32946777 3357570.86834717 13.05812454 32 34 33
246169.61340332 3357576.67163086 14.30740929 20 23 28
246162.02087402 3357575.22613525 13.23230553 75 73 76
246163.91748047 3357572.81695557 12.99349403 100 97 90
246167.95751953 3357576.71929932 13.59869194 23 24 28
246157.58581543 3357574.54589844 12.81770515 176 164 150
246165.62023926 3357576.89062500 13.24008274 35 36 40
246156.04846191 3357570.45788574 13.26779556 39 37 38
246164.28027344 3357577.29534912 13.36421204 53 52 50
246162.54138184 3357570.80413818 13.46399975 38 38 40
246162.39379883 3357574.82794189 13.13333511 42 42 42
246167.23034668 3357577.23101807 14.36064816 97 101 104
246165.22448730 3357573.20581055 13.07119656 30 26 23
246162.92651367 3357573.53295898 13.30190182 65 67 66
246168.31359863 3357575.61773682 13.57536983 29 37 40
246167.28112793 3357574.53265381 13.29823017 59 64 67
246166.96728516 3357573.76220703 13.19348240 83 84 88
246155.42065430 3357572.50030518 13.35379887 56 55 53
246156.37182617 3357570.14617920 12.95073032 135 119 106
246163.28674316 3357573.22631836 13.34716225 104 103 101
246156.23339844 3357569.61242676 12.97625732 167 155 143
246165.42895508 3357577.09527588 13.26721287 40 41 43
246163.18566895 3357575.47210693 13.01194954 29 29 29
246169.21057129 3357576.69165039 14.22884274 106 109 116
246164.85607910 3357575.41601563 12.85772991 49 41 38
246155.40014648 3357571.86065674 13.72072697 90 90 88
246165.29687500 3357576.77978516 13.23205566 34 35 37
246157.38195801 3357569.69726563 13.04058838 53 52 47
246162.17517090 3357573.33721924 13.54521751 23 27 30
246158.26281738 3357570.22204590 13.54526424 67 63 64
246163.24890137 3357577.30847168 12.79907417 187 169 149
246163.98657227 3357576.10534668 12.60797501 160 142 122
246157.69177246 3357570.59124756 13.76997471 2 25 31
246157.10131836 3357573.31494141 12.92058659 169 151 137
246158.86169434 3357571.24908447 13.43089390 63 63 65
246158.47082520 3357574.57751465 13.51139832 29 27 30
246159.92004395 3357573.94812012 13.12983131 83 79 76
246156.01171875 3357570.37152100 13.28038311 46 44 45
246159.91467285 3357570.31378174 13.48396873 17 20 25
246158.60119629 3357574.96148682 13.14038277 55 47 45
246168.47375488 3357576.48382568 13.80248737 76 87 89
246163.83374023 3357577.70104980 12.87066078 69 71 68
246162.66162109 3357573.74755859 13.55991745 27 25 28
246166.79113770 3357577.84326172 13.29991531 44 47 52
246166.29992676 3357572.41625977 13.57454205 30 34 37
246160.00146484 3357570.12109375 13.60441589 5 9 10
246165.30541992 3357573.38543701 13.14019585 101 93 90
246162.11999512 3357576.37835693 12.78842258 127 113 104
246164.10534668 3357577.92150879 12.97182846 66 66 66
246166.63610840 3357579.04290771 13.11249447 74 75 79
246158.81762695 3357572.86163330 13.08698177 76 75 71
246167.60107422 3357576.90808105 13.34382629 29 34 37
246169.32055664 3357577.32470703 14.07584858 85 92 98
246158.07153320 3357571.89636230 13.07853222 58 44 44
246158.87463379 3357572.94854736 13.10568523 124 123 121
246163.35412598 3357570.69445801 13.73849583 33 34 38
246165.56713867 3357572.28485107 13.59382343 40 45 49
246164.64123535 3357575.19085693 13.01758766 112 102 93
246161.91943359 3357571.67504883 12.97834301 128 128 128
246163.41845703 3357572.43566895 13.17668247 81 80 78
246163.45727539 3357574.69189453 13.15677261 41 37 36
246156.88708496 3357570.23706055 12.94322968 167 153 140
246160.75537109 3357572.66314697 13.34540367 168 164 161
246168.45373535 3357576.56817627 13.83611012 62 70 72
246167.32373047 3357575.25378418 13.43403816 30 30 32
246161.39831543 3357570.42004395 13.90481949 95 97 96
246160.67016602 3357574.81958008 13.07622910 69 69 67
246168.48693848 3357577.29974365 13.93645477 22 22 24
246167.22131348 3357578.07025146 13.25312996 15 16 20
246168.46557617 3357573.82928467 13.21840858 30 31 36
246162.80126953 3357573.95275879 13.41669846 44 40 41
246163.43884277 3357572.72637939 13.19039345 81 79 80
246157.96826172 3357573.67181396 13.38786888 34 33 29
246168.69909668 3357576.80120850 14.02135754 89 90 92
246160.93420410 3357570.51562500 13.58565521 44 45 40
246169.04467773 3357575.57385254 14.05900192 48 52 55
246162.52416992 3357575.08813477 13.09491444 28 28 28
246168.36059570 3357577.86755371 13.44527149 28 37 44
246166.25939941 3357577.07562256 13.26007938 36 40 43
246165.33142090 3357571.89733887 13.60851097 28 31 36
246156.82873535 3357569.68109131 13.02369595 113 108 104
246166.60778809 3357579.03704834 13.08523941 70 71 75
246170.91699219 3357575.86718750 13.03872871 12 20 23
246156.69738770 3357572.90344238 12.90915680 139 130 121
246156.83691406 3357571.86376953 13.10958195 178 170 159
246166.95202637 3357574.99743652 13.43754292 31 31 33
246169.11035156 3357572.55017090 13.43072319 36 39 46
246159.59411621 3357571.07135010 13.20585918 83 79 76
246169.38281250 3357572.54541016 13.29477406 45 52 58
246165.88220215 3357577.04309082 13.30608845 41 42 44
246160.39916992 3357573.80114746 12.98873901 107 103 100
246164.41540527 3357571.86517334 13.52493382 41 47 45
246156.03564453 3357573.86145020 12.85569382 183 171 155
246158.06945801 3357569.73559570 13.70576096 133 137 140
246164.11950684 3357575.87695313 12.84648228 28 28 28
246166.15466309 3357572.33099365 13.62082958 37 42 45
246164.01562500 3357574.28692627 13.31054592 165 147 127
246167.58837891 3357575.48529053 13.16911221 25 26 30
246164.54040527 3357572.43041992 13.39521503 39 38 43
246161.80883789 3357576.79394531 12.81263733 184 167 151
246158.56433105 3357571.20288086 13.62516308 42 56 56
246155.88171387 3357572.39978027 12.99457455 127 122 116
246158.31347656 3357574.73706055 12.87789631 82 79 72
246167.69091797 3357577.81597900 13.25864410 9 14 20
246160.62231445 3357575.85614014 13.13628292 160 144 128
246163.91735840 3357576.33367920 12.71110535 172 156 133
246161.11938477 3357572.47387695 13.34197044 39 27 27
246155.54467773 3357573.49176025 12.87107182 182 170 158
246169.76733398 3357575.64447021 14.15241623 21 29 32
246164.69665527 3357577.84985352 13.25197792 26 24 29
246168.98632813 3357577.21020508 14.06071663 92 97 103
246156.47875977 3357570.17590332 12.91800499 175 157 143
246169.70568848 3357572.63793945 13.26672554 33 36 45
246159.61560059 3357574.21343994 13.16087723 235 235 233
246165.31396484 3357575.64923096 13.14156532 40 40 40
246162.27172852 3357570.95159912 13.40133476 17 17 17
246156.95593262 3357569.89385986 12.90961742 155 145 135
246156.03918457 3357569.41961670 12.99350071 148 140 129
246162.85766602 3357573.61785889 13.33468533 41 41 41
246163.30969238 3357571.85565186 13.25115299 108 104 101
246161.27685547 3357570.46820068 13.90732384 73 75 74
246162.71923828 3357576.51385498 12.80682945 97 90 82
246156.53222656 3357572.61254883 12.96208286 57 59 56
246162.93750000 3357574.38562012 13.01044655 28 28 28
246163.66955566 3357571.55340576 13.46024513 106 105 101
246163.78381348 3357573.89831543 13.27629280 64 54 45
246159.61840820 3357575.14624023 13.30752087 107 103 100
246164.28076172 3357576.46209717 12.92406559 40 39 37
246166.39501953 3357573.64666748 13.32683849 97 96 94
246170.15808105 3357575.73339844 14.22953129 45 48 53
246156.99877930 3357573.82403564 12.86736870 171 159 145
246163.07409668 3357572.99688721 13.29008484 122 111 107
246163.72985840 3357575.67517090 13.13428593 15 11 8
246166.26379395 3357576.64166260 13.39369011 23 24 26
246162.98266602 3357577.43853760 12.77336979 182 164 142
246166.83105469 3357578.94451904 13.07276821 12 11 16
246155.81884766 3357572.27056885 13.43903828 49 45 44
246156.48217773 3357569.56335449 13.04400063 113 110 103
246157.84973145 3357569.39288330 12.97292614 35 31 28
246157.79516602 3357572.31066895 12.82617188 153 146 138
246169.19763184 3357575.22772217 13.98647976 79 84 88
246169.77307129 3357576.82293701 14.24962234 8 9 13
246155.15539551 3357572.41265869 13.17385578 82 84 81
246163.42285156 3357575.56072998 13.02816772 27 27 29
246161.72839355 3357574.11334229 13.34343243 29 29 27
246161.74230957 3357573.40722656 13.12060261 53 49 48
246160.85888672 3357574.49334717 13.69281673 159 163 164
246167.17236328 3357573.12054443 13.50686169 23 32 37
246167.72766113 3357573.47094727 13.26712799 14 19 23
246157.06542969 3357572.10919189 12.91191673 157 156 151
246155.11816406 3357572.27899170 13.00154972 200 196 187
246168.86376953 3357573.91210938 13.27032280 22 26 29
246164.03405762 3357570.99859619 13.62320423 10 14 17
246169.43518066 3357574.50286865 13.72891331 49 49 57
246161.10180664 3357572.00982666 13.32222080 113 112 110
246165.68859863 3357577.65667725 13.19681263 30 31 35
246160.32397461 3357575.74914551 13.16661453 151 142 135
246166.25146484 3357573.93603516 13.34108925 80 81 83
246168.29724121 3357574.30847168 13.30057716 23 24 28
246169.50561523 3357574.21124268 13.60563469 33 36 41
246156.22570801 3357570.81274414 12.97000217 54 53 48
246164.52416992 3357572.59655762 13.12004852 50 45 42
246155.73022461 3357570.39398193 13.49659348 69 67 68
246166.97497559 3357575.93994141 13.61392784 29 32 39
246160.99743652 3357576.49615479 12.79892635 140 130 118
246168.52429199 3357577.74755859 13.32731819 19 24 30
246156.22668457 3357571.70739746 13.86274815 88 88 86
246154.89477539 3357571.47399902 13.76528263 243 243 241
246158.75122070 3357572.47644043 12.93263721 151 142 133
246163.08874512 3357577.51898193 12.76709557 184 166 142
246157.02014160 3357568.90783691 13.57735348 117 113 110
246163.31933594 3357574.34783936 13.15604401 80 72 69
246164.05541992 3357575.74102783 12.90259933 26 26 26
246161.15063477 3357575.22265625 13.32919121 87 83 80
246167.84277344 3357578.15167236 13.20761204 25 26 31
246168.14331055 3357577.00567627 13.57747841 46 50 53
246160.82397461 3357572.05010986 13.29359436 121 116 112
246166.45910645 3357573.45629883 13.45800018 118 114 111
246164.34985352 3357571.21917725 13.80539417 27 28 32
246169.02148438 3357576.98962402 14.05841064 90 95 101
246167.93811035 3357575.42541504 13.12092781 12 11 16
246164.74902344 3357573.77020264 13.07328415 171 160 140
246168.13684082 3357576.34625244 13.54768467 90 97 103
246159.83105469 3357570.67590332 13.22636795 21 20 25
246158.50256348 3357574.20123291 13.30350208 197 197 197
246163.91894531 3357574.59729004 13.39362907 104 97 89
246168.18347168 3357573.51861572 13.28157616 9 14 18
246167.67224121 3357574.35241699 13.30576897 51 56 60
246167.75622559 3357574.03125000 13.25173664 43 48 52
246164.22424316 3357577.81292725 13.28215981 52 54 51
246159.59240723 3357570.68438721 13.33767700 21 20 25
246165.09436035 3357577.35461426 13.13764477 40 41 43
246162.35876465 3357573.55999756 13.57011890 37 37 37
246158.80456543 3357572.64813232 12.94437981 161 154 148
246161.17565918 3357571.00994873 13.43967056 70 70 70
246160.86926270 3357573.24444580 13.21640587 124 120 119
246169.54040527 3357573.99011230 13.56567097 33 38 41
246164.31933594 3357575.17620850 12.91184998 75 65 56
246165.16882324 3357572.19689941 13.62685108 61 54 61
246158.01135254 3357571.90612793 12.98424339 108 97 93
246157.57312012 3357572.98229980 12.83269501 139 134 130
246165.82849121 3357577.01751709 13.29516411 40 44 45
246158.27612305 3357574.51208496 12.90071678 137 130 122
246170.53930664 3357574.17810059 13.47495556 31 36 40
246167.35119629 3357578.15429688 13.16963100 39 40 42
246157.15209961 3357571.13140869 13.01526260 154 140 129
246158.56591797 3357573.23400879 13.22688580 45 46 48
246158.84191895 3357573.39862061 13.40146160 45 47 46
246154.96325684 3357572.82922363 13.34524918 64 58 58
246161.50793457 3357573.58721924 13.19376087 182 182 180
246158.97106934 3357570.64471436 13.64351845 13 15 14
246155.81433105 3357568.95599365 12.88721371 125 131 95
246166.03405762 3357578.57031250 13.02743435 36 37 39
246168.11376953 3357577.00665283 13.53557968 54 57 62
246156.40563965 3357571.69488525 13.31312752 73 72 70
246167.37951660 3357578.08184814 13.12812328 23 23 25
246163.17199707 3357573.41589355 13.32446098 18 17 15
246161.10717773 3357571.62396240 13.31872082 87 86 84
246161.74572754 3357574.36932373 13.22659111 25 27 26
246158.89233398 3357574.70190430 13.25255394 113 118 122
246159.99633789 3357575.69018555 13.12450123 107 108 103
246169.41931152 3357573.24450684 13.24821568 56 55 60
246157.69226074 3357572.92218018 12.84823990 59 58 54
246157.21057129 3357569.65606689 13.22402287 126 127 122
246167.86474609 3357573.93182373 13.23730373 31 36 42
246161.74658203 3357573.43267822 13.13550091 63 59 58
246165.05871582 3357575.38623047 12.99919224 154 145 136
246164.15917969 3357578.11437988 12.85776138 67 69 68
246165.61413574 3357573.03533936 13.55691051 44 45 47
246166.49340820 3357575.74041748 13.57478046 25 26 28
246166.86865234 3357576.66528320 14.05719280 18 22 21
246165.25061035 3357576.55810547 13.11296272 34 34 36
246164.90246582 3357576.40136719 13.03314400 38 38 38
246156.67089844 3357571.79876709 13.25533676 127 123 112
246165.70642090 3357577.45501709 13.22995758 37 36 41
246159.31933594 3357575.43310547 12.90881348 54 49 46
246165.19995117 3357571.92449951 13.59140587 46 50 53
246161.06799316 3357575.76696777 13.07386398 132 119 103
246157.49047852 3357572.64459229 12.80520916 43 45 44
246161.47229004 3357571.54998779 13.20031071 93 90 85
246158.35510254 3357568.76232910 13.31615162 22 30 33
246166.36181641 3357572.38537598 13.57314301 36 40 43
246160.57031250 3357571.33630371 12.98113918 102 99 92
246163.90136719 3357571.11206055 13.49259758 26 27 29
246167.48999023 3357577.06805420 13.67385483 108 113 119
246156.30676270 3357571.72668457 13.67823410 164 151 134
246160.78662109 3357573.16998291 13.23280239 87 82 79
246164.64941406 3357572.95184326 12.95217514 171 153 131
246166.63244629 3357576.57208252 13.73849773 69 64 70
246159.11706543 3357572.45709229 12.84494019 166 155 151
246162.38256836 3357572.96618652 13.25192070 37 35 40
246169.32153320 3357577.26800537 14.07847500 88 95 103
246166.62463379 3357576.58178711 13.72311687 69 64 70
246160.23767090 3357573.80010986 13.04272556 61 57 54
246163.45898438 3357573.83880615 13.35210705 110 109 105
246167.56579590 3357573.64111328 13.20194435 30 35 39
246155.96582031 3357571.56182861 14.00554371 86 86 84
246163.33923340 3357574.59014893 13.15057850 33 27 27
246155.89941406 3357571.41644287 13.46228600 196 196 194
246156.69726563 3357569.98504639 12.89017010 186 170 157
246158.00073242 3357574.17059326 12.82386875 174 161 152
246157.46008301 3357569.37713623 13.04504681 44 41 36
246169.70483398 3357574.72296143 13.85157681 46 45 51
246161.30102539 3357573.11602783 13.23340988 93 88 85
246170.29162598 3357574.55200195 13.72794628 29 34 37
246166.92858887 3357574.42413330 13.23412514 60 68 71
246162.42346191 3357575.24456787 13.06278706 28 28 28
246162.78173828 3357570.37017822 13.74624634 19 20 25
246155.87573242 3357572.86419678 12.88409042 102 95 85
246155.41931152 3357572.91632080 12.88687801 61 61 59
246166.28601074 3357577.92211914 13.42350864 33 34 38
246158.94873047 3357574.28735352 13.15983105 102 97 93
246164.59191895 3357574.71325684 13.10461140 42 31 29
246158.41064453 3357572.20635986 12.90842915 142 135 129
246162.50903320 3357570.90832520 13.43120861 55 55 55
246155.14758301 3357571.77276611 13.60985279 201 203 200
246168.62231445 3357574.93640137 13.58168030 46 49 54
246166.47888184 3357572.50549316 13.52311897 27 30 35
246156.83801270 3357573.00958252 12.91382217 127 115 103
246159.02612305 3357570.60827637 13.67570400 22 21 19
246158.20690918 3357574.25463867 12.85192204 173 163 153
246164.78967285 3357577.04571533 13.12455559 22 17 21
246161.35644531 3357574.08966064 13.74669933 80 80 80
246168.81042480 3357576.11065674 14.05198956 62 66 69
246169.16491699 3357572.86633301 13.21642780 23 28 32
246158.87231445 3357575.02880859 13.09041691 97 93 90
246169.20214844 3357577.49914551 13.89148903 41 46 50
246156.26318359 3357573.07916260 12.90457821 184 168 152
246163.77783203 3357577.60729980 12.83695412 70 69 65
246167.92224121 3357572.71051025 13.53544807 35 39 42
246161.21472168 3357569.99536133 13.87170792 25 26 30
246167.17346191 3357574.13946533 13.18103600 61 68 74
246162.24353027 3357574.72668457 13.22129345 77 73 72
246163.79528809 3357572.87158203 13.05947399 77 74 69
246156.27514648 3357572.58831787 12.96114063 83 78 74
246157.22167969 3357571.25628662 13.25434589 123 112 106
246163.63708496 3357574.94537354 13.16012192 61 51 50
246166.84045410 3357572.72430420 13.54702473 30 34 35
246169.12341309 3357573.86737061 13.34118366 23 29 27
246160.75146484 3357576.67810059 12.82454109 181 165 152
246166.37744141 3357578.91186523 12.91896915 55 56 58
246160.51135254 3357572.30126953 13.54492092 118 109 104
246167.27587891 3357578.46905518 13.14049149 41 44 51
246163.81469727 3357575.60540771 13.14251804 8 10 9
246166.51684570 3357574.57824707 13.31532860 5 9 12
246159.20397949 3357573.68536377 13.48159218 90 93 98
246169.06738281 3357577.03967285 14.05577564 91 96 102
246169.44128418 3357574.61914063 13.79954815 54 55 60
246162.02575684 3357571.46295166 13.07775497 74 73 71
246157.70996094 3357572.14697266 12.89561367 152 140 126
246169.21179199 3357572.56518555 13.35839558 23 30 38
246166.44140625 3357572.10095215 13.66801357 51 57 57
246157.06713867 3357572.51599121 12.88173580 61 61 59
246167.19494629 3357575.92547607 13.55335045 28 33 39
246163.52441406 3357573.16503906 13.17733765 132 128 117
246155.48364258 3357571.15344238 13.30824089 198 191 181
246166.27636719 3357572.90551758 13.58554649 8 11 16
246160.26757813 3357574.90930176 13.19456863 71 70 68
246164.12951660 3357575.33868408 12.95118141 29 30 32
246163.30725098 3357571.75347900 13.30350208 86 85 81
246162.87768555 3357574.66137695 13.01071644 90 85 81
246160.04736328 3357570.73565674 13.13199520 26 27 29
246166.78527832 3357576.78063965 13.63042831 28 29 33
246158.58642578 3357571.27264404 13.60707283 60 70 71
246159.83068848 3357576.14019775 12.84477329 166 158 147
246163.11694336 3357577.19116211 12.81193066 183 165 143
246165.09033203 3357571.94891357 13.56800842 56 57 61
246159.16210938 3357572.60900879 12.82878304 185 178 170
246157.76330566 3357574.40570068 12.81909561 171 159 147
246170.07238770 3357575.78210449 14.22017574 35 40 46
246160.48657227 3357576.56945801 12.83366585 170 157 141
246169.15454102 3357577.87677002 13.70204258 85 91 103
246166.49169922 3357572.22888184 13.61479187 50 55 58
246167.10668945 3357576.89044189 14.31459904 78 87 94
246164.83276367 3357573.94165039 13.14801502 162 154 141
246157.53112793 3357574.29571533 12.82239532 169 157 145
246157.85278320 3357569.28924561 13.00547123 57 56 52
246163.09594727 3357577.06634521 12.83176899 183 166 148
246156.72326660 3357569.55908203 13.12022018 63 59 56
246161.83166504 3357573.12139893 13.44452858 70 66 65
246167.34265137 3357572.68829346 13.55205631 56 63 69
246166.15429688 3357574.95574951 13.26855755 31 35 36
246158.48327637 3357573.04376221 13.26140785 40 40 42
246165.87731934 3357574.33593750 13.25984955 32 32 32
246158.91491699 3357574.06311035 13.14521217 148 143 140
246165.19555664 3357576.64709473 13.17342854 35 35 37
246155.00817871 3357572.33886719 12.97998428 184 174 164
246156.84790039 3357572.67877197 12.88830376 152 149 144
246169.65686035 3357576.35198975 14.31243229 37 40 47
246164.75610352 3357576.72668457 13.34418964 41 37 38
246168.85693359 3357573.44006348 13.11252499 27 30 35
246157.74829102 3357571.31097412 13.49509335 74 73 71
246157.38525391 3357571.94091797 12.99824333 159 146 130
246169.29724121 3357576.19128418 14.22041607 30 35 38
246168.83312988 3357578.06872559 13.29332161 35 40 44
246156.12597656 3357571.68280029 13.96257496 108 108 106
246160.93066406 3357574.16589355 13.67524910 152 156 159
246155.89550781 3357569.46173096 12.91533470 113 105 92
246158.07104492 3357570.59155273 13.56440639 23 18 15
246160.72460938 3357573.64648438 13.06074715 49 45 44
246166.21606445 3357573.05993652 13.61056328 82 86 87
246155.32800293 3357572.15863037 13.10111427 111 112 114
246165.56933594 3357572.65808105 13.57028198 41 44 51
246158.01049805 3357572.98449707 12.90070724 53 57 58
246160.15283203 3357570.22851563 13.42128086 2 7 10
246161.49218750 3357574.99822998 13.37982655 23 23 23
246166.29113770 3357572.99530029 13.60513496 5 10 14
246161.91406250 3357573.25958252 13.17883587 66 65 63
246170.34741211 3357575.87487793 14.18560696 69 74 80
246162.55187988 3357572.21740723 13.11116695 75 71 70
246167.11633301 3357573.70318604 13.24052811 64 69 72
246169.31616211 3357577.48962402 13.98428059 96 103 111
246155.36975098 3357572.45916748 13.38707733 65 64 62
246156.15515137 3357572.70446777 12.93487930 150 140 130
246155.63647461 3357569.75396729 12.92290306 48 45 36
246160.05102539 3357575.96459961 13.04294395 97 94 89
246165.35180664 3357573.48358154 13.18227386 130 123 115
246158.62023926 3357569.34826660 13.75220776 63 73 75
246162.16625977 3357570.77917480 13.38980865 44 45 47
246157.45349121 3357569.35339355 13.05972862 44 41 36
246162.66723633 3357572.38165283 13.15069866 75 70 67
246156.23254395 3357572.86724854 12.91403770 176 163 154
246162.59204102 3357573.03363037 13.27313709 32 27 23
246159.33593750 3357570.60461426 13.58383560 8 12 13
246167.48706055 3357572.89624023 13.54848003 42 50 53
246157.70129395 3357570.26147461 12.89391136 106 97 90
246163.55639648 3357574.20617676 13.27646255 18 20 19
246155.17150879 3357573.06066895 12.92355347 63 54 49
246157.51794434 3357573.91998291 12.79135323 177 165 151
246169.62780762 3357574.23193359 13.62860680 34 39 43
246158.26855469 3357573.31188965 13.23823929 27 28 30
246169.40161133 3357573.10638428 13.23030949 21 26 30
246157.49523926 3357572.59423828 12.78530502 42 44 43
246156.57397461 3357570.04022217 12.89469433 177 159 145
246159.68505859 3357575.87896729 12.95528030 91 86 80
246162.33947754 3357577.46612549 12.79131317 192 171 150
246161.31909180 3357573.23394775 13.16736031 132 131 129
246165.27502441 3357572.97412109 13.35818386 52 50 51
246164.40649414 3357577.96130371 13.28431797 84 85 89
246167.50561523 3357573.18188477 13.50475216 22 27 33
246156.71606445 3357570.90783691 12.85520458 67 63 54
246167.10717773 3357578.12701416 13.45675373 58 62 61
246162.03991699 3357570.31622314 13.69789410 22 23 27
246161.08154297 3357574.01708984 13.45348454 181 185 186
246170.28515625 3357575.04571533 13.96617317 35 40 43
246169.27246094 3357574.67553711 13.80513668 50 55 59
246165.13720703 3357578.36273193 12.84413719 59 60 64
246159.88244629 3357572.97033691 13.16620350 136 127 128
246166.68103027 3357573.43048096 13.50647163 59 53 55
246167.25573730 3357576.55859375 13.83030701 81 86 90
246162.17041016 3357575.25659180 13.16330528 26 24 25
246165.62097168 3357574.22021484 13.23023319 40 40 38
246157.94177246 3357571.73095703 13.15191078 80 68 68
246161.97521973 3357575.10095215 13.23098946 32 30 31
246167.62255859 3357575.66748047 13.12403774 25 26 30
246156.34106445 3357569.53521729 13.04108524 101 97 88
246169.60070801 3357576.97314453 14.14041805 97 103 115
246160.71875000 3357575.26483154 13.25056648 54 49 46
246169.73352051 3357573.38452148 13.40336895 23 24 29
246159.30566406 3357575.74047852 12.81868267 125 115 105
246168.27148438 3357578.52728271 13.06484604 64 65 69
246160.64111328 3357572.43676758 13.43331623 29 25 22
246162.19958496 3357575.53076172 12.88526535 45 44 40
246158.54211426 3357571.62609863 13.47126579 94 99 102
246165.52148438 3357576.34429932 13.09936905 42 43 47
246167.49304199 3357577.10400391 13.67810822 106 111 117
246155.26806641 3357571.20684814 13.78383827 87 88 83
246166.54003906 3357574.05114746 13.27317142 175 175 175
246165.11486816 3357571.88256836 13.58785057 69 73 74
246162.25769043 3357572.40185547 13.07904053 103 96 88
246165.63708496 3357575.46032715 13.35631752 49 49 49
246163.59838867 3357572.10614014 13.29866791 61 54 44
246163.57299805 3357575.07006836 12.99670410 164 151 143
246161.95336914 3357571.50103760 13.02746105 85 84 82
246168.86987305 3357573.00787354 13.16145229 22 27 33
246166.49340820 3357576.29504395 13.68352509 33 34 36
246162.52465820 3357574.48205566 13.14319038 51 51 49
246163.82824707 3357572.98181152 13.00951672 82 75 65
246158.39550781 3357570.69732666 13.51102161 103 93 83
246156.35961914 3357571.58929443 13.14776611 95 94 92
246160.68518066 3357572.95123291 13.22740459 136 133 128
246156.78161621 3357571.45898438 12.90509415 138 128 119
246161.80444336 3357574.48138428 13.13363457 56 56 56
246166.52514648 3357573.38934326 13.50834656 52 43 44
246164.28137207 3357572.77276611 12.81316376 139 126 110
246169.40222168 3357572.70953369 13.24958420 22 27 33
246166.83715820 3357577.04284668 14.33528519 152 157 160
246167.67150879 3357575.72003174 13.13028145 22 26 27
246161.14172363 3357571.46264648 13.26540279 45 42 37
246156.06970215 3357570.69873047 13.12195015 57 57 57
246165.56005859 3357571.96508789 13.63152027 19 19 27
246156.24963379 3357569.67272949 12.96254635 172 156 141
246164.01354980 3357571.89678955 13.62263870 85 86 90
246165.34802246 3357574.89788818 13.36186886 35 34 32
246162.59204102 3357571.48986816 13.42456818 40 40 40
246169.41308594 3357577.39959717 14.07354927 87 94 100
246156.56811523 3357574.16339111 12.84006882 183 169 158
246168.40661621 3357575.89843750 13.65807056 38 48 50
246164.50341797 3357572.75622559 12.90704441 173 158 139
246163.62573242 3357575.38031006 12.99480724 35 37 36
246167.31372070 3357576.19116211 13.67797279 67 70 77
246158.52868652 3357571.80639648 13.27034569 40 38 41
246168.41577148 3357573.89343262 13.19639778 52 52 60
246170.33288574 3357576.47772217 13.91007996 8 17 22
246155.39550781 3357573.38574219 12.87130356 188 178 166
246167.98425293 3357575.96875000 13.35200691 36 40 43
246161.06604004 3357573.97613525 13.24420071 205 207 206
246160.49365234 3357573.77398682 12.99914360 76 75 73
246168.98547363 3357577.47570801 14.08586597 89 92 99
246159.75085449 3357569.85675049 13.88335991 66 69 74
246166.91064453 3357576.80487061 13.90072632 114 118 119
246170.04040527 3357573.15478516 13.35693455 33 37 40
246163.33105469 3357573.51684570 13.35627365 33 33 31
246160.75976563 3357571.05377197 13.15855122 27 28 30
246156.70898438 3357573.35894775 12.92576122 166 154 138
246161.12963867 3357574.65832520 13.53412437 141 141 143
246157.80529785 3357570.01599121 12.93948460 157 150 142
246160.15319824 3357572.24169922 12.93302441 89 81 70
246159.43640137 3357570.57556152 13.55534077 12 11 16
246157.14929199 3357570.52954102 12.93205357 166 147 133
246163.01025391 3357573.38964844 13.34126854 98 94 91
246167.42602539 3357574.59228516 13.33763981 47 50 55
246165.60839844 3357572.92376709 13.57881641 30 34 35
246159.54675293 3357573.07183838 13.00693512 151 146 140
246159.57177734 3357575.18414307 13.28995228 115 111 108
246157.99523926 3357571.00567627 13.48847961 45 40 36
246159.87133789 3357574.91827393 13.36026764 77 73 70
246161.34301758 3357575.45721436 13.12996006 119 112 104
246156.77014160 3357574.31488037 12.82865810 180 168 152
246164.36682129 3357575.84539795 12.85781765 37 37 35
246157.49047852 3357573.41650391 12.81353760 158 144 133
246167.57629395 3357573.35485840 13.37662125 23 28 32
246163.74780273 3357574.54077148 13.34918690 108 104 95
246156.13183594 3357573.72418213 12.86373711 187 173 160
246168.07238770 3357577.44226074 13.66661453 79 84 90
246163.86145020 3357573.94085693 13.23810291 49 38 32
246163.43286133 3357573.12542725 13.23230362 83 79 76
246168.76025391 3357572.92272949 13.23009872 33 38 44
246155.74011230 3357571.43450928 13.63561535 88 90 89
246163.04248047 3357570.41876221 13.77516079 29 30 34
246157.19458008 3357572.45947266 12.81989574 51 51 49
246166.74707031 3357573.98736572 13.16905785 63 69 69
246169.41125488 3357576.09619141 14.19960785 18 23 29
246167.46118164 3357573.17730713 13.51386356 24 32 35
246163.84899902 3357577.72631836 12.87981510 69 71 68
246167.81958008 3357578.04083252 13.26369667 11 14 19
246157.22131348 3357571.57983398 13.19884872 118 114 103
246167.32788086 3357575.60943604 13.30448341 33 34 38
246160.97595215 3357572.72052002 13.42171097 230 203 208
246165.76318359 3357578.47784424 13.03242302 21 22 26
246160.79248047 3357573.95996094 13.08256054 203 205 204
246164.06079102 3357572.68017578 12.88462162 208 204 193
246169.36181641 3357573.14123535 13.21153831 16 19 24
246169.77355957 3357573.97351074 13.56280327 26 29 34
246161.48461914 3357572.70715332 13.41974831 64 56 54
246164.28454590 3357574.16210938 13.19114876 124 121 112
246168.45544434 3357577.21838379 13.95885181 38 37 42
246161.44750977 3357574.50854492 13.71608829 64 65 67
246158.04248047 3357573.10546875 13.04700661 159 159 161
246160.60546875 3357576.28118896 12.83014393 56 47 38
246162.65344238 3357573.64733887 13.52711582 34 34 34
246159.89697266 3357574.66113281 13.36913490 61 56 53
246161.55053711 3357575.43548584 13.12931538 86 83 78
246170.16894531 3357574.04736328 13.49141407 26 30 33
246163.20068359 3357570.56799316 13.75012684 36 37 41
246158.18322754 3357568.78302002 13.27424431 27 31 34
246164.86645508 3357572.53240967 13.49644470 28 28 28
246162.28381348 3357573.90533447 13.42475319 28 27 25
246166.04028320 3357572.96392822 13.59848213 9 10 14
246161.44641113 3357573.13281250 13.25840855 34 33 38
246158.02270508 3357572.23767090 12.85669708 146 136 126
246160.56848145 3357572.93261719 13.22008801 30 26 23
246161.87512207 3357571.24145508 13.35838127 31 31 31
246163.91455078 3357575.74859619 13.00459671 25 24 22
246161.26574707 3357573.06976318 13.25123215 107 97 96
246167.62097168 3357578.33648682 13.06885624 64 65 69
246167.32336426 3357575.97821045 13.43607044 61 66 70
246158.23168945 3357575.14392090 12.88977051 176 166 154
246156.19506836 3357571.15429688 13.14121628 76 69 59
246160.50122070 3357575.87310791 12.94298744 126 116 106
246158.90869141 3357570.75109863 13.63088417 27 32 36
246168.73852539 3357572.66906738 13.52966499 37 38 40
246166.86230469 3357577.02758789 14.08913708 157 162 165
246160.97131348 3357570.86090088 13.46055412 145 144 140
246169.38635254 3357575.83557129 14.12388802 14 17 24
246162.79077148 3357573.65106201 13.40914536 30 28 29
246167.74060059 3357577.16497803 13.43192482 43 50 56
246167.23205566 3357575.38879395 13.36847591 26 25 30
246162.81396484 3357573.74218750 13.37736607 42 37 41
246159.31066895 3357571.96258545 12.93682766 105 100 97
246163.60583496 3357575.38787842 12.98702717 25 27 26
246162.73266602 3357576.81726074 12.84401798 179 165 152
246162.90344238 3357577.09667969 12.81504440 188 171 153
246163.74304199 3357574.80761719 13.35304928 17 16 14
246159.77453613 3357574.95648193 13.40206623 68 67 65
246161.39978027 3357573.80566406 13.37764835 212 212 212
246162.33410645 3357576.47827148 12.77344704 64 56 53
246155.88281250 3357572.76831055 12.90362167 183 177 163
246169.65649414 3357574.94702148 14.02215958 28 32 35
246166.16369629 3357572.14227295 13.66743660 39 47 49
246161.73303223 3357573.47863770 13.17834949 99 95 94
246166.54895020 3357573.23474121 13.58008766 48 49 51
246169.08740234 3357577.00109863 14.06584167 94 99 105
246166.47290039 3357575.49945068 13.48452663 25 29 32
246162.77502441 3357572.85552979 13.22517681 97 90 82
246170.18041992 3357574.35095215 13.63351250 30 35 39
246160.93420410 3357574.22302246 13.78277969 165 166 170
246156.50891113 3357571.78558350 13.53963661 161 153 140
246157.47399902 3357571.45074463 13.31369972 128 125 118
246162.40319824 3357576.53381348 12.78011227 64 60 57
246167.72265625 3357573.67181396 13.21705055 39 44 48
246156.23095703 3357569.59362793 12.98791695 167 155 143
246162.96350098 3357574.34368896 13.03132629 46 42 43
246159.56982422 3357575.51312256 12.94058132 92 92 92
246169.37011719 3357572.87109375 13.24670601 21 26 32
246157.51171875 3357573.18853760 12.81747246 151 141 131
246164.36987305 3357578.04211426 13.07875919 60 61 65
246167.20239258 3357574.80639648 13.40976334 33 34 38
246157.88269043 3357571.68676758 13.07247639 30 25 22
246166.97985840 3357576.72076416 14.09814262 74 82 84
246160.55908203 3357573.34661865 13.26368999 64 60 57
246157.01721191 3357573.18267822 12.92842674 167 151 135
246158.46801758 3357574.03967285 13.16866016 60 61 63
246166.46093750 3357575.91088867 13.63581657 71 75 76
246162.51672363 3357575.63531494 12.86100769 66 57 48
246166.91650391 3357577.29986572 13.72775078 97 105 107
246168.42163086 3357575.56097412 13.68394756 40 50 52
246162.29650879 3357574.78143311 13.16413593 49 48 46
246161.73107910 3357573.19940186 13.24398708 76 72 71
246158.70800781 3357573.57061768 13.53562546 223 224 226
246168.02978516 3357574.68817139 13.36122894 26 27 31
246157.01623535 3357572.60614014 12.86717224 63 59 56
246161.48852539 3357572.88214111 13.37783051 77 76 74
246168.55432129 3357574.81207275 13.50506878 42 43 47
246166.01525879 3357576.47503662 13.27811337 11 15 18
246163.22521973 3357575.41546631 12.98575401 32 30 31
246164.17224121 3357577.14984131 13.33954716 67 66 62
246158.20434570 3357569.43249512 13.38088512 88 99 103
246168.06408691 3357573.47094727 13.27323723 9 14 18
246168.48986816 3357575.75476074 13.77440739 50 55 61
246163.10778809 3357570.29602051 13.83903027 29 33 36
246169.72827148 3357577.28076172 14.05333424 111 118 134
246168.17260742 3357573.99743652 13.18544865 22 23 28
246157.94934082 3357571.99829102 12.91159725 140 130 120
246165.71081543 3357571.52014160 13.77865887 39 46 52
246158.96276855 3357573.72674561 13.30796623 39 39 39
246158.92663574 3357573.71691895 13.42945099 68 68 70
246159.53942871 3357572.07324219 12.89462185 128 123 117
246170.63146973 3357574.26837158 13.44783211 35 40 44
246158.00244141 3357573.09613037 12.99026394 58 58 60
246167.38354492 3357577.06219482 13.95331383 89 94 100
246164.80639648 3357574.82006836 13.20227146 25 25 27
246167.27404785 3357577.66448975 13.00481892 32 35 42
246166.83496094 3357578.16790771 13.44377232 23 24 28
246156.96520996 3357574.20623779 12.82108307 180 168 154
246165.24023438 3357575.49780273 13.10336685 36 35 33
246165.27160645 3357572.23999023 13.63977909 26 30 33
246166.17370605 3357575.68817139 13.50242233 17 18 22
246165.34924316 3357575.84112549 13.17341900 41 41 41
246159.73876953 3357573.65301514 13.15398884 51 47 48
246167.42456055 3357574.27105713 13.24496841 64 69 75
246164.54443359 3357577.64331055 13.36304283 23 25 24
246169.48669434 3357576.55725098 14.31852913 22 27 33
246166.69152832 3357575.45593262 13.50752926 30 34 37
246170.27929688 3357575.85534668 14.20644379 37 40 47
246166.41088867 3357575.88537598 13.62291813 73 77 80
246159.71472168 3357571.33728027 13.07948112 83 80 75
246160.50744629 3357576.19714355 12.83588600 78 69 60
246156.43664551 3357571.64190674 13.11686516 91 90 88
246161.05310059 3357575.55639648 13.17264366 90 81 72
246160.67614746 3357574.35180664 13.57376480 138 138 136
246155.70080566 3357570.55267334 13.36301136 65 65 63
246169.22851563 3357577.50915527 13.85994625 108 113 119
246164.73767090 3357576.99572754 13.16491127 40 36 37
246164.69763184 3357573.64215088 12.99571609 175 162 145
246163.42529297 3357575.85516357 12.80308437 84 75 60
246158.19177246 3357570.64617920 13.54533195 63 49 46
246165.90966797 3357575.16406250 13.32588291 17 17 19
246160.62524414 3357572.43786621 13.43924522 29 25 22
246163.42944336 3357576.77801514 12.79875755 188 171 151
246156.56286621 3357571.79644775 13.47000504 144 138 126
246160.31030273 3357572.22528076 13.25045109 138 125 132
246163.95214844 3357574.13195801 13.22614002 138 124 111
246166.86962891 3357577.01159668 14.03364754 147 151 154
246157.01330566 3357574.16229248 12.81723213 179 167 155
246161.85534668 3357571.06469727 13.37282467 30 31 33
246167.65356445 3357574.52752686 13.34763813 51 54 61
246160.50085449 3357575.86169434 12.95921898 148 136 124
246163.22656250 3357572.52233887 13.19029236 83 79 78
246168.09094238 3357574.72119141 13.35827637 30 35 38
246160.21606445 3357569.71960449 13.82972145 68 74 86
246155.19653320 3357571.18450928 13.88657284 137 137 137
246165.29748535 3357576.61694336 13.14984894 36 37 39
246166.44458008 3357575.30706787 13.41133976 28 32 35
246158.02160645 3357569.73577881 13.40017796 106 131 136
246162.51452637 3357573.25775146 13.53989029 51 51 51
246164.70263672 3357572.85638428 12.98778057 147 130 112
246158.32678223 3357575.42395020 12.92062759 178 166 154
246160.03552246 3357574.15747070 13.11470795 106 99 93
246168.65185547 3357577.18975830 14.07622910 98 102 105
246167.24780273 3357577.15252686 14.26830482 90 97 103
246157.36621094 3357569.46209717 13.13728523 148 143 137
246167.09350586 3357572.93298340 13.53346252 84 92 95
246156.75744629 3357573.00018311 12.91918850 98 88 78
246164.19250488 3357577.25396729 13.36112690 46 45 43
246168.87854004 3357577.77331543 13.69044113 84 88 99
246161.02563477 3357572.37927246 13.33716869 28 25 20
246163.31689453 3357577.59564209 12.78651142 184 165 148
246164.87109375 3357575.71795654 12.80321312 177 169 156
246163.73815918 3357573.06463623 13.04024506 50 42 31
246161.27392578 3357574.65789795 13.70585537 116 117 119
246163.99633789 3357576.79101563 12.86742020 125 113 101
246165.93286133 3357577.43969727 13.39042568 12 15 20
246169.11560059 3357573.70141602 13.24708080 22 24 21
246167.26708984 3357576.04833984 13.58831406 30 35 41
246165.08532715 3357577.11401367 13.19086456 30 31 33
246159.12414551 3357571.14971924 13.24920845 37 38 40
246161.59350586 3357574.31524658 13.50418663 18 18 18
246155.27038574 3357571.80426025 13.70868206 206 208 207
246160.62036133 3357573.67480469 13.05676460 41 37 36
246166.68872070 3357573.02551270 13.54900646 62 69 75
246161.71130371 3357570.40118408 13.76874447 25 25 27
246163.45227051 3357575.99560547 12.70716286 167 151 125
246162.52233887 3357570.65795898 13.50097370 53 54 56
246160.63647461 3357573.81854248 13.02037621 61 61 59
246163.79040527 3357571.15972900 13.47338104 31 32 36
246156.41906738 3357572.80017090 12.92824650 165 156 147
246160.53918457 3357574.36816406 13.37084770 154 149 145
246159.91430664 3357571.99523926 12.90670395 160 150 141
