245647.92590332 3357452.29711914 18.70814323 28 33 37
245637.31939697 3357452.45834351 18.88176918 164 155 140
245644.67413330 3357452.78866577 19.40377808 3 8 11
245636.25848389 3357453.54037476 19.45496178 201 201 203
245641.02630615 3357453.36322021 19.15889359 33 37 38
245648.35974121 3357452.56829834 18.71862030 26 34 36
245639.12792969 3357453.33239746 19.34606934 121 119 124
245635.50994873 3357453.91323853 18.71036148 169 168 164
245648.48327637 3357451.86126709 18.68353462 27 32 38
245644.21527100 3357452.32611084 19.27624321 11 16 20
245641.22399902 3357452.96395874 19.23039055 25 25 25
245646.32946777 3357453.79086304 18.92428970 67 69 64
245647.46575928 3357452.25329590 18.75581169 33 38 42
245639.11688232 3357453.39202881 19.33722878 229 230 234
245648.37097168 3357453.59478760 19.09717178 24 28 29
245641.64752197 3357452.99600220 19.19516182 16 16 24
245635.09045410 3357452.74960327 19.37923431 109 110 114
245637.80065918 3357452.33859253 18.86137581 128 118 109
245640.98071289 3357453.49801636 19.49493599 35 35 37
245647.33502197 3357453.66775513 18.86877823 36 42 38
245644.42962646 3357452.79980469 19.47106552 17 25 27
245646.72851563 3357452.34841919 18.83569527 27 30 35
245647.68774414 3357453.31072998 18.68111229 25 31 27
245648.39807129 3357452.08322144 18.68434143 33 38 42
245634.66625977 3357452.79919434 18.90324593 128 121 105
245640.86791992 3357453.47775269 19.48260117 45 43 44
245643.68988037 3357452.87689209 18.97754669 25 29 32
245648.29553223 3357453.58062744 19.00310135 26 30 31
245645.59790039 3357452.02093506 18.88380814 28 32 35
245639.78936768 3357453.82550049 19.18965912 35 39 38
245639.01806641 3357453.80923462 19.07622147 123 120 115
245642.17883301 3357453.77236938 18.88916969 36 38 37
245636.64160156 3357452.70709229 18.86733437 16 9 3
245649.06640625 3357453.41857910 19.32596970 24 32 34
245640.92907715 3357453.79382324 19.21209526 35 37 34
245639.15765381 3357452.37002563 19.01037788 83 79 70
245636.72583008 3357452.76150513 18.85591888 18 17 12
245648.74987793 3357452.95935059 18.91889954 47 52 55
245637.96752930 3357453.95053101 19.22962189 47 53 27
245637.37353516 3357452.39855957 18.86429787 140 128 116
245648.78839111 3357453.32815552 19.08827591 12 15 20
245636.17938232 3357453.27340698 19.64325523 167 167 169
245646.75415039 3357452.99816895 18.71308136 26 31 34
245634.13110352 3357454.15151978 19.13696098 135 145 82
245648.57641602 3357452.62326050 18.75301361 23 31 33
245635.06042480 3357453.63009644 18.70634079 31 31 31
245643.15686035 3357453.31356812 18.84770393 143 134 127
245649.23071289 3357452.60180664 18.97144699 14 15 20
245641.97106934 3357453.87384033 19.14719200 28 36 13
245646.26605225 3357452.83538818 18.97337723 16 19 24
245641.99426270 3357453.81475830 19.06873512 30 35 29
245648.09594727 3357453.64913940 19.00454140 28 34 32
245634.30187988 3357453.52206421 18.78899193 125 116 101
245638.43493652 3357452.61770630 19.04349899 125 124 120
245637.67956543 3357452.86758423 19.21745682 15 15 17
245641.91528320 3357453.01467896 19.05251884 6 7 11
245634.75677490 3357453.90185547 18.77654457 47 48 40
245636.45965576 3357452.66604614 19.43224525 77 79 78
245638.77551270 3357453.77960205 18.83454704 107 110 81
245639.32073975 3357453.01119995 19.30498314 33 34 38
245648.16607666 3357453.52929688 18.80233574 33 38 41
245647.80572510 3357453.55917358 18.84921074 40 46 46
245645.77886963 3357452.25894165 19.43231392 67 77 79
245637.77221680 3357453.97384644 19.24312401 43 52 33
245649.39794922 3357452.47946167 18.87792587 17 25 27
245638.14404297 3357453.15600586 19.08607674 20 21 23
245636.53704834 3357453.96105957 19.25027847 135 134 86
245647.73309326 3357451.94073486 18.74157715 33 36 41
245647.99688721 3357452.00082397 18.71285248 34 37 42
245638.77990723 3357452.67254639 19.02629471 23 23 21
245647.61004639 3357451.82278442 18.74487495 37 40 45
245648.33062744 3357453.28085327 18.81047249 24 29 32
245640.25659180 3357453.55581665 19.53867149 213 211 216
245643.16113281 3357453.38372803 18.82035828 148 139 130
245648.45446777 3357452.43515015 18.69542122 36 41 44
245649.29803467 3357453.01220703 19.00802231 20 24 27
245645.91870117 3357452.09219360 19.50454903 30 35 39
245642.27111816 3357453.89114380 19.00526237 59 61 48
245643.92938232 3357452.53649902 19.20004463 13 16 21
245639.33209229 3357452.47616577 18.92272568 17 16 14
245641.00451660 3357453.30673218 19.05438042 63 63 65
245634.43884277 3357453.18481445 18.81979561 117 112 93
245647.79492188 3357453.42382813 18.73154449 17 23 21
245642.67065430 3357453.01428223 18.77089119 26 30 31
245644.44274902 3357452.35504150 19.21909332 3 8 12
245649.85247803 3357452.12771606 18.76070404 33 38 41
245640.15081787 3357453.19808960 18.97893906 30 38 40
245639.43469238 3357452.54028320 18.76538277 48 47 45
245637.86206055 3357452.81079102 19.24372482 102 101 106
245646.22662354 3357452.10858154 18.96432114 23 26 31
245642.53814697 3357453.91793823 19.03540039 110 119 76
245641.09979248 3357453.85589600 19.10009193 20 23 14
245636.27038574 3357453.54324341 19.48799515 240 239 244
245648.10375977 3357451.86926270 18.70742798 30 35 39
245645.25231934 3357453.27291870 19.66688538 25 30 33
245637.21710205 3357453.16757202 19.16270447 80 80 82
245636.56951904 3357453.56573486 19.74852371 122 123 118
245636.27447510 3357453.69354248 19.29690933 238 235 242
245635.58911133 3357454.02703857 18.77861023 45 46 41
245638.33428955 3357453.12799072 19.10128593 114 112 123
245638.53601074 3357452.94531250 19.16728210 84 85 87
245648.20385742 3357453.33032227 18.77511597 21 26 29
245640.67541504 3357453.26263428 19.09734344 36 42 42
245636.12463379 3357453.14718628 18.94959259 124 126 125
245638.43762207 3357452.21200562 18.77625465 136 126 114
245635.93371582 3357454.13424683 19.08401299 48 48 12
245649.74072266 3357452.61376953 18.81665993 22 30 32
245634.50714111 3357453.31985474 19.10311699 106 108 103
245648.47998047 3357453.34487915 18.88891792 24 28 31
245646.80767822 3357452.39993286 18.81537247 23 28 32
245649.67132568 3357452.21386719 18.77871704 27 32 36
245637.13641357 3357452.56137085 18.92049980 130 126 117
245636.35437012 3357453.61108398 19.52479362 239 238 246
245645.74676514 3357453.12594604 19.66433334 31 35 36
245641.40301514 3357453.11279297 19.17206383 35 38 31
245649.87408447 3357453.04483032 18.92547798 22 27 31
245635.34423828 3357453.06164551 18.79914665 59 58 63
245648.94787598 3357452.92681885 19.11963081 17 25 28
245643.23138428 3357453.12527466 18.98739052 92 91 86
245643.89465332 3357453.23199463 19.24109840 39 43 44
245639.28955078 3357452.41036987 19.39055443 118 113 109
245638.82550049 3357452.70333862 18.99657440 16 15 11
245637.07592773 3357453.71838379 19.47163582 90 86 83
245647.27722168 3357453.61730957 18.76687241 41 45 44
245637.12438965 3357453.52145386 19.17244911 19 24 20
245639.96972656 3357453.35629272 18.94283295 59 58 54
245638.30816650 3357453.96801758 19.27300835 106 111 79
245639.38439941 3357453.10626221 19.00886536 35 38 43
245645.21807861 3357452.05374146 18.86403275 32 35 40
245634.51641846 3357453.82153320 19.30175209 110 109 105
245639.23425293 3357453.12832642 19.33956528 98 99 103
245637.68402100 3357452.50741577 19.00041580 129 119 110
245643.84527588 3357453.62078857 19.42061806 21 26 22
245636.67156982 3357452.98367310 18.95340347 35 35 35
245635.07385254 3357452.86206055 18.95540810 16 18 15
245634.89105225 3357453.15246582 19.24980545 122 123 118
245644.85333252 3357452.49588013 19.06384850 20 25 28
245640.59582520 3357453.28002930 19.09997749 37 41 44
245638.15533447 3357452.32455444 18.81184196 125 117 106
245636.29864502 3357453.54998779 19.54041290 237 235 238
245646.33679199 3357453.56192017 18.74963379 37 43 43
245639.96002197 3357453.82882690 19.27521515 38 43 39
245648.74096680 3357452.78717041 18.90217400 27 30 35
245635.21228027 3357454.19305420 19.10934639 92 96 59
245634.76287842 3357453.34075928 19.11361504 132 134 121
245640.45751953 3357453.01501465 19.25246429 37 33 34
245636.29669189 3357453.86077881 18.96922112 164 153 147
245634.22430420 3357453.98077393 18.97123718 159 148 130
245635.07659912 3357453.84643555 18.71850204 66 67 59
245638.57165527 3357452.29418945 18.79740334 135 125 113
245634.44934082 3357453.86767578 19.16817093 126 129 120
245644.78515625 3357452.16839600 18.87062645 27 35 37
245645.97143555 3357452.56616211 19.46142387 16 23 29
245639.11865234 3357453.82553101 19.22920609 155 156 161
245637.36700439 3357453.28744507 19.07928276 135 135 137
245636.99914551 3357453.47564697 19.29659843 25 26 28
245638.72753906 3357453.06597900 19.05265999 23 24 26
245638.89379883 3357453.78717041 18.87783051 137 139 118
245638.77014160 3357452.70684814 19.03722000 21 21 19
245648.54321289 3357452.19427490 18.67706299 26 34 36
245636.47613525 3357452.91641235 19.45576286 53 51 52
245635.74572754 3357452.69375610 19.03165627 175 175 183
245643.77838135 3357453.42788696 19.21917915 14 18 17
245638.68072510 3357453.78955078 18.89612770 30 30 20
245637.27557373 3357453.27621460 19.09072876 136 137 141
245647.53771973 3357451.96701050 18.76003075 35 38 43
245645.83074951 3357451.99111938 19.17084312 22 23 27
245648.71887207 3357452.63494873 18.80402946 27 35 37
245643.28497314 3357453.45773315 19.25772476 50 51 43
245642.37255859 3357453.86730957 18.92416954 22 23 17
245646.40875244 3357453.18579102 18.78611565 16 21 24
245638.44750977 3357453.96243286 19.28158379 76 83 49
245643.75091553 3357452.54357910 19.11071587 13 16 21
245635.43310547 3357453.68841553 18.68575668 75 72 67
245639.32525635 3357452.35589600 19.50187492 61 57 54
245638.76690674 3357453.80401611 18.87562180 112 116 83
245635.09448242 3357452.30984497 18.84167862 131 119 105
245645.52398682 3357452.17343140 18.89496040 29 34 37
245638.46490479 3357453.47637939 19.07789230 64 64 62
245641.73266602 3357453.27664185 19.21809769 31 33 32
245637.80889893 3357454.00845337 19.27268791 41 49 26
245646.59338379 3357453.79589844 18.79652596 48 52 53
245646.69323730 3357453.07864380 18.69246101 24 29 32
245635.88708496 3357453.74230957 18.73725510 144 140 131
245648.30108643 3357452.14611816 18.68754959 28 33 36
245634.70819092 3357452.85491943 19.07140732 255 250 247
245645.48278809 3357452.23428345 18.91356468 27 32 35
245640.98638916 3357453.52850342 19.43877602 33 32 37
245645.72119141 3357452.09448242 19.04005241 58 53 57
245643.84838867 3357453.26556396 19.19856262 52 53 55
245635.60247803 3357452.42733765 18.79097748 139 130 123
245649.68811035 3357452.33526611 18.79138756 25 30 33
245637.68792725 3357453.25393677 19.07381058 0 0 5
245647.99554443 3357451.93054199 18.71578598 35 38 43
245648.67041016 3357452.92788696 18.86751175 19 28 27
245636.55950928 3357452.92645264 19.03418732 116 118 115
245636.42626953 3357453.90026855 19.21593666 163 156 127
245637.71777344 3357453.85501099 19.23024750 28 31 36
245645.52893066 3357452.29495239 18.96004295 29 34 37
245639.64086914 3357453.86810303 19.15755081 115 123 99
245639.12164307 3357452.30816650 19.55888367 246 245 250
245638.07446289 3357453.12744141 19.12281418 13 12 17
245634.87048340 3357454.10476685 18.92769814 186 188 166
245642.72430420 3357453.37719727 18.71653938 67 65 52
245647.56506348 3357453.51074219 18.75539207 34 44 36
245636.90563965 3357452.34155273 18.78981400 137 127 115
245645.47009277 3357452.09451294 18.87066841 26 31 35
245636.23468018 3357452.48764038 18.92253113 189 180 175
245635.06701660 3357452.82376099 19.28880310 151 152 157
245638.96527100 3357452.42807007 18.89155388 142 132 120
245635.41009521 3357453.62203979 18.70123863 129 124 121
245644.72869873 3357452.93829346 19.49843788 10 15 21
245636.27502441 3357453.72134399 19.04200745 176 169 163
245634.63079834 3357454.06561279 19.16413498 170 170 134
245646.23602295 3357452.70306396 19.04807472 14 19 22
245638.17034912 3357453.83013916 19.32392502 94 98 84
245648.21411133 3357452.04635620 18.69231606 32 37 40
245646.81378174 3357452.20007324 18.81341934 29 32 37
245648.41241455 3357452.71398926 18.74997139 29 34 38
245647.98083496 3357452.68875122 18.70489693 25 30 33
245644.11663818 3357452.31353760 19.20276642 54 59 63
245642.41894531 3357453.33163452 18.72068024 141 141 133
245648.56396484 3357452.05984497 18.68102074 34 39 45
245639.14404297 3357452.60348511 19.21814537 93 92 88
245636.65130615 3357452.20404053 18.80426979 144 128 115
245641.70635986 3357453.83172607 19.24912071 42 42 32
245647.87744141 3357452.61810303 18.69556808 31 36 39
245649.05816650 3357452.50808716 18.97093201 18 22 25
245646.57421875 3357453.76052856 18.73529434 35 39 42
245643.56994629 3357453.70828247 19.28601456 49 55 45
245646.24041748 3357453.28634644 18.90399551 13 17 18
245635.76544189 3357452.79205322 19.11646080 174 181 189
245642.37713623 3357453.40197754 18.71100807 37 37 29
245636.11694336 3357453.18838501 18.93551636 147 147 145
245648.45684814 3357452.15719604 18.68104362 31 36 39
245646.86352539 3357453.80172729 18.84102440 64 70 70
245642.70861816 3357453.12997437 18.73530769 28 33 29
245646.46221924 3357452.55584717 18.89557457 21 24 29
245636.51971436 3357453.51467896 19.72729683 118 116 119
245635.95300293 3357453.81192017 18.72317696 159 152 142
245637.99548340 3357452.17089844 18.78090286 145 133 121
245637.32904053 3357453.26849365 19.09345627 131 132 134
245644.91790771 3357451.89880371 18.83499718 30 38 41
245645.87725830 3357452.30294800 19.51188850 39 48 53
245648.17694092 3357452.80319214 18.73195267 25 30 33
245634.54260254 3357452.30123901 18.80861473 122 113 98
245635.48370361 3357454.13568115 18.90571022 135 138 121
245637.07757568 3357453.73312378 19.46229744 90 86 83
245639.43426514 3357453.45141602 19.10590935 20 26 26
245648.41009521 3357453.52328491 19.02203369 27 31 34
245642.46191406 3357453.62924194 18.74994659 100 104 71
245646.14849854 3357453.67791748 19.13439178 34 39 35
245641.72601318 3357453.61178589 19.41779900 25 25 23
245637.42120361 3357453.29806519 19.07095909 125 123 124
245634.21722412 3357453.20950317 18.75468063 124 112 98
245648.50915527 3357452.60116577 18.73558998 22 30 32
245649.10632324 3357452.10189819 18.76326561 36 41 44
245646.63287354 3357453.51492310 18.60965538 13 17 20
245634.16320801 3357453.81192017 18.84909439 177 170 154
245634.34307861 3357453.91540527 19.09004784 143 140 131
245645.78704834 3357453.39834595 19.58424377 41 42 44
245648.59771729 3357453.36450195 18.98738289 19 24 27
245637.41296387 3357453.24203491 19.11452484 120 119 124
245635.54919434 3357453.19708252 18.79097939 68 72 75
245637.59539795 3357452.64370728 19.12662697 115 105 96
245648.67181396 3357452.91485596 18.86740875 21 30 29
245636.15325928 3357453.30044556 19.52621841 175 176 178
245643.83020020 3357453.39151001 19.26592636 14 18 19
245641.41912842 3357453.20816040 19.13369942 34 35 29
245634.58825684 3357453.44473267 19.41905403 90 92 91
245635.05487061 3357452.69226074 19.54814148 76 75 81
245646.67535400 3357452.24493408 18.82876587 23 26 31
245648.90289307 3357452.11734009 18.75625038 26 31 34
245637.18536377 3357453.55975342 19.19376755 34 36 33
245643.09326172 3357453.17947388 18.75335121 89 76 59
245645.48394775 3357452.54858398 19.11725616 25 29 28
245645.42016602 3357451.94448853 18.85365295 29 34 37
245634.72271729 3357453.35446167 19.18053055 114 115 109
245647.22344971 3357453.49362183 18.66403389 31 35 34
245646.74291992 3357452.41607666 18.82568741 29 32 37
245644.08911133 3357453.27420044 19.52711105 22 24 21
245646.09252930 3357452.71636963 19.29971123 0 8 11
245638.57971191 3357453.05477905 19.11517906 44 46 45
245638.39184570 3357452.26986694 18.78772354 136 122 111
245640.57220459 3357453.40252686 19.16756630 41 43 40
245642.88403320 3357453.94903564 18.94456100 102 109 67
245636.16174316 3357452.76910400 19.03725624 187 187 189
245643.40612793 3357453.54437256 19.20724106 38 38 38
245647.45617676 3357452.76266479 18.70082283 37 40 45
245638.97320557 3357453.89144897 19.10869598 41 44 27
245637.81848145 3357453.79891968 19.23552704 52 55 48
245645.51702881 3357453.03262329 19.55085754 27 33 33
245643.11199951 3357453.50521851 18.77970505 141 132 115
245634.67230225 3357454.08572388 19.21331596 140 141 99
245643.20159912 3357453.46987915 19.15413857 7 8 3
245637.70489502 3357452.35824585 18.87691307 136 126 116
245638.52325439 3357453.75189209 19.03169250 28 30 27
245647.74743652 3357453.58117676 18.86845589 39 45 43
245649.01098633 3357452.37057495 18.86719894 64 69 73
245647.35681152 3357453.59796143 18.77502251 45 51 47
245637.52374268 3357453.16809082 19.14326286 6 10 11
245646.63171387 3357453.13650513 18.68622398 21 26 29
245641.96325684 3357453.59902954 19.17991257 62 66 67
245634.94622803 3357453.08255005 19.17279816 103 105 104
245639.15350342 3357452.42620850 18.97296715 149 144 138
245637.97735596 3357453.49612427 19.36683464 31 29 32
245638.51086426 3357452.74057007 19.17257309 127 126 131
245646.74627686 3357453.42919922 18.61951637 21 25 28
245644.46838379 3357453.32492065 19.75110626 23 27 26
245637.14300537 3357452.29898071 18.82454872 128 114 101
245641.13769531 3357453.44912720 19.08748436 130 131 133
245635.52386475 3357452.47467041 18.77733040 203 196 190
245640.02807617 3357453.31253052 18.96374321 32 34 33
245636.14825439 3357453.29586792 19.63522339 218 217 222
245636.82580566 3357453.39694214 19.26357269 20 20 22
245648.16528320 3357452.17184448 18.69279671 32 37 40
245635.52319336 3357452.64834595 18.82008934 188 189 193
245634.52056885 3357453.31716919 19.03559113 171 171 169
245636.33233643 3357452.34854126 19.14185143 160 148 150
245644.70989990 3357453.05050659 19.58650208 11 19 21
245639.01843262 3357452.83520508 18.97883797 51 50 46
245648.95513916 3357452.35504150 18.84295654 19 24 27
245641.32635498 3357453.39651489 18.96340179 32 32 30
245639.25189209 3357453.13339233 19.28921890 110 111 116
245641.74279785 3357453.78582764 19.25711060 27 26 22
245647.63031006 3357452.87783813 18.68954277 38 43 46
245646.46362305 3357452.64981079 18.86417961 22 26 29
245636.65667725 3357453.41329956 19.45351791 51 53 52
245637.77923584 3357453.68719482 19.29687119 50 53 58
245637.19464111 3357452.35607910 18.83087540 131 119 105
245641.98632813 3357453.00634766 18.97357750 11 12 14
245634.49890137 3357453.35482788 18.98033524 178 177 173
245635.01000977 3357454.17440796 19.09649467 104 105 71
245640.98242188 3357453.53652954 19.42859840 30 30 32
245649.76879883 3357451.83862305 18.71910858 31 36 39
245649.86187744 3357453.13082886 18.98821640 22 25 30
245643.07348633 3357453.91635132 18.90749931 147 149 110
245639.87188721 3357453.83294678 19.23625374 30 37 30
245642.43927002 3357453.44851685 18.71225166 128 127 107
245645.35119629 3357452.95013428 19.41762161 20 29 28
245648.43383789 3357453.08230591 18.80067062 22 27 30
245645.63983154 3357452.94985962 19.53139496 30 41 37
245640.96673584 3357453.04870605 19.15815926 82 81 86
245649.77233887 3357452.82916260 18.83930397 17 25 27
245636.50091553 3357453.40612793 19.58725929 79 81 80
245643.86425781 3357452.76660156 19.21015930 11 15 16
245644.58673096 3357453.13613892 19.64315987 8 14 12
245648.90441895 3357452.29888916 18.79272652 20 28 30
245644.91528320 3357452.95285034 19.44131851 26 31 35
245645.70898438 3357452.63769531 19.37798500 18 23 26
245644.87640381 3357452.85919189 19.36963272 29 34 38
245648.12066650 3357452.80209351 18.72428894 31 36 39
245649.00579834 3357452.23684692 18.80973053 26 31 34
245647.19561768 3357453.68551636 18.82653618 29 33 34
245648.86016846 3357452.83862305 19.03540421 38 43 47
245637.17840576 3357453.75704956 19.37448311 78 67 65
245641.49438477 3357453.53869629 18.89874077 145 143 131
245639.38031006 3357452.57009888 18.83967781 39 39 39
245645.52136230 3357452.36480713 19.00184059 23 28 31
245636.17901611 3357453.14620972 19.19145775 142 140 141
245648.92742920 3357452.22531128 18.78016853 25 33 35
245634.36706543 3357453.57064819 19.10668945 197 199 196
245648.65478516 3357452.53109741 18.73896599 24 32 34
245646.21893311 3357452.05902100 18.94198990 26 29 34
245641.80108643 3357453.54827881 19.41926956 25 25 23
245649.21429443 3357453.33602905 19.23395920 19 23 24
245643.28997803 3357453.36962891 19.19395256 17 18 13
245641.02294922 3357453.52914429 19.26150894 118 116 119
245637.69244385 3357453.95404053 19.24871826 44 51 35
245646.13616943 3357453.31912231 19.00545883 16 17 19
245634.86975098 3357454.14065552 19.26358795 99 105 61
245643.18023682 3357453.54379272 19.05985832 42 38 37
245644.59887695 3357452.61764526 19.30068207 10 13 18
245643.15625000 3357453.32809448 18.90397644 114 106 103
245639.44592285 3357453.33187866 19.07359314 34 38 41
245645.41522217 3357452.50653076 19.06206131 21 25 24
245635.89862061 3357454.05816650 18.79380798 113 108 102
245636.25500488 3357452.43429565 19.02238274 167 162 158
245634.39489746 3357453.50900269 19.27997017 192 196 195
245647.21435547 3357451.88818359 18.76573372 33 38 42
245640.93896484 3357453.66894531 19.11796951 70 71 73
245634.57299805 3357453.98187256 19.22817612 80 82 61
245646.51031494 3357452.36941528 18.89448929 21 24 29
245648.86456299 3357453.31185913 19.11113739 8 11 16
245638.45855713 3357453.02246094 19.14519501 111 112 116
245635.88085938 3357453.68603516 18.74784851 156 153 146
245636.23071289 3357453.50946045 19.38592339 129 131 128
245648.16827393 3357452.31741333 18.69091606 35 40 43
245648.12774658 3357452.91320801 18.72558784 27 35 37
245649.60766602 3357453.40676880 19.41934204 21 29 32
245648.88812256 3357451.95953369 18.72748756 25 30 34
245647.72009277 3357452.65756226 18.69808006 30 35 38
245639.54742432 3357453.45742798 19.05278778 24 30 30
245641.96936035 3357453.53320313 19.17307091 42 44 43
245639.40313721 3357452.93145752 19.03345871 22 27 31
245639.28765869 3357452.51342773 19.33141518 66 63 58
245648.03247070 3357453.02890015 18.71294975 26 31 34
245634.65655518 3357453.65441895 19.35558319 49 49 47
245637.56713867 3357453.86355591 19.25085831 28 29 31
245638.63739014 3357453.80596924 18.95966339 35 35 25
245640.75225830 3357453.17913818 19.04146957 36 40 41
245647.04644775 3357453.45788574 18.63591766 15 19 22
245642.89013672 3357452.97555542 18.73778152 38 38 36
245638.42071533 3357453.37893677 19.08263397 117 115 120
245635.05712891 3357454.13006592 18.85626411 197 199 178
245641.51812744 3357453.90368652 19.10214424 91 93 72
245639.39758301 3357453.16580200 19.02347755 34 35 40
245647.67108154 3357453.48086548 18.76169777 26 32 30
245635.57574463 3357454.13619995 18.98205376 110 115 95
245639.09753418 3357452.33709717 19.45462608 142 142 140
245645.53393555 3357453.26760864 19.69485664 49 54 57
245647.83886719 3357453.16687012 18.68699837 31 37 37
245634.91845703 3357453.87561035 18.77051353 92 94 81
245637.44848633 3357453.85723877 19.26901817 23 27 26
245649.81036377 3357451.90740967 18.72841454 30 35 38
245645.74786377 3357452.20288086 19.38181114 29 32 37
245634.09484863 3357453.94006348 18.89696503 180 171 156
245640.03247070 3357453.29278564 18.96174812 29 33 32
245637.27911377 3357453.36807251 19.05493355 125 126 128
245641.20062256 3357453.24569702 19.10148430 100 102 99
245635.07891846 3357453.95947266 18.75664520 67 69 64
245636.30096436 3357453.73843384 19.24933434 238 235 242
245641.80047607 3357453.33279419 19.22777939 25 25 27
245642.46197510 3357453.22546387 18.75061607 29 30 25
245642.37957764 3357453.88845825 18.96445465 33 38 18
245639.14916992 3357453.02578735 19.33311081 86 88 87
245634.43957520 3357453.34222412 19.41448212 86 82 81
245641.07318115 3357453.83001709 19.01728439 22 23 17
245638.75000000 3357453.50640869 18.83611107 23 22 18
245640.65673828 3357453.15814209 19.06779671 31 37 37
245649.26660156 3357452.40200806 18.86997223 18 23 27
245641.59265137 3357452.92959595 19.17523575 13 10 17
245636.00799561 3357452.33084106 18.79441833 161 151 139
245635.90808105 3357454.13473511 19.03070259 87 88 56
245638.51110840 3357453.23422241 19.06518745 120 120 122
245641.79052734 3357453.78591919 19.32033730 25 28 19
245648.96484375 3357452.95443726 19.10598373 18 26 29
245641.83026123 3357452.95120239 19.34293175 12 12 14
245645.94213867 3357452.69174194 19.46603203 15 22 30
245644.20092773 3357452.29263306 19.24072266 8 13 17
245643.78674316 3357452.94296265 19.07205391 16 21 24
245635.19860840 3357453.65805054 18.68239784 42 42 44
245634.95806885 3357454.15377808 19.03989029 135 136 104
245645.73388672 3357452.36242676 19.30874252 28 33 37
245642.13726807 3357453.51492310 18.85013962 36 38 35
245646.47985840 3357452.33047485 18.90319633 20 23 28
245636.38818359 3357453.21820068 19.47503281 33 35 32
245638.44665527 3357453.08200073 19.12591743 139 140 144
245636.02935791 3357453.24972534 18.86177254 32 36 35
245634.63757324 3357453.25119019 19.32517242 123 121 122
245634.54138184 3357453.98291016 18.91631126 187 185 172
245641.55053711 3357453.64312744 18.97176743 57 48 41
245646.62438965 3357453.15649414 18.68431473 22 27 30
245645.75860596 3357453.44177246 19.58469009 33 34 36
245637.07562256 3357452.55072021 18.85926247 123 118 112
245635.47943115 3357453.12826538 18.79468346 72 73 75
245645.02929688 3357453.19903564 19.60028267 18 19 21
245638.62634277 3357453.02072144 19.11969185 36 40 41
245644.53253174 3357452.33584595 19.05341339 18 23 27
245637.21533203 3357453.56588745 19.17434120 76 76 76
245644.09484863 3357452.41528320 19.25819206 16 22 22
245642.73669434 3357453.93048096 18.96117020 89 98 55
245645.47265625 3357452.95242310 19.46532631 25 34 33
245639.19226074 3357452.51296997 19.44755363 95 94 92
245649.38128662 3357453.17269897 19.06582832 26 30 33
245638.69720459 3357453.42044067 18.89696121 21 21 19
245645.21514893 3357453.32156372 19.70313644 26 32 32
245635.36480713 3357453.46984863 18.73773003 187 186 182
245640.29986572 3357452.83428955 18.96819305 38 42 45
245639.41943359 3357453.16897583 19.00545692 34 35 40
245640.55938721 3357452.80993652 19.14214134 43 41 42
245636.31469727 3357452.71441650 19.49029350 171 153 149
245645.47442627 3357452.20449829 18.89511681 28 33 36
245636.45050049 3357452.54232788 19.22363472 87 87 89
245645.64019775 3357452.49285889 19.21014595 22 23 28
245643.20062256 3357453.66040039 18.95404625 46 38 35
245638.27709961 3357453.24371338 19.09416580 87 86 94
245635.27239990 3357452.66735840 18.84079742 41 41 39
245635.91491699 3357454.13446045 19.21970749 97 102 62
245636.21185303 3357453.49026489 19.33743668 93 94 89
245648.83447266 3357453.20034790 19.00211143 8 12 15
245646.09075928 3357452.17266846 19.22184944 11 14 19
245639.89422607 3357453.86746216 19.27785301 24 30 18
245636.20733643 3357452.81146240 19.32293892 231 232 236
245648.54821777 3357453.50750732 19.14361382 20 26 26
245640.32525635 3357453.60952759 19.36049652 96 96 96
245645.30194092 3357453.39178467 19.77314568 23 29 27
245636.49633789 3357452.71530151 19.30748367 110 115 119
245641.03796387 3357453.36953735 19.15330124 58 62 63
245634.44256592 3357453.44335938 18.90522385 128 125 116
245636.61437988 3357453.27218628 19.21847916 13 17 20
245634.35571289 3357453.78213501 19.16303825 243 247 246
245636.24572754 3357453.58901978 18.96838188 180 173 167
245636.57611084 3357452.93344116 18.99655724 132 134 131
245641.55596924 3357452.97940063 19.16950607 17 17 19
245646.04400635 3357452.08126831 19.13580513 13 16 21
245649.61895752 3357453.13357544 18.99747276 26 32 32
245645.28771973 3357452.49456787 19.02001572 23 29 27
245638.44134521 3357452.47686768 18.88913345 118 110 99
245645.31549072 3357452.34616089 18.94064903 24 28 31
245635.06982422 3357454.13214111 18.85395241 197 199 178
245648.26525879 3357452.88262939 18.74638557 24 32 34
245644.07360840 3357453.37194824 19.51376152 31 36 30
245638.83520508 3357453.85440063 18.95761490 79 83 56
245646.83209229 3357453.11019897 18.68312073 29 32 37
245639.15142822 3357453.40029907 19.48789787 143 142 147
245645.76531982 3357452.07022095 19.37359238 37 42 48
245646.51818848 3357452.16888428 18.85195732 19 22 27
245635.53167725 3357452.31500244 18.81133270 213 204 195
245637.54534912 3357452.40893555 18.88919830 134 120 107
245635.55084229 3357452.35290527 18.80224228 178 169 160
245644.11779785 3357452.60205078 19.31931496 19 27 29
245642.56121826 3357452.88653564 18.80075073 16 21 24
245638.47668457 3357453.67687988 19.11042213 20 21 25
245646.55078125 3357452.57208252 18.84259605 23 28 31
245636.67218018 3357452.87557983 18.88196945 37 32 28
245635.71899414 3357454.11248779 18.87358475 170 172 159
245647.57702637 3357452.06188965 18.75232697 35 38 43
245646.03192139 3357453.60174561 19.33225441 54 56 55
245638.21276855 3357452.92034912 19.13404655 20 21 23
245637.95910645 3357452.30349731 18.82064438 141 132 123
245634.83520508 3357453.20800781 19.23614502 98 99 93
245640.64166260 3357453.26177979 19.08210945 36 41 44
245646.10760498 3357452.19033813 19.19112396 25 28 33
245640.56085205 3357453.04214478 19.14596939 38 38 40
245637.47131348 3357452.52243042 18.99275970 135 121 108
245647.12811279 3357453.36923218 18.63460541 35 43 45
245642.37072754 3357453.51962280 18.72716141 111 114 97
245636.21307373 3357454.08636475 18.97864914 174 169 140
245645.31939697 3357453.27743530 19.67929268 18 26 28
245642.68176270 3357453.92059326 18.94833946 81 90 47
245649.96179199 3357452.63558960 18.80931473 21 27 27
245639.08764648 3357452.66476440 19.02202034 144 137 131
245636.23919678 3357453.04055786 19.37475586 177 164 171
245648.96844482 3357452.52365112 18.95008087 38 41 46
245636.17541504 3357453.43405151 19.09724426 133 129 126
245640.11395264 3357453.46865845 19.18093491 38 37 45
245644.37219238 3357452.34066772 19.26755524 16 21 25
245637.80865479 3357453.56924438 19.38836861 118 118 126
245643.20819092 3357452.59948730 18.91408539 41 45 48
245634.70819092 3357453.68438721 18.84557724 146 144 129
245646.21807861 3357452.42654419 19.12205887 22 25 30
245634.36779785 3357454.12124634 19.16568565 100 110 57
245648.13958740 3357453.66058350 19.02270126 29 34 30
245642.68298340 3357453.93374634 19.03816032 105 114 67
245647.61560059 3357452.13446045 18.74558830 35 38 43
245643.71081543 3357453.53289795 19.22264671 26 31 25
245648.08691406 3357452.18975830 18.69635010 34 39 42
245648.57897949 3357452.92892456 18.82546616 22 30 32
245645.45227051 3357452.14477539 18.87874603 26 31 34
245640.49804688 3357453.72668457 19.23621368 31 30 28
245646.06915283 3357453.09020996 19.47395897 11 15 16
245648.24993896 3357452.12945557 18.68984413 30 35 38
245645.75128174 3357452.53887939 19.37565994 21 29 32
245646.14904785 3357453.53994751 18.98349380 47 51 54
245636.66137695 3357453.63546753 19.74843216 212 211 207
245647.56207275 3357453.30770874 18.67468071 21 27 27
245646.79675293 3357453.80752563 18.81243324 62 66 67
245643.92614746 3357452.40872192 19.17486000 11 14 19
245648.28381348 3357452.62295532 18.72688103 24 29 32
245649.31036377 3357452.40307617 18.86434746 19 24 28
245639.92730713 3357452.84844971 18.75934982 92 94 91
245647.60272217 3357453.60470581 18.86561394 30 40 32
245646.07904053 3357452.68527222 19.33220863 0 8 11
245634.05950928 3357454.00698853 18.92577553 180 168 152
245647.53662109 3357451.91589355 18.75746346 36 39 44
245637.48352051 3357453.35739136 19.03686142 27 26 24
245637.01580811 3357452.59484863 18.85256386 99 99 97
245648.44549561 3357453.55780029 19.09643936 19 25 25
245640.94287109 3357453.59262085 19.34293365 66 65 70
245634.95190430 3357452.65625000 19.49203491 116 116 118
245640.27362061 3357452.81140137 18.88346291 37 41 44
245636.29949951 3357452.37322998 19.08872414 156 144 144
245644.97534180 3357452.76040649 19.24378967 15 20 24
245634.70147705 3357454.09057617 19.13049889 164 164 126
245641.13214111 3357453.48431396 18.97456360 112 112 112
245648.15649414 3357452.56921387 18.71187210 28 32 35
245648.07891846 3357452.56777954 18.70894623 31 35 38
245644.23101807 3357453.13528442 19.58729362 24 29 25
245647.44647217 3357452.11212158 18.76335716 36 39 44
245634.22741699 3357453.24349976 18.75239944 125 113 99
245648.00891113 3357452.09005737 18.70810509 32 37 41
245636.41772461 3357453.25360107 19.42833710 27 32 28
245641.77081299 3357452.97128296 19.31566238 27 28 32
245635.63537598 3357454.05407715 18.83593369 63 62 57
245638.27685547 3357452.30081177 18.79199219 144 132 116
245634.32690430 3357454.12866211 19.30796814 77 92 27
245636.03894043 3357453.77139282 18.73380852 184 178 166
245636.88006592 3357453.48080444 19.51359940 5 7 6
245645.77752686 3357452.31643677 19.43041039 43 51 54
245635.71801758 3357453.04196167 18.84512329 29 33 36
245646.18945313 3357453.06185913 18.98986816 5 13 16
245643.76971436 3357452.73492432 19.09390068 11 15 18
245647.67437744 3357451.81411743 18.74244118 37 41 44
245639.12493896 3357453.35113525 19.35387039 121 119 124
245636.18719482 3357453.52569580 18.81178665 173 168 162
245644.54101563 3357452.12084961 18.85413361 26 31 35
245634.06854248 3357454.15246582 19.28126335 113 128 59
245637.14086914 3357452.63085938 18.96963501 113 112 110
245647.30694580 3357453.52175903 18.70599556 43 49 45
245641.08557129 3357453.73434448 18.87699509 75 71 68
245648.86151123 3357452.88284302 19.04102516 25 30 34
245647.94476318 3357452.38000488 18.70296288 30 35 39
245646.38439941 3357453.50137329 18.70568466 35 39 40
245639.47290039 3357453.95248413 19.24632645 81 88 55
245642.02160645 3357453.79327393 19.03971481 36 40 41
245646.92077637 3357453.61834717 18.67433167 16 19 24
245648.14111328 3357453.08728027 18.74003029 29 37 39
245636.81469727 3357453.48291016 19.59347916 45 45 45
245649.28002930 3357452.17840576 18.77506065 25 30 33
245641.22106934 3357453.06997681 19.23809433 50 54 55
245636.12316895 3357452.99108887 18.96858597 56 68 68
245639.10186768 3357452.72741699 19.09601212 121 118 113
245648.69079590 3357452.78173828 18.85415649 27 30 35
245645.79125977 3357452.73446655 19.42208862 17 24 30
245647.52459717 3357452.88067627 18.69186211 33 38 42
245635.54852295 3357454.03469849 18.77003860 50 49 44
245643.45074463 3357453.18130493 18.95839119 148 150 145
245639.39794922 3357452.52395630 18.79115295 60 59 57
245644.76568604 3357452.46371460 19.05938911 19 24 27
245644.51751709 3357452.84158325 19.49058914 20 26 26
245640.37481689 3357452.64739990 18.96841049 143 135 132
245634.57275391 3357453.59170532 19.65350914 176 176 176
245641.79522705 3357453.43505859 19.38417053 57 57 55
245647.30999756 3357453.13687134 18.68004417 24 32 34
245644.75054932 3357452.71530151 19.31148720 14 22 25
245642.21557617 3357453.16979980 18.84290314 21 23 20
245645.50201416 3357453.20812988 19.66584778 33 38 41
245643.45965576 3357452.68457031 19.19151688 2 3 7
245643.44702148 3357453.67633057 19.22445107 90 93 84
245637.59930420 3357453.80160522 19.24143791 22 24 21
245645.30511475 3357452.96652222 19.42403221 21 30 29
245644.28027344 3357452.46490479 19.33284378 17 27 29
245646.06347656 3357452.60656738 19.37915039 5 12 18
245648.66796875 3357453.15048218 18.90017891 19 23 26
245649.78436279 3357453.06506348 18.93845558 23 27 30
245648.25823975 3357452.86965942 18.74376869 24 32 34
245646.55627441 3357453.14358521 18.70223427 24 30 30
245647.81121826 3357452.36712646 18.71680069 43 46 51
245638.04351807 3357453.47460938 19.28823471 43 41 46
245636.30676270 3357454.07125854 19.06542015 183 177 145
245643.39556885 3357452.76489258 19.17695618 13 20 26
245644.38043213 3357452.41314697 19.29583549 8 13 16
245647.49627686 3357453.20211792 18.67914200 23 28 31
245646.12780762 3357453.13223267 19.08847427 22 23 28
245635.03381348 3357454.13430786 18.88378525 185 187 163
245645.90502930 3357451.98269653 19.22335434 49 54 58
245642.77471924 3357453.20391846 18.70829582 38 38 36
245635.69012451 3357452.93051147 19.05068398 175 184 193
245641.56890869 3357453.23873901 19.28180313 29 28 23
245637.24279785 3357452.77288818 19.19155121 94 93 98
245649.56939697 3357452.82702637 18.88824081 18 23 26
245637.63909912 3357452.57785034 19.05236435 118 105 97
245635.12402344 3357453.66116333 18.68828201 40 42 41
245636.27233887 3357452.43243408 19.08843994 151 147 148
245636.47454834 3357452.69097900 19.18098259 95 96 100
245642.83978271 3357453.89694214 18.78735352 39 43 20
245638.49902344 3357453.90585327 19.21433640 79 80 72
245636.13055420 3357452.61636353 18.83159447 149 142 132
245639.84326172 3357453.08395386 18.87665558 28 34 34
245634.47210693 3357453.36242676 19.12347412 162 162 160
245647.13543701 3357453.69079590 18.80716324 25 29 30
245648.82647705 3357452.49417114 18.81413841 23 27 30
245637.29461670 3357452.59872437 19.17653656 217 211 213
245634.96582031 3357453.07073975 19.29000282 147 149 148
245647.88916016 3357453.56076050 18.85347366 37 41 44
245635.50347900 3357453.66015625 18.70500374 129 124 118
245641.05932617 3357453.19738770 19.13085747 73 73 71
245644.22961426 3357453.11221313 19.58562851 22 27 23
245641.44213867 3357453.41531372 18.94227028 31 33 22
245634.51104736 3357453.33157349 18.99235916 177 178 173
245638.09545898 3357452.52676392 18.93171120 23 19 18
245640.31433105 3357453.43560791 19.13469315 74 76 75
245639.11193848 3357453.35476685 19.09206009 98 97 102
245644.20739746 3357452.85681152 19.45872116 33 39 39
245644.14477539 3357453.00885010 19.52213478 24 28 27
245637.66931152 3357453.35003662 19.08120346 62 66 69
245638.66693115 3357452.39901733 18.87430954 128 119 112
245637.88085938 3357453.50564575 19.34701347 99 100 104
245643.73150635 3357453.61889648 19.31422234 29 35 33
245634.65679932 3357453.61694336 19.28745461 7 9 6
245635.73242188 3357452.84225464 19.14550400 171 180 187
245638.48651123 3357452.71347046 19.16774940 190 189 194
245648.98791504 3357452.74139404 19.17970848 16 24 26
245646.52832031 3357452.30358887 18.87615776 18 21 26
245639.88977051 3357452.76351929 18.74882126 40 41 36
245634.98590088 3357453.26351929 18.81847763 85 86 81
245646.34802246 3357452.45840454 18.99162483 19 24 27
245634.14807129 3357454.12881470 19.03277588 168 171 126
245649.43804932 3357453.19995117 19.07930565 26 30 33
245640.62872314 3357453.45953369 19.26642227 33 31 34
245636.15002441 3357454.13803101 19.06329536 129 131 92
245641.72747803 3357453.61642456 19.41483307 25 25 23
245634.99707031 3357452.98855591 18.99241638 93 93 91
245635.92358398 3357454.13873291 18.97581482 93 93 65
245649.87695313 3357453.17117310 19.01808548 20 25 28
245641.40814209 3357453.64706421 18.81250572 47 44 37
245648.69476318 3357452.96340942 18.88516426 18 23 26
245634.24346924 3357452.67858887 18.79774094 124 116 105
245636.21008301 3357453.48757935 19.03322601 171 167 166
245634.49615479 3357453.33184814 19.51411057 100 100 100
245646.50512695 3357452.36956787 18.89628410 21 24 29
245639.13238525 3357453.07296753 19.17291069 99 97 98
245649.61187744 3357452.53140259 18.82847023 18 23 26
245645.62561035 3357453.42221069 19.68350983 35 36 40
245639.26361084 3357453.39151001 19.35020447 180 181 186
245645.34973145 3357453.02273560 19.47696877 23 31 33
245643.03869629 3357453.53695679 18.73928261 143 135 116
245646.68658447 3357452.91857910 18.73446274 29 34 37
245643.16271973 3357453.00982666 18.82590485 130 124 108
245643.17059326 3357453.86587524 18.89841843 144 141 108
245646.38439941 3357452.84289551 18.85179138 17 22 25
245641.09600830 3357453.40661621 19.11650085 141 140 145
245649.94952393 3357451.81326294 18.71033478 33 42 41
245641.09301758 3357452.84475708 19.17856598 127 125 126
245638.15795898 3357453.24761963 19.08721161 26 27 29
245642.11401367 3357452.95620728 18.89048004 20 21 23
245645.22979736 3357451.99719238 18.85806847 35 38 43
245645.71307373 3357452.08972168 18.97753143 61 56 62
245645.73468018 3357453.44726563 19.59660339 30 31 33
245640.82379150 3357453.25375366 19.10003471 44 48 49
245648.36987305 3357451.96215820 18.68695831 26 31 34
245638.89739990 3357452.75402832 18.97158432 13 12 10
245636.26568604 3357453.67614746 19.26762962 212 210 213
245646.27789307 3357451.96038818 18.87965012 34 37 42
245636.79815674 3357452.79504395 18.85029030 22 27 30
245637.77075195 3357452.38381958 18.91164398 123 112 106
245639.16772461 3357452.39978027 19.27589607 129 128 124
245639.70391846 3357453.39956665 18.96383476 29 30 32
245642.21484375 3357453.91018677 19.08990669 151 154 135
245645.25708008 3357451.90698242 18.84642601 32 35 40
245646.88433838 3357452.21917725 18.81197929 28 33 37
245643.98327637 3357453.36096191 19.41570473 18 23 19
245635.71417236 3357454.12619019 19.12611008 55 63 24
245636.38226318 3357453.32449341 19.59111977 59 62 53
245645.98388672 3357452.72827148 19.41958809 0 6 14
245642.16363525 3357453.07849121 18.86967850 18 22 23
245635.99096680 3357453.79385376 18.72604752 179 172 162
245640.73034668 3357453.49371338 19.36617088 96 94 97
245636.58166504 3357454.02758789 19.32547569 158 159 115
245643.59100342 3357453.66317749 19.26207733 42 44 43
245635.04821777 3357453.22750854 18.80365372 45 47 44
245640.26245117 3357453.55383301 19.53985214 204 204 206
245635.68402100 3357452.95858765 19.00503159 153 160 166
245636.94677734 3357452.39904785 18.80307579 127 117 105
245634.52313232 3357453.80117798 18.90231323 84 83 78
245648.67877197 3357452.20718384 18.69291496 26 34 36
245637.98779297 3357453.75296021 19.28725243 89 90 72
245637.26129150 3357453.82937622 19.33716202 41 32 27
245644.92291260 3357452.56848145 19.10462761 22 27 30
245638.29309082 3357452.23001099 18.77664375 157 148 131
245639.05004883 3357453.66220093 19.04740143 165 158 150
245647.98956299 3357451.82556152 18.72056198 44 49 53
245636.18444824 3357452.69677734 19.01713753 189 183 183
245635.08990479 3357452.41696167 19.44659615 40 32 30
245639.11767578 3357453.62173462 19.27659988 244 243 248
245648.82080078 3357452.60910034 18.86103630 20 26 26
245637.25616455 3357452.26116943 18.81456566 132 120 108
245642.54797363 3357453.75439453 18.77604294 108 111 82
245637.84069824 3357452.62908936 19.16044998 140 132 130
245641.81170654 3357453.54244995 19.40484238 34 34 32
245641.51837158 3357453.42697144 19.30650711 52 52 44
245634.51983643 3357453.70758057 19.53121376 223 225 222
245645.06292725 3357452.38122559 18.96526146 21 26 30
245649.31848145 3357453.04431152 19.01472473 19 23 26
245642.68927002 3357453.92620850 18.97865868 92 101 56
245649.92272949 3357452.47430420 18.79079819 28 36 38
245645.28930664 3357452.53005981 19.04272461 23 29 29
245642.52868652 3357453.13134766 18.76334381 25 29 28
245643.88720703 3357452.81811523 19.26758766 16 21 24
245644.87194824 3357452.79367065 19.31899643 27 32 36
245647.68823242 3357452.07595825 18.74066734 31 34 39
245643.84625244 3357453.29333496 19.23330498 50 54 53
245640.55523682 3357452.74847412 19.12645912 47 45 46
245639.38256836 3357452.87020874 19.27245712 68 72 73
245642.87585449 3357452.89907837 18.76619148 37 37 37
245643.51892090 3357453.35699463 19.08785248 37 38 33
245646.42138672 3357453.76068115 18.80404663 31 35 34
245635.84008789 3357452.72204590 19.03914452 163 166 173
245641.63482666 3357453.64401245 19.26981163 28 28 26
245635.93151855 3357453.07806396 18.87985039 62 60 63
245645.69366455 3357452.22390747 19.02941895 60 53 60
245641.65270996 3357452.86859131 19.23019218 107 106 111
245640.34960938 3357453.04617310 19.23297501 121 121 119
245646.12335205 3357453.55227661 19.05253792 46 50 53
245645.71856689 3357452.90460205 19.51738930 18 26 28
245638.99206543 3357453.74401855 18.94415283 112 108 99
245634.70678711 3357453.49356079 19.15629578 144 145 137
245634.52624512 3357453.25088501 19.38048553 41 41 41
245641.86413574 3357453.11767578 19.04997444 106 107 112
245643.27880859 3357453.84710693 19.09441566 115 120 90
245637.21240234 3357452.53356934 18.93225670 127 119 108
245646.44165039 3357452.53622437 18.91643524 19 24 28
245645.05310059 3357452.42733765 18.98501396 19 24 28
245636.17352295 3357453.37026978 19.37593079 97 97 95
245644.13037109 3357453.32434082 19.55558395 44 49 45
245639.22058105 3357453.08483887 19.36651802 41 42 44
245637.00573730 3357452.27743530 18.79738426 161 149 135
245636.24145508 3357453.93292236 18.86630630 173 161 149
245646.02722168 3357453.12573242 19.53876114 0 0 0
245636.28186035 3357453.70004272 19.34176254 236 233 242
245635.75238037 3357452.98614502 18.95545959 131 136 140
245636.72924805 3357453.40878296 19.31558609 51 53 52
245644.40466309 3357452.22283936 19.07447815 5 10 13
245643.18157959 3357453.68707275 18.89226723 122 115 99
245634.99487305 3357453.69415283 18.72941208 46 49 42
245643.16687012 3357453.11486816 18.82992744 132 125 109
245641.04107666 3357453.22708130 19.11177254 111 111 111
245639.12322998 3357452.79064941 19.28950691 247 248 250
245635.47845459 3357453.55838013 18.72408104 195 185 183
245643.13830566 3357453.21694946 18.79594994 88 80 61
245648.50964355 3357452.34674072 18.67975807 34 42 44
245644.49407959 3357452.27426147 19.00924301 18 21 26
245645.47979736 3357452.24258423 18.91757584 27 35 37
245648.90979004 3357453.17276001 19.02753639 18 21 26
245648.11987305 3357453.66241455 19.02613640 31 35 34
245648.87121582 3357452.33352661 18.78275871 27 33 33
245645.84735107 3357453.43795776 19.51735115 38 39 41
245639.58178711 3357453.89828491 19.17838478 113 121 84
245648.69732666 3357453.46994019 19.23420715 21 26 29
245649.81420898 3357453.08023071 18.95016479 23 26 31
245636.16729736 3357453.12112427 19.07256889 124 125 127
245646.55017090 3357452.88684082 18.74963760 30 38 40
245635.24285889 3357453.63955688 18.68315125 60 60 60
245636.38623047 3357453.09793091 19.44979668 74 70 69
245638.92279053 3357452.27566528 18.82793427 146 134 120
245638.91802979 3357453.14328003 18.94802284 54 54 56
245646.33905029 3357453.71359253 18.84249496 26 32 28
245640.81304932 3357452.81359863 19.01562309 31 35 38
245643.41754150 3357453.73132324 19.19459152 13 14 6
245643.91711426 3357453.20123291 19.31275177 10 14 13
245636.42401123 3357453.31640625 19.52689552 117 122 118
245647.63867188 3357452.86657715 18.68985176 38 43 46
245634.68377686 3357454.08148193 19.32377625 117 123 77
245637.96484375 3357453.40560913 19.15088081 83 84 88
245635.54656982 3357453.62432861 18.71328163 167 160 154
245642.03790283 3357453.31286621 18.96993637 27 26 22
245636.21716309 3357452.74996948 19.37915039 232 232 230
245649.18676758 3357453.12905884 19.06569862 17 23 23
245640.90673828 3357452.84268188 19.07116699 39 43 46
245635.03778076 3357452.93106079 19.33327293 154 155 157
245644.87139893 3357452.29589844 18.94034958 23 28 31
245643.96618652 3357453.15222168 19.39152145 21 22 24
245640.00006104 3357452.69406128 18.77796936 145 137 126
245637.82678223 3357453.52996826 19.37006187 164 163 171
245648.26940918 3357452.21139526 18.68805885 27 32 35
245638.95330811 3357453.34634399 18.87414742 27 28 30
245637.66009521 3357452.76522827 19.17117500 30 26 25
245636.98254395 3357452.89682007 18.97883034 27 28 30
245645.80877686 3357452.88861084 19.53008080 27 35 38
245646.66394043 3357453.32043457 18.64533615 28 34 34
245649.69647217 3357453.17535400 19.03759003 22 27 30
245634.88867188 3357453.14971924 19.28388786 131 133 128
245647.70965576 3357453.45684814 18.74755669 22 28 28
245640.29418945 3357453.48312378 19.46936226 87 87 87
245645.58697510 3357452.34341431 19.01192474 28 27 32
245643.10852051 3357453.33755493 18.78689194 136 127 112
245637.11242676 3357453.35809326 19.10550308 18 22 25
245635.99633789 3357452.68490601 18.92954254 140 134 134
245639.07635498 3357453.56045532 19.03985596 161 154 148
245639.00506592 3357452.68014526 18.93682480 91 88 81
245639.21148682 3357453.39785767 19.43049812 181 182 187
245639.14819336 3357452.54785156 19.17517853 71 70 66
245641.03167725 3357453.51437378 19.22927475 143 141 144
245635.34704590 3357453.43969727 18.74435043 124 124 124
245644.11450195 3357453.02597046 19.50018692 22 26 25
245642.06469727 3357453.16378784 18.92042923 10 10 8
245645.62481689 3357452.55178833 19.23274422 17 21 24
245649.51898193 3357452.30328369 18.79681587 26 29 34
245647.85064697 3357452.80383301 18.68812943 27 31 34
245643.63763428 3357452.76483154 19.00082588 25 29 32
245640.62707520 3357453.09445190 19.08680916 24 25 27
245639.38641357 3357453.61709595 19.53196335 129 133 136
245646.36444092 3357453.62322998 18.75094223 40 49 46
245636.68212891 3357453.48828125 19.72063065 170 170 172
245634.43560791 3357453.45639038 19.49677849 51 49 50
