245777.30895996 3357435.53656006 17.73143768 208 199 200
245777.91583252 3357434.65405273 17.56035614 139 136 131
245786.25201416 3357432.93359375 17.50578499 201 193 180
245781.09863281 3357434.83438110 17.49917984 155 156 151
245773.69415283 3357435.84057617 17.84720039 77 82 86
245783.99102783 3357432.92477417 17.61553383 141 137 126
245774.42358398 3357435.77011108 17.64255142 53 53 55
245787.75909424 3357432.43545532 17.47023201 212 205 195
245788.01098633 3357431.66580200 17.69785881 158 154 142
245785.31048584 3357433.35122681 17.52702713 95 90 84
245778.53442383 3357434.07183838 17.80985260 141 140 138
245789.74713135 3357432.26043701 17.96316338 49 49 51
245784.48547363 3357432.77331543 17.55503273 106 96 95
245778.96984863 3357434.45602417 17.78723145 110 122 122
245787.70172119 3357431.92855835 17.52532005 151 145 133
245777.17846680 3357434.57113647 18.07774544 204 206 205
245779.05718994 3357435.31634521 17.82380295 50 49 54
245781.85961914 3357433.91131592 17.62045288 184 185 180
245786.39544678 3357432.93978882 17.54695511 215 205 193
245787.10699463 3357432.37152100 17.51012421 140 142 137
245788.59576416 3357431.93551636 17.69390106 123 114 109
245785.49554443 3357432.42767334 17.57639122 118 119 114
245789.54119873 3357431.70254517 17.83110237 90 94 97
245782.68878174 3357433.43801880 17.55664063 168 159 150
245788.54693604 3357432.63711548 17.57940865 203 190 174
245781.04376221 3357433.66586304 17.55084801 147 140 132
245774.46697998 3357435.59762573 17.61715317 79 80 82
245774.59777832 3357436.51290894 17.58114815 111 111 109
245780.19830322 3357434.76013184 17.67263603 218 210 199
245778.34674072 3357434.95098877 17.60136223 107 104 99
245784.19390869 3357433.86706543 17.55489159 213 205 194
245785.46942139 3357432.74243164 17.56669807 98 97 93
245776.68774414 3357434.55688477 17.57105637 131 130 128
245786.32873535 3357432.60046387 17.53891373 176 169 159
245778.49597168 3357434.44931030 17.84477234 72 72 72
245776.00152588 3357436.14846802 17.54390335 93 96 105
245777.21527100 3357434.81665039 18.03871536 207 216 223
245780.15222168 3357434.25106812 17.90379143 116 114 117
245778.27343750 3357435.36782837 17.53260231 115 110 104
245778.66729736 3357435.61898804 17.57497025 209 200 185
245778.10992432 3357434.55770874 17.58794022 138 134 125
245785.96142578 3357433.45227051 17.51187325 205 197 186
245779.22137451 3357435.44027710 17.64987373 80 85 89
245784.15930176 3357433.16622925 17.62404060 155 145 135
245777.20257568 3357434.85128784 17.76069641 162 172 173
245786.28887939 3357432.21237183 17.68523979 195 194 189
245774.85198975 3357436.39175415 17.58566093 142 143 148
245789.60839844 3357432.33767700 17.80658531 93 89 90
245777.87414551 3357434.84051514 17.55766296 123 124 118
245789.41040039 3357431.95733643 18.15977287 20 26 26
245783.75683594 3357432.97732544 17.54520035 155 149 135
245776.19787598 3357435.14605713 17.61344337 176 180 183
245784.20147705 3357433.62988281 17.82354736 203 196 188
245783.14184570 3357433.70028687 17.66191673 67 72 76
245777.22552490 3357434.46389771 17.88680458 128 128 130
245775.97650146 3357436.37496948 17.55956459 77 78 82
245778.75299072 3357435.01290894 17.83205986 48 48 50
245777.37890625 3357434.74697876 17.59439850 151 156 152
245788.71539307 3357431.71176147 17.78106308 59 59 57
245774.56628418 3357436.01217651 17.71496391 145 149 148
245786.99816895 3357433.04229736 17.52137947 123 122 120
245789.37377930 3357432.95062256 17.62682152 137 124 82
245772.89562988 3357436.98944092 17.56402016 152 152 150
245774.78289795 3357434.83319092 17.68928337 131 128 123
245781.53674316 3357433.47946167 17.69570541 150 145 139
245783.43438721 3357434.09359741 17.50407791 182 189 199
245780.29534912 3357434.40417480 17.92265129 144 148 151
245780.33892822 3357435.15396118 17.50784874 154 141 125
245775.64337158 3357435.10711670 17.59809303 120 117 112
245788.21679688 3357431.96234131 17.58186531 169 161 150
245781.84002686 3357433.75201416 17.69555473 121 121 113
245780.32598877 3357434.38201904 17.87739754 126 130 133
245784.48309326 3357432.79644775 17.55864334 106 96 95
245777.12701416 3357434.52554321 17.75505257 121 115 115
245775.19537354 3357436.32714844 17.54056168 99 100 105
245776.11279297 3357434.74902344 17.62252045 130 126 123
245777.18267822 3357435.30862427 17.61909485 195 190 187
245775.71081543 3357436.37210083 17.59529877 18 19 23
245780.58081055 3357434.59805298 17.67437935 139 141 138
245780.85571289 3357434.36047363 17.53264046 163 164 166
245785.66754150 3357433.22155762 17.48648453 124 123 118
245780.80364990 3357434.52597046 17.54327202 159 161 158
245782.11071777 3357434.36364746 17.89032364 129 123 123
245786.51776123 3357432.92398071 17.64815903 214 212 200
245783.76269531 3357433.85662842 17.50563622 123 124 126
245777.23992920 3357434.87466431 17.98766708 210 221 227
245778.39941406 3357435.61016846 17.55052185 211 199 187
245782.96582031 3357434.32418823 17.52117538 206 202 193
245779.45916748 3357434.65829468 17.61382866 117 118 122
245787.84124756 3357432.03100586 17.50596619 147 141 129
245779.32653809 3357434.38009644 17.66273499 49 52 57
245783.53912354 3357433.95733643 17.50545311 71 74 79
245774.81646729 3357435.28421021 17.77519798 135 134 130
245783.90209961 3357433.78762817 17.50795174 197 196 194
245780.63226318 3357433.72662354 17.60466385 170 165 161
245773.95947266 3357436.61999512 17.76014328 49 54 57
245774.73175049 3357436.41116333 17.58925247 212 211 217
245787.95855713 3357433.08947754 17.54597855 184 182 159
245783.74658203 3357433.03320313 17.54226685 158 152 138
245778.58746338 3357434.27593994 17.86894226 144 144 146
245780.25274658 3357434.83416748 18.02115059 127 121 121
245783.90124512 3357433.12753296 17.54080582 159 149 137
245789.50158691 3357431.54037476 17.86815071 43 52 57
245778.65698242 3357434.72085571 17.80406570 58 62 65
245781.63159180 3357434.32501221 17.53290749 192 189 184
245780.46972656 3357434.88653564 17.94253922 170 170 168
245786.49493408 3357432.39733887 17.72177505 225 224 222
245785.89910889 3357432.51876831 17.53152657 154 150 139
245773.86535645 3357436.61126709 17.73687935 131 132 134
245785.13153076 3357433.08578491 17.90426254 155 152 147
245777.43347168 3357435.31408691 17.85620117 199 208 205
245786.42535400 3357432.88232422 17.59124756 212 204 191
245782.27484131 3357433.79730225 17.83367157 108 108 108
245773.77551270 3357436.82034302 17.66005516 175 173 174
245788.00347900 3357431.68057251 17.68406487 157 153 141
245775.18927002 3357435.35394287 17.77528763 103 103 101
245774.46325684 3357436.03982544 17.77635574 154 156 155
245776.45892334 3357435.20565796 17.66043472 99 103 104
245774.79272461 3357436.02038574 17.70195198 195 195 207
245789.99023438 3357431.66488647 17.55804634 76 78 73
245782.05285645 3357433.57220459 17.87778282 103 103 101
245782.21234131 3357433.77505493 17.84680939 78 78 80
245773.37854004 3357436.45254517 17.66005516 146 149 154
245778.35351563 3357434.67761230 17.65960312 131 130 128
245789.21679688 3357431.89758301 17.47343826 80 77 72
245789.61474609 3357431.09042358 17.69644547 92 85 69
245787.88531494 3357431.80551147 17.58588600 154 150 139
245782.52557373 3357434.06509399 17.66405869 95 103 105
245784.12158203 3357434.08468628 17.53952980 194 187 179
245786.37109375 3357432.46194458 17.57472610 173 169 166
245780.35357666 3357434.44763184 17.85210609 154 153 159
245779.94250488 3357434.50012207 17.60346603 231 220 218
245779.89593506 3357434.19604492 17.57220459 150 141 136
245788.92730713 3357432.02755737 17.51033783 191 171 172
245775.71075439 3357435.11968994 17.59360886 133 130 125
245784.69470215 3357432.55252075 17.65389252 75 76 70
245780.00854492 3357434.92425537 17.54171562 228 219 214
245787.59857178 3357433.04217529 17.50527000 200 192 181
245780.82574463 3357433.89489746 17.55302048 107 108 103
245790.33013916 3357431.12011719 17.62515450 177 163 162
245781.03161621 3357434.76922607 17.50779915 167 169 166
245778.93774414 3357435.00888062 17.76398087 46 47 52
245779.58978271 3357434.65374756 17.55443001 209 208 213
245773.18542480 3357436.87969971 17.56716347 209 205 202
245775.90368652 3357434.59237671 17.61297417 133 128 124
245778.75335693 3357435.37268066 17.69771004 171 170 165
245788.30688477 3357432.87731934 17.46743393 196 187 172
245773.38073730 3357436.46591187 17.65645599 152 155 160
245783.13391113 3357434.44754028 17.56434250 213 207 195
245783.03100586 3357434.43817139 17.54397202 206 197 192
245782.71936035 3357434.51065063 17.52974892 100 101 105
245780.37475586 3357434.98818970 17.67402649 143 134 129
245781.96936035 3357434.21252441 17.65087891 168 169 171
245786.62048340 3357432.55474854 17.71210670 220 215 211
245781.95703125 3357433.49530029 17.88342857 136 131 127
245782.62280273 3357434.17065430 17.53053284 109 117 119
245787.28601074 3357433.23236084 17.56883240 150 157 149
245785.98931885 3357432.68298340 17.51474571 169 163 151
245775.19903564 3357434.90808105 17.72134972 126 123 116
245775.72125244 3357436.13394165 17.58966637 49 48 53
245789.40356445 3357431.90811157 18.03643608 81 86 89
245783.99572754 3357433.72732544 17.51280212 207 202 196
245777.08044434 3357434.70553589 17.66097832 125 124 120
245786.62390137 3357431.92895508 17.70848656 141 128 120
245780.13159180 3357434.27926636 17.78467560 181 175 179
245778.11370850 3357434.91656494 17.58742142 84 85 80
245785.83813477 3357433.60171509 17.53139877 117 113 110
245790.02795410 3357431.15048218 17.55072784 135 127 114
245781.28930664 3357434.44287109 17.54345322 185 184 180
245785.69598389 3357433.39767456 17.49387360 176 171 167
245775.51843262 3357434.93457031 17.61647034 124 123 118
245786.19165039 3357432.21411133 17.61532784 166 163 156
245774.65783691 3357436.61590576 17.55755615 200 200 202
245778.19683838 3357434.63833618 17.60194016 139 136 131
245784.36376953 3357433.18762207 17.65671349 94 90 81
245779.53527832 3357435.06039429 17.59249496 89 93 94
245789.21936035 3357432.53701782 17.46706581 114 114 102
245779.53607178 3357434.35946655 17.56789589 89 91 90
245773.90460205 3357436.57455444 17.76434708 117 121 124
245778.24682617 3357434.60903931 17.63034439 157 154 147
245779.43688965 3357434.72097778 17.65377235 91 92 94
245780.74194336 3357435.12963867 17.56590080 144 145 139
245781.86175537 3357433.27667236 17.87099075 145 141 130
245789.67742920 3357431.57922363 17.81137657 57 59 56
245788.50891113 3357432.77438354 17.53808784 200 188 174
245775.59613037 3357435.07083130 17.60309219 122 119 114
245787.02410889 3357432.98382568 17.52046204 137 137 137
245775.65606689 3357435.29696655 17.59141159 120 119 115
245776.88311768 3357435.03417969 17.56714058 117 116 114
245775.17089844 3357435.55276489 17.76281738 68 68 70
245776.85888672 3357435.05740356 17.57049561 121 119 120
245779.62542725 3357434.09173584 17.53671837 159 154 150
245776.87371826 3357435.21734619 17.55113602 179 177 178
245774.06909180 3357435.72216797 17.73824120 61 65 66
245787.80737305 3357432.87457275 17.49636078 206 198 187
245783.60546875 3357434.04772949 17.50376511 125 126 128
245781.73999023 3357434.10025024 17.53740501 196 192 183
245778.24603271 3357434.66336060 17.61181831 139 136 131
245773.58294678 3357436.70733643 17.58721542 202 197 193
245781.55798340 3357433.80911255 17.55274200 132 129 124
245780.27099609 3357434.58697510 17.75020599 138 128 127
245785.71398926 3357433.62246704 17.52794838 121 118 113
245788.16412354 3357432.95416260 17.47654724 199 193 177
245788.37988281 3357433.12356567 17.63375473 140 148 99
245781.23345947 3357434.70169067 17.51583481 186 186 178
245776.35192871 3357436.02111816 17.54099083 122 123 128
245789.73803711 3357432.10098267 17.87613106 97 97 97
245772.67053223 3357437.11203003 17.57151222 141 143 142
245785.69232178 3357433.27316284 17.48981857 199 196 189
245784.84228516 3357432.44995117 17.97309875 121 120 118
245774.34210205 3357436.59753418 17.77154922 91 91 91
245781.48553467 3357434.15679932 17.55211067 197 193 190
245781.98089600 3357434.80044556 17.57229042 206 204 192
245781.33184814 3357435.01846313 17.57546425 191 192 184
245777.17926025 3357435.23736572 17.60553169 198 189 190
245783.41534424 3357433.24450684 17.58006477 139 138 134
245780.03594971 3357433.93847656 17.80952454 131 122 123
245786.42614746 3357432.65530396 17.59857941 212 209 202
245775.95581055 3357435.42068481 17.56447411 137 136 132
245787.09942627 3357433.17538452 17.54293251 103 109 99
245774.67510986 3357436.02188110 17.69650841 139 138 143
245782.03869629 3357434.23474121 17.77094650 161 165 168
245783.41345215 3357432.99169922 17.60974503 156 149 139
245773.79113770 3357436.51260376 17.66926575 194 192 197
245776.42010498 3357435.47134399 17.63341904 186 184 187
245777.90362549 3357435.65176392 17.52342796 191 191 181
245785.99053955 3357432.68994141 17.51500702 169 163 151
245773.81256104 3357436.54235840 17.68956375 177 176 181
245778.74700928 3357435.44790649 17.68304825 193 190 183
245775.01800537 3357435.00515747 17.90843391 147 144 135
245785.10131836 3357433.71881104 17.50492287 125 126 118
245772.97326660 3357437.19177246 17.55665588 153 157 156
245786.18951416 3357433.50134277 17.53883743 200 187 168
245788.99536133 3357431.56985474 17.62554169 90 91 86
245788.96307373 3357431.90316772 17.48136330 106 97 98
245774.27502441 3357435.61312866 17.85799789 80 74 76
245787.93292236 3357432.93872070 17.49024200 202 194 181
245777.88311768 3357435.23410034 17.52887154 212 215 208
245789.08642578 3357431.43563843 17.61118889 131 128 121
245786.14440918 3357432.24877930 17.57305336 164 160 151
245775.30493164 3357435.55969238 17.64023781 96 96 96
245782.93859863 3357433.96722412 17.63113594 183 180 165
245776.33886719 3357434.97628784 17.75077057 128 128 126
245777.36840820 3357435.46765137 17.97206879 177 181 180
245784.00311279 3357433.58728027 17.54175758 217 208 199
245773.93841553 3357436.94793701 17.65748405 118 118 116
245781.85595703 3357434.09118652 17.57912254 185 184 179
245786.12310791 3357432.96762085 17.50100899 212 203 188
245789.26947021 3357432.23950195 17.52753830 76 69 61
245779.74877930 3357434.96041870 17.51168633 116 116 118
245785.19537354 3357433.04705811 17.70712471 124 119 113
245777.09814453 3357435.11318970 17.55479622 138 134 131
245774.24737549 3357436.39276123 18.01638985 80 80 82
245789.16406250 3357432.73217773 17.54105568 167 156 138
245775.66766357 3357436.14706421 17.59902763 104 104 112
245784.96643066 3357433.34399414 17.57863045 207 203 194
245780.25488281 3357434.68756104 18.10782623 201 199 204
245788.58874512 3357432.86474609 17.52773476 215 206 191
245779.61700439 3357434.47384644 17.52370071 204 204 206
245777.83013916 3357434.86370850 17.54848480 204 206 201
245775.56835938 3357435.18923950 17.61036873 115 112 107
245781.72454834 3357433.76776123 17.62294579 128 128 120
245777.40106201 3357435.01150513 17.74943924 171 182 178
245775.25592041 3357435.66439819 17.65987778 159 157 158
245772.87457275 3357436.95385742 17.56485748 174 174 172
245781.19842529 3357434.52655029 17.53489876 178 177 173
245776.27026367 3357435.62091064 17.58431053 195 193 194
245775.40905762 3357435.96105957 17.60979080 60 60 68
245784.03527832 3357433.97137451 17.51366425 205 200 194
245774.94116211 3357434.81228638 17.78175545 99 92 86
245779.65301514 3357434.85928345 17.53866959 178 178 178
245779.34582520 3357434.75866699 17.72113228 75 79 82
245786.54742432 3357432.36532593 17.74611282 227 219 216
245773.55834961 3357437.06994629 17.55138969 195 194 192
245777.69854736 3357435.43447876 17.55778122 168 169 163
245773.82208252 3357436.73471069 17.69750595 122 123 125
245788.18121338 3357431.59448242 17.81945038 161 157 145
245778.26831055 3357435.34320068 17.53209114 115 110 104
245774.70257568 3357436.62396240 17.54965591 197 198 200
245774.06005859 3357435.69482422 17.71427155 79 80 84
245777.42095947 3357434.51937866 17.57293129 174 176 171
245788.44836426 3357431.72512817 17.80530167 200 199 197
245784.33538818 3357433.56021118 17.78877640 230 226 223
245784.31372070 3357433.40869141 17.76238632 143 134 125
245778.89611816 3357434.09906006 17.72814751 64 64 62
245790.07794189 3357431.84213257 17.60965538 128 129 123
245775.41241455 3357435.08444214 17.65591431 121 120 115
245773.24536133 3357436.45205688 17.65477943 143 153 155
245779.04248047 3357434.63449097 17.69505119 28 28 38
245778.11895752 3357434.45248413 17.62006569 133 130 121
245788.58337402 3357432.14196777 17.69619370 122 113 104
245776.67327881 3357434.57601929 17.57199478 131 131 129
245782.38665771 3357433.76644897 17.77166367 105 106 101
245774.14404297 3357436.83459473 17.70068932 150 149 147
245786.38238525 3357432.67514038 17.57043266 198 194 185
245785.44329834 3357433.53088379 17.48349380 156 149 141
245789.34887695 3357432.02801514 17.92128181 129 133 134
245782.35290527 3357434.10232544 17.76233482 87 91 92
245774.15112305 3357436.47613525 18.26642036 129 128 133
245783.13812256 3357433.68649292 17.66225815 73 76 81
245778.39172363 3357434.45806885 17.77348137 77 76 74
245777.92181396 3357435.04174805 17.55207825 193 195 194
245787.01470947 3357432.62976074 17.52858353 128 130 127
245784.11383057 3357433.50573730 17.68485260 219 209 197
245778.05664063 3357435.33651733 17.52456665 179 179 171
245777.47119141 3357434.45761108 17.55990028 189 188 184
245777.55285645 3357435.59442139 17.64658165 186 187 179
245783.40826416 3357433.15997314 17.60183716 152 147 141
245788.95147705 3357432.40884399 17.50995636 58 50 47
245784.57513428 3357432.88433838 17.55665588 56 46 47
245776.21313477 3357435.16970825 17.60965538 181 188 194
245781.59497070 3357434.83776855 17.53122520 168 166 153
245773.71136475 3357435.88015747 17.78566360 30 36 36
245782.55181885 3357433.81848145 17.67163849 114 118 117
245777.62475586 3357435.17703247 17.54424286 174 173 169
245778.24224854 3357435.30422974 17.53351212 110 107 98
245785.06506348 3357432.41992188 17.82010841 64 64 64
245789.35540771 3357432.14385986 17.74420929 58 60 55
245779.51800537 3357434.69595337 17.59624672 189 190 194
245776.67077637 3357435.89395142 17.67732620 225 229 232
245786.62365723 3357432.58352661 17.71892738 220 215 211
245786.25897217 3357433.57290649 17.58857155 229 213 188
245787.53784180 3357433.02127075 17.50060654 199 192 184
245783.15533447 3357433.01623535 17.72564697 161 157 145
245783.43701172 3357433.48519897 17.52126122 102 107 110
245788.20318604 3357432.40698242 17.49906921 215 205 193
245787.38769531 3357432.90209961 17.49368286 207 202 196
245786.47344971 3357432.13446045 17.83199310 207 189 175
245789.13476563 3357432.81652832 17.56964302 218 202 176
245778.26824951 3357434.87225342 17.61089325 95 94 90
245789.59466553 3357432.38586426 17.71671295 213 200 192
245782.45837402 3357434.61709595 17.60075760 112 107 101
245780.41394043 3357435.14065552 17.51490593 162 153 138
245783.45031738 3357433.54660034 17.51191330 100 105 108
245786.78094482 3357432.09683228 17.62619591 113 112 108
245775.82653809 3357435.90609741 17.57046318 55 59 62
245779.15393066 3357435.12823486 17.84560013 70 75 78
245778.69598389 3357434.62042236 17.84193230 41 42 47
245788.04559326 3357431.76736450 17.63842201 152 146 134
245789.20440674 3357431.45202637 17.57348633 141 134 126
245785.70104980 3357433.33309937 17.49226761 192 189 182
245787.81225586 3357432.56607056 17.47527504 213 205 194
245787.48748779 3357433.14340210 17.53916550 136 136 128
245775.07354736 3357435.32128906 17.91462517 148 147 143
245783.14190674 3357433.90197754 17.65796089 143 128 123
245787.05291748 3357432.66314697 17.51462746 135 137 134
245779.46752930 3357434.19189453 17.58383942 150 150 152
245776.40252686 3357435.04290771 17.72574234 123 125 122
245779.97564697 3357435.12994385 17.50019836 208 202 190
245780.06500244 3357433.62786865 17.71042061 235 231 232
245787.68615723 3357432.14697266 17.48335457 155 147 134
245777.38848877 3357435.38781738 17.99702072 204 213 212
245782.69952393 3357433.17947388 17.64912415 164 155 148
245787.55212402 3357432.39553833 17.47177124 201 191 181
245774.84948730 3357435.28994751 17.80708313 137 136 132
245789.82275391 3357432.49987793 17.64767075 189 174 155
245786.41473389 3357431.95965576 17.77684784 205 190 185
245779.42077637 3357434.07531738 17.56175995 91 91 91
245783.45001221 3357434.19793701 17.51515961 126 131 137
245773.58886719 3357436.34085083 17.61530876 116 119 124
245789.36230469 3357431.16244507 17.79965973 224 215 200
245778.66442871 3357434.87579346 17.79241943 98 101 108
245786.77728271 3357432.14721680 17.64739609 103 102 100
245788.74847412 3357431.82843018 17.66654015 73 73 71
245779.79455566 3357435.27200317 17.54039192 139 136 131
245777.07531738 3357436.00885010 17.52327538 159 156 151
245781.57897949 3357434.75631714 17.51467514 189 185 173
245775.43334961 3357434.87243652 17.63479233 131 130 125
245776.40228271 3357435.72622681 17.61217880 193 191 194
245790.12182617 3357431.14987183 17.53985405 146 133 117
245774.08282471 3357435.69354248 17.69395638 79 80 84
245772.83996582 3357437.10928345 17.56063843 146 152 150
245789.48248291 3357433.12561035 17.66888237 124 136 70
245781.84832764 3357433.93350220 17.60558701 184 185 180
245778.43017578 3357435.61764526 17.54995918 218 208 198
245776.05187988 3357435.02502441 17.60947418 137 136 132
245776.89801025 3357435.73477173 17.57690811 169 168 164
245777.12176514 3357435.87265015 17.50712013 164 165 169
245777.00335693 3357434.95022583 17.55935860 130 127 122
245777.99285889 3357434.85571289 17.57707977 88 87 82
245785.24877930 3357433.61630249 17.53852844 227 219 208
245779.25506592 3357434.40863037 17.69550323 48 49 54
245783.63220215 3357433.59631348 17.51224327 97 98 102
245789.52984619 3357431.49859619 17.89655876 66 75 74
245775.02264404 3357434.76327515 17.76735115 93 89 86
245789.17022705 3357432.29385376 17.47733307 72 72 64
245779.04943848 3357434.19519043 17.73042679 118 122 125
245774.76544189 3357435.98287964 17.67741013 214 212 225
245774.31243896 3357436.01995850 17.90244484 114 115 117
245778.17572021 3357435.11685181 17.55938339 196 193 186
245782.64843750 3357433.82098389 17.59467506 174 179 175
245776.48925781 3357435.84295654 17.61616707 168 167 165
245783.77056885 3357433.29534912 17.52996635 178 171 161
245775.10284424 3357435.23199463 17.89595222 128 124 121
245776.16101074 3357435.08471680 17.62436104 153 154 156
245786.02545166 3357433.13378906 17.49823380 212 205 189
245778.17083740 3357435.51208496 17.53093719 207 204 195
245780.24224854 3357433.69158936 17.79561043 151 143 141
245772.99798584 3357436.84851074 17.56412697 217 214 209
245776.71148682 3357435.93258667 17.67695045 233 239 237
245780.18017578 3357434.35183716 17.84805107 116 110 114
245789.91442871 3357431.27093506 17.57078362 97 94 87
245780.25769043 3357434.24395752 17.93195343 61 62 66
245781.83947754 3357433.94885254 17.59464645 179 180 175
245778.63464355 3357434.89517212 17.81262589 109 110 115
245776.52264404 3357435.98727417 17.60605812 219 224 228
245788.61419678 3357432.73733521 17.54660416 208 192 177
245787.64129639 3357432.01184082 17.50471497 149 141 130
245785.76623535 3357433.10928345 17.48716927 147 147 137
245774.27923584 3357435.86260986 17.92586517 104 102 105
245779.22332764 3357434.07589722 17.62791252 55 55 53
245785.88488770 3357433.24041748 17.49450111 226 218 207
245782.24371338 3357433.76852417 17.84236336 96 98 97
245780.02862549 3357434.21646118 17.62793922 158 151 145
245775.30975342 3357436.29360962 17.53625107 116 116 124
245784.68676758 3357433.56726074 17.51792908 220 213 203
245786.52008057 3357432.93395996 17.64931488 214 212 200
245780.70092773 3357434.04501343 17.56510544 91 93 92
245785.54595947 3357432.90396118 17.52711678 142 143 137
245788.23742676 3357433.04812622 17.54862976 204 203 183
245787.38085938 3357432.30355835 17.49110031 205 197 186
245777.35839844 3357434.74002075 17.62127113 168 173 169
245786.17138672 3357433.05322266 17.50338173 208 198 186
245789.49737549 3357432.73440552 17.61760902 132 125 99
245777.75006104 3357434.85769653 17.53510284 156 158 155
245779.31713867 3357433.95553589 17.56200409 145 144 142
245789.40087891 3357431.95053101 18.10710716 33 39 39
245780.19403076 3357434.49673462 17.77550507 178 166 170
245778.67431641 3357435.62149048 17.57725906 209 200 185
245790.21472168 3357431.46594238 17.55989456 116 109 99
245788.07464600 3357432.77670288 17.47511292 200 192 179
245782.86706543 3357433.97177124 17.59282494 184 182 170
245777.62554932 3357434.50238037 17.53863907 206 205 200
245786.50311279 3357432.23263550 17.80766106 182 164 150
245778.03002930 3357435.49765015 17.52579689 192 188 179
245788.79022217 3357432.31286621 17.63433647 138 132 132
245777.48974609 3357435.30249023 17.69186211 189 193 192
245780.47509766 3357435.15603638 17.53735542 157 152 133
245785.03997803 3357433.26824951 17.68133736 123 120 115
245789.14434814 3357431.46548462 17.59509850 135 130 124
245785.12890625 3357433.39010620 17.63367081 125 122 115
245785.24206543 3357432.79721069 17.70269585 82 76 76
245786.22198486 3357432.33898926 17.54243851 165 162 153
245785.15917969 3357433.36175537 18.04036522 20 19 17
245776.61737061 3357434.53393555 17.57709694 126 125 123
245780.19165039 3357434.87496948 17.63215828 220 210 201
245777.62750244 3357435.02267456 17.53174591 160 161 156
245788.98791504 3357433.14633179 17.69024467 151 140 84
245777.26837158 3357435.66372681 17.64422226 202 198 197
245785.20159912 3357433.52389526 17.58982086 200 192 179
245784.90966797 3357432.80072021 17.79321480 148 146 149
245777.07629395 3357434.69967651 17.66101074 125 124 120
245780.84777832 3357433.84020996 17.55294609 124 123 118
245780.01916504 3357433.77636719 17.79563713 210 206 207
245780.18603516 3357433.66064453 17.80175018 233 227 227
245785.04882813 3357432.66195679 17.86254120 63 62 58
245775.29632568 3357434.61111450 17.68519783 129 128 123
245780.15252686 3357434.22457886 17.95387077 134 129 135
245783.70495605 3357433.30209351 17.52830505 169 165 154
245784.41912842 3357433.00064087 17.63982391 241 235 235
245776.59368896 3357435.54293823 17.66746712 182 180 181
245782.87744141 3357433.53222656 17.61801338 162 152 143
245788.44171143 3357432.97982788 17.54520798 208 199 182
245779.23303223 3357435.17886353 17.78700256 59 63 66
245786.30603027 3357433.27059937 17.49269104 212 200 184
245782.00408936 3357434.45147705 17.59087563 185 184 180
245776.18969727 3357435.18969727 17.59998322 155 163 166
245787.55249023 3357432.76971436 17.50772285 199 190 181
245780.76440430 3357435.04397583 17.55055428 139 139 137
245783.38073730 3357433.04660034 17.63988686 162 155 145
245780.87768555 3357434.11212158 17.53315544 129 129 127
245782.73126221 3357433.46350098 17.54140854 162 154 143
245780.93695068 3357434.73504639 17.51169395 160 162 159
245780.15911865 3357434.65905762 17.67516518 220 207 201
245786.93426514 3357432.11907959 17.53887749 194 193 188
245789.76342773 3357432.35958862 17.79504013 116 112 103
245789.73944092 3357431.41903687 17.70579529 50 52 51
245787.58703613 3357432.37518311 17.46999168 202 194 183
245788.27301025 3357432.32659912 17.51113510 202 192 180
245789.45642090 3357431.45449829 17.87374878 173 181 184
245783.09649658 3357434.33612061 17.52962112 205 197 186
245789.45654297 3357432.34286499 17.62201500 97 87 77
245783.41961670 3357433.67828369 17.51018143 79 80 85
245789.73999023 3357432.26098633 17.98469543 49 49 51
245775.54174805 3357435.98486328 17.59636116 135 135 147
245780.86877441 3357433.95742798 17.54323578 106 107 102
245780.15716553 3357434.31591797 17.81918526 119 113 115
245789.40649414 3357432.56759644 17.54574585 211 205 193
245778.48321533 3357434.92218018 17.66841698 201 197 194
245787.96044922 3357432.70550537 17.47959709 205 196 187
245780.57702637 3357434.71224976 17.64132690 134 134 134
245785.00958252 3357433.35006714 17.95476151 111 110 106
245783.48272705 3357433.96444702 17.50567245 105 108 115
245780.40686035 3357434.35946655 17.76230049 97 98 102
245780.88238525 3357434.60202026 17.52571869 156 158 157
245782.10205078 3357434.71728516 17.56190491 192 185 179
245786.59857178 3357433.02236938 17.65699768 200 197 190
245774.63916016 3357436.46322632 17.58187294 158 158 160
245788.98638916 3357431.39962769 17.62545586 135 132 125
245780.02075195 3357435.14416504 17.50092316 194 185 170
245776.46246338 3357434.75067139 17.60479164 130 129 127
245780.25128174 3357434.72082520 18.17890549 158 156 159
245785.05310059 3357433.31555176 17.67465782 122 117 111
245784.87908936 3357432.96896362 17.65526962 54 56 55
245774.43109131 3357436.81533813 17.65230370 103 101 102
245779.99151611 3357433.68261719 17.67564964 194 188 188
245774.19134521 3357436.33410645 18.02954865 65 67 66
245789.59948730 3357432.31384277 18.02793503 45 51 63
245789.80657959 3357432.07009888 17.74281311 129 129 129
245775.15155029 3357436.64065552 17.55403709 177 176 182
245782.71972656 3357434.37756348 17.50643539 200 201 203
245780.29522705 3357434.87362671 17.79043388 255 254 255
245782.47625732 3357434.06961060 17.69720268 98 106 108
245789.69989014 3357432.11718750 18.13324165 78 78 86
245788.19366455 3357432.28164673 17.49149132 211 201 189
245789.21514893 3357432.70074463 17.53738403 151 144 128
245787.24176025 3357432.47592163 17.49314499 206 201 197
245774.49273682 3357435.24624634 17.62326622 129 125 124
245780.70330811 3357434.22885132 17.55730057 145 146 148
245777.29119873 3357434.66546631 17.69831085 135 139 138
245784.98553467 3357433.32168579 17.52599525 206 199 193
245783.78582764 3357433.79513550 17.50639343 119 120 122
245782.72033691 3357433.47796631 17.53192329 162 154 143
245774.12402344 3357436.32955933 18.05731964 68 69 71
245777.28027344 3357434.71520996 17.94011688 164 174 173
245781.31451416 3357434.45257568 17.54227638 178 177 173
245777.99127197 3357435.08041382 17.55706596 134 136 131
245789.03826904 3357432.22225952 17.49184990 96 82 81
245780.30889893 3357434.94686890 17.76133728 149 146 139
245787.86535645 3357432.87643433 17.48911285 209 201 188
245785.76263428 3357432.96109009 17.49917030 130 129 125
245780.29034424 3357435.13180542 17.51245689 175 158 148
245782.62945557 3357433.68225098 17.59348679 169 169 161
245775.63970947 3357436.40551758 17.61381721 32 33 35
245789.04327393 3357432.85931396 17.57878494 186 166 141
245780.74426270 3357434.76721191 17.54051399 139 139 137
245779.01391602 3357435.09356689 17.83566093 57 56 61
245787.22625732 3357432.17489624 17.51283836 212 209 200
245786.48278809 3357432.48208618 17.66557312 224 223 221
245779.81378174 3357434.66522217 17.56480980 218 204 201
245782.02508545 3357434.41616821 17.63660812 174 173 171
245774.60565186 3357436.75616455 17.57711029 148 148 150
245777.36401367 3357435.64974976 17.73280907 208 206 211
245776.20666504 3357434.58709717 17.60972214 124 120 117
245780.56256104 3357434.97998047 17.55204582 130 129 125
245781.07629395 3357434.63867188 17.52343941 181 180 176
245774.57543945 3357436.39910889 17.63055611 120 120 122
245779.37170410 3357434.55541992 17.61740303 112 115 120
245773.68298340 3357436.03900146 17.60277176 51 55 54
245789.32592773 3357432.25997925 17.55991936 70 66 57
245775.30590820 3357436.00106812 17.60535812 128 131 138
245785.33679199 3357433.39035034 17.50385475 121 118 113
245780.02764893 3357433.73568726 17.81905174 244 244 246
245786.24963379 3357432.95269775 17.50504875 203 193 181
245789.38665771 3357432.21716309 17.76044846 103 103 95
245773.68310547 3357436.24606323 17.61628532 121 124 129
245789.62896729 3357431.40682983 17.81558800 54 58 59
245787.73681641 3357432.11981201 17.48629761 148 142 130
245784.11981201 3357433.49627686 17.70069122 211 199 187
245784.56341553 3357433.59072876 17.54878235 220 213 203
245788.79272461 3357433.07632446 17.63423538 159 133 84
245788.13189697 3357431.57849121 17.79554558 160 156 144
245773.64434814 3357436.77023315 17.57885742 216 211 207
245778.29589844 3357434.58950806 17.65884972 143 138 134
245789.33422852 3357432.10528564 17.93841934 118 124 122
245779.69787598 3357433.87066650 17.55421448 151 142 135
245776.84918213 3357435.83865356 17.57629013 188 187 185
245789.09649658 3357432.86718750 17.58714104 177 156 127
245773.96038818 3357436.16091919 18.03945923 101 106 112
245780.75500488 3357434.27252197 17.55004501 156 157 159
245779.58782959 3357434.44479370 17.52918625 121 122 124
245785.20098877 3357433.43020630 17.73735428 108 101 95
245782.31311035 3357434.23638916 17.74266052 93 93 95
245789.14410400 3357431.55828857 17.54381561 139 136 131
245788.43334961 3357432.68325806 17.51977348 201 192 177
245789.50024414 3357431.53060913 17.87449837 72 82 84
245778.63159180 3357434.65158081 17.83572006 45 46 50
245782.65240479 3357433.79342651 17.58798599 179 182 175
245786.44409180 3357433.06640625 17.52488136 217 207 195
245773.98992920 3357436.65005493 17.75190926 59 63 64
245787.79504395 3357431.92694092 17.53132439 152 145 135
245781.36907959 3357434.49636841 17.53727150 191 190 185
245777.25305176 3357434.91632080 18.01641655 209 219 228
245775.77630615 3357436.12615967 17.58008766 23 24 28
245773.96881104 3357436.36929321 18.30168724 94 95 100
245775.81286621 3357434.63848877 17.61617851 134 131 126
245778.44720459 3357434.55017090 17.80912781 124 123 121
245786.65429688 3357432.75186157 17.72171402 200 196 195
245785.07348633 3357432.89181519 17.88517952 130 131 126
245782.69500732 3357433.32263184 17.58959961 169 160 151
245783.65362549 3357433.62005615 17.51147461 100 101 105
245778.06060791 3357435.62585449 17.52859497 150 147 142
245777.27648926 3357434.69613647 17.92051315 157 166 165
245784.10693359 3357433.86929321 17.54183006 217 210 200
245787.97894287 3357431.95806885 17.55078316 167 161 149
245785.78173828 3357432.52239990 17.55653381 133 133 125
245781.09570313 3357434.57012939 17.53073311 173 172 168
245789.72607422 3357432.39691162 17.71596336 56 43 35
245779.38403320 3357434.41625977 17.62895584 61 64 69
245776.96972656 3357435.34182739 17.57322311 179 177 182
245785.97106934 3357432.44088745 17.52794075 151 144 134
245781.14428711 3357434.61920166 17.52518845 183 182 178
245787.86761475 3357431.89474487 17.55421448 159 155 144
245789.79241943 3357431.56558228 17.67835426 55 60 54
245789.00085449 3357431.51394653 17.62566185 127 126 121
245782.94439697 3357433.68252563 17.66939926 108 101 93
245787.07641602 3357432.14630127 17.52715492 201 201 193
245785.49151611 3357433.03509521 17.51440811 143 142 137
245777.11254883 3357434.86123657 17.61731720 121 120 116
245776.58502197 3357434.91049194 17.65041924 136 134 135
245789.36767578 3357432.00149536 18.13521767 68 77 76
245776.32324219 3357435.24942017 17.61760521 152 168 168
245774.80194092 3357435.92837524 17.67330551 203 205 217
245786.62402344 3357432.98410034 17.68260574 222 223 218
245776.74536133 3357435.09564209 17.60016060 120 118 119
245787.59655762 3357432.40505981 17.46755219 214 206 195
245774.94158936 3357436.07412720 17.69500923 71 76 80
245787.73956299 3357432.12432861 17.48555565 148 142 130
245782.01037598 3357434.40219116 17.79228783 142 142 142
245785.23663330 3357432.66464233 17.70621490 94 90 87
245788.20648193 3357432.07882690 17.52483749 168 160 149
245785.57763672 3357433.07830811 17.49769020 153 152 147
245782.76348877 3357433.27041626 17.67019272 138 133 127
245775.10333252 3357436.26168823 17.58199883 121 124 133
245780.17724609 3357433.62368774 17.74829102 164 159 156
245784.97003174 3357433.28787231 17.56649971 172 168 157
245773.42675781 3357436.44247437 17.66073227 142 143 148
245786.05163574 3357432.84057617 17.51056099 197 191 177
245786.88574219 3357432.52151489 17.60626221 82 81 77
245779.37640381 3357435.01635742 17.75483513 67 68 72
245788.92871094 3357432.56683350 17.50466728 110 100 90
245778.08172607 3357434.62619019 17.58684731 130 127 122
245777.88031006 3357434.76843262 17.56027031 102 101 97
245778.19030762 3357435.18530273 17.54951477 214 211 206
245782.87695313 3357433.38650513 17.71592140 167 167 167
245780.49255371 3357435.12960815 17.52717972 179 173 161
245778.68902588 3357434.24725342 17.87080765 66 67 71
245773.92041016 3357436.45654297 17.77152634 156 156 168
245778.25781250 3357434.21401978 17.75396919 180 178 179
245774.52416992 3357435.41867065 17.62112427 91 91 89
245784.87646484 3357432.35626221 17.95686340 102 102 102
245785.41937256 3357433.24731445 17.49687195 143 143 133
245780.64550781 3357434.80532837 17.57502937 121 122 126
245780.80664063 3357434.42858887 17.54305077 170 172 171
245784.65777588 3357432.81738281 17.55466270 63 63 61
245778.01544189 3357434.66937256 17.57776451 149 146 141
245778.35089111 3357434.39181519 17.76212502 123 122 120
245782.97528076 3357434.44366455 17.53709984 198 189 190
245787.28149414 3357432.41497803 17.49320793 201 196 192
245777.22833252 3357434.84741211 17.87427902 195 212 220
245773.98468018 3357436.43713379 17.88257027 107 112 118
245777.49200439 3357435.19119263 17.62368965 187 189 186
245785.48535156 3357433.22274780 17.49053192 147 148 140
245777.40533447 3357434.71157837 17.57004547 167 167 165
245783.41723633 3357433.76034546 17.50900459 34 37 42
245775.71191406 3357436.12805176 17.59127045 49 48 53
245779.97418213 3357434.63272095 17.59054184 222 211 207
245789.50854492 3357431.42694092 17.91128731 74 82 85
245778.76513672 3357434.60189819 17.82880974 45 48 55
245788.15008545 3357431.60012817 17.80257988 161 157 145
245789.85681152 3357431.82238770 17.63685608 95 95 95
245780.11682129 3357434.88793945 17.58593750 225 210 205
245774.13677979 3357436.44293213 18.22234726 94 94 96
245780.32580566 3357433.72702026 17.71439743 112 104 102
245788.68572998 3357432.98147583 17.58780289 223 203 170
245778.21905518 3357435.24957275 17.54089737 152 151 146
245787.89733887 3357431.73770142 17.60972595 155 151 142
245788.58386230 3357432.34948730 17.64233208 199 183 170
245787.66436768 3357431.95837402 17.51646805 154 148 134
245775.34313965 3357435.64028931 17.62681770 171 171 169
245775.42022705 3357434.74819946 17.64500427 126 125 120
245784.96856689 3357432.74609375 17.90639305 64 64 62
245781.20068359 3357434.45269775 17.54285049 178 177 173
245777.56488037 3357434.49215698 17.53995323 196 197 192
245777.22515869 3357435.64172363 17.63065147 198 194 193
245787.35437012 3357433.27117920 17.58521843 145 159 136
245773.97601318 3357436.47311401 17.86913681 114 117 124
245781.21392822 3357434.45700073 17.54231644 178 177 173
245787.22204590 3357432.71182251 17.48280716 164 161 156
245778.22576904 3357434.57257080 17.63308525 166 161 155
245790.10028076 3357431.78375244 17.63204002 89 90 85
245788.17156982 3357432.05764771 17.52525139 171 163 152
245774.97589111 3357435.34439087 17.90674782 140 139 137
245785.87396240 3357433.18353271 17.49227715 218 212 200
245776.36199951 3357435.92510986 17.55027008 123 126 133
245789.42187500 3357432.75836182 17.61245346 143 132 112
245774.10168457 3357436.36373901 18.12203407 71 71 73
245777.42950439 3357435.44989014 17.96229935 214 220 218
245775.10797119 3357435.14498901 17.86632538 117 113 110
245786.99737549 3357432.90179443 17.53810883 184 186 185
245787.80633545 3357433.01385498 17.52240753 206 196 187
245784.35626221 3357433.47436523 17.76916695 168 161 155
245786.33453369 3357432.80651855 17.53636169 204 196 183
245776.73028564 3357435.97705078 17.66408348 219 228 225
245787.63964844 3357432.36294556 17.46629524 182 174 163
245774.88037109 3357436.54165649 17.55527496 165 164 169
245785.71533203 3357433.58407593 17.50916481 121 117 114
245779.05133057 3357434.51950073 17.74868965 24 29 35
245776.24420166 3357434.89300537 17.68735695 129 131 128
245789.78387451 3357432.31808472 17.84867287 61 60 56
245780.27978516 3357435.19830322 17.51479530 168 152 137
245780.97222900 3357434.76156616 17.50871658 158 160 157
245787.45819092 3357432.51986694 17.47271538 205 198 190
245780.54290771 3357434.92309570 17.58930016 122 121 116
245778.68212891 3357435.58834839 17.59804535 187 179 166
245779.14050293 3357435.39511108 17.71130562 73 74 76
245787.51812744 3357433.07116699 17.51189232 192 188 179
245776.53265381 3357435.69259644 17.66632080 179 179 177
245789.33740234 3357432.41696167 17.48729706 117 111 99
245789.74462891 3357432.59136963 17.63180542 207 191 166
245774.21655273 3357435.31954956 17.83810997 91 91 91
245784.99566650 3357433.28622437 18.18804169 205 204 199
245779.16198730 3357434.99719238 17.83421707 155 154 160
245789.35076904 3357431.34765625 17.71706390 130 123 117
245783.90270996 3357433.01495361 17.56567192 145 139 127
245783.35974121 3357434.14654541 17.50558281 158 158 166
245781.46179199 3357433.63232422 17.58772850 156 153 146
245784.83020020 3357433.12554932 17.55273056 112 111 106
245789.35485840 3357431.38217163 17.68464088 185 180 174
245776.33959961 3357435.17379761 17.64918327 102 116 117
245780.73327637 3357434.28927612 17.55374336 146 147 149
245789.24108887 3357431.90350342 17.48830032 90 87 80
245780.34240723 3357434.98455811 17.66531372 152 143 138
245783.39880371 3357433.60244751 17.51670074 72 76 79
245782.39343262 3357433.24105835 17.71606255 146 141 138
245777.35095215 3357434.87631226 17.76954460 186 195 190
245784.80560303 3357432.73599243 17.63712883 144 142 143
245775.16827393 3357436.30688477 17.55237579 100 100 108
245777.11663818 3357434.49566650 17.67063522 122 116 116
245787.91662598 3357432.20877075 17.46455574 157 149 136
245777.32092285 3357435.53250122 17.75057220 203 194 195
245783.29541016 3357433.21713257 17.65982628 144 141 136
245777.37036133 3357434.89913940 17.71185303 137 146 143
245784.19305420 3357433.49359131 17.80546951 220 210 200
245788.17608643 3357433.08297729 17.56765175 201 200 180
245789.65100098 3357432.03726196 18.14357758 57 57 59
245785.83026123 3357432.35128784 17.58531189 153 150 143
245789.50988770 3357432.69506836 17.61154747 110 102 79
245785.02923584 3357433.16812134 18.12852669 77 77 75
245777.51788330 3357435.12069702 17.58701897 183 185 182
245788.26348877 3357433.13397217 17.62473488 149 158 111
245776.23358154 3357435.77651978 17.54175568 196 196 194
245785.78363037 3357432.69213867 17.52653313 141 138 131
245779.34893799 3357434.28552246 17.66634941 55 56 60
245775.55322266 3357435.23779297 17.62191582 117 116 111
245783.36096191 3357433.88458252 17.51023674 87 86 92
245782.98907471 3357433.37924194 17.75883102 179 181 180
245790.09936523 3357431.41931152 17.53114891 126 119 111
245777.46429443 3357435.65628052 17.81086349 178 181 174
245783.37469482 3357433.49356079 17.55176163 82 87 91
245780.48522949 3357434.25692749 17.65790558 102 107 110
245780.79058838 3357435.09283447 17.57260513 145 147 142
245774.74249268 3357436.58364868 17.55107307 124 126 125
245784.51202393 3357433.22015381 17.61072922 107 100 92
245789.47479248 3357431.98681641 18.28731346 82 82 82
245788.67700195 3357432.01788330 17.63576317 82 82 80
245785.07751465 3357433.08825684 17.93341446 237 236 234
245786.44573975 3357433.20632935 17.49190331 221 207 198
245786.57513428 3357433.40417480 17.54313850 231 216 193
245786.82617188 3357433.43292236 17.60428238 219 208 178
245785.09680176 3357433.04605103 17.90869522 229 228 224
245779.73785400 3357433.92196655 17.55286026 166 159 153
245775.73626709 3357435.67428589 17.61167908 197 196 194
245773.77819824 3357436.03750610 17.67782021 66 70 71
245780.23864746 3357434.70367432 17.70504379 218 208 198
245776.64208984 3357435.54470825 17.65467834 188 188 188
245786.47869873 3357431.99765015 17.77842903 200 183 176
245780.16510010 3357434.31622314 17.83818626 114 108 110
245782.74853516 3357434.53472900 17.55271149 156 155 160
245775.01293945 3357436.33663940 17.57392693 121 121 131
245789.78112793 3357432.25164795 17.82708549 90 89 87
245786.72540283 3357432.97189331 17.65997314 227 229 228
245778.96203613 3357434.49838257 17.78469658 97 107 109
245789.69696045 3357432.53317261 17.63192177 232 217 198
245776.85192871 3357435.25350952 17.55393982 182 180 183
245778.24426270 3357434.26721191 17.73436165 150 149 147
245785.24365234 3357433.11544800 17.60259628 161 157 148
245780.11767578 3357434.18170166 17.84688568 90 85 89
245780.15185547 3357434.25549316 17.89413643 100 98 99
245774.02270508 3357436.89315796 17.66572571 112 112 110
245789.32086182 3357432.36892700 17.50123978 107 101 89
245776.58209229 3357435.28012085 17.62145233 196 196 196
245778.69409180 3357435.08993530 17.76213646 131 130 126
245777.36163330 3357435.71252441 17.67370987 175 173 176
245777.26287842 3357435.00057983 17.81223106 185 202 209
245788.26806641 3357432.65332031 17.48748207 201 193 180
245786.72607422 3357432.78427124 17.68618965 208 208 206
245789.43756104 3357432.13320923 18.26058197 12 16 17
245786.23431396 3357433.30111694 17.49675179 219 206 189
245777.13543701 3357435.95724487 17.51257706 175 172 167
245784.67724609 3357432.77972412 17.55267525 67 67 65
245784.22723389 3357434.04617310 17.53374863 199 189 177
245775.87982178 3357434.69348145 17.61687469 132 124 121
245784.52917480 3357433.78671265 17.52623367 211 199 185
245775.96875000 3357435.96520996 17.54516792 98 101 106
245786.94183350 3357432.10723877 17.53791428 194 193 188
245778.81854248 3357435.22152710 17.77345276 103 105 104
245781.47583008 3357433.71365356 17.56748581 127 127 119
245786.77154541 3357433.39120483 17.56505394 237 221 205
245773.35302734 3357437.09710693 17.55084991 162 162 160
245782.20886230 3357433.75628662 17.84830475 75 76 78
245773.70825195 3357436.91220093 17.60970116 169 168 166
245784.89892578 3357432.37445068 17.94816971 98 98 96
245777.47143555 3357435.48437500 17.86725616 189 194 190
245788.72766113 3357432.47872925 17.62365532 173 154 148
245786.06701660 3357432.84790039 17.50979424 199 193 179
245784.13146973 3357432.97711182 17.65167618 142 138 129
245785.31274414 3357432.88812256 17.60784912 82 81 77
245783.15167236 3357433.41378784 17.70272446 142 142 144
245783.99884033 3357433.70947266 17.51375580 208 203 197
245775.92004395 3357435.87841797 17.55412292 76 79 84
245779.35064697 3357435.30886841 17.67443085 89 90 95
245776.31323242 3357435.99209595 17.53324699 128 131 138
245784.99420166 3357433.26861572 17.97215843 91 90 86
245774.70147705 3357435.88168335 17.60711288 145 145 153
245778.32098389 3357435.09347534 17.56919098 201 198 189
245782.55773926 3357434.09320068 17.62361145 99 107 109
245779.45336914 3357435.08587646 17.64258385 87 91 94
245774.10009766 3357435.71777344 17.70743942 70 71 73
245787.49169922 3357431.96563721 17.51815414 187 177 167
245787.01538086 3357432.51473999 17.52715874 126 126 124
245775.55157471 3357436.45025635 17.60566330 34 32 37
245778.31884766 3357434.15951538 17.76086807 114 108 108
245788.93750000 3357432.61828613 17.49331284 114 104 94
245777.68041992 3357434.79611206 17.52731514 149 150 145
245784.02716064 3357433.41967773 17.56388283 205 193 179
245789.17266846 3357432.52767944 17.45570755 67 67 55
245780.69854736 3357435.16339111 17.58525658 160 160 152
245785.56201172 3357432.55453491 17.56073380 110 111 106
245789.51184082 3357432.27728271 17.95211029 73 77 80
245776.84930420 3357435.43643188 17.57626534 179 179 179
245774.56640625 3357436.29864502 17.66280556 151 152 154
245781.47290039 3357433.95989990 17.53559875 133 132 128
245780.38439941 3357434.70870972 17.92375374 185 187 186
245789.30529785 3357431.97534180 17.50060844 165 162 153
245788.26519775 3357431.88467407 17.64230919 157 147 137
245780.58325195 3357434.52316284 17.66109085 134 135 137
245779.97412109 3357433.97216797 17.68874931 155 147 144
245783.03808594 3357433.07507324 17.80377007 167 164 157
245789.43896484 3357431.73901367 17.66640282 154 153 148
245782.22546387 3357433.44042969 17.82675552 49 44 48
245786.19818115 3357432.92349243 17.50380898 207 198 183
245785.69934082 3357433.62240601 17.52615547 119 118 113
245780.33349609 3357434.37817383 17.86660767 126 130 133
245780.19732666 3357433.92059326 17.91041756 64 62 65
245789.13226318 3357431.68890381 17.49854851 72 74 69
245776.61218262 3357434.98297119 17.66580200 131 130 128
245781.28912354 3357434.61264038 17.52514839 187 186 182
245780.49414063 3357433.90975952 17.64654350 62 64 63
245780.35998535 3357435.27426147 17.56079292 247 235 219
