245931.08886719 3357689.94689941 14.00689411 136 148 160
245929.44274902 3357694.15277100 14.27713394 29 35 33
245930.05242920 3357677.62231445 14.57300282 35 46 52
245929.46173096 3357693.37274170 14.13273525 100 107 113
245929.74304199 3357676.08209229 14.49721336 84 89 93
245929.67498779 3357697.28564453 14.29076481 48 53 56
245929.41851807 3357689.27624512 14.10106373 55 62 70
245929.53454590 3357683.08752441 14.18019772 77 84 94
245930.42041016 3357678.69982910 14.61712933 66 75 82
245929.87512207 3357687.74774170 14.21309662 55 64 69
245929.18322754 3357682.81304932 14.36306667 124 137 143
245931.01458740 3357688.33984375 14.01634216 87 96 103
245929.12115479 3357689.75982666 14.11025238 16 23 29
245930.32025146 3357677.30560303 14.45768166 49 60 66
245930.00354004 3357682.39141846 14.39193344 96 117 122
245929.60229492 3357681.04730225 14.37007523 41 52 58
245929.20166016 3357686.39416504 14.70738411 166 167 169
245931.05969238 3357689.85223389 14.00799847 151 163 175
245929.70562744 3357688.89801025 14.09823513 69 76 82
245930.12670898 3357690.54852295 14.27446842 38 49 55
245930.09863281 3357689.31707764 14.31937122 116 115 111
245931.01074219 3357696.80023193 13.96065617 166 170 155
245930.74908447 3357692.15979004 14.01501942 101 102 94
245930.48620605 3357688.81542969 14.03650284 70 79 84
245929.50115967 3357682.90350342 14.18589306 76 86 95
245930.59405518 3357696.59393311 14.26480961 35 40 44
245929.56604004 3357695.64117432 14.19466591 96 97 99
245930.69262695 3357699.24133301 14.35095787 77 85 88
245929.90533447 3357698.78253174 14.57737541 44 58 61
245929.30920410 3357677.93609619 14.35419559 18 33 40
245930.58203125 3357693.61437988 14.20190525 79 81 76
245930.85296631 3357679.18011475 14.08649063 103 110 116
245930.69616699 3357699.24896240 14.36047840 77 85 88
245929.38763428 3357693.74798584 14.07155991 70 79 78
245930.57635498 3357686.72271729 14.06911945 153 157 143
245930.44818115 3357676.98010254 14.47593975 30 41 47
245929.61450195 3357686.06732178 14.62889290 63 74 78
245929.79901123 3357695.09149170 14.05893326 76 86 87
245930.69372559 3357692.47332764 14.00248623 79 86 79
245929.14703369 3357683.31127930 14.53637981 24 31 47
245928.77746582 3357683.68121338 14.36480808 93 98 91
245930.88745117 3357685.15972900 14.02934551 98 103 107
245929.82373047 3357696.52954102 14.77947140 65 68 83
245930.04650879 3357699.42254639 14.66840839 99 126 145
245930.39746094 3357679.79559326 14.07531738 109 114 117
245930.31695557 3357677.02667236 14.47377872 63 72 77
245930.54998779 3357686.80010986 14.07941437 105 115 107
245929.34442139 3357677.54364014 14.37303352 56 65 70
245930.77447510 3357676.36456299 14.20157146 63 77 88
245929.56304932 3357690.37030029 14.70520020 25 48 79
245929.31982422 3357679.90374756 14.07756901 91 99 101
245930.89727783 3357701.51129150 14.12210178 80 84 83
245930.32629395 3357685.32830811 14.22580528 67 76 83
245929.68792725 3357682.48199463 14.48519516 35 49 60
245929.34399414 3357690.18505859 14.04678917 74 81 87
245930.59124756 3357683.95440674 14.04360962 105 110 103
245930.36791992 3357686.04400635 14.22862244 63 71 73
245929.71942139 3357685.92083740 14.55551529 54 67 73
245930.87384033 3357695.12023926 13.98967266 97 98 90
245929.12298584 3357676.63323975 14.22793484 120 129 124
245930.30346680 3357690.38317871 14.34047413 60 59 64
245929.09094238 3357684.27001953 14.36610508 129 137 139
245930.20690918 3357688.23718262 14.26015759 131 140 145
245931.09991455 3357694.74841309 13.97345734 85 91 89
245930.79138184 3357680.85345459 14.03279591 96 103 109
245931.00976563 3357701.22247314 14.34110832 100 107 113
245930.60296631 3357678.15307617 14.22675419 65 80 87
245929.83380127 3357683.91076660 14.59918404 89 100 102
245930.71673584 3357699.62084961 14.05433178 57 67 69
245929.34069824 3357685.92755127 14.49957657 60 71 77
245929.98968506 3357685.54095459 14.35731506 57 68 72
245930.03533936 3357690.44000244 14.45824528 25 38 46
245930.09991455 3357688.22515869 14.46029663 145 160 165
245929.79931641 3357697.03979492 14.85579014 62 66 67
245929.60119629 3357678.10675049 14.72071743 67 110 119
245929.27838135 3357688.28234863 14.50759220 98 108 107
245930.09790039 3357685.35083008 14.31854439 55 69 72
245931.16101074 3357699.22332764 14.07476997 106 117 123
245929.88641357 3357682.95306396 14.15440941 85 98 107
245929.89575195 3357689.63610840 14.11882973 82 99 107
245930.95068359 3357689.75579834 14.01406193 155 165 174
245930.26477051 3357688.56878662 14.07016468 76 87 91
245930.76190186 3357694.29833984 13.98461819 78 79 74
245930.90429688 3357698.05163574 14.13074112 101 109 112
245930.13336182 3357701.59033203 14.55548573 43 47 46
245930.17016602 3357685.67749023 14.31348228 69 76 82
245930.23095703 3357691.78533936 14.01883316 79 84 87
245928.94445801 3357683.64984131 14.20930481 105 112 120
245930.69146729 3357684.44885254 14.06359959 102 103 95
245929.14465332 3357685.28955078 14.53966808 66 74 77
245929.62316895 3357695.49841309 14.11572647 91 97 97
245930.04034424 3357690.27893066 14.40135670 26 34 37
245929.19848633 3357683.54675293 14.58078861 64 73 80
245929.45257568 3357688.78942871 14.10549259 65 75 77
245929.83422852 3357697.64117432 14.31186485 77 81 80
245929.45318604 3357685.10992432 14.46516800 93 99 111
245930.51470947 3357677.44207764 14.46200466 36 47 53
245929.64868164 3357682.54034424 14.43570709 30 47 57
245929.97753906 3357691.61859131 13.98335361 94 99 102
245930.65124512 3357698.05334473 14.14885044 119 124 128
245929.32653809 3357687.93548584 14.15222454 45 52 60
245930.70910645 3357685.01837158 14.06727600 93 95 84
245928.94012451 3357681.10925293 14.67754650 31 36 40
245929.93682861 3357695.31201172 14.08576012 69 77 79
245929.95312500 3357689.76354980 14.04983044 113 127 136
245928.96838379 3357682.66229248 14.71945190 34 47 53
245931.01123047 3357700.01318359 14.14578056 76 85 90
245929.40692139 3357685.37841797 14.36296940 38 43 47
245930.19171143 3357685.34881592 14.29189682 60 71 77
245929.57257080 3357689.04309082 14.09633255 67 76 81
245930.39398193 3357689.98400879 14.02104950 121 133 145
245929.16302490 3357684.15002441 14.47165012 189 199 200
245929.15118408 3357677.51306152 14.23720455 116 125 124
245929.53546143 3357693.97839355 14.32295704 75 79 80
245930.28656006 3357676.56927490 14.39380932 43 56 62
245929.15087891 3357685.14300537 14.72800636 176 181 187
245929.97180176 3357696.00012207 14.17681599 73 81 84
245931.01202393 3357694.81164551 13.96939182 152 154 141
245929.21997070 3357678.42871094 14.19457245 37 43 41
245929.33618164 3357676.54071045 14.30025673 29 38 37
245929.90667725 3357677.91906738 14.51748371 40 53 62
245929.67254639 3357689.29235840 14.25602055 99 100 104
245929.91168213 3357688.31878662 14.42687225 101 119 121
245930.48345947 3357675.98999023 14.55254841 99 107 118
245929.00512695 3357687.31738281 14.08470726 114 123 128
245929.69824219 3357690.08148193 14.07235909 101 110 117
245929.57293701 3357678.23846436 14.80685806 54 81 98
245929.52221680 3357684.20520020 14.61170292 63 72 77
245930.79534912 3357679.43963623 14.08024311 114 124 126
245929.80554199 3357687.14556885 14.28920841 72 83 87
245930.39605713 3357685.23114014 14.17462635 68 79 83
245930.86505127 3357699.88476563 14.06293392 80 91 93
245929.37817383 3357690.30084229 14.20918751 52 60 71
245930.16778564 3357693.60455322 14.14984703 67 71 74
245929.49774170 3357675.42755127 14.56851387 57 66 73
245930.52416992 3357698.48852539 14.46453667 61 68 76
245930.30780029 3357682.57220459 14.07728577 137 148 150
245930.14367676 3357689.42382813 14.11816788 36 45 54
245930.29626465 3357693.73834229 14.35628319 45 49 58
245930.60064697 3357699.57006836 14.20438099 37 46 55
245930.80657959 3357678.31927490 14.16784096 72 89 97
245930.61743164 3357678.27478027 14.20864296 65 79 90
245929.13305664 3357685.95977783 14.34286404 63 72 77
245930.42669678 3357698.11901855 14.24516010 102 110 112
245929.33251953 3357684.49353027 14.48107910 49 60 64
245929.28717041 3357681.67578125 14.16347980 79 88 95
245930.17486572 3357675.32537842 14.63936329 43 54 56
245930.61547852 3357695.94696045 14.12951469 62 71 70
245930.09124756 3357683.55834961 14.29113770 77 88 94
245930.71520996 3357696.18493652 14.63748169 101 115 118
245930.95953369 3357685.49511719 14.02592564 85 94 99
245929.04632568 3357678.33349609 14.19014263 80 96 86
245930.15344238 3357675.13684082 14.43811989 64 75 81
245930.48925781 3357701.15423584 14.76875210 75 86 90
245930.45623779 3357690.70336914 14.00999165 107 122 127
245929.62042236 3357678.55694580 14.50911045 47 51 54
245929.22723389 3357683.31604004 14.30660152 17 24 40
245930.74707031 3357690.90533447 13.99976635 170 173 162
245930.31823730 3357691.50360107 13.97391701 147 156 155
245928.98950195 3357680.35253906 14.07537556 123 137 138
245930.06164551 3357691.82226563 14.02414417 68 71 76
245930.85070801 3357701.78228760 14.03571701 59 59 57
245930.77624512 3357685.01403809 14.05363846 81 83 82
245930.46105957 3357699.71466064 14.21993923 159 157 168
245929.83752441 3357693.55712891 14.08875275 76 80 81
245929.68121338 3357681.22192383 14.27688122 49 58 65
245930.28167725 3357690.26666260 14.42941952 115 125 117
245930.36755371 3357701.04901123 14.62561226 42 51 58
245930.06787109 3357675.43334961 14.57216263 48 51 58
245929.49603271 3357693.83831787 14.15490913 70 78 80
245929.84637451 3357689.96337891 14.04271412 120 129 138
245930.38366699 3357699.75701904 14.28794861 119 123 135
245929.28680420 3357675.80096436 14.30209064 24 26 25
245928.75347900 3357684.75836182 14.25056267 38 47 42
245930.75634766 3357687.69647217 14.01542282 82 88 84
245930.75646973 3357678.68273926 14.26522446 74 83 90
245929.18383789 3357687.34210205 14.21154118 68 73 79
245930.64135742 3357690.61376953 14.00133038 135 143 146
245930.27789307 3357700.16284180 14.50001049 16 21 27
245930.58148193 3357686.31359863 14.10669518 126 133 125
245930.43792725 3357689.96337891 14.02053261 127 141 150
245929.09588623 3357684.12048340 14.35870075 174 184 186
245930.93408203 3357698.18231201 14.28069782 42 46 49
245929.06738281 3357683.51074219 14.51706314 139 146 152
245929.28924561 3357683.36987305 14.58356667 102 105 122
245929.30645752 3357681.98718262 14.48477173 26 30 39
245930.79669189 3357701.31958008 14.53019905 116 124 127
245929.24584961 3357691.23254395 13.98367310 101 110 117
245930.21582031 3357690.21649170 14.17649937 41 49 51
245930.86505127 3357687.71746826 14.02171993 83 94 96
245929.69226074 3357676.06353760 14.68898773 41 50 55
245930.46771240 3357680.95404053 14.05614281 154 154 142
245929.10626221 3357684.04113770 14.38351917 167 176 175
245929.06024170 3357687.55957031 14.14475346 108 117 122
245930.19323730 3357701.20080566 14.59359550 206 202 199
245928.88464355 3357681.23205566 14.19546223 101 110 117
245929.05114746 3357688.12292480 14.12413883 47 55 58
245930.69287109 3357698.75006104 14.39909744 114 121 131
245929.25537109 3357683.99047852 14.59544754 129 130 132
245930.88720703 3357678.95666504 14.12445450 93 100 106
245929.83789063 3357695.71588135 14.15087605 86 91 94
245929.14282227 3357690.51373291 14.29675579 58 63 59
245930.45965576 3357688.55584717 14.04717636 76 87 93
245930.15539551 3357693.88256836 14.46778107 70 79 84
245929.64849854 3357685.26617432 14.35932255 69 76 86
245930.26562500 3357681.33068848 14.10315228 61 75 78
245930.89135742 3357698.73352051 14.27376080 95 104 111
245930.16339111 3357693.80285645 14.51624393 58 65 71
245930.03112793 3357682.24310303 14.42299747 93 111 115
245928.99047852 3357688.10290527 14.53701782 103 111 100
245929.88092041 3357683.32672119 14.54702473 40 47 57
245929.95281982 3357683.55841064 14.27575588 71 80 85
245930.39318848 3357675.20959473 14.44706535 79 84 90
245930.16796875 3357689.78125000 14.02807236 126 139 148
245930.68743896 3357701.86810303 14.60464382 82 86 87
245929.42150879 3357675.76678467 14.50056171 149 159 169
245930.57849121 3357678.64916992 14.56844997 73 80 88
245929.75805664 3357692.63909912 14.04969597 61 68 74
245930.65759277 3357676.15618896 14.27443695 37 50 56
245929.92443848 3357676.67962646 14.58101177 33 47 56
245929.90539551 3357678.76715088 14.54225159 82 93 99
245929.11126709 3357683.34808350 14.78829384 91 108 118
245929.51403809 3357687.82629395 14.20507717 51 62 64
245929.54083252 3357693.92602539 14.20119476 61 65 68
245930.66650391 3357701.11041260 14.70720482 199 210 212
245930.07928467 3357689.21832275 14.36533928 154 154 146
245930.40545654 3357701.24011230 14.78381634 173 176 181
245930.11676025 3357689.39019775 14.19976330 22 29 35
245929.67321777 3357683.76916504 14.33430099 46 55 60
245930.21856689 3357698.64794922 14.82408524 119 130 132
245929.44671631 3357685.10382080 14.52958202 104 113 120
245930.35321045 3357696.24676514 14.47419548 43 51 54
245930.01507568 3357689.33691406 14.42653561 33 34 36
245930.44335938 3357683.91448975 14.14635086 61 67 65
245930.48846436 3357674.90484619 14.29853725 84 100 113
245930.02636719 3357679.16107178 14.21431065 90 91 93
245930.99725342 3357695.09698486 13.96380806 136 139 128
245931.23992920 3357696.24987793 13.94491863 81 86 90
245930.72772217 3357685.12066650 14.05734921 83 86 79
245929.52740479 3357692.24853516 14.20262337 74 82 85
245929.98010254 3357681.57293701 14.25867176 82 92 101
245930.36352539 3357695.81292725 14.22700977 66 74 76
245929.33911133 3357690.92712402 14.29565716 135 138 143
245929.48638916 3357684.07788086 14.62901497 48 58 60
245929.87475586 3357675.09045410 14.70978642 88 95 103
245930.45904541 3357681.82080078 14.05545616 137 146 155
245929.79510498 3357696.30456543 14.33123970 55 60 64
245930.96160889 3357699.69915771 14.00060463 89 101 101
245930.79669189 3357682.37182617 14.03377151 160 169 174
245930.18951416 3357684.20037842 14.39902878 41 48 56
245929.60083008 3357690.95690918 14.60082340 104 116 132
245930.81439209 3357687.36975098 14.01113701 94 99 102
245931.12030029 3357701.12622070 14.17929840 64 70 68
245929.61297607 3357693.20068359 14.42784214 111 116 119
245930.10284424 3357675.62884521 14.58748055 40 49 54
245929.21246338 3357685.60662842 14.27103806 47 56 61
245929.48437500 3357682.55853271 14.44397068 22 35 44
245930.21636963 3357698.87622070 14.81134701 68 79 81
245929.04882813 3357686.02111816 14.25670910 78 88 90
245929.94757080 3357686.29180908 14.46500397 72 79 85
245930.23852539 3357690.29681396 14.49496365 19 31 29
245930.13562012 3357699.99230957 14.56364632 39 46 54
245930.16986084 3357680.66430664 14.28203201 167 178 182
245930.92297363 3357683.67303467 14.03232861 85 96 102
245929.17254639 3357688.32116699 14.44834900 69 75 73
245929.70605469 3357689.01947021 14.12757206 63 70 76
245929.12487793 3357681.91766357 14.66705418 36 43 51
245930.94537354 3357689.91900635 14.01085186 139 151 163
245930.06976318 3357685.12152100 14.30104256 36 47 51
245930.16381836 3357699.60418701 14.87230492 106 111 117
245928.86285400 3357681.12359619 14.22991276 105 108 117
245929.70587158 3357691.05261230 14.13034725 111 118 126
245929.55694580 3357692.26031494 14.24524403 78 83 86
245930.33227539 3357699.53222656 14.65811062 162 174 196
245929.33312988 3357691.45159912 13.98836327 125 134 139
245929.37744141 3357690.93743896 14.20322800 124 127 134
245931.09722900 3357696.27722168 13.92341900 75 79 78
245930.36755371 3357692.45623779 14.10946274 61 71 72
245929.86968994 3357684.34973145 14.45700169 25 34 39
245930.32330322 3357689.14324951 14.03200722 57 68 74
245929.33245850 3357685.00378418 14.68573284 35 40 44
245929.37182617 3357688.24584961 14.33790398 111 125 126
245929.91900635 3357678.99261475 14.30853462 82 89 97
245929.08050537 3357682.77301025 14.56311035 22 35 43
245929.81427002 3357677.27075195 14.66486263 83 101 111
245930.98956299 3357693.27691650 13.98044777 91 93 88
245931.28765869 3357699.36285400 13.97293091 147 156 161
245929.87835693 3357696.47674561 14.75314426 72 75 84
245929.11120605 3357675.95001221 14.25704956 52 53 55
245930.61737061 3357677.50946045 14.33412457 55 64 71
245930.29504395 3357676.45983887 14.33751965 52 63 67
245930.55798340 3357684.53674316 14.11783600 164 167 148
245929.25787354 3357687.32629395 14.23588085 67 75 78
245929.04980469 3357687.18341064 14.08118343 83 93 95
245931.20257568 3357699.60369873 13.97543335 81 89 92
245931.03387451 3357694.03338623 13.97974014 84 88 87
245930.67419434 3357700.95617676 14.27467346 54 64 65
245930.40747070 3357690.94140625 14.01119614 122 132 142
245929.84771729 3357687.59991455 14.28672314 57 68 72
245929.76574707 3357683.91436768 14.54543591 59 69 71
245930.13854980 3357694.05981445 14.25770092 34 45 47
245929.64416504 3357694.47857666 14.08535004 73 81 83
245929.90460205 3357696.97296143 14.93661499 102 103 107
245931.20843506 3357696.51312256 13.92446327 74 79 82
245930.13244629 3357676.59210205 14.46806812 43 56 65
245929.16912842 3357678.16076660 14.28041363 65 76 72
245930.64038086 3357679.78411865 14.07486153 109 117 119
245930.67553711 3357702.12841797 14.64637089 77 81 84
245929.86315918 3357694.02203369 14.23567009 36 44 47
245930.36639404 3357676.31848145 14.31612396 54 63 70
245930.85168457 3357686.73858643 14.02711391 86 95 92
245929.26403809 3357684.90808105 14.42090416 43 50 56
245929.68927002 3357690.73278809 14.55941105 62 79 105
245929.38275146 3357690.96887207 14.84968662 97 111 122
245930.91271973 3357701.70501709 14.01730537 59 63 62
245929.55517578 3357688.13922119 14.33885860 114 127 133
245930.80273438 3357695.90899658 14.01622963 74 80 78
245930.18457031 3357694.45092773 14.09254837 59 64 67
245929.35949707 3357681.26708984 14.32718945 75 86 92
245930.22692871 3357690.57379150 14.11461449 81 90 99
245931.00061035 3357700.22259521 14.27768707 47 56 65
245929.38104248 3357692.72399902 13.96307659 79 89 91
245930.04217529 3357681.82171631 14.47736073 103 117 126
245930.93060303 3357692.30206299 13.98026657 96 101 94
245929.47784424 3357681.74359131 14.28325748 82 93 99
245929.88946533 3357698.41119385 14.39274216 57 66 65
245931.17492676 3357698.20574951 14.09659958 115 117 112
245929.65997314 3357687.28363037 14.28660488 65 74 79
245929.73339844 3357689.28942871 14.33813477 139 139 141
245930.44183350 3357676.76019287 14.57916069 158 169 173
245929.96520996 3357693.80926514 14.24294376 63 68 74
245929.22119141 3357686.84417725 14.03043938 88 93 96
245930.60034180 3357676.34088135 14.24470901 48 61 67
245929.23284912 3357681.18347168 14.57571983 58 65 71
245930.61248779 3357687.61865234 14.03052711 146 150 136
245929.70202637 3357696.54583740 14.66852379 163 173 183
245929.50421143 3357692.69122314 14.01967907 80 89 94
245930.90466309 3357696.77239990 14.01609230 69 80 72
245930.08361816 3357696.71624756 14.47213554 39 40 44
245930.29901123 3357701.23632813 14.72834396 110 115 119
245930.97467041 3357691.82568359 13.99001026 83 88 84
245929.65295410 3357696.63751221 14.58090878 10 18 29
245929.25823975 3357684.23931885 14.56939888 85 90 96
245930.28985596 3357683.59857178 14.16138935 39 47 49
245929.35876465 3357679.03100586 14.21292591 34 38 41
245930.50079346 3357685.53717041 14.13129616 76 87 81
245930.86120605 3357698.35131836 14.36447334 21 25 36
245930.36413574 3357695.83239746 14.23058319 66 74 76
245929.10101318 3357682.89434814 14.38966656 71 86 93
245929.58673096 3357685.86108398 14.49331093 55 66 72
245928.97674561 3357683.44982910 14.55537510 148 153 156
245930.17230225 3357676.66687012 14.52095699 63 80 87
245930.76177979 3357694.71185303 13.97699928 78 77 73
245930.35424805 3357690.03826904 14.02980614 109 119 129
245930.15997314 3357692.95111084 14.15414429 64 72 75
245931.37841797 3357700.56793213 14.40133762 78 82 85
245930.83056641 3357679.51385498 14.07654285 108 119 121
245930.84014893 3357675.01568604 14.19914532 117 135 149
245930.59649658 3357689.22918701 14.02760887 68 81 74
245930.26763916 3357700.93859863 14.45362186 44 49 55
245930.28076172 3357701.37255859 14.86752892 175 176 180
245930.34484863 3357678.29711914 14.46545792 30 45 52
245931.37322998 3357700.69824219 14.23115444 72 73 77
245931.05078125 3357697.77203369 14.05195808 139 152 158
245929.59234619 3357679.69976807 14.15810776 107 111 110
245929.34161377 3357693.52392578 14.01024532 73 82 87
245930.43035889 3357699.11914063 14.41330242 79 86 94
245930.61950684 3357697.59936523 14.06705570 79 88 87
245929.70880127 3357685.57202148 14.40204906 56 65 72
245930.48736572 3357699.92712402 14.18066025 41 48 56
245930.54052734 3357699.46472168 14.40668201 37 47 59
245929.44622803 3357684.76818848 14.48703194 48 57 62
245928.92651367 3357687.04656982 14.02228451 112 122 123
245930.77172852 3357700.55273438 14.38808155 40 51 55
245929.88055420 3357680.48742676 14.19332409 89 93 92
245929.11932373 3357683.21759033 14.28505039 72 81 88
245930.79760742 3357697.66809082 14.00731850 107 118 124
245930.22357178 3357687.63940430 14.18697262 65 76 80
245929.83721924 3357690.95941162 14.07781315 111 118 124
245929.11944580 3357676.03112793 14.27036762 92 96 97
245929.90270996 3357680.16040039 14.05836773 119 127 116
245930.95031738 3357696.98071289 13.99178505 100 106 92
245928.86151123 3357681.53063965 14.19227982 33 48 45
245930.06750488 3357680.46954346 14.15890217 95 101 99
245929.74346924 3357682.59606934 14.31815910 44 61 68
245930.39025879 3357699.80944824 14.21168137 102 104 116
245929.68792725 3357677.25634766 14.67493534 31 42 60
245929.58874512 3357688.62640381 14.18025112 48 56 59
245929.54431152 3357680.48468018 14.18349075 85 91 91
245930.27709961 3357680.65539551 14.15391922 100 106 102
245929.97302246 3357700.22198486 14.48909664 33 37 40
245929.17248535 3357683.98260498 14.49454975 147 151 154
245928.81225586 3357681.34228516 14.27840710 40 51 47
245930.21124268 3357700.24932861 14.56489182 32 37 40
245929.45202637 3357688.22344971 14.35477829 121 132 134
245929.80462646 3357683.67089844 14.25016689 42 53 59
245930.43804932 3357696.52722168 14.55741215 47 54 60
245929.79467773 3357685.92199707 14.56103611 48 63 70
245930.15399170 3357690.76599121 14.07090092 92 101 108
245930.25073242 3357700.51397705 14.62362576 44 52 54
245930.29162598 3357685.98687744 14.25827217 80 88 90
245929.25805664 3357687.04260254 14.09326935 70 78 81
245929.51995850 3357693.99871826 14.37925243 54 59 62
245929.93054199 3357684.44177246 14.43561554 39 50 56
245929.66485596 3357691.86163330 14.07218361 75 78 85
245930.77459717 3357692.98901367 14.00538254 96 98 93
245930.12451172 3357690.07635498 14.07928276 94 105 111
245930.68841553 3357695.95697021 14.09912968 64 72 75
245930.68157959 3357691.37762451 13.98960781 138 146 148
245930.26312256 3357684.89874268 14.32868862 152 163 167
245929.83447266 3357681.60308838 14.25845909 94 101 111
245929.97253418 3357684.73107910 14.49749947 57 64 72
245929.09594727 3357676.71002197 14.23765469 72 81 76
245929.19787598 3357687.63726807 14.18542099 61 70 75
245929.38604736 3357676.31445313 14.38070297 18 23 27
245930.87213135 3357692.64001465 13.98323059 161 164 153
245929.86218262 3357694.50640869 14.08861160 18 22 31
245929.04168701 3357686.26312256 14.63037777 56 61 67
245929.13909912 3357678.97991943 14.20559025 64 70 68
245929.56103516 3357674.98529053 14.54542542 91 102 120
245930.11804199 3357691.99383545 14.11776638 55 58 63
245930.14965820 3357699.06555176 14.49471760 75 84 89
245929.43933105 3357690.89971924 14.88846493 79 92 108
245929.32006836 3357681.91265869 14.46559811 45 49 60
245930.27069092 3357690.99566650 14.00176716 121 127 139
245929.72766113 3357696.19061279 14.27803707 77 81 82
245929.54913330 3357694.32183838 14.13565350 47 53 53
245929.30401611 3357688.26483154 14.33169365 34 45 49
245928.86682129 3357679.84008789 14.12320614 156 163 169
245930.61456299 3357701.04229736 14.55835438 144 156 156
245930.79302979 3357687.57617188 14.01513100 88 97 96
245930.58825684 3357687.01293945 14.05199718 132 138 128
245930.46447754 3357675.27862549 14.59170914 23 26 33
245929.78186035 3357697.06268311 14.64328194 60 61 63
245929.75610352 3357699.20269775 14.53694344 64 73 54
245929.34753418 3357689.55993652 14.23324203 46 55 64
245929.63031006 3357689.30596924 14.22684383 106 107 112
245930.32598877 3357697.42883301 14.57341003 78 82 85
245929.54931641 3357694.44097900 14.09755611 77 82 85
245929.87384033 3357676.47155762 14.48306274 44 55 59
245929.27667236 3357687.21697998 14.17082119 75 82 88
245928.93066406 3357685.13635254 14.54044151 69 73 76
245929.11663818 3357689.73889160 14.15087414 20 28 31
245929.54113770 3357695.67059326 14.21506310 87 89 88
245929.42535400 3357682.90130615 14.21827888 66 76 85
245930.18725586 3357687.57104492 14.24415112 74 85 89
245929.96740723 3357681.60467529 14.33517170 94 103 110
245929.55322266 3357690.77496338 14.79017830 54 77 108
245929.99310303 3357699.40948486 14.54621029 31 52 71
245929.98468018 3357688.42718506 14.22669506 42 53 59
245930.08068848 3357697.42004395 14.26323986 46 50 49
245929.56152344 3357677.51019287 14.56352043 21 32 36
245930.20361328 3357689.03326416 14.04861069 71 80 87
245930.68072510 3357675.11651611 14.25861835 98 116 126
245929.45373535 3357688.26458740 14.45053577 135 144 149
245929.27832031 3357685.87689209 14.42816544 57 68 74
245930.54174805 3357688.77655029 14.03032780 75 87 87
245931.02069092 3357691.17828369 13.99172974 126 135 142
245930.07092285 3357686.37048340 14.34762096 45 53 56
245929.54620361 3357692.07159424 14.19414902 65 72 78
245930.29492188 3357698.44030762 14.68773270 149 158 157
245930.45935059 3357700.72912598 14.38636112 47 56 63
245930.13391113 3357684.92285156 14.46900463 87 96 105
245930.34619141 3357690.90417480 14.01110363 118 128 137
245929.09265137 3357686.37292480 14.66299057 117 120 125
245929.24676514 3357679.18804932 14.15661526 84 89 92
245929.53833008 3357690.30895996 14.48088837 42 58 81
245930.56713867 3357679.52209473 14.11363792 114 122 125
245930.86016846 3357693.58447266 13.99449539 156 157 141
245930.53820801 3357701.02679443 14.65160179 154 172 174
245930.56567383 3357678.04870605 14.24136734 53 66 74
245929.24285889 3357690.58233643 14.78569698 187 209 222
245929.68499756 3357688.83428955 14.10093784 65 73 76
245929.53955078 3357693.94085693 14.23548412 53 57 60
245930.99261475 3357687.20019531 14.01755238 80 89 94
245929.69311523 3357688.90637207 14.09864902 73 81 84
245929.00695801 3357681.89654541 14.66388130 43 51 53
245930.18865967 3357680.96905518 14.15864754 65 79 82
245929.71423340 3357686.87542725 14.22254944 66 74 76
245930.24902344 3357687.30084229 14.23240280 71 82 88
245930.02087402 3357696.20709229 14.18513680 70 76 76
245929.24621582 3357685.28033447 14.57476997 61 66 72
245930.39526367 3357684.28680420 14.19862556 65 76 78
245930.32629395 3357700.13562012 14.70666122 15 18 23
245930.08569336 3357677.39007568 14.55858231 53 66 75
245930.72320557 3357697.20941162 14.24623489 29 39 38
245930.27142334 3357690.25494385 14.31334019 86 87 89
245930.23498535 3357700.56237793 14.60433388 46 58 58
245931.13830566 3357691.83789063 13.98226738 81 89 92
245931.09954834 3357688.75695801 14.01973152 80 90 99
245930.63879395 3357701.26086426 14.57880592 55 59 62
245930.32684326 3357681.21301270 14.09252167 73 88 81
245929.40722656 3357686.21801758 14.78993130 89 94 98
245930.35052490 3357679.62207031 14.13148594 118 123 126
245930.47070313 3357697.83691406 14.04528999 148 153 157
245930.47509766 3357697.63891602 14.08039856 67 73 71
245929.61627197 3357689.06707764 14.11329079 69 79 81
245930.16284180 3357693.67718506 14.20332241 45 48 53
245929.52093506 3357675.51995850 14.62954330 57 66 73
245930.44525146 3357685.13305664 14.15339279 69 80 82
245929.11480713 3357690.21417236 14.01316547 72 80 83
245930.20080566 3357701.69470215 14.48607254 36 40 39
245930.61773682 3357678.78662109 14.28404808 82 89 99
245929.68310547 3357688.31433105 14.38395691 113 126 132
245930.04022217 3357697.04730225 14.66420364 104 105 109
245929.08215332 3357683.34771729 14.78008270 91 108 118
245930.09216309 3357701.88110352 14.45577812 51 57 57
245930.11499023 3357678.84185791 14.40021515 69 73 84
245930.08496094 3357680.42150879 14.12742424 103 105 102
245929.06396484 3357686.40100098 14.59102154 123 124 128
245930.20379639 3357690.83801270 14.03563404 110 119 128
245930.28802490 3357690.81091309 14.03429317 112 122 131
245929.17669678 3357691.18054199 13.99370003 105 112 118
245930.39202881 3357690.24218750 14.06108284 100 109 116
245930.02014160 3357699.42517090 14.71520233 99 128 146
245929.30285645 3357685.74108887 14.37841892 50 59 66
245930.68780518 3357701.86907959 14.60004425 82 86 87
245930.77691650 3357688.02435303 14.01139164 96 103 95
245930.22314453 3357690.53961182 14.22243595 58 65 71
245929.94348145 3357693.70568848 14.13824272 66 70 73
245930.35491943 3357701.15478516 14.70273590 59 64 70
245929.14257813 3357678.62622070 14.19877720 62 69 61
245929.53314209 3357678.88500977 14.43735981 65 72 80
245928.80175781 3357682.83819580 14.67410374 50 64 49
245930.54479980 3357694.89251709 14.02549553 78 82 85
245930.51293945 3357680.84649658 14.04045582 101 103 98
245929.25994873 3357685.05004883 14.68794727 78 83 86
245930.00482178 3357674.84405518 14.40627003 35 49 58
245931.14733887 3357701.06848145 14.13027096 73 78 81
245929.52587891 3357677.63409424 14.51715374 20 29 36
245930.02508545 3357699.01806641 14.46965981 61 71 73
245930.40051270 3357683.92248535 14.18162918 44 52 54
245930.25463867 3357681.66009521 14.14085102 105 123 133
245929.48681641 3357676.73840332 14.64585495 63 68 74
245929.27185059 3357688.27783203 14.42996216 65 77 77
245929.95275879 3357692.69995117 14.03240204 66 74 77
245929.76019287 3357687.27954102 14.30954647 66 77 83
245930.77728271 3357700.46063232 14.42630482 42 53 59
245929.99993896 3357682.61126709 14.12578487 83 97 106
245929.47662354 3357681.53173828 14.19240189 52 62 71
245930.02514648 3357689.34289551 14.41412640 33 34 36
245930.67260742 3357690.80364990 14.00186920 137 146 141
245930.21160889 3357675.65075684 14.61414051 41 51 53
245930.45635986 3357688.65686035 14.04537010 75 86 92
245930.73455811 3357697.58941650 13.99416256 86 98 98
245931.08288574 3357701.35723877 14.44359493 63 68 71
245930.16967773 3357692.44366455 14.12567425 56 64 66
245930.85290527 3357687.38885498 14.01491833 92 101 106
245929.37005615 3357683.56066895 14.36162376 65 75 85
245929.99810791 3357686.40423584 14.37252712 57 62 66
245929.73864746 3357685.92358398 14.56271362 57 68 74
245929.42248535 3357683.34002686 14.33747196 67 81 92
245929.21350098 3357676.21209717 14.23607635 96 98 97
245929.88812256 3357687.04724121 14.29624653 64 75 79
245929.89898682 3357687.93536377 14.26942921 56 66 68
245930.17211914 3357687.72961426 14.16301632 60 71 75
245929.67639160 3357696.56365967 14.62414360 34 44 54
245929.76910400 3357687.49401855 14.31363773 62 71 76
245930.72094727 3357691.82104492 14.00040817 76 77 71
245929.77227783 3357695.73852539 14.15663338 87 92 95
245930.16851807 3357701.40997314 14.73313713 97 101 110
245929.90338135 3357689.74841309 14.07221889 109 122 131
245929.03472900 3357685.10101318 14.60058117 25 32 38
245930.59545898 3357681.14154053 14.03126049 96 102 102
245929.72222900 3357681.66534424 14.32512856 86 95 104
245930.54406738 3357689.00775146 14.02909088 65 77 77
245931.25897217 3357700.68841553 14.25549030 65 68 73
245929.45379639 3357676.00085449 14.49214077 32 37 41
245930.78338623 3357694.16796875 14.00259876 91 92 84
245930.01995850 3357689.27795410 14.46275520 56 54 57
245929.59393311 3357682.67926025 14.31723309 67 86 93
245929.78186035 3357676.02764893 14.67672253 85 94 101
245929.94952393 3357693.86712646 14.28303242 43 52 57
245930.08721924 3357684.29504395 14.39107990 41 50 57
245930.57830811 3357687.43420410 14.05936527 81 88 80
245930.25103760 3357689.21289063 14.06620979 60 70 79
245930.33203125 3357699.77758789 14.35545254 86 93 103
245930.91802979 3357689.11914063 14.01270962 104 110 108
245930.04327393 3357696.69818115 14.61696339 64 65 67
245931.11651611 3357689.12170410 14.00174999 88 97 104
245929.56323242 3357676.64428711 14.67979145 50 58 69
245930.56225586 3357677.55877686 14.52465916 66 80 81
245930.57781982 3357687.22546387 14.05647373 99 107 96
245929.80487061 3357697.39105225 14.16347122 41 46 49
245929.61578369 3357688.97717285 14.10071087 69 79 81
245930.39965820 3357700.13500977 14.31254101 26 33 39
245928.85882568 3357685.96893311 14.09211540 97 104 110
245930.18652344 3357678.67401123 14.64472389 64 74 83
245929.25720215 3357675.97650146 14.26842117 35 40 43
245929.76806641 3357678.48016357 14.57053089 71 84 90
245929.76483154 3357693.45922852 14.13508892 90 95 91
245929.83929443 3357688.46221924 14.22612286 25 34 39
245930.34832764 3357680.63543701 14.10354042 120 125 118
245930.13751221 3357678.84478760 14.39199924 84 88 97
245931.09906006 3357687.64654541 14.03048611 80 90 99
245930.76080322 3357688.81542969 14.01364231 156 159 140
245930.35784912 3357681.04730225 14.08242989 133 141 130
245930.79779053 3357688.70239258 14.01040268 119 122 111
245928.83990479 3357683.66455078 14.23300743 127 133 133
245929.43579102 3357687.47039795 14.27938461 59 68 75
245929.95758057 3357686.35278320 14.40816021 61 68 74
245930.23779297 3357675.80194092 14.67611504 28 36 38
245930.68713379 3357694.96630859 14.01945210 75 79 82
245930.85284424 3357701.22821045 14.36445427 40 48 51
245929.19073486 3357681.87408447 14.43363190 44 51 61
245929.00836182 3357684.20062256 14.21337795 133 141 143
245928.86962891 3357682.82836914 14.65631962 39 50 44
245929.33648682 3357690.93786621 14.12722778 120 127 133
245930.03869629 3357692.86547852 14.08835506 71 76 80
245930.15228271 3357674.80908203 14.39076710 44 58 67
245929.13226318 3357681.47247314 14.15653133 49 60 64
245930.39453125 3357675.33416748 14.69305611 9 18 23
245931.22906494 3357697.18218994 13.91691589 88 97 96
245931.02648926 3357685.53009033 14.02636051 87 94 102
245929.65393066 3357680.61901855 14.30169106 72 77 83
245930.13775635 3357699.03942871 14.51666927 73 82 87
245929.94952393 3357687.71179199 14.23369312 51 62 66
245930.07360840 3357689.20483398 14.32889271 156 157 149
245929.28466797 3357682.20629883 14.43880463 34 35 40
245930.30902100 3357699.01940918 14.69990635 74 88 91
245930.54302979 3357678.49383545 14.45121002 62 80 90
245930.00848389 3357696.60821533 14.73196507 69 70 75
245929.09045410 3357681.47454834 14.14072514 51 62 66
245929.31903076 3357682.99359131 14.16985989 92 102 111
245930.26281738 3357678.95233154 14.25693321 97 98 103
245930.14031982 3357689.40625000 14.14178467 31 40 49
245930.58734131 3357679.83843994 14.07507324 107 115 117
245930.53472900 3357693.21289063 14.06111050 57 65 67
245929.31024170 3357687.34539795 14.26695251 63 71 74
245930.74517822 3357696.97991943 14.08438015 63 79 79
245931.18298340 3357697.51000977 13.93555641 91 97 95
245930.05987549 3357677.57867432 14.60717297 39 50 56
245931.16796875 3357692.98706055 13.97657299 88 98 100
245929.86230469 3357679.20196533 14.18810081 105 109 110
245930.27447510 3357699.08239746 14.61080265 75 85 87
245930.63580322 3357684.35943604 14.08968163 128 129 115
245929.56835938 3357675.50836182 14.73328781 97 110 118
245929.73620605 3357681.57318115 14.19496822 79 90 96
245931.22448730 3357698.18200684 14.04117870 80 90 92
245929.63018799 3357692.70251465 14.03233433 65 75 77
245930.73144531 3357701.41741943 14.38147259 108 111 116
245929.12384033 3357683.29913330 14.47400570 30 38 49
245930.72631836 3357697.48205566 14.07208729 78 88 87
245929.83288574 3357696.53179932 14.79071999 65 68 83
245929.78814697 3357690.52148438 14.51896572 20 32 44
245928.96392822 3357679.57586670 14.12322521 155 156 160
245929.87249756 3357696.39294434 14.42460823 44 49 53
245930.81237793 3357695.02191162 13.99712276 81 84 77
245929.94042969 3357696.49963379 14.75585175 74 77 86
245929.65478516 3357685.97857666 14.58714867 59 70 74
245929.98980713 3357685.59301758 14.36188126 56 67 71
245930.51391602 3357682.11822510 14.03851795 160 164 163
245931.03570557 3357699.11242676 14.30456734 159 157 144
245930.79138184 3357678.27624512 14.17456341 69 88 94
245930.94628906 3357699.10571289 14.38090706 87 92 85
245929.71325684 3357684.88232422 14.57679272 32 39 45
245928.99127197 3357682.04547119 14.70846176 34 44 46
245929.96832275 3357695.84680176 14.18868637 76 84 87
245930.51116943 3357689.40802002 14.02730560 73 86 95
245930.12634277 3357692.99188232 14.17646027 57 62 66
245929.41827393 3357678.11877441 14.60701847 40 60 71
245929.77294922 3357690.97473145 14.12772369 105 112 118
245930.14349365 3357688.15118408 14.37386990 34 43 52
245929.91546631 3357688.57006836 14.15645123 52 61 66
245929.92492676 3357688.52490234 14.17826939 48 55 61
245930.41619873 3357696.27966309 14.68874359 14 19 25
245930.81530762 3357693.75634766 14.03267479 113 114 100
245929.46685791 3357676.22424316 14.45428085 24 28 37
245930.86785889 3357699.45867920 14.16241932 84 90 90
245929.28131104 3357683.53955078 14.52811241 48 58 68
245929.45391846 3357682.12207031 14.40125751 25 34 43
245929.09222412 3357680.85528564 14.22121906 60 64 73
245931.30108643 3357698.16564941 13.98229790 133 143 152
245930.00665283 3357676.49670410 14.46105671 41 52 56
245930.37347412 3357693.75408936 14.37638474 56 59 66
245930.63214111 3357676.29968262 14.23922253 53 63 72
245930.36059570 3357694.37988281 14.05412865 57 63 63
245930.80871582 3357678.60241699 14.19892597 68 79 85
245929.45336914 3357691.59564209 13.99104786 129 133 136
245931.20275879 3357695.61578369 13.95890427 85 94 93
245929.70812988 3357696.63909912 14.68046379 20 30 42
245930.85400391 3357684.42535400 14.03192329 88 96 98
245929.33874512 3357676.26892090 14.33475685 33 37 40
245930.21099854 3357699.97088623 14.71090508 43 53 55
245930.57446289 3357679.94976807 14.07003975 108 118 117
245929.30914307 3357692.95501709 13.98650932 67 74 80
245930.36968994 3357681.12078857 14.08120060 165 172 156
245930.36083984 3357699.49188232 14.57370853 151 169 193
245931.25720215 3357695.95446777 13.95388603 88 96 98
245930.26739502 3357684.69799805 14.32561111 43 58 65
245929.69415283 3357690.44946289 14.58144760 19 36 54
245929.30847168 3357683.18139648 14.19958687 79 92 100
245929.71643066 3357675.84857178 14.87475872 24 35 39
245930.17535400 3357688.09582520 14.21231365 56 65 72
245929.32916260 3357675.43530273 14.32142544 80 85 91
245931.37023926 3357700.74237061 14.17525291 72 80 83
245929.23382568 3357689.70861816 14.16748333 42 51 58
245930.88916016 3357690.64550781 13.99591255 132 141 140
245928.89404297 3357682.70611572 14.71174908 45 57 57
245930.14025879 3357693.09204102 14.14370632 35 40 46
245929.48425293 3357692.88659668 14.00331116 71 81 83
245930.17388916 3357676.96197510 14.53238487 130 141 145
245929.05291748 3357683.53839111 14.40780258 90 97 103
245929.29833984 3357683.17120361 14.19260883 84 94 103
245930.52728271 3357701.63629150 14.69913769 62 71 70
245929.15209961 3357682.57879639 14.57588673 40 49 58
245930.63171387 3357698.22454834 14.36478901 66 73 81
245931.31292725 3357700.15319824 14.10962486 84 85 89
245929.52459717 3357677.03387451 14.43257046 24 27 32
245930.22332764 3357687.59344482 14.21035576 65 79 82
245929.40881348 3357690.22766113 14.11037540 70 77 83
245930.66577148 3357693.85900879 14.12150669 56 57 59
245929.15728760 3357678.14172363 14.27237129 64 74 73
245929.16601563 3357686.50585938 14.35815620 90 94 93
245929.99389648 3357701.87786865 14.49796104 67 76 73
245929.52978516 3357692.91156006 14.03745937 78 89 91
245930.37756348 3357675.30523682 14.67369080 7 12 16
245931.26531982 3357698.48455811 14.04337883 129 142 150
245930.30035400 3357689.99462891 14.03188038 109 121 133
245930.40527344 3357679.60980225 14.12348270 114 119 122
245930.82843018 3357674.98004150 14.20403194 112 132 143
245930.13201904 3357694.44384766 14.09600067 46 51 55
245930.52130127 3357692.02172852 14.07178497 66 77 73
245930.65924072 3357680.90911865 14.02860737 86 95 100
245930.65985107 3357684.32995605 14.07122993 123 124 108
245930.46374512 3357686.09051514 14.14519501 69 83 84
245930.40808105 3357700.99096680 14.62854290 35 48 54
245930.16448975 3357687.30987549 14.26828575 71 82 88
245930.42486572 3357681.32824707 14.07088566 169 175 161
245930.62719727 3357682.09838867 14.02809143 138 147 152
245929.79553223 3357693.06524658 14.20887280 88 93 96
245930.34527588 3357692.90795898 14.13551426 54 62 65
245929.04632568 3357686.14642334 14.46072674 37 44 54
245929.75012207 3357683.99456787 14.60253143 133 143 142
245929.36560059 3357679.90759277 14.07876492 93 101 103
245930.66589355 3357679.44317627 14.08492947 111 121 123
245929.15155029 3357687.15368652 14.10359669 66 74 77
245930.99694824 3357685.60406494 14.02542114 90 100 102
245929.14190674 3357678.54364014 14.17758560 73 83 74
245929.39367676 3357683.19116211 14.21428204 82 91 100
245930.54919434 3357692.98077393 14.06757450 56 64 66
245931.09490967 3357699.54339600 13.98001289 133 141 144
245929.88940430 3357697.59362793 14.21365166 88 89 83
245930.61352539 3357682.46588135 14.02865982 156 162 160
245929.66430664 3357687.78637695 14.22712898 52 61 66
245929.17346191 3357685.62805176 14.23055744 52 61 66
245930.79827881 3357675.47235107 14.24709606 64 74 84
245929.84643555 3357697.09460449 14.85970592 73 79 79
245930.66638184 3357694.81524658 13.99941540 76 77 81
245931.06848145 3357698.56140137 14.17043686 97 105 116
245930.67553711 3357697.27539063 14.36650562 92 94 91
245929.62322998 3357696.86676025 14.51443100 50 58 60
245930.28308105 3357701.21173096 14.67783451 83 86 93
245929.25488281 3357691.72814941 13.96157360 77 81 82
245929.26513672 3357683.34094238 14.77411366 12 23 41
245930.45373535 3357688.00262451 14.07498264 75 83 85
245930.23199463 3357701.03186035 14.45196819 50 55 61
245929.88793945 3357677.17254639 14.61400318 40 54 57
245930.05670166 3357685.54895020 14.34500980 61 71 73
245929.94519043 3357688.10125732 14.43237782 105 120 125
245929.65350342 3357679.57891846 14.20047855 110 112 111
245930.02044678 3357681.54144287 14.16506386 70 83 89
245930.26379395 3357698.35803223 14.66009045 155 164 163
245929.19726563 3357680.15698242 14.06989288 83 92 91
245930.14709473 3357697.98822021 14.33222580 76 90 93
245929.79791260 3357697.41186523 14.16380215 37 42 45
245930.72802734 3357675.69439697 14.45844460 44 54 56
245930.46014404 3357701.91979980 14.59016609 148 148 140
245930.62353516 3357700.42053223 14.44360161 31 40 45
245929.18701172 3357683.33215332 14.70464325 78 93 112
245930.36932373 3357675.61254883 14.61761189 39 46 52
245930.35522461 3357675.65173340 14.62858295 39 46 52
245930.72570801 3357686.27917480 14.06597424 114 114 106
245931.12615967 3357692.99786377 13.97438717 91 99 102
245930.18951416 3357696.79486084 14.37254429 25 26 31
245930.22467041 3357698.23156738 14.59122467 153 162 161
245929.95233154 3357697.89294434 14.50204468 83 90 96
245929.24694824 3357684.73468018 14.31252861 41 51 53
245931.15447998 3357692.02972412 13.97152901 83 91 93
245928.91925049 3357681.07501221 14.25697708 139 143 155
245929.89392090 3357684.19213867 14.52211857 100 110 119
245929.75500488 3357688.90313721 14.10255146 63 72 79
245928.94805908 3357679.32971191 14.20041847 96 100 99
245930.10473633 3357691.34423828 13.98590279 139 150 154
245930.88873291 3357701.41583252 14.37014198 124 129 133
245930.63232422 3357686.09228516 14.09322643 174 176 162
245929.99322510 3357698.31561279 14.65222168 63 74 78
245930.53668213 3357688.07525635 14.02625656 83 93 85
245930.85913086 3357691.64727783 13.98373890 159 163 149
245930.20935059 3357698.96319580 14.70315456 66 76 78
245928.98468018 3357680.76116943 14.14493370 104 113 118
245930.30340576 3357698.94897461 14.77604485 55 67 67
245929.08862305 3357683.98181152 14.35249138 185 189 190
245929.67749023 3357691.09509277 14.09789085 119 126 132
245929.58148193 3357676.29791260 14.50482750 33 44 50
245930.60278320 3357699.91143799 14.14165401 48 56 59
245930.17816162 3357680.73559570 14.32536411 173 184 188
245930.60888672 3357677.90277100 14.25873184 47 60 69
245930.34027100 3357699.68701172 14.75333786 33 35 47
245929.57299805 3357679.20361328 14.16009903 77 83 83
245929.40551758 3357679.91436768 14.07870960 96 102 102
245930.31152344 3357692.38342285 14.14737797 53 63 62
245930.21398926 3357697.62048340 14.34558964 137 140 123
245930.21154785 3357690.39459229 14.49337101 31 40 47
245930.99487305 3357691.34002686 13.99496078 118 128 130
245930.11260986 3357689.47631836 14.11808109 37 50 59
245929.35546875 3357692.17608643 14.00476074 44 49 53
245930.52941895 3357694.14868164 14.07582569 66 70 71
245928.76269531 3357683.47631836 14.59257126 67 75 62
245929.92968750 3357697.66412354 14.25366211 62 64 61
245930.89379883 3357691.01403809 13.99480343 130 134 135
245930.40533447 3357676.50085449 14.30289459 54 65 69
245930.42871094 3357692.20874023 14.32935429 37 49 49
245930.96856689 3357686.23028564 14.01520634 87 98 104
245930.30523682 3357676.95111084 14.51601887 117 128 132
245929.80706787 3357697.54937744 14.23490620 84 89 85
245930.50793457 3357690.57592773 14.00657368 107 122 129
245930.54553223 3357686.41979980 14.10751915 89 100 92
245930.40631104 3357701.02917480 14.65355682 39 54 61
245929.56933594 3357675.38342285 14.67823982 131 144 152
245931.05798340 3357699.31341553 14.17893600 36 39 44
245929.29241943 3357679.28021240 14.13352489 95 101 101
245928.82165527 3357685.05834961 14.25542259 52 58 56
245930.94763184 3357700.68218994 14.31246471 29 36 42
245930.64019775 3357690.45568848 14.00419140 136 145 144
245930.02020264 3357695.80340576 14.19997501 73 81 84
245929.78039551 3357676.29809570 14.40774059 33 40 46
245931.04254150 3357699.82196045 14.03593159 95 103 106
245928.96087646 3357686.16406250 14.20201302 74 82 85
245929.55511475 3357678.69073486 14.47949314 47 52 56
245930.41723633 3357692.20568848 14.33642292 37 49 49
245930.84063721 3357679.76660156 14.06800652 112 117 121
245930.84753418 3357678.55084229 14.16794205 60 73 81
245929.75305176 3357697.47595215 14.20344353 24 29 32
245931.01348877 3357688.10827637 14.01698589 88 99 105
245929.00885010 3357680.81182861 14.16947269 90 97 105
245930.72247314 3357688.88171387 14.01702023 157 160 141
245929.93743896 3357693.52624512 14.05743790 76 79 84
245929.85296631 3357684.21545410 14.52974510 74 85 91
245929.69427490 3357686.16485596 14.63013744 83 90 98
245930.71099854 3357693.60522461 14.05718231 70 72 71
245931.03930664 3357695.91271973 13.95234394 133 136 125
245930.10339355 3357688.18426514 14.47544956 87 100 108
245930.82073975 3357696.28625488 14.21283340 61 69 71
245930.69421387 3357701.97070313 14.58618450 96 98 97
245929.39733887 3357688.08660889 14.24651623 30 39 46
245930.14361572 3357699.81005859 14.72190952 35 42 48
245929.95721436 3357700.74139404 14.41283512 41 47 45
245931.12652588 3357693.44958496 13.97868729 88 97 96
245930.56549072 3357701.80072021 14.75232601 44 48 47
245929.75622559 3357694.71240234 14.04545879 66 71 74
245929.06762695 3357688.60528564 14.05497742 21 29 31
245929.57476807 3357691.00744629 14.26473713 114 119 123
245929.60809326 3357696.75195313 14.43674946 42 47 51
245930.12524414 3357687.41510010 14.28570461 67 81 84
245930.58270264 3357674.96099854 14.27365971 96 112 125
245930.74615479 3357694.50225830 13.98035622 75 75 73
245929.60791016 3357678.61267090 14.51072502 48 49 51
245930.35839844 3357698.53375244 14.68193150 131 141 140
245928.96801758 3357681.64990234 14.15780926 41 51 53
245929.98785400 3357695.68408203 14.16596317 76 84 87
245930.39349365 3357697.02661133 14.26401043 31 41 43
245930.55767822 3357677.88677979 14.28709507 51 64 72
245930.24395752 3357686.28619385 14.26261997 49 56 62
245930.68548584 3357692.75970459 13.99741650 83 88 84
245929.84472656 3357695.54248047 14.10366249 85 90 94
245928.86614990 3357682.21380615 14.66886711 21 38 32
245929.79400635 3357689.96160889 14.03841782 120 129 138
245930.57305908 3357694.49157715 13.99711418 73 77 78
245930.52850342 3357696.76879883 14.25171947 38 48 50
245930.81457520 3357680.43768311 14.05351734 106 116 118
245929.22296143 3357678.05169678 14.37866688 44 53 58
245930.49346924 3357683.28173828 14.04671764 173 178 171
245929.89477539 3357693.81604004 14.20063114 50 58 61
245930.75085449 3357683.80084229 14.02492046 80 88 91
