245738.78015137 3357647.49652100 16.24447823 19 26 34
245739.03057861 3357647.43499756 16.24161720 20 27 35
245737.73815918 3357644.86187744 16.64272308 0 5 11
245738.10864258 3357642.89916992 17.23546791 19 32 48
245737.43945313 3357643.65447998 16.80186844 4 11 19
245738.61114502 3357645.27850342 16.34210396 34 44 53
245738.58166504 3357645.52911377 16.32211685 26 36 45
245739.27569580 3357646.01373291 16.33409882 26 36 45
245738.86224365 3357648.16467285 16.25979042 20 29 36
245737.43951416 3357645.39624023 16.61695099 6 10 19
245738.19891357 3357643.21282959 16.61996460 16 31 38
245737.83734131 3357644.92376709 16.61189461 22 29 37
245738.86260986 3357646.75109863 16.35964966 18 28 30
245737.37322998 3357643.16461182 16.78809929 18 27 36
245739.39447021 3357646.26348877 16.31129074 25 36 42
245737.98248291 3357647.11108398 16.61101913 13 18 24
245739.04510498 3357644.45184326 16.35872078 29 43 52
245738.36999512 3357646.08264160 16.37164307 23 32 41
245738.11694336 3357648.53308105 16.86185074 14 18 21
245737.94732666 3357645.83325195 16.56919479 8 17 22
245739.10882568 3357644.62139893 16.35181236 25 40 47
245738.97949219 3357645.34869385 16.33227921 22 35 43
245737.31420898 3357644.22375488 17.04120445 8 13 17
245737.86743164 3357641.56854248 16.57839584 15 24 31
245738.44097900 3357648.82214355 17.00654030 19 25 25
245737.82238770 3357643.62402344 16.81004143 6 15 24
245739.21429443 3357647.15350342 16.26333046 20 30 32
245738.76263428 3357648.74298096 16.53330231 20 28 31
245737.61248779 3357645.73052979 16.70448112 10 19 24
245739.24108887 3357647.71118164 16.20932961 17 26 33
245737.72326660 3357647.08911133 16.64200592 9 14 18
245739.13433838 3357645.38391113 16.33563614 21 32 38
245737.60675049 3357643.19549561 16.84343338 17 27 37
245738.60095215 3357648.37268066 16.38156509 18 26 28
245738.17395020 3357644.26129150 16.63076782 24 28 37
245739.01556396 3357645.84332275 16.34640694 25 35 44
245737.97515869 3357643.80706787 16.74170494 2 6 18
245738.71795654 3357645.57049561 16.31720352 28 41 49
245737.43469238 3357643.63812256 16.79815102 4 11 19
245738.68310547 3357648.09478760 16.25270653 20 30 32
245739.17504883 3357645.75073242 16.33742714 23 33 42
245737.36120605 3357645.58801270 16.71875572 9 14 20
245739.41967773 3357647.51037598 16.21562004 26 35 42
245738.02471924 3357644.21160889 16.75753975 2 7 13
245738.94891357 3357647.68005371 16.19256783 21 28 38
245738.32324219 3357647.49725342 16.39243317 6 15 20
245739.32495117 3357646.37414551 16.31044579 24 35 41
245737.56518555 3357642.21337891 16.64964485 15 25 37
245738.05932617 3357644.05596924 16.79667091 5 15 24
245737.86993408 3357643.49328613 16.79098129 12 21 30
245737.72723389 3357644.55352783 16.68609047 5 16 22
245737.99108887 3357643.24475098 16.86892319 13 21 32
245738.18414307 3357643.29138184 16.58707237 11 25 34
245739.04528809 3357648.60699463 16.31347275 22 30 33
245738.39953613 3357647.55133057 16.33389091 17 26 33
245738.23834229 3357647.77734375 16.53023720 14 25 31
245738.21173096 3357648.34716797 16.53969002 7 15 17
245739.31036377 3357648.42132568 16.28140831 26 33 39
245738.35778809 3357645.97033691 16.37184906 23 33 42
245737.24554443 3357645.34533691 16.72680283 11 14 21
245738.99395752 3357647.16149902 16.29182053 19 30 32
245738.57800293 3357643.53814697 16.40373230 25 39 48
245737.26776123 3357644.74548340 17.25833321 9 14 20
245737.95861816 3357643.57067871 16.74378014 35 38 45
245738.56732178 3357642.94677734 16.44545937 26 39 48
245737.67523193 3357646.30865479 16.65061188 15 24 29
245738.85943604 3357649.19738770 16.79019737 14 22 25
245739.07067871 3357647.38531494 16.25099182 23 30 36
245737.85638428 3357647.89996338 16.82591057 22 32 33
245738.68206787 3357648.86358643 16.74758911 26 31 35
245737.93463135 3357643.79193115 16.76489830 0 4 14
245737.90545654 3357645.46765137 16.66302681 0 7 10
245738.09136963 3357641.99987793 16.39658737 29 43 54
245737.49365234 3357642.98388672 16.94136047 14 24 34
245738.03753662 3357642.77160645 17.04157448 5 13 24
245737.30316162 3357644.24896240 17.06677055 2 5 10
245738.10717773 3357642.81140137 17.07917595 5 13 24
245737.87646484 3357642.79064941 17.16785240 58 71 80
245737.73681641 3357642.45495605 16.61496735 14 24 33
245737.41424561 3357644.68426514 16.88525391 16 26 35
245737.93054199 3357643.52313232 16.75507164 22 27 33
245738.23223877 3357642.98632813 16.68490601 23 33 45
245737.46679688 3357642.96881104 16.94089127 10 23 32
245738.38800049 3357646.56481934 16.45227242 13 20 28
245737.46081543 3357644.34100342 16.88174057 5 9 18
245738.45623779 3357643.12554932 16.47865677 28 42 51
245738.04205322 3357642.72070313 16.62518311 16 26 36
245738.35467529 3357648.77105713 17.09004593 20 24 27
245738.03155518 3357645.78820801 16.53164864 11 20 27
245737.27191162 3357645.97589111 16.82870483 31 38 44
245737.27221680 3357643.74810791 16.84471321 3 11 14
245739.04162598 3357648.94647217 16.43672562 32 37 41
245737.41168213 3357646.71813965 16.71639252 8 15 21
245738.61474609 3357646.90258789 16.41300583 16 23 31
245737.84222412 3357642.77215576 17.14038277 59 73 84
245737.36975098 3357646.58807373 16.74266815 5 12 18
245737.95349121 3357645.66931152 16.60999107 7 14 22
245737.29510498 3357644.50177002 17.15993118 31 41 51
245738.37994385 3357648.79827881 17.13717270 22 23 27
245738.76422119 3357646.36358643 16.36229324 17 26 35
245737.84942627 3357648.01440430 16.97505760 15 23 26
245738.21032715 3357647.85711670 16.57439041 41 50 57
245738.98785400 3357644.29986572 16.36491585 31 45 54
245738.53033447 3357648.96319580 17.18277168 32 36 39
245738.17169189 3357646.79321289 16.56050301 2 7 11
245737.97033691 3357642.32214355 16.41754532 25 39 48
245738.55145264 3357648.83258057 16.85621452 18 23 26
245738.11950684 3357644.10070801 16.77346611 21 30 37
245737.90313721 3357646.57421875 16.59608459 3 10 16
245737.66912842 3357645.05072021 16.61857796 12 21 28
245737.66015625 3357647.06658936 16.66452408 2 10 13
245737.99652100 3357648.29663086 16.86746788 10 15 19
245738.21484375 3357642.93914795 16.71918869 18 28 37
245738.90789795 3357646.17919922 16.35445786 24 34 43
245738.00555420 3357648.33740234 17.04794121 8 13 17
245738.66894531 3357646.80310059 16.39759254 22 29 37
245738.71105957 3357647.76434326 16.20967865 29 36 46
245738.14654541 3357642.83984375 17.13563347 6 16 28
245738.93731689 3357648.92364502 16.48211861 24 32 35
245738.73089600 3357648.44635010 16.36967468 17 25 28
245738.43444824 3357642.52459717 16.40336609 29 39 49
245737.96832275 3357641.45465088 17.15869713 31 45 58
245737.81518555 3357643.32360840 16.83289528 13 22 31
245738.02526855 3357646.32751465 16.52921486 8 19 21
245738.25592041 3357642.47528076 16.40001869 30 43 51
245737.76525879 3357643.11499023 16.94127655 15 25 35
245739.09545898 3357646.20684814 16.34226227 22 33 39
245737.89093018 3357641.45819092 16.97249794 19 29 41
245737.22613525 3357645.03698730 17.14905739 52 61 70
245739.04815674 3357648.91455078 16.41865921 25 33 36
245738.91302490 3357647.21453857 16.29735947 17 28 30
245738.17718506 3357645.38421631 16.44999886 12 25 33
245738.02886963 3357647.67480469 16.64359093 8 16 19
245737.66149902 3357642.12347412 16.55235863 21 35 44
245739.06201172 3357648.78533936 16.35598183 27 35 37
245737.52111816 3357641.71069336 16.74384689 10 20 32
245738.28875732 3357642.91693115 16.58106422 16 31 38
245737.92602539 3357641.20269775 17.34593773 124 136 148
245737.23754883 3357645.79803467 16.86013222 7 14 20
245738.10321045 3357648.51910400 16.77990341 18 22 25
245739.32495117 3357648.24945068 16.26370239 21 30 39
245738.93206787 3357647.83276367 16.20291519 21 28 38
245737.66333008 3357646.46215820 16.65781784 9 18 23
245739.47613525 3357647.86364746 16.22516632 34 43 50
245737.80249023 3357641.13488770 17.28623009 21 31 41
245739.45019531 3357646.33551025 16.30152893 25 36 42
245738.45684814 3357644.79119873 16.36689186 27 40 48
245738.69110107 3357643.53387451 16.40544701 36 50 59
245737.24420166 3357643.19854736 16.73779678 19 28 37
245737.21331787 3357643.91693115 16.94256973 0 6 14
245738.50195313 3357646.97296143 16.43524170 15 24 29
245739.08111572 3357646.23010254 16.34205818 22 33 39
245738.51116943 3357645.93780518 16.34419441 21 31 40
245737.94152832 3357643.09185791 17.07298279 7 17 27
245738.38018799 3357646.20080566 16.38544846 17 26 35
245737.64666748 3357644.06762695 16.81074715 5 16 22
245737.91339111 3357644.76159668 16.57473946 5 15 24
245737.82623291 3357641.45361328 16.80504799 19 28 37
245738.81286621 3357649.33673096 17.05211639 15 20 23
245737.71771240 3357642.91729736 17.09766006 4 17 26
245738.18316650 3357645.03326416 16.39360619 18 28 37
245738.18847656 3357644.38684082 16.52017021 10 19 28
245738.65185547 3357646.17993164 16.35319138 19 29 38
245737.38775635 3357644.94403076 16.82433510 36 46 58
245738.52105713 3357643.64178467 16.39293289 26 40 49
245737.49133301 3357642.79113770 17.05967331 2 12 24
245737.17333984 3357645.37902832 16.80700493 41 44 51
245737.41192627 3357645.54937744 16.69463921 9 13 22
245737.48205566 3357644.99639893 16.65126419 10 15 19
245738.75012207 3357645.95605469 16.34021378 23 33 42
245738.22625732 3357646.68054199 16.52520561 13 18 24
245738.74822998 3357649.23449707 17.11540031 18 21 26
245739.04583740 3357647.25994873 16.27527237 23 33 35
245738.28057861 3357648.57781982 16.61901283 14 19 23
245738.86096191 3357643.85559082 16.37891197 24 37 46
245737.95800781 3357644.52954102 16.57602310 16 26 35
245738.24188232 3357647.00231934 16.57350922 35 40 44
245739.32525635 3357648.29357910 16.26489639 21 30 39
245737.86193848 3357646.53881836 16.60412598 11 21 23
245737.25531006 3357643.90991211 16.92216110 0 5 11
245738.26348877 3357643.31518555 16.52543259 21 36 43
245737.72851563 3357643.52941895 16.79255867 5 12 22
245737.66583252 3357646.97729492 16.63675308 3 8 12
245738.58789063 3357648.83087158 16.81448936 22 27 31
245738.08129883 3357648.35198975 16.60970688 11 16 20
245739.20739746 3357646.44262695 16.31672096 23 34 40
245737.48516846 3357642.27740479 17.09910202 20 28 39
245737.97259521 3357643.28112793 16.84491730 15 24 33
245738.25769043 3357643.74645996 16.41872978 19 33 42
245737.75671387 3357644.55975342 16.67054749 10 21 27
245737.97106934 3357647.93377686 16.71960068 18 26 29
245737.31097412 3357643.61810303 16.79294968 5 13 16
245737.82855225 3357642.47033691 16.53895760 11 24 33
245737.22283936 3357646.49639893 16.85719109 15 22 30
245737.89935303 3357648.06622314 16.91602516 18 26 29
245737.56945801 3357642.80822754 17.06113243 9 21 35
245738.15203857 3357648.45947266 16.60650253 52 56 59
245738.50915527 3357647.71905518 16.24218750 19 28 37
245738.61016846 3357647.44830322 16.28021812 18 27 34
245738.58264160 3357645.63336182 16.31902313 21 34 42
245738.63269043 3357646.99407959 16.38597298 15 23 26
245739.08172607 3357647.65728760 16.19950485 19 26 36
245737.98205566 3357643.39880371 16.76261330 17 21 32
245737.64410400 3357645.61614990 16.65787697 5 12 22
245738.51049805 3357642.79571533 16.44248962 27 40 49
245737.28582764 3357644.03790283 16.96987915 2 9 15
245738.13140869 3357646.84686279 16.58126259 2 7 11
245737.75103760 3357644.19696045 16.78931808 3 6 15
245738.18255615 3357646.67340088 16.53608131 9 13 22
245737.26953125 3357645.20343018 16.78767014 27 35 46
245739.05444336 3357648.60424805 16.31285286 25 33 36
245737.84545898 3357643.80688477 16.79403687 3 7 18
245738.86730957 3357647.11114502 16.31357384 20 30 32
245738.31396484 3357643.19281006 16.54712296 20 37 44
245738.29711914 3357646.74932861 16.51608276 19 24 28
245738.59558105 3357644.30566406 16.37834740 25 40 47
245739.15625000 3357647.55566406 16.20451546 18 25 33
245739.59600830 3357647.84631348 16.23119736 28 39 41
245738.58062744 3357643.47125244 16.40969849 27 41 50
245737.68853760 3357641.63256836 16.68204308 15 25 34
245737.66223145 3357642.64489746 17.06178474 35 45 55
245737.47430420 3357642.19744873 17.10248947 31 41 51
245739.28033447 3357647.34008789 16.23626328 22 32 34
245738.90704346 3357645.53057861 16.32488632 25 35 44
245738.57055664 3357645.24774170 16.34417343 29 39 48
245737.60699463 3357643.16699219 16.86006165 15 25 35
245739.45440674 3357647.32269287 16.21058273 24 35 41
245737.86499023 3357643.11553955 16.99222755 13 23 32
245738.95080566 3357645.07360840 16.34833145 30 40 49
245737.83050537 3357642.53411865 16.58772469 7 20 28
245737.30749512 3357643.96392822 16.92624855 8 15 21
245738.01770020 3357643.14129639 17.02682304 7 17 27
245737.32281494 3357645.19299316 16.60152245 14 23 30
245738.72534180 3357645.08770752 16.35041046 20 30 39
245738.07568359 3357645.08410645 16.46798515 6 17 23
245738.18298340 3357646.12738037 16.42901421 15 24 31
245739.42962646 3357646.96887207 16.25298500 23 32 39
245739.17395020 3357646.37139893 16.32440376 21 32 38
245738.55926514 3357646.64672852 16.41294098 21 28 36
245738.60754395 3357644.93743896 16.35952759 26 39 47
245737.99084473 3357645.08795166 16.52126694 1 14 22
245738.88317871 3357648.94842529 16.56858635 27 37 39
245737.71569824 3357647.48419189 16.71265030 12 19 25
245739.42675781 3357646.68487549 16.28442764 25 34 43
245738.96600342 3357646.67785645 16.33683014 19 28 35
245737.43249512 3357644.46734619 16.91598320 33 37 46
245738.36706543 3357645.85223389 16.37767982 21 31 40
245738.42980957 3357647.93707275 16.38892746 43 50 56
245739.46099854 3357647.77471924 16.22268295 30 39 46
245738.27093506 3357646.09765625 16.39152336 22 31 38
245738.60961914 3357648.88604736 16.85561943 25 30 34
245737.42315674 3357644.74078369 16.84234238 24 34 44
245737.67138672 3357642.67529297 17.08166504 44 54 66
245738.48333740 3357643.87622070 16.36746407 25 38 47
245738.58599854 3357647.73724365 16.22978020 23 30 40
245738.76379395 3357644.80291748 16.36444473 24 39 46
245738.20373535 3357646.27514648 16.45199394 14 25 31
245737.81121826 3357646.75585938 16.62269211 14 22 25
245739.26171875 3357647.95562744 16.21621513 19 28 35
245737.93127441 3357642.70611572 16.99495506 0 8 19
245738.70172119 3357643.29504395 16.42675018 22 36 45
245738.96185303 3357648.65460205 16.33934021 29 37 40
245738.30401611 3357648.71350098 17.17640495 20 24 27
245738.63592529 3357649.09576416 17.35854912 15 19 22
245737.66668701 3357642.93151855 17.06307793 6 16 26
245738.56219482 3357646.34637451 16.38623428 17 24 34
245737.96777344 3357648.25946045 17.04865837 12 20 23
245739.14874268 3357646.41223145 16.32405090 22 33 39
245738.69927979 3357647.36431885 16.28465462 17 26 33
245737.53009033 3357642.36199951 16.76954842 6 17 23
245738.58367920 3357645.16589355 16.34818077 19 32 40
245737.34875488 3357645.26019287 16.55368614 7 17 19
245737.48712158 3357642.38171387 16.99272156 0 7 17
245738.43041992 3357648.84753418 17.16486168 21 25 28
245738.30737305 3357648.01470947 16.52319527 51 60 65
245739.39208984 3357648.48101807 16.28714752 30 38 41
245738.20831299 3357648.56109619 16.62296104 19 24 28
245738.31829834 3357648.71252441 17.29692268 32 36 39
245739.46112061 3357648.03186035 16.22744179 23 32 41
245738.07989502 3357648.49896240 16.89612198 23 27 30
245737.67718506 3357647.18072510 16.67458916 6 14 16
245738.26702881 3357642.83959961 16.56757164 15 28 37
245737.83850098 3357647.39208984 16.64437485 14 22 25
245738.24713135 3357642.96704102 16.63756943 19 31 43
245738.12847900 3357645.96997070 16.46099472 5 14 21
245737.78533936 3357645.93304443 16.63977051 11 19 22
245738.48504639 3357648.91314697 17.31047249 31 35 38
245737.20465088 3357643.86535645 16.91628265 3 8 14
245738.03527832 3357641.12384033 17.18877983 27 35 46
245738.63586426 3357649.01885986 17.07317543 20 25 28
245737.62487793 3357645.67736816 16.68073463 11 20 27
245738.95690918 3357644.37133789 16.36506271 27 41 50
245738.23461914 3357644.71063232 16.36079979 23 33 42
245738.54840088 3357645.79687500 16.32729530 14 29 36
245737.95806885 3357648.06866455 16.79360199 17 25 28
245737.38812256 3357645.38439941 16.62434196 8 15 21
245738.46124268 3357648.88159180 17.29358673 27 31 34
245739.45794678 3357648.29919434 16.26105690 30 39 48
245737.33776855 3357644.95239258 17.00398827 33 45 57
245737.50738525 3357642.40844727 16.93296242 4 8 19
245737.59686279 3357642.54571533 17.03146362 3 10 20
245738.67340088 3357645.91076660 16.32992935 17 30 38
245737.66265869 3357647.51617432 16.74936295 24 32 35
245737.58819580 3357645.35241699 16.61800194 5 10 14
245737.29382324 3357645.08026123 16.93003464 22 35 44
245739.41174316 3357647.25866699 16.22417831 24 33 38
245738.51104736 3357646.13720703 16.36296272 18 28 37
245737.87390137 3357646.75689697 16.61676025 5 10 16
245737.95379639 3357641.07269287 17.10030937 23 33 42
245738.16680908 3357644.92437744 16.38741875 3 13 22
245739.27130127 3357648.41180420 16.28120613 24 31 37
245737.79803467 3357643.30889893 16.83375740 10 20 30
245737.81823730 3357641.54113770 16.62684822 14 23 30
245738.36755371 3357648.57159424 16.58682823 17 25 28
245737.83758545 3357647.18542480 16.61903191 6 14 17
245737.78332520 3357643.98583984 16.78813171 8 18 27
245737.93072510 3357643.02679443 17.14609146 7 20 29
245738.99841309 3357644.20831299 16.36626625 29 43 52
245738.58874512 3357644.71459961 16.37111855 25 39 48
245737.93792725 3357642.79229736 17.16497040 60 72 84
245739.47479248 3357647.38208008 16.20137787 29 39 48
245738.46057129 3357645.69592285 16.35639381 19 32 40
245738.11877441 3357646.56573486 16.53461647 8 15 21
245738.57116699 3357648.90350342 16.95432854 32 37 40
245738.33355713 3357648.41436768 16.50455475 15 26 28
245737.28521729 3357645.28747559 16.69273949 5 12 20
245738.45593262 3357648.67803955 16.70325851 20 28 30
245737.34027100 3357645.24420166 16.55643272 9 19 21
245738.58764648 3357648.88763428 16.88146591 29 34 37
245738.70770264 3357648.43872070 16.37515831 19 27 30
245738.24298096 3357648.61499023 16.75465584 13 18 22
245739.09228516 3357644.52703857 16.35465431 22 36 45
245738.42138672 3357643.37561035 16.44001770 21 35 44
245738.55133057 3357642.66772461 16.42065811 29 43 52
245738.18072510 3357643.72766113 16.44609833 19 33 42
245738.19628906 3357644.46820068 16.45002556 18 27 34
245738.77520752 3357648.89331055 16.67244530 28 36 39
245737.88836670 3357646.52276611 16.59587097 11 21 23
245738.88195801 3357647.56781006 16.21922493 18 25 33
245739.44665527 3357647.45965576 16.21802330 25 34 41
245739.01531982 3357645.44018555 16.32856941 26 36 45
245737.55291748 3357644.97448730 16.65553665 16 21 27
245737.43194580 3357646.26232910 16.73343468 14 21 27
245737.19104004 3357645.95837402 16.85677338 21 29 32
245737.42181396 3357645.84381104 16.80865860 9 16 22
245738.97839355 3357648.38653564 16.30030632 23 31 34
245737.55151367 3357644.38549805 16.82699776 0 5 9
245737.10467529 3357645.57672119 16.86774635 6 13 19
245738.16406250 3357648.11627197 16.59237099 27 37 39
245737.27795410 3357644.83306885 17.22801590 7 16 23
245737.44000244 3357641.97137451 16.77316856 8 25 33
245737.84826660 3357642.54656982 16.57965851 7 20 28
245737.81005859 3357646.18389893 16.59143448 17 24 32
245739.51293945 3357648.26586914 16.25509644 31 40 49
245737.94757080 3357641.14331055 17.32368279 53 65 77
245737.33715820 3357643.70721436 16.82690620 0 8 10
245738.05224609 3357642.78009033 17.04723930 5 13 24
245737.76684570 3357643.43652344 16.79715347 8 19 25
245737.96307373 3357644.80462646 16.53363228 2 11 20
245737.73150635 3357644.17517090 16.80183792 5 10 16
245737.80883789 3357645.11230469 16.60632515 4 14 23
245737.29229736 3357644.93737793 17.16837311 43 53 63
245737.95397949 3357641.25701904 16.97523499 22 29 39
245737.80987549 3357643.26495361 16.84956360 8 18 28
245737.36157227 3357646.13037109 16.77418900 6 13 21
245737.96508789 3357646.82574463 16.60547256 7 12 16
245738.12396240 3357645.36614990 16.48087502 14 27 35
245739.06274414 3357647.00592041 16.29793739 24 34 36
245738.02307129 3357642.03784180 16.41166496 28 42 51
245738.23229980 3357646.46459961 16.48853111 15 22 30
245738.49255371 3357642.58935547 16.40985298 29 42 51
245737.89727783 3357643.62274170 16.78901672 2 7 13
245737.75421143 3357641.12194824 17.25271034 25 35 44
245738.42742920 3357648.62652588 16.63470078 19 27 30
245737.51403809 3357643.45251465 16.78164482 16 25 34
245737.90917969 3357642.87194824 17.20588684 67 79 93
245738.45770264 3357646.94586182 16.47153664 14 24 26
245738.72528076 3357646.13037109 16.35014915 23 33 42
245738.77886963 3357646.34570313 16.36211967 17 26 35
245738.42059326 3357647.20166016 16.41937637 16 25 30
245737.81622314 3357647.01513672 16.62852097 7 12 16
245738.46423340 3357647.74865723 16.28224182 20 29 36
245738.69067383 3357649.17449951 17.27577782 17 22 25
245738.31079102 3357648.58966064 16.62439728 14 22 25
245737.89831543 3357646.96160889 16.61437607 4 9 12
245737.50408936 3357642.33465576 17.27971458 46 56 66
245738.94573975 3357644.94628906 16.35367203 26 41 48
245737.90264893 3357641.45483398 16.99572945 19 29 41
245738.83325195 3357644.22656250 16.37099075 27 41 50
245738.12591553 3357643.58453369 16.50138664 23 36 44
245737.71911621 3357645.41778564 16.64391708 2 7 13
245739.05450439 3357646.09979248 16.34624672 25 35 44
245738.87823486 3357646.20581055 16.35619926 24 33 42
245737.71008301 3357645.22766113 16.60556030 12 21 26
245738.59252930 3357644.62829590 16.37547112 20 34 43
245738.64190674 3357644.58996582 16.37681007 20 34 43
245739.09857178 3357648.01623535 16.22307396 22 27 33
245739.32519531 3357646.94903564 16.26865387 21 31 33
245738.94134521 3357648.77850342 16.40909386 23 31 34
245739.31683350 3357645.39239502 16.32743645 28 38 48
245737.63012695 3357644.08074951 16.81751442 4 13 20
245737.45843506 3357647.06726074 16.76133347 9 17 20
245738.17321777 3357645.26397705 16.43440819 18 31 39
245738.40008545 3357642.68701172 16.41110420 26 37 43
245739.32690430 3357646.22027588 16.32026863 22 33 39
245738.56170654 3357643.70336914 16.38750458 28 41 49
245737.96203613 3357641.29357910 16.98626137 18 25 35
245739.14831543 3357644.83538818 16.34526253 21 36 43
245739.18640137 3357647.43267822 16.23216248 24 31 39
245738.23046875 3357644.27685547 16.54298401 15 24 31
245737.55657959 3357644.29431152 16.83428192 1 4 11
245739.02160645 3357647.60192871 16.20205307 18 25 33
245737.84484863 3357641.40496826 16.73284149 20 29 36
245738.19354248 3357645.66625977 16.46046066 14 27 35
245738.04077148 3357643.36450195 16.73348999 17 27 36
245738.61639404 3357648.24420166 16.32666397 17 27 29
245738.88519287 3357648.54064941 16.32955360 30 38 41
245737.63452148 3357647.41009521 16.71941948 4 12 14
245737.50720215 3357646.88116455 16.68085098 20 25 31
245737.68139648 3357645.02233887 16.62202072 7 16 21
245738.75274658 3357644.29290771 16.37551117 25 40 47
245737.92779541 3357643.78546143 16.76857758 0 3 14
245738.23193359 3357645.06066895 16.37619781 18 31 39
245739.30865479 3357646.02569580 16.33246994 26 36 45
245737.83874512 3357645.09619141 16.60588837 6 16 25
245738.53570557 3357646.98614502 16.41572952 19 27 30
245737.78894043 3357644.51586914 16.66907310 6 17 23
245737.95104980 3357642.79327393 17.16543961 40 52 64
245737.28222656 3357643.18725586 16.75189018 17 27 36
245737.80566406 3357647.63623047 16.73172760 9 16 22
245739.48138428 3357647.40008545 16.19851303 29 39 48
245738.69219971 3357647.70513916 16.21471405 20 27 37
245739.33740234 3357648.15838623 16.24664116 24 33 42
245737.44512939 3357642.55529785 17.15498352 31 40 55
245737.89093018 3357642.41967773 16.47457695 19 32 40
245739.33343506 3357647.59375000 16.21227074 20 29 36
245738.62023926 3357643.21087646 16.43325615 28 43 50
245737.95599365 3357641.25524902 16.97965622 22 29 39
245738.16571045 3357643.60437012 16.46066475 26 41 48
245739.11499023 3357644.97033691 16.34421539 19 34 41
245738.00006104 3357645.94726563 16.52380562 5 16 18
245738.81488037 3357648.42669678 16.31855392 28 35 41
245739.37988281 3357645.92907715 16.32805824 29 40 46
245737.66986084 3357641.55432129 16.96301842 98 112 123
245737.79046631 3357644.47473145 16.68750954 1 11 20
245737.92272949 3357643.60754395 16.77368927 20 23 28
245738.20001221 3357642.86791992 17.00583839 9 19 31
245737.83013916 3357642.65246582 16.96535683 2 11 20
245739.34851074 3357645.84191895 16.32905579 27 37 46
245738.63708496 3357645.55786133 16.31914902 21 34 42
245737.45135498 3357645.07537842 16.61364365 18 26 29
245738.96044922 3357647.96051025 16.21702766 22 29 39
245737.79736328 3357645.96081543 16.62899590 12 20 23
245737.32568359 3357644.90472412 17.10994339 11 19 30
245737.84362793 3357645.59655762 16.67046928 0 6 14
245737.09960938 3357643.62957764 16.80615997 6 16 18
245737.93280029 3357647.77661133 16.72165108 13 21 24
245737.94342041 3357644.86193848 16.55181503 0 8 17
245739.03961182 3357645.58447266 16.34094048 25 34 43
245737.58441162 3357646.72937012 16.65247345 14 21 29
245738.70678711 3357649.10113525 17.07049370 19 24 27
245737.61889648 3357643.42694092 16.79262161 13 23 32
245737.96966553 3357643.11785889 17.05979156 4 14 24
245737.81024170 3357641.50354004 16.93556595 59 69 81
245738.23992920 3357647.43878174 16.45625114 9 16 22
245738.97845459 3357648.02111816 16.22510910 18 25 33
245739.11706543 3357644.86254883 16.34634972 21 36 43
245737.95227051 3357646.59948730 16.58692932 3 8 12
245737.60394287 3357642.47387695 16.86112976 4 8 17
245738.37261963 3357643.58496094 16.40628624 17 31 40
245738.98205566 3357646.90148926 16.33469963 23 33 35
245737.55834961 3357643.23260498 16.81258011 15 25 35
245738.54595947 3357645.31933594 16.33958054 26 36 45
245738.85217285 3357646.69171143 16.35819244 19 28 35
245737.30706787 3357646.83416748 16.77240181 14 19 25
245737.18603516 3357643.30474854 16.71319580 14 25 31
245738.71618652 3357648.36810303 16.33345604 24 34 36
245737.24316406 3357644.87304688 17.27021599 1 10 17
245737.53674316 3357643.10479736 16.88286972 14 24 34
245738.91876221 3357644.20495605 16.36869621 32 46 55
245739.00854492 3357645.24829102 16.33871269 25 38 44
245737.42492676 3357646.49316406 16.73008728 11 18 24
245737.73846436 3357641.20745850 17.28080940 20 31 35
245739.06713867 3357646.52899170 16.32390785 19 28 37
245738.46887207 3357643.98413086 16.36361694 18 31 37
245738.94012451 3357644.53582764 16.36252213 19 33 42
245739.33093262 3357645.91955566 16.33053589 26 37 43
245737.55322266 3357642.56549072 17.07048798 2 8 20
245738.80316162 3357648.50097656 16.36256218 26 34 37
245737.33331299 3357646.87292480 16.76723289 9 14 18
245738.31671143 3357646.08874512 16.37743950 27 36 43
245737.80017090 3357644.17358398 16.78810310 5 10 16
245738.04827881 3357645.74243164 16.53808022 9 18 25
245739.27453613 3357648.06530762 16.22834587 20 29 36
245738.65405273 3357642.88500977 16.44195175 30 44 53
245737.34881592 3357644.24053955 17.01464462 4 11 17
245737.57086182 3357647.01654053 16.69058800 8 18 20
245738.52026367 3357648.68475342 16.67708015 24 29 32
245737.60571289 3357645.26959229 16.60557175 18 26 29
245739.37304688 3357647.39141846 16.21846199 25 34 39
245737.97180176 3357648.24450684 16.91609192 18 23 27
245738.64385986 3357644.45294189 16.37992668 18 32 41
245738.63763428 3357646.50903320 16.38873100 20 29 36
245737.58300781 3357643.37969971 16.79399681 14 24 33
245737.27911377 3357645.93774414 16.83571053 16 24 27
245738.45831299 3357642.59179688 16.40752983 32 42 51
245737.52117920 3357646.34985352 16.70436859 14 23 30
245737.72467041 3357645.16992188 16.60146523 11 22 28
245737.95721436 3357647.59881592 16.65445328 17 25 28
245738.58221436 3357648.03698730 16.27005577 21 28 34
245738.48242188 3357647.79858398 16.26475334 21 28 36
245737.90014648 3357644.89154053 16.58935547 7 16 25
245738.26281738 3357643.24676514 16.54814720 15 32 39
245738.68743896 3357648.57879639 16.47011566 19 27 30
245737.65405273 3357644.46887207 16.74583435 4 9 13
245737.44085693 3357642.13214111 16.80392456 7 17 27
245738.97888184 3357648.41906738 16.30116272 24 32 35
245739.21490479 3357648.24456787 16.26876259 18 27 34
245737.88073730 3357644.29827881 16.73159790 1 6 12
245738.75244141 3357647.21643066 16.31206322 16 24 27
245737.87817383 3357646.27526855 16.56927681 7 18 20
245737.85821533 3357643.28393555 16.84661102 13 23 32
245738.44348145 3357645.05603027 16.35470200 24 39 46
245737.95538330 3357642.72192383 16.97347832 2 12 22
245738.87048340 3357643.73602295 16.38963318 36 46 55
245739.02648926 3357648.28204346 16.28173065 25 35 37
245738.40228271 3357648.50616455 16.53235054 20 30 32
245737.91375732 3357646.97192383 16.61499405 4 9 12
245737.26226807 3357644.16918945 17.06255150 3 13 15
245737.16790771 3357643.86907959 16.93464661 1 6 12
245737.69415283 3357641.58416748 16.78323936 13 20 36
245739.09210205 3357647.19110107 16.27587318 18 29 31
245738.45141602 3357648.56384277 16.55101585 21 29 31
245738.12005615 3357643.57067871 16.51159668 19 29 38
245738.03289795 3357642.64587402 16.52594757 16 26 36
245737.25317383 3357643.98272705 16.95724297 1 8 16
245738.16345215 3357643.23089600 16.66082382 15 25 35
245738.40942383 3357645.66918945 16.37099457 19 32 40
245738.27734375 3357642.90270996 16.59800339 16 29 38
245737.96020508 3357648.23559570 16.95997620 18 23 27
245739.23834229 3357645.85925293 16.33491898 24 35 41
245738.80566406 3357643.85919189 16.37728500 34 44 54
245738.59979248 3357648.76971436 16.72963715 19 24 27
245738.27471924 3357644.25952148 16.46667480 15 24 29
245738.02111816 3357642.97698975 17.23444939 11 24 40
245738.70404053 3357646.02697754 16.34092140 24 34 43
245738.21539307 3357648.61401367 17.22617340 20 24 27
245738.93505859 3357648.58837891 16.32143211 28 36 39
245738.53649902 3357648.18676758 16.33559418 17 22 28
245738.89257813 3357646.53265381 16.34190369 20 29 38
245737.72644043 3357645.85339355 16.68254280 17 25 28
245737.22003174 3357645.56585693 16.79355431 9 14 20
245738.54443359 3357645.00018311 16.35711479 23 36 44
245737.56835938 3357645.90301514 16.75940132 5 12 18
245738.33325195 3357642.27020264 16.39900017 26 39 48
245737.77941895 3357646.48620605 16.62789345 8 17 24
245738.37329102 3357644.18945313 16.41067505 23 34 40
245738.82330322 3357647.29461670 16.28870010 19 29 31
245739.20043945 3357647.76977539 16.20815849 20 29 36
245739.49908447 3357647.42175293 16.20429230 24 35 41
245737.47991943 3357642.33770752 16.98435020 4 8 20
245738.73876953 3357646.20098877 16.35634995 17 26 35
245737.79272461 3357643.61511230 16.80634308 6 15 24
245737.58685303 3357646.58264160 16.66267014 9 16 22
245738.02355957 3357647.28027344 16.58842468 13 18 21
245738.63372803 3357648.62121582 16.54112434 24 29 32
245737.64642334 3357642.58325195 17.02300835 6 12 24
245739.42810059 3357646.73596191 16.28348541 23 32 41
245738.14709473 3357644.73773193 16.37541580 16 27 33
245737.99200439 3357645.93701172 16.52971649 5 16 18
245738.07897949 3357641.31475830 17.32641029 106 116 126
245738.70574951 3357647.48400879 16.25830078 19 28 35
245737.46459961 3357645.26177979 16.57658958 9 17 20
245738.26165771 3357643.89367676 16.42559814 23 33 42
245737.27001953 3357644.05108643 16.98250771 0 7 13
245738.11865234 3357642.44354248 16.38457489 37 50 59
245739.41650391 3357648.22991943 16.25449753 23 32 41
245738.70233154 3357646.80499268 16.39166069 22 31 38
245738.17285156 3357643.32916260 16.57745171 15 28 37
245739.18383789 3357644.86871338 16.34352303 20 35 40
245737.88995361 3357648.03594971 16.87836266 16 24 27
245737.57751465 3357645.65045166 16.68430710 8 17 24
245739.33850098 3357646.10546875 16.32667160 30 41 47
245738.51379395 3357647.04760742 16.41150856 17 25 27
245738.14483643 3357642.00073242 16.39543724 25 39 48
245738.39892578 3357648.80584717 17.23019981 24 28 31
245737.97222900 3357643.53002930 16.72821808 19 24 30
245738.66387939 3357647.86938477 16.21308136 25 29 38
245738.54589844 3357644.24151611 16.37574768 28 41 49
245738.25939941 3357648.22741699 16.52667046 11 18 24
245738.98345947 3357647.47167969 16.23583221 21 28 36
245737.55267334 3357644.13244629 16.85004044 7 16 23
245738.38793945 3357645.67639160 16.37729073 20 30 39
245738.35748291 3357647.04156494 16.50714302 14 24 26
245738.69470215 3357646.94146729 16.38697624 17 25 28
245737.73364258 3357646.50720215 16.64209175 6 15 22
245739.57012939 3357647.86572266 16.23020935 28 39 43
245738.18701172 3357642.14343262 16.39698410 24 38 47
245737.43542480 3357643.58203125 16.76805496 2 11 18
245738.56549072 3357646.64703369 16.41142273 20 29 34
245737.45904541 3357645.09197998 16.60990334 7 15 18
245738.42138672 3357647.83349609 16.35923767 47 56 63
245738.16375732 3357645.05621338 16.40911293 18 29 35
245738.61273193 3357645.53436279 16.32133484 26 39 47
245738.30072021 3357648.66516113 16.79264832 18 26 29
245738.76989746 3357649.23620605 17.06222343 19 22 27
245737.47808838 3357643.27362061 16.78050613 18 28 37
245737.33154297 3357642.70947266 17.13502121 29 41 53
245738.76226807 3357644.56048584 16.37142181 20 34 43
245737.66430664 3357646.00604248 16.69231033 25 32 40
245737.90142822 3357647.69293213 16.71286964 11 19 22
245738.42523193 3357648.45434570 16.49547195 16 26 27
245737.58294678 3357644.58074951 16.74586105 4 9 13
245738.08532715 3357647.63116455 16.60113144 11 19 22
245738.42321777 3357644.89154053 16.36103630 21 34 42
245738.59051514 3357646.50677490 16.40026283 17 24 32
245738.99902344 3357649.08435059 16.51532936 17 24 30
245738.35443115 3357644.16778564 16.41425133 27 38 44
245737.41485596 3357644.95166016 16.78304482 31 41 51
245738.18438721 3357642.43652344 16.39247322 34 47 56
245738.71014404 3357647.06762695 16.34834671 20 28 30
245738.22393799 3357644.43218994 16.45697594 20 29 36
245737.24761963 3357645.07086182 17.07536888 10 19 26
245737.49609375 3357641.93646240 16.66336441 17 31 40
245738.46899414 3357648.66467285 16.66796112 22 30 32
245738.08001709 3357646.67047119 16.56406784 40 45 49
245737.52459717 3357643.68859863 16.79241371 0 6 12
245738.48352051 3357648.10699463 16.37117767 49 54 58
245738.80822754 3357645.64886475 16.32403564 23 36 44
245737.32629395 3357644.99066162 16.97539711 32 42 52
245738.30346680 3357644.99810791 16.35117912 23 36 44
245737.40985107 3357644.45837402 16.96162987 13 17 26
245737.89660645 3357647.78240967 16.74425316 15 23 26
245738.96972656 3357644.33081055 16.36523056 31 45 54
245737.94390869 3357644.33337402 16.70521736 0 3 12
245738.80303955 3357648.95550537 16.69779968 27 35 37
