246101.74975586 3357379.95727539 14.75982380 130 125 121
246107.05871582 3357379.12924194 15.16609192 117 114 109
246106.76916504 3357379.73086548 15.20745659 56 54 55
246107.04089355 3357391.65304565 14.97528553 92 86 86
246102.42395020 3357389.60339355 14.67942715 116 117 112
246100.16064453 3357386.19137573 14.57766914 145 145 143
246107.53088379 3357391.83654785 15.41288853 66 70 73
246105.90625000 3357381.77505493 14.88033867 95 91 90
246107.39355469 3357380.34179688 15.52083588 76 76 76
246104.07104492 3357378.32308960 15.23570538 113 109 106
246101.98547363 3357387.77996826 14.72819138 74 75 77
246106.88781738 3357388.64062500 15.17736340 51 47 44
246106.96118164 3357380.45196533 15.23157310 73 78 82
246103.18859863 3357383.93228149 14.71441936 124 120 119
246100.73205566 3357383.17822266 14.70459270 136 132 129
246106.68774414 3357389.44195557 14.91224575 121 116 112
246100.82873535 3357385.17578125 14.64475441 108 110 109
246101.51025391 3357385.16107178 15.00777340 43 43 45
246100.82788086 3357389.06976318 14.69463634 105 111 111
246104.00390625 3357378.27200317 15.30224800 108 104 101
246100.58874512 3357381.42959595 14.90147209 126 122 119
246100.59899902 3357379.75738525 14.71620655 140 136 133
246106.17297363 3357377.04379272 14.98992252 135 130 126
246102.95019531 3357377.93402100 14.75466156 132 128 127
246101.62890625 3357384.21731567 15.02404594 118 121 126
246100.06665039 3357387.75964355 14.56339073 162 167 171
246106.88757324 3357390.49365234 15.13097668 110 105 102
246102.25170898 3357387.97937012 14.71882153 76 80 83
246106.43164063 3357389.72784424 14.95216179 106 102 99
246102.64941406 3357386.44454956 14.66385078 108 107 105
246102.87817383 3357390.02725220 14.74741554 135 130 126
246107.71093750 3357392.01513672 15.41705990 42 42 42
246100.38977051 3357387.11468506 14.59266186 132 133 135
246105.03491211 3357376.56051636 14.84486198 82 81 86
246102.21337891 3357384.17724609 15.24812031 238 236 239
246099.90332031 3357386.58688354 14.55918789 231 226 230
246101.99060059 3357377.95126343 14.91265583 88 87 93
246107.03466797 3357388.17999268 15.33416462 63 63 63
246106.12060547 3357385.28625488 14.97397137 133 117 104
246107.32861328 3357384.63833618 15.53993988 73 65 54
246101.76086426 3357385.77880859 14.90619087 244 244 246
246100.29272461 3357391.53506470 14.56268883 141 135 135
246103.70373535 3357377.58905029 14.99287891 71 67 64
246107.52062988 3357383.41204834 15.08739948 92 88 89
246106.13818359 3357377.74398804 15.31772232 80 98 98
246102.79516602 3357391.94287109 14.89480209 96 93 88
246101.92187500 3357389.34487915 15.01079845 67 69 68
246106.82470703 3357384.19644165 15.22147560 116 110 110
246100.53674316 3357383.77188110 14.74288559 132 128 129
246106.74768066 3357385.44335938 15.25785065 106 54 17
246102.36047363 3357389.16339111 14.68942833 110 110 110
246104.31445313 3357378.40084839 15.17935944 89 85 82
246099.86535645 3357386.49874878 14.55886173 224 219 223
246101.99694824 3357389.11621094 14.81421566 88 88 88
246106.26074219 3357392.34509277 14.83290386 137 132 128
246101.18090820 3357386.78039551 15.30336666 37 42 48
246102.83532715 3357386.29956055 14.68883419 114 112 115
246107.22729492 3357387.74896240 15.45908642 74 73 71
246106.65515137 3357381.66247559 15.34534836 82 84 83
246107.74023438 3357391.88140869 15.07145596 121 114 106
246106.96948242 3357391.92022705 15.12969017 63 65 64
246104.44238281 3357376.29092407 15.03832626 62 58 55
246101.57531738 3357389.18103027 15.00353909 72 73 77
246106.98791504 3357381.46807861 15.41627121 111 109 110
246103.02026367 3357393.02532959 14.85879326 144 139 133
246102.73510742 3357390.36941528 15.04227161 53 51 52
246106.65209961 3357381.52783203 15.31825256 44 45 47
246104.51928711 3357377.31317139 14.85291481 125 120 116
246107.38244629 3357378.96810913 14.92251968 125 121 120
246100.51782227 3357381.74008179 14.82732868 142 138 135
246100.53686523 3357388.78854370 14.60066795 117 121 124
246107.03894043 3357378.00167847 15.08467865 118 113 110
246101.82519531 3357377.59167480 14.74482155 128 120 117
246103.62377930 3357377.19360352 14.89982033 130 125 121
246102.18127441 3357392.25234985 14.80965614 105 104 100
246102.10595703 3357384.50195313 15.16884518 72 73 68
246103.03674316 3357387.65298462 14.67021465 125 123 126
246101.46728516 3357386.27416992 14.96042252 129 121 118
246105.54821777 3357377.11892700 14.90147400 129 124 120
246107.54589844 3357390.17153931 14.79353619 121 114 104
246106.31628418 3357384.47930908 15.10269642 229 225 164
246102.83947754 3357391.91937256 14.88362789 99 98 94
246100.85192871 3357379.46844482 14.75913620 154 151 146
246102.59655762 3357390.52639771 15.14015484 42 43 45
246102.90100098 3357390.35806274 15.08283329 103 103 103
246107.44189453 3357379.69882202 15.01972294 76 76 74
246100.29663086 3357388.37478638 14.58088875 120 123 128
246100.98815918 3357384.08041382 14.76438713 111 110 108
246105.42602539 3357377.42611694 14.91137314 130 122 120
246100.14587402 3357391.23416138 14.53980923 217 215 216
246105.83959961 3357377.18200684 14.96255207 129 124 118
246105.76782227 3357376.54476929 14.96731758 114 114 116
246107.26977539 3357389.37420654 14.90280819 111 103 100
246107.13037109 3357380.19616699 15.27794170 119 118 124
246103.87573242 3357378.39703369 15.34873867 90 86 85
246102.98352051 3357382.00369263 14.69702339 124 123 121
246106.12622070 3357382.05914307 15.09405136 95 89 89
246100.62451172 3357391.19052124 14.59158707 136 132 131
246101.71374512 3357382.15875244 14.92208481 98 98 98
246106.13867188 3357387.79895020 15.07397270 110 99 95
246106.56530762 3357391.91690063 15.23758411 210 208 209
246102.85583496 3357388.73071289 14.68125057 120 118 119
246107.70178223 3357387.53991699 14.94060040 54 54 56
246100.94335938 3357380.02728271 14.85851002 107 103 100
246101.75427246 3357381.02221680 14.81908417 122 110 110
246106.01086426 3357378.81057739 14.88885117 123 119 116
246106.77868652 3357377.85800171 15.47064209 199 193 195
246102.20312500 3357378.95275879 15.32953072 159 157 162
246106.37341309 3357391.86907959 14.91780090 116 107 98
246103.09802246 3357388.02017212 14.68329525 104 105 107
246106.07104492 3357385.44824219 15.19238186 132 117 110
246106.27770996 3357383.48211670 15.06072807 118 108 106
246107.56091309 3357379.27008057 14.98044205 113 109 106
246106.56713867 3357378.19625854 15.43050861 84 70 67
246100.54223633 3357386.12985229 14.60976791 130 126 123
246101.34313965 3357384.00811768 15.13106918 250 254 255
246106.94311523 3357382.84545898 15.08710480 57 55 56
246105.73693848 3357376.44778442 14.91938019 113 113 113
246100.73815918 3357387.58862305 15.34145260 77 72 76
246106.89282227 3357391.93927002 15.27491093 46 46 48
246107.08215332 3357383.02166748 15.16588593 45 50 53
246107.10632324 3357388.18612671 15.42268372 43 43 43
246107.62243652 3357391.43103027 15.27493477 94 84 75
246103.61743164 3357376.47467041 15.39076042 46 47 49
246106.65844727 3357390.97036743 14.91876507 83 83 83
246105.59350586 3357377.47988892 14.96801853 125 120 116
246105.78308105 3357391.83633423 14.91749191 124 125 120
246106.75952148 3357388.50375366 15.11435318 90 85 82
246106.77856445 3357387.43255615 15.36686420 50 50 52
246101.07336426 3357378.40130615 15.27845383 75 65 66
246103.03247070 3357383.62777710 14.75044537 90 89 87
246102.08117676 3357387.04071045 15.06393623 28 29 31
246105.82214355 3357378.85012817 14.85707378 119 118 116
246107.56372070 3357383.95996094 14.94927025 27 26 22
246101.81237793 3357379.21752930 14.86864662 142 138 129
246105.72814941 3357390.62689209 14.93573093 84 84 82
246103.34851074 3357383.14514160 14.73526096 138 130 128
246102.72534180 3357379.78909302 14.94949055 121 113 110
246100.36315918 3357388.54998779 14.58710670 124 129 132
246102.68298340 3357385.72167969 14.87473106 110 110 108
246101.02062988 3357383.75729370 14.78619576 134 129 125
246102.39709473 3357382.31649780 14.69551086 119 117 118
246107.28088379 3357388.41610718 15.47446728 68 67 65
246107.11425781 3357384.77215576 14.99661827 50 49 45
246107.21984863 3357391.03381348 15.05066204 98 94 95
246106.33776855 3357387.02996826 14.87513161 116 109 103
246102.14868164 3357378.12307739 15.14026833 161 159 164
246103.08471680 3357392.77047729 14.75756168 126 121 115
246104.82409668 3357375.93008423 14.94836521 203 197 197
246104.81347656 3357378.60977173 14.88732719 90 90 88
246105.87756348 3357386.10122681 15.06765175 80 63 53
246103.00073242 3357390.35824585 14.97387791 50 52 49
246102.54333496 3357392.15844727 14.86107159 61 60 65
246101.94360352 3357385.80319214 15.21980572 88 92 95
246106.49902344 3357377.10488892 15.01926994 125 120 114
246102.28503418 3357380.08605957 15.39052677 83 84 88
246100.37841797 3357383.05950928 14.64048386 141 140 138
246107.03710938 3357392.24539185 14.93620586 73 72 70
246102.64990234 3357380.47064209 14.83910942 66 64 67
246107.22485352 3357382.38540649 15.46520710 197 198 202
246106.40490723 3357386.14874268 15.21068668 59 59 61
246106.88305664 3357382.04312134 15.57820225 59 57 58
246102.49719238 3357381.06674194 15.45290947 127 78 71
246101.81738281 3357381.62603760 14.75359249 118 113 109
246107.04565430 3357381.51724243 15.57864285 75 76 78
246106.76513672 3357387.04742432 15.07144070 116 108 105
246102.87951660 3357391.13070679 14.95284081 98 93 90
246105.78405762 3357382.98855591 14.90450859 128 121 115
246102.24157715 3357392.58248901 14.75391579 147 142 139
246103.33642578 3357390.33447266 14.77453136 87 85 86
246106.77502441 3357389.02142334 15.31688976 121 122 126
246106.77172852 3357378.21914673 15.46016121 51 50 46
246100.71191406 3357390.38229370 14.61283398 135 133 134
246100.62023926 3357383.63748169 14.73076248 138 134 133
246105.89562988 3357389.64675903 14.84701252 116 112 109
246101.97082520 3357387.01608276 15.01553917 62 63 68
246103.01513672 3357390.40625000 15.12853622 51 60 59
246102.25744629 3357388.73666382 14.64383888 110 112 109
246107.35253906 3357389.49536133 14.86187744 113 106 100
246100.91418457 3357386.46475220 14.70519638 124 116 113
246101.86779785 3357386.65042114 14.72308636 119 114 111
246100.75598145 3357382.13571167 14.80639267 116 113 108
246099.99963379 3357388.52337646 14.56052017 205 208 213
246107.42993164 3357382.11141968 15.22277069 94 92 93
246105.96337891 3357391.71594238 14.90228939 118 117 115
246102.65844727 3357385.86001587 14.82539558 119 118 114
246104.80871582 3357376.90686035 14.83902359 110 108 109
246101.95361328 3357387.34655762 15.10330772 103 103 103
246106.02539063 3357387.21298218 14.89435673 119 102 95
246107.14355469 3357386.88006592 14.91809845 109 99 97
246106.98144531 3357392.04992676 15.25263691 66 66 68
246102.25524902 3357386.97970581 14.74064159 71 70 75
246106.82336426 3357387.31762695 15.26649189 49 50 52
246101.72766113 3357380.65377808 14.70479679 91 90 88
246103.91247559 3357376.63641357 15.03031254 85 84 82
246100.67028809 3357389.00961304 14.66405869 114 118 121
246105.54211426 3357376.73846436 14.90585423 110 110 110
246102.55517578 3357383.44183350 15.02814293 181 180 186
246106.72741699 3357385.00326538 15.02888870 103 92 86
246101.27404785 3357388.33941650 14.78201008 113 113 111
246103.86840820 3357377.71984863 15.12939739 40 39 34
246107.35937500 3357381.34835815 15.20688438 143 143 143
246101.21447754 3357378.42410278 14.99658012 178 176 177
246107.11767578 3357382.34503174 15.57814121 80 76 73
246102.50537109 3357383.12213135 14.82147408 113 109 106
246106.57556152 3357385.86901855 15.15352345 66 54 56
246105.48571777 3357390.91748047 15.08493805 70 71 73
246102.12243652 3357390.74072266 14.89099407 69 70 74
246102.10498047 3357380.57971191 14.74010372 122 121 116
246105.52575684 3357378.56170654 15.02756310 117 112 108
246105.06652832 3357376.59216309 14.84835625 81 80 85
246102.41748047 3357385.22390747 14.86687088 52 53 55
246106.11950684 3357388.02456665 15.26782513 236 221 218
246107.46166992 3357392.05657959 15.15098572 159 159 161
246107.12280273 3357387.91168213 15.43254566 104 104 102
246105.92773438 3357387.04034424 14.80962276 127 118 113
246106.52490234 3357382.74386597 15.11188698 75 71 72
246102.15209961 3357384.36837769 15.12264633 60 59 57
246101.80517578 3357387.09640503 15.18369770 55 54 59
246103.08190918 3357381.02441406 14.74873638 90 90 90
246100.49194336 3357387.90884399 14.66506100 119 123 124
246102.02575684 3357378.23904419 15.12998199 62 56 56
246103.17431641 3357392.46923828 14.79092216 77 77 79
246107.24597168 3357387.78527832 15.47273922 73 72 70
246101.03137207 3357378.17895508 15.06756878 137 130 122
246106.12426758 3357383.52380371 15.01991558 128 118 116
246102.22753906 3357383.06869507 14.82045555 130 125 121
246104.66320801 3357378.41183472 14.90568733 112 108 107
246103.13720703 3357389.49649048 14.70571804 125 121 118
246100.27563477 3357382.97180176 14.62712193 141 137 136
246099.92175293 3357389.85516357 14.53805733 218 219 223
246101.50903320 3357383.27993774 15.01846409 162 143 137
246103.31994629 3357387.10391235 14.68647099 106 106 108
246101.95788574 3357383.28918457 15.16860008 203 158 152
246100.97485352 3357386.02221680 14.67960453 126 125 121
246101.33911133 3357384.13720703 14.76862049 111 109 96
246102.04052734 3357390.22399902 14.80784321 126 123 118
246103.68505859 3357376.72744751 14.94533920 95 94 92
246104.06689453 3357376.13336182 14.94847393 198 184 181
246107.54492188 3357385.65603638 15.12535381 82 52 41
246102.63879395 3357392.60665894 14.79160690 136 131 128
246102.03576660 3357383.31155396 15.11382580 213 185 184
246105.51428223 3357377.60946655 14.95607185 128 123 119
246107.11914063 3357392.53543091 14.81875134 123 120 115
246105.87927246 3357384.08538818 14.94026756 134 126 124
246107.34033203 3357391.25442505 15.21681595 96 97 101
246104.37536621 3357377.88449097 15.15342712 102 93 88
246103.17797852 3357387.89459229 14.67432213 105 103 106
246106.83032227 3357380.84225464 14.94668579 123 118 114
246107.61486816 3357381.50534058 15.46833515 203 204 208
246102.18493652 3357390.12881470 14.74333572 131 130 126
246107.37048340 3357379.64807129 15.07787991 78 78 76
246102.49609375 3357384.32412720 15.35789967 166 165 170
246105.68395996 3357378.70034790 14.94365692 120 116 113
246102.03161621 3357390.66677856 15.04900455 16 21 25
246106.01660156 3357386.99966431 14.80506706 135 126 121
246107.39208984 3357392.06097412 15.55538559 111 113 112
246106.73791504 3357384.67288208 15.28304195 35 34 30
246107.25122070 3357378.98641968 15.01113987 125 120 117
246106.20361328 3357383.55007935 15.06211948 136 126 124
246106.61621094 3357389.87826538 14.97295570 126 118 115
246103.04577637 3357389.02706909 14.70038509 123 119 118
246100.08056641 3357387.57275391 14.56853676 161 164 169
246106.94946289 3357386.56112671 14.92655849 115 110 106
246102.96142578 3357391.19100952 14.88578606 103 98 94
246104.08569336 3357376.37658691 15.33195019 104 99 95
246107.29638672 3357385.21691895 15.05385017 121 111 101
246104.19433594 3357377.75210571 15.25640106 116 105 101
246102.87939453 3357382.85974121 14.74094963 137 132 129
246100.09741211 3357387.91952515 14.56282043 121 125 128
246105.37817383 3357377.34640503 14.89478493 134 124 122
246102.06774902 3357385.82772827 15.21627331 114 118 119
246103.16503906 3357391.21328735 14.93491077 117 109 107
246105.76794434 3357382.82678223 14.94477367 124 116 114
246102.70825195 3357379.81695557 14.96967888 120 112 109
246101.32702637 3357380.66967773 14.92884827 40 42 41
246101.99963379 3357392.86578369 14.70872307 144 139 136
246106.03918457 3357382.12689209 15.18011951 94 91 86
246101.75402832 3357378.35076904 14.90601635 103 97 97
246107.29260254 3357388.97717285 15.21755695 67 67 69
246101.76635742 3357388.29623413 15.05421162 40 40 38
246102.45947266 3357392.52365112 14.81532478 93 89 88
246106.47534180 3357391.09024048 14.83784580 85 86 90
246106.41223145 3357392.93933105 14.79765129 141 138 131
246100.88623047 3357388.03265381 14.84257507 108 108 106
246102.34338379 3357390.44873047 15.13388824 41 40 45
246103.05920410 3357381.99694824 14.70167351 124 123 121
246102.39453125 3357383.88433838 15.32355213 99 82 75
246106.36816406 3357388.61117554 15.26941586 102 93 88
246102.65185547 3357387.32659912 14.68642807 86 87 89
246106.54101563 3357389.57995605 14.91144753 102 98 95
246103.09143066 3357382.71661377 14.71449184 137 129 127
246101.19018555 3357390.40289307 14.68406487 137 132 128
246102.42004395 3357387.60302734 14.71964073 119 114 111
246102.12353516 3357384.42257690 15.37913704 60 60 60
246106.36743164 3357381.73413086 15.06564713 115 112 103
246101.91174316 3357383.22537231 15.24442291 184 145 138
246102.90222168 3357390.06466675 14.76367092 134 129 125
246107.41906738 3357393.14532471 14.87235832 137 130 124
246107.29797363 3357384.71902466 15.04589367 50 49 47
246102.25549316 3357379.24703979 14.90035152 135 130 127
246101.40026855 3357390.29031372 14.71178436 134 131 124
246101.90112305 3357382.44396973 14.72706127 135 134 132
246105.95397949 3357391.03497314 14.87072659 86 87 91
246101.82348633 3357390.95431519 14.94495296 115 106 107
246106.15820313 3357383.88671875 15.04010677 118 113 109
246106.84667969 3357383.06591797 15.20003128 15 18 23
246106.67797852 3357378.02023315 15.43278313 102 94 92
246101.52001953 3357391.89675903 14.97149944 103 108 112
246101.96923828 3357385.18817139 15.13544083 218 208 209
246101.67639160 3357391.65939331 14.86085987 94 98 99
246101.27990723 3357381.26947021 15.07944775 202 192 191
246101.80651855 3357380.84933472 14.73100948 91 92 94
246103.02673340 3357390.11627197 14.77626419 134 129 126
246101.42712402 3357391.23648071 14.97797871 187 178 171
246106.38659668 3357381.77935791 15.08440876 106 107 102
246101.80053711 3357380.29562378 14.71658325 131 126 120
246106.63146973 3357386.73178101 14.88710022 112 109 104
246102.84838867 3357380.76513672 14.73987198 110 110 110
246107.45642090 3357387.35543823 15.08674717 99 97 98
246100.80615234 3357387.71786499 14.89999199 97 93 90
246101.66210938 3357386.06420898 14.79038715 88 86 87
246104.17187500 3357378.70050049 15.36407566 35 36 40
246106.99816895 3357377.82772827 15.26403332 96 96 94
246104.86779785 3357376.79220581 14.84652233 91 93 92
246106.88684082 3357392.84512329 14.78986645 136 133 126
246107.12060547 3357382.33370972 15.70140553 131 130 128
246106.48693848 3357383.14868164 15.21941280 71 56 49
246103.72558594 3357378.66537476 15.48786640 97 97 97
246102.51354980 3357382.28070068 14.69457245 113 109 110
246105.85571289 3357377.44216919 15.08228588 117 117 115
246106.58374023 3357379.17565918 14.95971680 115 110 107
246102.27905273 3357387.25262451 14.99927807 64 65 67
246103.08837891 3357381.76028442 14.71932125 126 122 123
246107.45690918 3357388.17666626 15.29878712 112 112 110
246101.11328125 3357378.45870972 15.26580620 74 64 63
246106.74499512 3357380.45364380 15.32022095 115 120 124
246101.03137207 3357386.69793701 14.87269306 114 106 104
246102.94042969 3357377.68975830 14.77921677 133 125 123
246103.00683594 3357388.49694824 14.68879032 100 104 107
246099.88708496 3357387.16247559 14.54047012 211 212 216
246100.44396973 3357383.14559937 14.64915752 153 149 146
246101.90380859 3357381.62731934 14.74449539 106 98 95
246101.25549316 3357386.00189209 14.76684952 108 98 96
246107.28112793 3357384.67797852 15.46090889 100 101 96
246102.50646973 3357388.52954102 14.66771603 118 117 122
246100.13696289 3357384.65145874 14.59508610 135 136 138
246101.53479004 3357379.17230225 14.79607391 138 133 127
246101.59326172 3357384.00949097 14.97128296 110 108 109
246106.23046875 3357378.01296997 15.14010525 99 96 91
246100.79187012 3357387.67153931 14.86050701 79 79 77
246103.49682617 3357377.24768066 14.90784740 137 130 124
246105.95263672 3357380.89962769 15.12490177 140 133 127
246101.10327148 3357381.77618408 14.91606903 64 64 62
246100.97229004 3357386.56082153 15.35050774 69 69 69
246103.25854492 3357392.82150269 14.75055599 143 138 134
246106.16699219 3357377.78521729 15.24772167 38 47 46
246103.87939453 3357376.83532715 14.85764122 113 109 106
246102.88476563 3357379.92559814 15.11361027 71 67 64
246107.56677246 3357390.61758423 15.10248756 197 190 164
246101.98754883 3357389.16757202 14.84903431 80 80 80
246107.28662109 3357383.25347900 15.49631023 75 73 76
246100.19995117 3357388.88992310 14.57150078 117 121 124
246106.96386719 3357381.86279297 15.59347820 60 60 58
246101.84338379 3357377.97412109 14.96197605 50 51 56
246102.49597168 3357392.58639526 14.79784107 141 136 133
246106.93115234 3357383.91787720 15.50603485 208 206 211
246107.54455566 3357381.62664795 15.33846951 167 172 175
246102.17834473 3357380.54852295 14.74900627 116 116 108
246101.90258789 3357381.11114502 14.97275543 235 214 213
246107.08862305 3357381.64245605 15.66976452 108 109 113
246101.72985840 3357383.99960327 14.94285583 166 161 157
246106.35583496 3357390.48678589 14.89000988 113 108 104
246107.02148438 3357387.26409912 15.28140736 81 77 76
246101.87390137 3357378.84255981 14.95826721 228 232 233
246101.39367676 3357387.53430176 14.92125702 70 70 72
246107.61193848 3357380.74243164 14.89127064 99 92 86
246101.72521973 3357390.69873047 15.29208374 36 34 39
246106.10754395 3357377.69992065 15.39396191 87 111 113
246101.81848145 3357383.94613647 14.91882610 124 121 116
246102.51000977 3357385.99618530 14.76824760 128 127 125
246107.41015625 3357379.06353760 14.95042515 108 104 101
246107.03576660 3357382.21166992 15.48082447 87 83 72
246101.31323242 3357380.94680786 15.06774998 117 113 112
246102.36035156 3357380.60345459 14.99757957 115 105 103
246101.62353516 3357386.74810791 14.93574429 52 54 53
246104.44580078 3357378.00790405 15.01518536 111 107 106
246106.17785645 3357385.13473511 14.95820618 128 117 111
246102.02770996 3357388.15103149 14.99976635 56 56 58
246103.39611816 3357387.58071899 14.70541954 114 113 118
246106.08520508 3357386.96243286 14.80413818 126 119 111
246107.55126953 3357392.56692505 14.79313755 122 117 113
246101.58483887 3357378.61428833 15.08637047 228 226 237
246107.22338867 3357380.82556152 14.90806484 98 93 90
246100.28063965 3357381.25173950 14.88537693 150 145 139
246106.12622070 3357390.79238892 14.80227280 86 86 86
246103.45227051 3357388.52581787 14.79118729 99 99 101
246103.33850098 3357382.86758423 14.72637367 133 125 123
246101.21203613 3357380.19439697 14.97600555 108 104 103
246104.26672363 3357376.99136353 14.86776543 118 113 110
246106.30432129 3357381.27746582 15.08605671 133 125 122
246101.57531738 3357392.96807861 14.61691570 141 137 134
246107.32312012 3357384.57675171 15.37947273 202 195 187
246102.59484863 3357378.45623779 14.74186897 119 119 117
246100.81726074 3357392.19744873 14.71104813 71 69 70
246101.36962891 3357388.87805176 14.85781193 87 87 89
246103.10644531 3357381.53808594 14.74267292 112 110 111
246100.16015625 3357385.30828857 14.58115292 129 131 130
246103.58569336 3357378.45452881 14.77094460 115 110 107
246106.66918945 3357385.55749512 15.45941067 129 81 59
246100.33032227 3357381.37335205 14.83507919 142 137 133
246106.02917480 3357380.42935181 15.23455524 127 117 107
246099.96386719 3357390.54208374 14.53147793 236 236 236
246107.46752930 3357381.57788086 15.73189259 230 221 224
246102.10266113 3357383.14559937 14.88376141 107 101 101
246106.47216797 3357388.81668091 15.27853680 91 89 90
246101.17163086 3357384.57421875 14.67904091 130 125 122
246101.91638184 3357378.69168091 15.00815105 231 229 232
246106.28015137 3357380.24902344 15.66275883 142 144 143
246107.43920898 3357385.89151001 15.38426971 91 83 81
246107.54064941 3357384.59057617 15.08143330 24 24 16
246102.95910645 3357389.41378784 14.68356514 117 116 112
246101.45129395 3357389.23013306 14.86694145 156 157 162
246102.46887207 3357378.91265869 14.76849461 74 74 76
246106.13281250 3357388.02868652 15.36335182 244 235 228
246106.72985840 3357384.22079468 15.19529915 110 105 102
246107.24707031 3357392.92361450 14.78356552 133 130 123
246106.86083984 3357386.17626953 15.41225719 49 49 49
246101.64404297 3357390.81259155 15.12890053 45 36 31
246101.17236328 3357382.72976685 14.78773785 126 122 119
246100.81884766 3357388.80465698 14.70911980 102 106 109
246102.55529785 3357385.72225952 15.02261066 94 93 91
246107.08850098 3357382.33578491 15.59208488 99 98 96
246104.74621582 3357376.54724121 14.89334869 83 87 88
246106.35583496 3357391.48754883 14.77413082 90 91 93
246102.07360840 3357385.81961060 15.38095284 134 135 139
246107.17065430 3357384.83139038 14.90902424 70 67 62
246101.33227539 3357391.81338501 14.90705299 229 234 240
246102.22717285 3357383.29388428 14.98617935 138 131 139
246102.12524414 3357388.92816162 14.69602299 105 106 110
246107.24584961 3357385.61416626 15.61257362 116 84 63
246104.56799316 3357376.90225220 14.82915688 108 106 107
246106.31701660 3357390.43441772 14.93922615 119 111 108
246103.30676270 3357384.91818237 14.74049187 119 113 113
246103.25378418 3357391.85971069 14.86269379 107 107 105
246107.26330566 3357384.74145508 15.00168324 55 54 52
246107.30407715 3357379.11410522 15.11370659 74 69 66
246107.44921875 3357387.95178223 15.34144402 161 161 159
246100.17602539 3357391.61471558 14.55513287 151 146 143
246105.98779297 3357392.04849243 14.92512703 129 128 123
246107.17895508 3357386.45593262 14.91235638 114 109 106
246102.38452148 3357378.15185547 14.93655491 31 32 36
246101.43847656 3357385.07043457 14.97467804 93 91 92
246102.35827637 3357389.95596313 14.69328213 117 116 114
246106.80090332 3357378.24404907 15.36851978 124 124 122
246105.83447266 3357377.70449829 15.22700882 117 118 122
246104.59655762 3357378.64932251 15.03558254 50 54 53
246107.69104004 3357389.29623413 14.85054111 104 103 99
246102.41442871 3357389.33505249 14.68500042 110 110 110
246102.98071289 3357386.41629028 14.68848324 110 106 105
246100.70434570 3357381.88940430 14.87685680 89 86 81
246106.31311035 3357385.36352539 15.08069611 150 93 73
246101.03918457 3357379.99624634 14.79906940 100 99 97
246101.26391602 3357391.91259766 14.99859238 194 194 194
246102.57031250 3357389.64279175 14.68221188 118 118 116
246102.99060059 3357392.89221191 14.86925697 142 137 133
246100.30212402 3357386.59680176 14.57831573 156 148 146
246101.55200195 3357386.38888550 14.87041664 123 115 113
246101.26025391 3357388.42596436 14.72524929 119 119 119
246101.56921387 3357379.58370972 14.77871609 137 130 124
246101.67785645 3357382.07571411 15.36831188 94 92 93
246107.51110840 3357388.56616211 15.32074261 66 65 63
246107.10620117 3357389.98916626 15.02358913 131 122 115
246100.25488281 3357391.49966431 14.54725170 137 133 132
246100.44104004 3357386.47113037 14.58614635 147 142 138
246107.03588867 3357378.29959106 14.99119377 61 61 61
246100.65515137 3357380.82022095 15.10158348 126 124 125
246106.20202637 3357382.15887451 15.36641979 194 192 193
246104.30371094 3357378.01913452 15.43785000 141 134 126
246102.44897461 3357391.45303345 14.88154697 27 27 27
246106.15881348 3357389.80535889 14.98381805 105 104 99
246103.31384277 3357383.63470459 14.72401905 119 115 114
246102.02392578 3357387.28363037 15.40201283 55 55 55
246102.78564453 3357379.59542847 14.82538509 132 124 121
246102.50061035 3357385.63436890 15.08549404 121 121 121
246101.48962402 3357379.60427856 14.77279186 139 134 128
246100.60363770 3357392.18276978 14.66549397 91 87 86
246102.64733887 3357383.30200195 14.82938957 101 101 103
246106.90356445 3357388.51382446 15.14782333 86 80 80
246107.05383301 3357384.72174072 15.30948448 88 88 86
246106.27600098 3357388.27713013 15.47313786 68 67 63
246107.53039551 3357388.93585205 15.65569115 152 165 174
246102.97692871 3357390.80075073 15.16990185 83 82 80
246102.13928223 3357379.15240479 15.05352402 91 87 86
246107.14147949 3357393.00015259 14.78396225 133 128 124
246106.67761230 3357384.85739136 15.10349560 68 64 65
246106.72131348 3357383.48742676 15.30738354 116 107 100
246107.57617188 3357382.37911987 15.05155373 45 46 50
246102.34082031 3357390.76687622 14.95023346 41 42 47
246106.43750000 3357389.55584717 14.92186069 111 107 104
246104.01965332 3357376.48190308 15.24284267 185 178 170
246106.12036133 3357391.11282349 14.81602764 87 88 92
246107.12646484 3357390.27093506 15.09956169 127 118 111
246101.15942383 3357391.38192749 14.74291420 143 138 135
246102.17236328 3357385.83312988 15.48180962 125 125 127
246104.81274414 3357377.66870117 14.81444263 121 115 115
246100.50341797 3357385.61486816 14.61047554 121 121 119
246100.39843750 3357383.53652954 14.67495346 138 133 130
246107.18139648 3357381.83828735 15.66839600 111 110 108
246102.39819336 3357384.44430542 15.14660072 75 73 74
246103.00976563 3357385.84280396 14.71424484 111 109 112
246102.01818848 3357381.22088623 15.10717297 158 104 92
246101.48620605 3357378.85568237 14.80777168 75 70 66
246102.33239746 3357385.95904541 14.88555145 103 102 100
246102.45385742 3357385.65783691 15.20013046 52 52 52
246106.08618164 3357378.19815063 15.10647869 132 131 129
246103.95690918 3357376.52066040 15.25659752 192 185 179
246106.33789063 3357386.14495850 15.19153595 54 53 58
246100.40917969 3357391.45199585 14.57163620 139 133 133
246104.03796387 3357378.29440308 15.26689625 110 106 103
246105.96386719 3357381.51290894 14.99806499 114 110 107
246105.52575684 3357376.93316650 14.90039349 113 109 108
246101.29760742 3357391.86312866 14.97291374 158 159 163
246106.90087891 3357380.21740723 15.38403511 175 177 176
246106.09167480 3357388.13296509 15.55938816 140 120 119
246104.07604980 3357376.50955200 15.08286476 188 183 177
246107.30969238 3357390.55001831 15.20954609 99 94 88
246107.65808105 3357392.04232788 15.45812988 73 73 75
246104.90356445 3357377.49020386 14.85188293 126 122 119
246101.06530762 3357379.53103638 14.76747227 140 135 131
246100.46008301 3357389.79617310 14.57722759 138 138 138
246100.81372070 3357384.30093384 14.66850948 128 127 123
246105.86328125 3357385.89691162 14.99933910 60 50 38
246107.18151855 3357384.69885254 15.46095085 102 99 92
246101.95776367 3357388.35266113 14.97692966 27 27 29
246107.30517578 3357382.02828979 15.33844566 87 83 82
246106.82531738 3357379.56134033 15.41547871 56 58 57
246101.75476074 3357381.04293823 14.83355808 116 106 105
246107.41662598 3357378.14224243 14.89832497 115 111 110
246106.39697266 3357380.45782471 15.46269608 87 86 82
246106.41040039 3357390.58294678 14.85105133 128 123 120
246101.41198730 3357392.76699829 14.62927341 142 138 135
246107.47290039 3357381.86367798 15.12141228 79 78 74
246102.39001465 3357381.43859863 14.79732323 85 81 80
246105.79956055 3357392.35333252 14.85227394 131 130 126
246101.93334961 3357388.36709595 14.86549282 49 49 51
246100.43420410 3357381.36795044 14.89359093 144 139 135
246107.27404785 3357387.22720337 15.08820248 92 87 84
246107.35852051 3357389.63085938 14.84256744 107 100 94
246106.56225586 3357379.57821655 15.21159267 84 80 79
246101.52978516 3357385.80072021 14.72210217 121 116 113
246106.96594238 3357386.42941284 14.96123886 109 105 102
246105.83715820 3357391.51049805 14.89300823 101 101 101
246106.95458984 3357382.07788086 15.61823940 67 66 64
246100.08276367 3357387.27017212 14.54881382 128 129 131
246100.10559082 3357390.92160034 14.55926704 233 231 236
246105.33764648 3357378.27285767 14.90834332 111 110 108
246106.71301270 3357389.49887085 14.90828991 124 116 113
246102.28295898 3357380.56286621 14.84054375 125 113 115
246106.41467285 3357379.92547607 15.12282753 97 96 91
246099.86962891 3357385.41632080 14.56672096 207 208 212
246102.95043945 3357379.29144287 14.74601460 130 125 122
246100.88598633 3357384.77462769 14.65416718 133 129 126
246103.85107422 3357378.10903931 15.06900978 132 123 124
246106.61816406 3357384.74279785 15.37283897 51 51 49
246103.50561523 3357377.82745361 14.91688538 133 128 125
246100.77416992 3357383.95227051 14.80684757 140 136 133
246106.92285156 3357382.15524292 15.36945343 88 84 81
246103.41040039 3357387.31472778 14.70808125 110 110 112
246107.27124023 3357387.16769409 15.05553532 108 100 97
246101.40820313 3357381.30407715 15.12541580 235 226 221
246102.48474121 3357378.39181519 14.77264309 101 101 101
246103.20312500 3357390.67352295 14.95139790 68 69 73
246101.01794434 3357389.86636353 14.62262535 165 164 162
246106.76074219 3357377.75534058 15.54849243 227 226 231
246107.25537109 3357384.05020142 15.56514740 145 143 144
246101.10058594 3357385.94186401 14.68113327 127 126 122
246101.51538086 3357385.47946167 14.81965065 109 104 100
246102.77233887 3357385.13751221 14.68299198 80 78 79
246106.21069336 3357386.70736694 14.81737328 124 119 115
246104.55725098 3357377.21704102 14.84591579 120 115 111
246107.31555176 3357392.00189209 15.31401443 89 89 89
246102.74902344 3357386.23928833 14.68051338 115 115 115
246103.21496582 3357383.98275757 14.71406078 120 116 117
246106.45178223 3357381.18853760 15.01570702 129 122 116
246107.63867188 3357390.07870483 14.78063488 129 120 111
246102.34619141 3357390.04559326 14.68727970 133 134 129
246105.75854492 3357388.89874268 14.78630829 136 129 121
246100.29052734 3357381.07232666 14.93440723 141 137 128
246107.15319824 3357387.47430420 15.51197910 22 20 23
246107.28796387 3357379.25756836 15.50417328 71 70 68
246100.95690918 3357389.18957520 14.67699909 109 113 116
246102.27246094 3357378.74954224 15.00555515 46 45 50
246106.25219727 3357392.74124146 14.78725433 136 133 128
246106.48730469 3357387.95159912 15.30706120 211 205 207
246101.19677734 3357381.17047119 15.10647011 127 119 116
246099.96459961 3357390.24407959 14.53439999 226 224 227
246103.14929199 3357386.65707397 14.68298912 123 119 120
246100.69189453 3357388.19906616 14.68196869 121 121 123
246101.24658203 3357388.55157471 14.67461872 107 108 110
246105.37854004 3357377.14904785 14.87303162 129 124 121
246101.99255371 3357390.44989014 15.15430737 49 49 51
246102.79296875 3357390.37429810 15.08055592 55 55 55
246106.88403320 3357377.91937256 15.30061054 187 183 182
246099.92431641 3357390.53787231 14.52954578 242 241 239
246105.98681641 3357388.08605957 15.47893620 231 219 219
246101.05065918 3357386.05639648 14.72799969 110 107 102
246106.94714355 3357389.44192505 14.89616394 121 114 108
246100.40637207 3357380.71218872 15.12353230 82 77 71
246106.52893066 3357378.46359253 15.13881969 145 141 142
246102.29199219 3357390.13568115 14.74565029 134 133 129
246104.26269531 3357376.19363403 15.35343552 160 142 142
246101.80969238 3357391.76095581 14.85298538 89 93 96
246106.44873047 3357391.46896362 14.77479172 90 94 93
246101.64416504 3357390.75646973 15.22358227 54 40 40
246100.86486816 3357380.84045410 15.19519329 86 82 79
246102.72692871 3357388.36431885 14.68878174 96 95 100
246105.84826660 3357384.27850342 14.92671871 131 126 122
246102.27526855 3357384.99493408 15.38291931 127 123 122
246103.14343262 3357380.95236206 14.74339771 92 92 94
246105.77441406 3357392.18167114 14.86092854 130 129 125
246101.78198242 3357390.63998413 15.32616234 33 37 46
246102.73339844 3357380.32315063 14.91537285 34 39 43
246107.51379395 3357392.14361572 14.96823120 70 70 70
246100.36511230 3357391.24658203 14.54021072 145 141 140
246106.53540039 3357385.03036499 15.08619022 116 104 92
246107.59704590 3357384.33465576 14.95872593 98 93 90
246107.15417480 3357388.23269653 15.53213596 55 55 55
246107.00329590 3357384.14077759 15.34274673 104 100 97
246102.02819824 3357390.43908691 15.17257404 49 47 50
246101.90454102 3357386.91348267 14.87306595 52 55 62
246106.67211914 3357385.71148682 15.27997208 68 46 35
246101.93115234 3357387.84368896 14.76585293 67 68 72
246105.68395996 3357390.52172852 14.88767433 98 97 95
246101.41198730 3357386.50402832 15.07861137 118 110 107
246106.47839355 3357384.40982056 15.09286976 79 61 47
246107.20349121 3357377.54522705 15.01805019 76 74 75
246099.91577148 3357390.13769531 14.53299236 233 232 237
246106.62670898 3357381.72647095 15.31049442 78 78 78
246106.63525391 3357389.69143677 14.93222523 104 99 95
246101.33813477 3357385.63253784 14.69777012 125 119 119
246101.02551270 3357387.93371582 14.98505688 88 88 86
246103.05761719 3357391.67868042 14.78008652 73 71 72
246104.73681641 3357378.69372559 14.98214245 56 60 63
246101.49780273 3357380.99151611 14.86389637 132 120 122
246101.52490234 3357388.08639526 15.02013111 71 71 71
246107.48461914 3357389.60195923 14.82692432 118 109 104
246102.97106934 3357385.54617310 14.70698833 95 95 97
246100.51037598 3357391.61141968 14.67314625 137 134 129
246107.41662598 3357383.40994263 15.30565453 82 80 81
246101.23254395 3357388.47055054 14.68739223 110 110 110
246101.88452148 3357391.74761963 14.85922718 96 97 99
246106.36083984 3357393.18878174 14.77967262 139 136 129
246105.83813477 3357378.92636108 14.86719131 107 107 105
246107.32849121 3357383.60052490 15.34773636 97 92 89
246106.98669434 3357390.70843506 15.23485851 126 119 113
246101.63952637 3357390.04287720 14.66836166 132 132 132
246100.88854980 3357387.38235474 15.13689804 50 46 43
246103.14843750 3357384.95071411 14.71984577 122 116 116
246101.60668945 3357380.39953613 14.73322868 124 119 116
246101.91308594 3357381.54049683 14.78490448 119 112 106
246107.24096680 3357387.61892700 15.39414406 70 68 69
246107.06323242 3357382.77438354 15.13255692 57 55 56
246107.10876465 3357378.50784302 14.91847038 76 77 79
246103.79248047 3357378.77407837 15.19720268 38 37 33
246107.08203125 3357388.03073120 15.36211777 95 95 93
246107.41540527 3357385.28158569 15.01951218 78 52 39
246101.31555176 3357382.99377441 14.91159248 142 134 132
246101.63122559 3357388.11456299 14.97855568 67 67 67
246100.94201660 3357384.94888306 14.65887260 125 125 125
246101.87377930 3357385.29812622 14.98905849 57 59 58
246102.09765625 3357384.78588867 15.20634174 106 102 99
246107.27221680 3357381.74224854 15.71244717 44 42 43
246107.44531250 3357384.47418213 15.35833836 90 81 74
246102.57604980 3357380.05053711 15.44697571 116 112 109
246102.74890137 3357388.03771973 14.69114590 97 100 105
246107.16235352 3357383.85717773 15.36901379 78 77 75
246101.09045410 3357386.79983521 15.32285690 32 35 40
246103.67529297 3357376.50277710 15.43792725 52 53 55
246100.61730957 3357387.67083740 14.72902203 113 114 116
246101.13220215 3357384.38143921 14.66268539 123 120 115
246105.88635254 3357382.93963623 14.91936779 124 117 111
246101.25268555 3357378.11587524 15.02821922 142 135 125
246101.33935547 3357390.58197021 14.70576763 136 132 129
246102.16418457 3357378.99737549 15.28427792 91 91 93
246106.48046875 3357380.92608643 15.01192665 133 130 125
246107.07702637 3357390.83276367 15.15340328 102 95 87
246107.09252930 3357377.60412598 15.13374233 56 58 57
246107.34912109 3357379.28713989 15.49877930 71 70 68
246102.05065918 3357383.53677368 15.05407619 135 123 111
246101.97985840 3357387.26556396 15.47768307 51 55 56
246106.50903320 3357380.12908936 15.26793957 51 51 51
246103.42126465 3357384.88589478 14.78212643 125 119 119
246103.18737793 3357385.79666138 14.71068954 106 106 108
246101.19519043 3357389.17150879 14.71452999 79 81 76
246102.55871582 3357390.79968262 14.97636795 49 49 51
246106.83251953 3357382.85159302 15.07462406 84 86 85
246102.01391602 3357382.67630005 14.67822456 132 131 126
246106.86340332 3357383.98336792 15.47682858 98 97 95
246101.75817871 3357391.76296997 14.81892204 82 83 88
246099.97363281 3357385.90536499 14.56633854 218 221 226
246106.69335938 3357389.47039795 14.91094398 126 118 115
246107.60803223 3357387.65875244 15.00888920 45 49 50
246106.00134277 3357389.10235596 15.00706959 125 122 115
246100.42382813 3357388.16705322 14.61538029 124 125 129
246107.33398438 3357380.13906860 15.14228821 153 153 155
246102.43994141 3357385.89041138 14.86828613 117 116 114
246106.63317871 3357380.18411255 15.37817383 140 141 143
246100.31689453 3357389.18487549 14.57222462 129 132 137
246100.88488770 3357387.87594604 14.93977165 95 95 95
246102.71179199 3357377.74044800 14.75335789 128 120 118
246106.63171387 3357383.57617188 15.29061508 93 86 78
246102.72668457 3357392.94058228 14.91461849 138 133 129
246100.05261230 3357390.66760254 14.54516792 236 234 237
246100.42248535 3357392.34695435 14.56487083 139 134 131
246107.45825195 3357384.17996216 15.01235485 88 83 80
246107.15881348 3357388.04235840 15.51974773 89 89 87
246107.01879883 3357388.99795532 15.24165916 81 82 84
246107.00207520 3357377.59835815 15.40195465 169 168 173
246101.55310059 3357378.62521362 15.12738895 147 146 152
246102.78430176 3357386.00985718 14.68918800 139 138 134
246107.30932617 3357383.09884644 15.23017597 53 48 52
246104.40393066 3357376.46786499 15.00689602 106 106 104
246101.91418457 3357382.30786133 14.77439785 121 119 120
246100.46582031 3357388.55224609 14.60602188 123 127 130
246101.81958008 3357387.14807129 15.43312168 106 105 110
246104.32897949 3357376.14688110 15.18279076 48 38 36
246105.32092285 3357378.14389038 14.87908459 112 108 107
246101.63269043 3357378.43731689 14.86554337 72 72 70
246101.21154785 3357386.34216309 15.00621605 111 106 103
246106.23425293 3357385.64758301 15.09012413 98 87 81
246107.58947754 3357379.24682617 14.96020889 100 96 93
246106.49414063 3357381.98535156 15.35442734 69 71 66
246100.87512207 3357389.53894043 14.61729050 122 124 123
246101.96337891 3357384.90859985 14.98770428 100 87 79
246102.28271484 3357387.28680420 14.97260571 66 67 69
246103.11352539 3357390.43417358 14.98226452 185 183 188
246102.82226563 3357389.27313232 14.67917824 119 117 118
246106.72595215 3357382.39025879 15.24289036 12 17 20
246100.52893066 3357386.34155273 14.59360886 128 122 122
246103.08898926 3357388.17510986 14.69164085 106 107 111
246100.55151367 3357380.47485352 15.02631760 64 62 63
246107.63134766 3357390.76898193 15.01015091 96 89 79
246101.38793945 3357377.75677490 14.98508739 115 113 116
246105.55895996 3357391.20361328 15.03513336 75 76 78
246101.98974609 3357382.79104614 14.69006920 138 130 127
246106.83801270 3357388.09173584 15.28987312 37 37 39
246106.62951660 3357391.89395142 15.21591854 224 222 223
246105.42687988 3357377.97390747 14.88989258 97 93 92
246107.29370117 3357392.00268555 15.29314804 92 93 95
246102.05725098 3357382.75314331 14.69127560 138 133 130
246106.09790039 3357390.40109253 14.97466087 130 123 117
246104.41857910 3357378.09542847 15.08454990 123 115 112
246106.27758789 3357378.45211792 15.28438759 163 166 171
246106.69702148 3357388.86505127 15.42208385 76 77 79
246106.35131836 3357386.51623535 14.86359692 105 100 96
246100.71545410 3357388.50909424 14.63690090 119 123 124
246103.79394531 3357378.72235107 15.48853588 67 66 72
246102.61340332 3357379.22311401 14.74513340 125 119 119
246107.31835938 3357387.52444458 15.27851868 35 33 36
246102.51232910 3357380.52670288 14.91003799 92 92 90
246102.36157227 3357378.43350220 14.87148380 111 110 108
246107.12646484 3357385.19769287 15.10554886 114 101 95
246107.06530762 3357391.62075806 14.97928810 93 89 88
246106.74755859 3357378.05245972 15.35955429 119 111 108
246101.41711426 3357378.73709106 14.85692501 69 66 59
246107.32800293 3357378.84945679 14.91225910 118 117 113
246107.47521973 3357383.35998535 15.29655838 75 69 73
246101.34179688 3357381.58676147 14.96632576 123 114 109
246100.59680176 3357387.61502075 14.70555115 117 118 122
246101.78991699 3357383.19415283 15.27648067 210 174 160
246107.03198242 3357390.34643555 15.14598083 136 129 121
246104.00549316 3357377.87948608 15.41032696 114 105 100
246106.80322266 3357383.99234009 15.44036770 104 100 99
246106.86926270 3357384.92575073 14.96281528 91 86 80
246102.77087402 3357382.05728149 14.68786335 103 101 102
246106.44140625 3357379.04443359 14.95968533 127 123 122
246104.83508301 3357378.11657715 14.83678818 115 111 110
246101.55981445 3357388.37319946 14.86397457 124 123 121
246102.65551758 3357378.87420654 14.73163891 94 95 97
246104.19226074 3357377.75207520 15.25690174 116 105 101
246104.38525391 3357377.96112061 15.13959217 68 59 54
246102.00231934 3357385.33859253 14.99509048 52 52 50
246104.02746582 3357378.69039917 15.39903069 24 27 32
246106.70056152 3357382.75033569 15.09913921 69 65 66
246100.92224121 3357385.18270874 14.65317631 97 99 98
246105.06750488 3357376.99279785 14.83868885 118 114 115
246101.90258789 3357378.78482056 15.13906193 196 191 188
246107.62536621 3357385.77056885 15.13261127 99 69 61
246101.89074707 3357383.32351685 15.15742874 227 180 170
246100.73962402 3357387.21752930 14.72915459 124 124 124
246105.22412109 3357378.61376953 14.86046600 111 110 108
246102.71838379 3357385.69876099 14.81800938 111 111 111
246100.84338379 3357387.60745239 14.92971992 136 131 127
246103.44091797 3357378.42822266 14.74001408 106 102 101
246103.05078125 3357390.75320435 15.10107517 82 81 79
246105.57568359 3357378.74456787 14.90551281 121 117 114
246100.81677246 3357387.01489258 14.78632927 111 111 111
246101.15185547 3357381.98660278 15.19346142 96 99 104
246102.60461426 3357386.57574463 14.65567112 133 129 128
246102.48107910 3357383.33038330 14.94740677 114 112 113
246104.90966797 3357375.93899536 14.94445705 209 205 204
246101.38806152 3357392.84756470 14.61319447 136 132 129
246102.10656738 3357384.84191895 15.27397823 101 98 93
246106.24694824 3357391.83883667 14.87263870 125 124 120
246106.51550293 3357376.97042847 15.00895214 125 120 114
246100.99255371 3357383.14596558 14.76383781 145 140 137
246106.97595215 3357390.82147217 15.15014267 109 103 103
246101.53271484 3357392.60284424 14.66946602 135 131 130
246102.38940430 3357387.93191528 14.68537521 87 91 94
246100.49206543 3357385.90332031 14.61751842 130 129 127
246106.79589844 3357385.86831665 15.22892952 57 43 43
246101.39367676 3357388.74301147 14.75961971 110 111 113
246107.59484863 3357381.07946777 14.87727642 121 110 104
246104.11669922 3357377.13397217 14.89337349 127 122 119
246107.40075684 3357381.26989746 15.04897976 96 92 91
246107.71203613 3357391.89233398 15.17575455 95 90 86
246101.92761230 3357384.34445190 14.90679741 82 78 79
246107.68872070 3357387.88629150 15.04744625 40 40 40
246102.96557617 3357386.79241943 14.66980076 122 120 121
246105.62365723 3357392.06240845 14.85540390 127 126 122
246100.40551758 3357384.15429688 14.69354534 124 124 124
246101.93066406 3357382.16635132 14.92204380 99 99 101
246102.35363770 3357390.50958252 15.16648388 31 34 41
246103.72546387 3357378.68481445 14.88371754 133 125 122
246105.85180664 3357381.02770996 15.09193039 139 132 126
246100.52587891 3357392.28637695 14.60512352 125 120 117
246102.15856934 3357381.09204102 15.14595890 155 144 148
246103.19714355 3357391.97305298 14.90280533 42 44 43
246107.17785645 3357392.25665283 14.91652489 84 83 81
246103.17541504 3357385.43206787 14.72026443 99 100 102
246105.82385254 3357390.71496582 14.93055534 90 90 90
246106.05187988 3357392.66494751 14.75391674 135 134 130
246105.53613281 3357378.48410034 15.06722164 165 160 157
246104.03295898 3357376.23223877 15.20599461 123 105 105
246106.26062012 3357381.61019897 15.05421162 120 113 105
246103.18579102 3357385.88339233 14.70315170 113 113 115
246101.50024414 3357377.89266968 15.15579605 57 56 54
246101.74011230 3357384.08218384 15.01801777 142 138 137
246107.07495117 3357387.25079346 15.29864502 68 64 61
246101.74511719 3357377.64736938 14.74807262 127 119 116
246106.89562988 3357392.15100098 15.03027916 149 148 146
246105.92883301 3357386.91308594 14.80312252 124 116 113
246101.98950195 3357381.57077026 14.76297760 117 108 103
246103.25122070 3357382.14657593 14.70754719 117 116 114
246107.17431641 3357382.18753052 15.57865715 142 140 141
246101.21618652 3357379.24069214 14.77629757 145 136 131
246106.97790527 3357388.33120728 15.24787617 86 84 85
246101.92626953 3357391.96936035 14.74764538 87 88 90
246101.69445801 3357385.91726685 15.10783100 98 103 107
246101.42785645 3357391.64486694 14.83963203 38 38 36
246100.82922363 3357390.83654785 14.64446354 136 132 131
246107.04113770 3357390.38394165 15.16097069 124 119 113
246106.70727539 3357386.53176880 14.90755272 112 108 105
246100.49584961 3357380.14648438 14.80424023 134 129 126
246106.17834473 3357391.18566895 14.79828453 82 83 85
246106.81237793 3357392.17337036 14.99613285 78 77 75
246106.96557617 3357382.42742920 15.19586945 55 56 58
246103.20703125 3357388.38256836 14.70211411 105 106 110
