246113.74365234 3357446.26184082 14.74291992 43 47 48
246122.89636230 3357448.71099854 14.72144032 61 60 56
246115.98034668 3357445.85772705 14.21735096 92 91 87
246118.60522461 3357447.19854736 15.12329865 65 67 66
246113.52514648 3357446.13244629 14.85438442 61 53 51
246114.13732910 3357445.86654663 14.85102367 41 46 49
246118.64489746 3357447.20837402 15.13204002 37 39 38
246118.08435059 3357447.29693604 14.64079666 83 85 84
246119.27966309 3357447.73660278 14.25924873 40 40 42
246122.54528809 3357448.31594849 14.65044785 37 42 36
246115.76306152 3357446.60955811 14.20963860 58 60 59
246121.48413086 3357448.00076294 14.39846134 225 198 181
246118.72375488 3357446.86871338 15.05863476 134 146 146
246115.61108398 3357446.87667847 14.13636494 62 63 65
246116.82495117 3357446.71609497 14.14485931 85 85 83
246124.09899902 3357448.74841309 14.79271698 69 70 52
246113.79370117 3357446.26437378 14.67215061 52 56 57
246122.11901855 3357448.59017944 14.28921795 55 50 46
246121.07958984 3357448.14486694 14.14219189 101 87 74
246113.53698730 3357446.02850342 14.69636726 84 74 73
246121.79101563 3357447.52191162 14.66664219 40 40 38
246114.95227051 3357445.75155640 14.70571899 100 106 102
246113.12548828 3357445.13812256 14.99637890 45 47 46
246119.29931641 3357448.08917236 14.14956474 81 79 80
246123.02563477 3357448.58642578 14.79221344 107 101 89
246116.35620117 3357446.70385742 14.09368229 139 133 117
246115.36889648 3357446.43045044 14.44601536 28 31 36
246113.89221191 3357446.22610474 14.66145420 48 54 52
246115.39538574 3357446.19509888 14.35146618 30 33 38
246111.41845703 3357443.94219971 14.32893944 98 97 93
246122.94958496 3357447.97268677 14.84939289 26 28 25
246119.65625000 3357447.27844238 14.48744678 28 31 36
246117.25146484 3357447.25903320 14.57216263 91 106 101
246124.78027344 3357449.32958984 14.20986080 46 41 38
246119.58996582 3357447.49194336 14.36630344 60 64 63
246113.61889648 3357445.08801270 14.48491001 15 14 12
246122.90942383 3357448.80838013 14.70495033 50 52 51
246114.70642090 3357445.76907349 14.87025738 82 99 109
246116.91699219 3357447.54299927 14.59069252 112 131 129
246121.45007324 3357448.33325195 14.38208961 199 179 168
246116.51062012 3357445.64337158 14.23667431 47 47 45
246119.01940918 3357446.95318604 15.02135372 132 139 145
246118.55700684 3357447.67398071 14.49426746 51 52 54
246113.79223633 3357446.18185425 14.78822613 31 35 38
246121.88110352 3357448.63504028 14.11428070 71 64 58
246124.17773438 3357449.17526245 14.47275639 76 73 66
246112.96386719 3357445.69757080 14.43733597 65 69 68
246113.59240723 3357444.70303345 14.25888062 69 69 61
246120.02819824 3357446.96264648 14.37161446 27 28 32
246124.71667480 3357449.27221680 14.73683739 26 27 22
246123.80773926 3357449.07232666 14.17490959 78 75 70
246111.32360840 3357445.06362915 14.15893936 112 112 112
246120.92724609 3357448.43719482 14.09982872 111 99 87
246119.83068848 3357447.27761841 14.40767765 32 33 38
246119.17590332 3357447.29434204 15.00908947 40 49 48
246113.94824219 3357445.77459717 14.89261341 44 52 55
246111.78112793 3357445.53036499 14.20448494 115 115 113
246125.04382324 3357449.09732056 14.88136673 33 36 27
246119.02746582 3357448.02874756 14.19554424 65 67 62
246118.80212402 3357447.58935547 14.80539322 28 32 35
246112.29260254 3357444.18591309 14.30920124 61 62 64
246118.51135254 3357447.74060059 14.36174679 66 66 68
246113.68554688 3357445.65719604 14.96525860 68 83 90
246113.46020508 3357445.39010620 14.99516296 155 155 155
246118.28747559 3357447.19338989 14.79681587 61 62 64
246112.92883301 3357445.99948120 14.20612431 110 111 106
246120.50280762 3357447.10671997 14.23201752 30 30 30
246113.16748047 3357445.42013550 14.73299217 41 37 36
246121.79663086 3357447.83120728 14.51422405 128 127 125
246112.44433594 3357445.58612061 14.26054764 100 97 92
246114.76513672 3357445.52069092 14.72865200 24 29 25
246112.31408691 3357445.47406006 14.41935635 83 85 80
246122.29309082 3357448.73553467 14.75119591 30 19 15
246117.40527344 3357445.93487549 14.22297955 37 34 25
246120.03369141 3357447.78402710 14.12117195 63 62 60
246114.73437500 3357445.82730103 14.87674141 92 109 119
246118.66296387 3357446.59558105 14.63307762 19 28 27
246120.20666504 3357448.19876099 14.05885792 88 82 82
246113.55273438 3357445.50994873 14.85179520 67 67 65
246113.29211426 3357444.55609131 14.23159885 57 58 52
246113.72705078 3357446.37881470 14.45738411 67 69 66
246115.76110840 3357445.92001343 14.24575996 52 53 48
246113.83642578 3357444.93478394 14.38662529 35 36 30
246112.74670410 3357445.97122192 14.19244003 115 116 111
246114.17224121 3357445.68408203 14.96788216 30 39 38
246112.98583984 3357445.68399048 14.51616764 64 66 65
246113.55761719 3357445.75775146 14.72910786 75 76 71
246112.58581543 3357445.89990234 14.17854023 116 117 112
246114.67211914 3357446.27343750 14.46074581 64 69 75
246117.51184082 3357447.30065918 14.49367523 183 193 195
246114.81518555 3357446.54696655 14.32354546 40 43 48
246121.80932617 3357448.45535278 14.51085854 50 49 45
246112.41442871 3357445.27828979 14.78065681 67 69 66
246109.52600098 3357445.16241455 14.77121639 163 171 173
246121.85314941 3357448.46102905 14.50917816 47 48 43
246119.91345215 3357447.44195557 14.34173965 17 18 22
246114.68481445 3357445.38955688 14.69474983 15 20 16
246109.84863281 3357444.94717407 14.75586033 62 71 70
246118.87597656 3357447.09655762 15.16689014 73 72 77
246118.51892090 3357447.75506592 14.32153797 70 70 72
246112.76831055 3357444.95428467 14.69788837 32 50 34
246114.38903809 3357445.99520874 14.86895561 34 41 47
246117.57446289 3357447.32318115 14.18270874 140 145 148
246115.50866699 3357446.34136963 14.30379295 40 40 42
246119.44116211 3357447.24713135 14.60530758 36 40 49
246122.65844727 3357449.05325317 14.10552216 84 77 61
246116.75744629 3357446.58782959 14.13474178 81 83 78
246122.54675293 3357448.28216553 14.64672852 36 41 34
246116.53283691 3357446.89013672 14.10244656 71 67 64
246124.59191895 3357449.03515625 14.86000729 59 58 56
246113.88232422 3357445.49691772 15.00730038 84 93 98
246115.45617676 3357445.41250610 14.34428406 57 56 52
246118.10729980 3357446.84133911 14.45501137 61 60 65
246120.36584473 3357447.77761841 14.13927078 47 48 50
246119.65063477 3357447.14758301 14.51360798 22 27 30
246114.30883789 3357446.39059448 14.42696953 25 25 25
246121.71789551 3357448.26083374 14.62754631 74 73 68
246114.02416992 3357446.15612793 14.67026329 53 55 54
246113.18444824 3357445.00357056 14.82125092 18 27 32
246122.34619141 3357449.13381958 14.60303974 54 51 44
246114.79614258 3357445.62142944 14.75319862 19 23 24
246119.82519531 3357447.80050659 14.14790916 59 60 55
246113.01354980 3357444.93270874 14.75033474 24 38 41
246119.12817383 3357447.75216675 14.29584312 51 53 50
246120.85046387 3357448.00396729 14.17173767 85 82 75
246124.52087402 3357449.26336670 14.68529129 32 31 26
246124.87133789 3357449.39785767 14.38109112 67 59 56
246114.77270508 3357446.71987915 14.18354034 64 65 69
246124.02807617 3357449.10021973 14.62003231 83 80 71
246109.91894531 3357444.80569458 14.88163853 131 136 140
246112.77490234 3357444.38800049 14.22796059 117 117 115
246124.61633301 3357449.27105713 14.33823681 66 58 55
246116.41564941 3357446.29357910 14.10216522 69 69 67
246110.89562988 3357444.56430054 14.43319321 48 43 40
246117.18823242 3357447.43295288 14.52443504 62 78 75
246111.21447754 3357444.14328003 14.36756802 74 72 73
246118.96411133 3357447.60311890 14.63816547 31 35 36
246120.39331055 3357447.60903931 14.19928169 53 53 53
246113.12963867 3357445.22265625 14.79681587 29 29 29
246112.49279785 3357445.58700562 14.33452892 87 79 76
246118.82800293 3357447.12002563 15.19085693 12 13 15
246114.52343750 3357446.55654907 14.31995106 23 22 27
246118.28735352 3357446.81726074 14.87127495 2 6 9
246115.31213379 3357446.43234253 14.53825951 29 36 42
246116.94091797 3357445.92437744 14.13706303 66 63 54
246114.78869629 3357445.72781372 14.80207157 88 99 101
246115.24023438 3357446.66580200 14.60356522 45 46 48
246109.55285645 3357445.11773682 14.81145382 166 173 179
246120.26318359 3357447.12625122 14.29931736 31 33 32
246120.46276855 3357448.20007324 14.08473110 91 82 77
246116.61499023 3357447.39617920 14.20787430 96 91 95
246115.27331543 3357446.05148315 14.48797894 40 49 58
246119.95983887 3357448.13571167 14.05601311 80 78 79
246110.07617188 3357444.79348755 14.29954910 24 36 36
246110.78649902 3357444.73126221 14.22530746 79 79 81
246115.88464355 3357445.73300171 14.25917912 62 61 57
246112.97705078 3357445.13061523 14.94451714 59 61 60
246122.69726563 3357448.79376221 14.81101322 52 53 55
246110.90576172 3357444.52770996 14.45848274 47 43 42
246123.04418945 3357448.23522949 14.85137463 34 33 29
246114.35119629 3357446.22308350 14.51143837 55 54 59
246115.57067871 3357445.97351074 14.29402542 41 43 40
246113.53466797 3357445.64758301 14.71460533 69 68 66
246117.75024414 3357445.99929810 14.28959846 45 46 41
246124.36853027 3357448.96221924 14.88157177 62 59 54
246114.34973145 3357446.36578369 14.43383408 51 50 55
246124.22668457 3357449.34283447 13.97153473 56 55 51
246109.77441406 3357444.87338257 14.94957161 61 65 68
246120.08605957 3357446.77499390 14.40587807 34 35 37
246115.21276855 3357446.84902954 14.48260689 102 103 107
246117.17785645 3357447.36904907 14.62034035 125 148 140
246122.34118652 3357448.43243408 14.59240055 255 246 237
246119.79504395 3357446.98251343 14.49830151 18 23 26
246118.70129395 3357447.85519409 14.15978432 72 73 78
246111.40258789 3357444.80804443 14.21272659 80 81 85
246120.64855957 3357446.83728027 14.32494068 24 26 25
246112.92822266 3357445.28277588 14.77540112 48 42 42
246114.78552246 3357446.13897705 14.67346096 109 122 130
246118.50280762 3357446.56735229 14.52563572 15 17 16
246112.37072754 3357444.24438477 14.29240608 61 63 62
246122.85961914 3357449.05813599 14.48993587 88 89 81
246119.23645020 3357447.46481323 14.79759502 0 1 4
246116.79443359 3357447.66101074 14.52265739 204 211 219
246116.75366211 3357447.27972412 14.23181057 92 94 93
246118.50024414 3357446.66546631 14.57153702 18 22 23
246122.28662109 3357449.03219604 14.35558414 122 106 90
246124.55834961 3357449.19271851 14.21855450 24 24 26
246121.73046875 3357448.05429077 14.60631657 81 81 73
246112.10913086 3357444.70956421 14.63772297 41 51 50
246119.09155273 3357447.11770630 15.05310059 95 100 106
246120.05114746 3357447.03216553 14.35881805 31 32 36
246111.83740234 3357445.14755249 14.59482861 112 119 125
246120.14196777 3357447.78640747 14.12147713 59 59 59
246121.25927734 3357448.11450195 14.22507954 121 105 92
246117.23156738 3357447.36972046 14.56856537 78 97 93
246113.18823242 3357445.60195923 14.66330242 81 81 79
246117.56689453 3357447.33099365 14.48903370 103 109 109
246114.59472656 3357446.17184448 14.50180054 33 34 36
246117.76000977 3357446.56683350 14.23260403 64 63 58
246110.53881836 3357444.54934692 14.27751923 79 79 81
246123.90698242 3357449.09405518 14.07486057 83 78 72
246115.95617676 3357446.29888916 14.16311264 73 71 72
246117.93139648 3357446.21258545 14.33668613 44 43 38
246120.64831543 3357447.33825684 14.25477028 21 19 20
246113.48864746 3357444.99758911 14.41138458 20 16 13
246111.40429688 3357443.99810791 14.34898090 121 117 114
246116.64245605 3357446.61123657 14.11343765 83 84 76
246116.11657715 3357447.14932251 14.09302711 133 121 109
246122.99597168 3357448.86621094 14.60770702 53 53 53
246113.35827637 3357446.14947510 14.43149090 132 94 93
246111.81225586 3357444.50265503 14.71923828 62 66 65
246121.74511719 3357447.42779541 14.70080280 35 37 34
246115.87390137 3357447.04190063 14.09794617 90 88 89
246119.89318848 3357447.89764404 14.09547043 85 85 85
246125.68139648 3357449.63330078 14.81503582 39 39 37
246114.78271484 3357445.70309448 14.79589462 58 68 70
246114.98791504 3357446.27243042 14.66500664 53 69 85
246124.38110352 3357449.18475342 14.08537579 36 36 34
246116.25830078 3357446.36059570 14.08955956 64 64 62
246111.90759277 3357445.64514160 14.17935753 105 107 104
246119.34289551 3357448.13198853 14.12877274 86 86 84
246111.81750488 3357445.28222656 14.20755768 114 122 124
246122.13757324 3357448.95785522 14.19350624 86 68 54
246118.79028320 3357447.39797974 15.00490379 48 52 55
246122.95861816 3357448.31347656 14.77778530 44 44 34
246122.37414551 3357448.09933472 14.67371178 21 22 24
246117.09936523 3357446.83786011 14.23481464 83 85 82
246116.81298828 3357446.12088013 14.14729881 80 83 74
246113.79650879 3357445.15570068 14.62875080 11 15 16
246118.86718750 3357447.24395752 15.13385868 31 35 38
246113.84313965 3357446.07510376 14.81614590 38 43 46
246120.74987793 3357446.96713257 14.31293869 23 24 26
246119.05871582 3357446.83676147 14.79665852 131 141 143
246117.17370605 3357447.28155518 14.57854652 125 146 141
246115.92138672 3357446.72290039 14.15161514 64 64 62
246117.12805176 3357447.44076538 14.58317280 102 123 116
246111.80798340 3357444.88961792 14.64607906 86 95 94
246110.54943848 3357444.52041626 14.32675743 79 79 81
246117.74011230 3357447.29013062 14.68690681 87 96 93
246124.94287109 3357449.29812622 14.69190979 52 49 42
246114.45983887 3357445.42147827 14.88253880 16 24 26
246125.07067871 3357449.09710693 14.88203907 33 36 27
246113.99243164 3357444.88720703 14.36559391 37 39 34
246113.06542969 3357445.72113037 14.44015789 73 73 71
246115.28198242 3357446.07028198 14.47824192 36 43 51
246115.77392578 3357445.37158203 14.30720234 49 49 47
246122.35461426 3357447.66943359 14.82009220 18 20 17
246122.54211426 3357449.02932739 14.10868168 133 119 92
246110.38232422 3357445.14395142 14.16613579 97 99 98
246113.42480469 3357446.32315063 14.47247791 155 72 88
246119.22509766 3357447.95294189 14.20712662 74 74 72
246115.53161621 3357445.80517578 14.36285400 52 52 50
246112.11779785 3357444.47518921 14.43499470 77 80 85
246109.31701660 3357445.22378540 14.79784870 175 181 193
246117.72705078 3357446.89739990 14.63324261 0 0 0
246123.17675781 3357448.38119507 14.98699570 21 21 19
246113.44177246 3357446.30950928 14.64131165 173 97 107
246122.26953125 3357447.55709839 14.83037853 24 28 27
246120.48278809 3357448.22363281 14.08354950 96 82 79
246118.44873047 3357447.91418457 14.16368866 80 78 79
246114.44287109 3357446.08013916 14.75765133 47 56 63
246110.71862793 3357444.52093506 14.44266033 164 158 146
246117.31604004 3357446.18908691 14.23530674 71 73 68
246117.53125000 3357446.34194946 14.31486320 72 72 70
246112.65820313 3357444.60879517 14.37265587 41 43 42
246120.89916992 3357447.03814697 14.64435291 15 16 20
246117.37145996 3357446.46325684 14.23970985 63 65 62
246120.32629395 3357447.19833374 14.28162003 34 36 35
246121.48645020 3357448.47097778 14.33653927 121 103 91
246122.88793945 3357448.44189453 14.74042320 91 89 76
246123.99450684 3357448.54074097 14.82909012 47 58 42
246118.81884766 3357447.13555908 15.19602394 12 13 15
246118.72924805 3357447.60549927 14.69265842 28 29 33
246113.88000488 3357445.80889893 14.87651348 58 65 71
246122.80895996 3357449.04397583 14.20919704 54 57 46
246123.32250977 3357449.06838989 14.26887894 66 65 61
246117.55761719 3357446.36389160 14.31372547 67 68 63
246113.22399902 3357444.61862183 14.28365231 44 45 39
246110.12780762 3357444.73904419 14.29541492 63 73 75
246124.30175781 3357449.22003174 14.63170624 57 54 49
246116.75012207 3357446.17871094 14.15881157 77 80 71
246122.33593750 3357449.03903198 14.26305866 96 83 66
246122.89294434 3357448.76626587 14.72186565 66 66 64
246119.28234863 3357447.88751221 14.21196270 74 74 74
246118.86120605 3357447.36822510 15.04461193 31 35 36
246110.75512695 3357444.60339355 14.43986797 184 172 158
246117.04699707 3357447.59820557 14.37593269 42 48 48
246113.53051758 3357445.50070190 14.80989742 70 71 66
246118.40820313 3357446.93789673 15.14869213 76 80 79
246110.92919922 3357444.87551880 14.17272472 98 98 100
246118.27770996 3357447.50326538 14.60117817 40 41 45
246122.13073730 3357448.67065430 14.28420639 52 45 39
246117.50659180 3357445.97137451 14.23890114 49 48 43
246121.48144531 3357448.49404907 14.31049061 177 163 150
246120.49902344 3357446.86331177 14.27113724 48 49 51
246123.58935547 3357449.03775024 14.29344368 65 64 59
246121.28833008 3357448.29187012 14.21287727 89 72 56
246113.78771973 3357445.42944336 15.01335907 98 106 109
246116.77905273 3357445.88833618 14.15694141 74 74 66
246121.02429199 3357447.45193481 14.68547440 27 26 24
246115.82482910 3357446.45175171 14.20931530 54 52 53
246122.68078613 3357449.04687500 14.29443645 116 115 97
246118.71154785 3357447.52978516 14.85735893 52 56 59
246112.47204590 3357444.72543335 14.48600578 30 31 33
246123.87451172 3357448.53811646 14.80377579 38 47 28
246117.52685547 3357447.56021118 14.03064156 146 139 113
246112.33874512 3357444.14447021 14.29717445 77 77 75
246117.21350098 3357446.70474243 14.22450066 68 70 69
246125.35705566 3357449.43688965 14.58287907 34 33 28
246119.64270020 3357447.78903198 14.17216969 63 63 63
246122.70312500 3357447.92745972 14.80276585 124 128 127
246122.42614746 3357448.27993774 14.61663628 29 24 21
246123.31359863 3357448.26306152 14.94349575 53 59 59
246112.32006836 3357445.48040771 14.46205902 82 84 79
246116.80737305 3357446.44500732 14.15221024 77 79 74
246115.41772461 3357445.60665894 14.39429855 52 51 47
246125.75317383 3357449.69000244 14.83227348 29 29 27
246121.13610840 3357448.43972778 14.12860107 124 111 94
246121.89636230 3357448.24435425 14.63896751 71 80 53
246122.17724609 3357448.02285767 14.67615128 37 39 36
246119.68786621 3357446.98205566 14.56127930 26 29 34
246117.36669922 3357447.34802246 14.34128189 57 68 64
246119.54492188 3357447.89419556 14.14163017 76 76 76
246118.50585938 3357447.26812744 14.84901810 54 55 57
246115.50842285 3357445.94052124 14.34204102 43 43 43
246116.16503906 3357446.08782959 14.13361359 54 53 49
246118.13635254 3357446.75262451 14.32984829 61 60 65
246119.35742188 3357447.39791870 14.54134464 25 34 31
246121.58544922 3357447.60147095 14.53785610 59 58 53
246113.82104492 3357445.15106201 14.59109688 9 10 12
246111.23010254 3357445.06655884 14.15698051 112 111 109
246123.17749023 3357448.82318115 14.61314869 56 55 51
246117.87658691 3357446.77618408 14.30608559 69 74 70
246120.34875488 3357447.39334106 14.26895714 18 20 19
246116.76538086 3357446.95788574 14.14418697 78 78 76
246122.20971680 3357448.99203491 14.77864552 206 203 198
246113.27929688 3357446.22009277 14.23704720 97 98 92
246113.36743164 3357444.94061279 14.43296719 24 20 19
246112.13049316 3357445.44473267 14.64523029 71 75 74
246118.12438965 3357447.88327026 14.28750134 100 102 101
246121.94433594 3357447.77795410 14.74260616 50 54 57
246123.02172852 3357448.64916992 14.72515392 78 77 72
246114.21154785 3357445.50027466 15.03102684 73 81 83
246114.39587402 3357445.07586670 14.42392445 41 43 40
246118.23706055 3357446.68740845 14.28751850 34 34 32
246112.63696289 3357444.71337891 14.44442749 19 20 22
246113.73779297 3357446.18209839 14.83814430 31 35 38
246123.83068848 3357449.07482910 14.30953407 71 70 65
246110.65905762 3357444.35723877 14.36669254 74 73 71
246117.40246582 3357447.32705688 14.30459690 59 68 63
246112.46081543 3357444.61773682 14.40642643 25 27 26
246118.37268066 3357447.41531372 14.63857555 24 28 31
246114.85424805 3357446.18850708 14.61249638 40 49 56
246120.50891113 3357447.56378174 14.23715115 40 40 40
246109.57385254 3357445.15979004 14.74426842 156 161 165
246114.28247070 3357446.59503174 14.31218433 107 107 107
246122.43188477 3357447.61395264 14.82452393 22 22 22
246115.63854980 3357445.50274658 14.33331203 57 57 59
246113.57360840 3357444.88250732 14.30673313 81 82 76
246119.33728027 3357447.72128296 14.24806309 37 36 41
246114.48364258 3357445.85076904 14.98540878 68 76 78
246111.94653320 3357445.72885132 14.19546127 108 110 107
246115.15039063 3357446.81094360 14.50436974 151 152 156
246120.39233398 3357447.95492554 14.09665489 52 50 51
246111.84313965 3357444.95324707 14.65306377 92 98 98
246112.57812500 3357444.78421021 14.50601578 22 21 26
246118.17504883 3357446.83816528 14.47856522 59 57 62
246114.94519043 3357446.55142212 14.38591385 66 69 74
246110.85803223 3357445.18243408 14.15446377 115 115 115
246114.65722656 3357445.79629517 14.90885735 72 89 99
246115.14770508 3357445.54257202 14.51786327 39 40 32
246113.08801270 3357446.04821777 14.22084618 112 111 106
246116.78613281 3357446.46337891 14.14740276 80 82 77
246123.43237305 3357448.35427856 14.99477673 119 126 134
246122.08142090 3357447.88180542 14.75438213 24 23 28
246113.46398926 3357445.42260742 14.90537357 80 79 77
246116.84680176 3357447.67767334 14.46449852 135 143 145
246112.65112305 3357444.29507446 14.18856049 84 83 79
246120.77868652 3357448.00344849 14.16796112 106 103 96
246116.79150391 3357446.80166626 14.15355015 83 83 81
246114.62548828 3357445.57946777 14.83759499 20 25 28
246109.90173340 3357444.93743896 14.44508362 43 56 62
246115.61828613 3357446.43341064 14.27620125 48 48 50
246112.33068848 3357445.41375732 14.69179249 71 71 69
246109.93554688 3357444.85250854 14.49336910 58 71 77
246119.33459473 3357447.41818237 14.52918530 27 33 31
246124.40869141 3357449.17031860 14.75745487 34 30 27
246117.69396973 3357446.22689819 14.35015869 55 54 49
246111.81750488 3357444.63162231 14.64017963 70 74 73
246111.01086426 3357444.52487183 14.42911625 55 55 57
246111.38122559 3357444.18545532 14.51983547 224 221 216
246116.77294922 3357446.30108643 14.15518284 59 62 55
246115.73522949 3357445.64730835 14.30133343 58 58 58
246123.12292480 3357448.22354126 14.88427067 38 39 31
246122.25488281 3357449.01596069 14.81435490 249 248 244
246113.16650391 3357446.15634155 14.22926903 117 118 112
246118.23669434 3357446.63629150 14.28341675 50 51 46
246113.87438965 3357444.87365723 14.37749290 42 43 35
246110.76403809 3357444.63165283 14.41682434 230 218 204
246112.96582031 3357445.76742554 14.29081631 86 86 86
246115.11132813 3357445.67132568 14.56215763 35 37 32
246117.66748047 3357446.95104980 14.70939350 64 70 70
246119.84899902 3357447.97650146 14.08553886 83 84 86
246120.55993652 3357448.01129150 14.11429787 96 95 93
246112.67749023 3357444.57546997 14.34802628 47 47 45
246118.17895508 3357447.50921631 14.56970978 54 55 57
246118.06030273 3357446.50967407 14.24669266 34 35 30
246123.84057617 3357449.04568481 14.58018208 65 61 50
246123.64257813 3357448.33026123 14.99424648 38 48 49
246116.83837891 3357447.41567993 14.44801998 107 112 118
246118.29907227 3357446.60848999 14.32749557 28 27 25
246113.47460938 3357444.57781982 14.23870564 78 79 71
246125.24401855 3357449.20257568 14.79628658 40 45 38
246117.86437988 3357447.73397827 14.33303070 96 96 96
246124.89367676 3357449.30725098 14.68318939 46 46 38
246113.15551758 3357445.98516846 14.27053738 107 106 101
246112.95544434 3357445.09738159 14.98818684 47 49 46
246124.86572266 3357449.25357056 14.74612236 60 57 50
246111.07177734 3357444.90560913 14.18630219 108 108 110
246120.63488770 3357446.91732788 14.27279568 20 20 22
246112.52893066 3357444.49331665 14.31865025 51 53 52
246123.13439941 3357448.49822998 14.91537189 61 60 56
246121.62695313 3357448.56649780 14.29299068 50 43 35
246113.03576660 3357444.90032959 14.69176006 18 28 29
246117.61584473 3357447.25363159 14.67041779 125 135 134
246124.55773926 3357449.26599121 14.69392204 28 29 24
246122.94299316 3357448.87265015 14.63587475 49 50 52
246117.19763184 3357447.43627930 14.50007439 47 61 61
246112.12707520 3357444.93276978 14.72312927 74 79 75
246112.05541992 3357444.29913330 14.44933891 72 73 75
246117.99658203 3357446.25195313 14.33567429 45 44 40
246119.88513184 3357447.17709351 14.39719963 36 39 44
246114.74865723 3357446.74145508 14.17010498 73 74 78
246114.38696289 3357446.29577637 14.45901585 36 33 40
246115.74426270 3357446.68212891 14.20635319 55 57 56
246114.31945801 3357446.45788574 14.39930058 33 33 33
246113.84924316 3357446.45886230 14.39831543 79 81 76
246113.25524902 3357444.79235840 14.41765404 40 39 35
246123.70471191 3357449.05267334 14.25953674 69 68 63
246116.79785156 3357446.13311768 14.15085411 80 83 74
246114.61926270 3357446.19155884 14.48532200 41 42 46
246121.16320801 3357448.10205078 14.18733215 108 91 81
246114.86743164 3357445.56936646 14.68808842 32 34 31
246114.71972656 3357446.08816528 14.74608040 72 89 97
246121.63757324 3357447.45828247 14.64620972 45 46 41
246113.00732422 3357444.54101563 14.27925968 66 69 62
246112.37133789 3357445.09390259 14.80712700 74 76 75
246113.16394043 3357444.92468262 14.61122513 10 16 16
246120.25915527 3357447.43756104 14.24558926 28 32 31
246113.27209473 3357445.04162598 14.81470680 17 26 33
246111.51342773 3357444.92617798 14.18836784 98 98 98
246116.69409180 3357445.77804565 14.18802166 36 36 28
246122.48522949 3357449.03915405 14.80499077 55 55 55
246114.38952637 3357446.35574341 14.43488503 49 46 53
246117.95410156 3357446.24731445 14.33129406 44 43 38
246113.10302734 3357445.24859619 14.78184795 37 35 36
246114.02111816 3357445.18542480 14.63659477 9 18 17
246118.14123535 3357446.85174561 14.55664539 34 33 38
246124.47705078 3357449.04626465 14.84307861 61 57 56
246124.80004883 3357449.35723877 14.26664925 46 42 39
246121.24926758 3357447.35385132 14.64936066 35 35 35
246124.73730469 3357449.31143188 14.06304264 75 71 62
246112.60107422 3357445.79443359 14.19509888 102 99 94
246115.37878418 3357446.55688477 14.55125713 31 35 36
246122.88745117 3357448.82180786 14.71556187 50 52 51
246119.14245605 3357447.56436157 14.87935066 43 46 51
246124.29980469 3357449.10623169 14.80047703 51 50 46
246113.37023926 3357445.75482178 14.54642582 88 85 80
246115.68859863 3357446.40667725 14.24609947 49 49 51
246120.52087402 3357447.11346436 14.22789097 33 35 34
246123.14746094 3357448.80557251 14.61521530 55 54 50
246111.45593262 3357445.13748169 14.15076637 108 108 106
246115.85449219 3357446.12832642 14.17157269 66 65 61
246114.24145508 3357445.54022217 15.01721668 53 61 63
246123.75573730 3357448.63287354 14.77551937 54 56 42
246110.68896484 3357445.01205444 14.14503956 99 99 99
246114.36901855 3357446.10919189 14.67097855 44 49 53
246122.14257813 3357448.11947632 14.63145924 33 34 28
246117.15393066 3357446.58865356 14.20317459 68 70 67
246115.99877930 3357446.53533936 14.14625835 71 73 72
246120.61926270 3357447.56439209 14.24114418 36 37 39
246116.22509766 3357446.01669312 14.13252163 62 63 58
246113.57678223 3357445.96273804 14.83399487 78 80 77
246122.35363770 3357447.97140503 14.71869278 19 24 18
246117.51281738 3357447.37191772 14.08847237 80 80 68
246114.55957031 3357445.98846436 14.89816093 107 121 130
246123.15270996 3357449.01321411 14.41872215 53 54 49
246109.73364258 3357445.01910400 14.80216789 118 121 126
246124.22180176 3357449.06295776 14.80841064 75 71 62
246120.04919434 3357447.94009399 14.08237171 86 84 85
246113.22851563 3357446.21548462 14.20564651 115 118 111
246121.68347168 3357448.51586914 14.41133785 40 41 36
246113.48059082 3357445.64297485 14.67828655 76 75 71
246123.31677246 3357448.06558228 14.85356808 46 52 52
246114.98840332 3357446.09695435 14.67304516 60 91 111
246122.60034180 3357448.85537720 14.87133980 48 50 49
246120.18139648 3357448.14279175 14.06065655 76 74 77
246119.32678223 3357447.85070801 14.20646763 77 77 77
246111.35205078 3357444.21154785 14.52949524 231 230 226
246118.97644043 3357447.54302979 14.96414661 51 54 59
246120.79553223 3357447.32839966 14.32948112 28 28 26
246114.27404785 3357446.28427124 14.47655773 30 30 32
246120.28918457 3357447.77127075 14.13292503 53 53 53
246119.45178223 3357447.39450073 14.46232796 61 66 69
246124.72753906 3357449.35250854 14.51514721 72 64 62
246123.42785645 3357448.11218262 14.85721874 58 67 66
246113.64636230 3357446.21743774 14.88379574 30 34 37
246112.44873047 3357444.36007690 14.27840137 65 67 62
246120.12219238 3357447.83227539 14.10617638 65 65 65
246119.03942871 3357447.62158203 14.48637390 32 36 37
246115.47167969 3357446.47869873 14.39955711 35 36 40
246118.23791504 3357446.94308472 15.04981995 73 81 83
246122.34411621 3357447.75430298 14.80518627 20 22 19
246117.99853516 3357446.31643677 14.31699181 43 44 39
246111.51855469 3357444.42474365 14.78339863 90 86 87
246116.29064941 3357445.63421631 14.23243046 44 44 44
246114.76867676 3357445.26046753 14.52229691 16 22 12
246122.62377930 3357447.75979614 14.81204987 24 26 23
246113.01208496 3357445.26351929 14.78041935 36 32 31
246112.18908691 3357445.45925903 14.59772015 78 80 79
246118.94738770 3357447.49990845 15.00248146 41 44 49
246115.63940430 3357446.18536377 14.22805023 47 47 45
246114.90686035 3357445.56228638 14.66016579 38 41 34
246122.04943848 3357448.68762207 14.16037941 62 59 52
246112.83483887 3357446.04705811 14.19919777 122 123 117
246110.65527344 3357444.56698608 14.42611599 94 87 79
246124.00341797 3357448.94412231 14.74006367 98 92 80
246118.87524414 3357447.06774902 15.16566658 104 105 109
246117.37414551 3357447.50942993 14.09970951 63 62 58
246117.03039551 3357446.61990356 14.17989635 75 75 73
246121.85681152 3357448.13415527 14.68684101 32 31 26
246115.84582520 3357446.85446167 14.14034176 81 81 83
246123.56506348 3357449.08129883 14.10754967 82 72 70
246115.70251465 3357446.25900269 14.21818924 51 49 50
246110.63830566 3357444.53625488 14.40312004 104 100 97
246112.33544922 3357445.66912842 14.18118668 110 110 102
246119.30139160 3357447.41226196 14.72063351 47 56 53
246113.71777344 3357445.15322876 14.65257645 15 20 23
246115.37927246 3357445.87823486 14.43724823 24 30 30
246112.09497070 3357444.71011353 14.64550972 41 51 50
246114.55017090 3357446.44531250 14.39950085 9 13 16
246114.36010742 3357446.07293701 14.76286697 53 60 66
246117.70776367 3357447.30654907 14.64752674 81 90 85
246123.96191406 3357449.10351563 14.08342171 76 73 68
246122.16113281 3357447.52767944 14.83006954 26 28 27
246110.97229004 3357444.87802124 14.18043518 99 98 103
246117.00268555 3357445.84173584 14.15848255 64 63 58
246122.69592285 3357448.48645020 14.68295956 54 53 49
246111.25659180 3357445.22915649 14.13276672 118 117 115
246119.11206055 3357447.15811157 15.04213524 71 76 80
246119.82702637 3357447.47991943 14.36402512 25 26 28
246114.88439941 3357445.42648315 14.59263706 18 23 16
246113.96960449 3357445.91046143 14.86036015 41 45 48
246113.30358887 3357444.84451294 14.41333389 35 31 28
246110.52746582 3357445.07192993 14.16214085 100 100 100
246113.41125488 3357446.02041626 14.44970703 133 108 104
246113.31542969 3357445.87109375 14.42534065 100 97 92
246121.58142090 3357448.69430542 14.11656761 130 113 97
246124.66247559 3357449.32275391 14.43542099 73 68 64
246118.66955566 3357447.90811157 14.12614346 76 77 79
246118.11889648 3357446.87496948 14.76652718 0 0 0
246121.82055664 3357447.51055908 14.70140839 38 38 38
246123.72253418 3357449.06225586 14.10457325 87 80 74
246116.99487305 3357446.02807617 14.13472080 81 81 73
246111.99560547 3357445.61911011 14.15239429 108 110 107
246113.17590332 3357445.78701782 14.42438793 78 77 73
246110.10156250 3357444.96597290 14.21851635 58 64 64
246118.75781250 3357447.68609619 14.39995766 43 44 48
246121.24609375 3357448.01568604 14.26810169 123 106 88
246122.23876953 3357448.51940918 14.48963356 255 247 229
246122.31823730 3357448.63436890 14.66293621 143 145 140
246111.51489258 3357445.56301880 14.18123817 128 127 123
246120.80688477 3357447.00326538 14.36524105 19 20 22
246121.77856445 3357448.28106689 14.65963459 69 71 58
246117.32177734 3357447.39746094 14.29720592 54 62 64
246125.14599609 3357449.41949463 14.53287411 96 89 83
246118.32983398 3357446.80953979 14.83765888 25 30 33
246122.66821289 3357447.76379395 14.81903744 24 26 23
246116.03747559 3357447.03161621 14.09543419 97 89 87
246117.48364258 3357447.25494385 14.60141945 202 210 212
246122.99731445 3357448.26406860 14.81211567 22 21 19
246110.51916504 3357444.94836426 14.16131306 92 94 93
246112.72229004 3357445.44073486 14.69975948 84 78 78
246116.16479492 3357446.10629272 14.12847614 55 54 50
246119.20007324 3357447.49359131 14.97853088 71 75 78
246112.79528809 3357445.26397705 14.79874706 41 37 36
246123.11425781 3357448.61224365 14.77072716 103 99 88
246125.10546875 3357449.50582886 14.35715771 93 82 78
246114.70019531 3357445.61282349 14.80703926 17 22 25
246121.97570801 3357448.66693115 14.09976292 71 67 58
246122.00573730 3357448.82901001 14.08671856 126 113 97
246124.57556152 3357449.23394775 14.02385998 42 43 38
246125.30969238 3357449.33837891 14.66701698 49 49 41
246118.68029785 3357447.19491577 15.15259266 34 34 34
246114.45031738 3357445.78854370 15.00711346 66 74 77
246110.23144531 3357444.92825317 14.19036198 77 78 80
246123.01220703 3357448.57952881 14.79126549 107 101 89
246120.73156738 3357447.26556396 14.28748417 32 34 33
246117.76635742 3357446.46606445 14.28122997 59 58 54
246116.71691895 3357446.45538330 14.13594151 75 77 72
246110.98730469 3357444.31930542 14.40508747 80 78 79
246109.97009277 3357444.74572754 14.81311035 117 124 132
246113.57226563 3357445.98031616 14.80407047 84 86 83
246123.45983887 3357448.03359985 14.87327862 34 45 41
246120.93530273 3357447.67578125 14.54462433 51 53 50
246122.16870117 3357448.79724121 14.32104778 72 54 42
246122.62951660 3357447.69375610 14.82197857 27 29 26
246111.73120117 3357445.18835449 14.15098190 109 108 106
246125.58996582 3357449.51974487 14.78071690 44 40 39
246115.31079102 3357445.59622192 14.44397831 40 41 36
246118.37707520 3357446.79006958 14.91558456 113 121 124
246117.26086426 3357447.42712402 14.38278484 49 59 61
246116.71484375 3357446.27038574 14.14704704 62 65 56
246119.08251953 3357447.70010376 14.32742786 46 48 45
246118.78283691 3357447.50973511 14.92687225 38 42 45
246109.83886719 3357444.99395752 14.59743881 67 81 82
246118.56530762 3357447.41998291 14.79883671 47 51 54
246117.58105469 3357446.96835327 14.67135620 138 144 142
246117.54309082 3357446.96917725 14.62524509 53 55 54
246122.38317871 3357447.97860718 14.71995926 19 24 18
246117.60302734 3357446.58972168 14.21125126 83 82 78
246121.33996582 3357448.61569214 14.16028023 111 98 81
246114.85144043 3357446.24905396 14.56888580 40 47 55
246121.41906738 3357448.08984375 14.34096146 183 161 147
246110.95239258 3357444.62026978 14.36155701 39 37 42
246111.27758789 3357444.52923584 14.46776390 32 32 34
246119.13647461 3357447.56491089 14.88554192 53 56 61
246122.94372559 3357449.04818726 14.32675743 47 48 43
246115.58996582 3357446.80209351 14.16983032 59 63 64
246124.85034180 3357449.23901367 14.76299095 68 65 58
246113.05773926 3357445.11053467 15.01060390 56 60 61
246114.99487305 3357445.63897705 14.63178349 34 35 30
246116.38439941 3357446.32525635 14.09599781 63 63 61
246113.98925781 3357445.60885620 14.99700546 29 40 44
246118.28491211 3357446.30560303 14.38839626 36 37 32
246111.28759766 3357445.06018066 14.15891838 109 108 106
246113.47790527 3357446.36795044 14.46136093 133 70 81
246117.73022461 3357447.31750488 14.64073849 68 74 72
246122.27160645 3357448.25106812 14.58307362 31 14 4
246117.81799316 3357447.25131226 14.72688198 134 143 142
246120.98571777 3357447.46527100 14.67318439 40 37 32
246120.94946289 3357447.84851074 14.34015656 42 44 41
246117.50292969 3357446.22817993 14.31549835 71 72 67
246109.55126953 3357445.21493530 14.59087944 156 159 166
246114.06384277 3357446.45779419 14.39999485 72 72 70
246121.61987305 3357447.47686768 14.62451744 45 47 42
246111.86279297 3357445.21777344 14.50695801 121 130 135
246116.71960449 3357447.66186523 14.41357040 164 164 162
246115.53125000 3357446.27593994 14.27108479 39 39 41
246120.98107910 3357447.83749390 14.38028431 34 36 33
246122.53479004 3357449.10122681 14.74403191 49 51 46
246113.31323242 3357445.04843140 14.74285698 20 29 34
246117.39318848 3357446.69030762 14.21280670 48 48 46
246112.31652832 3357444.77600098 14.56293964 22 26 29
246120.30346680 3357447.20892334 14.28805065 34 36 35
246123.11962891 3357447.88662720 14.89194012 34 36 35
246118.53027344 3357446.73660278 14.80143738 126 137 141
246116.60571289 3357447.38055420 14.17347527 108 102 106
246113.47155762 3357446.38464355 14.35348892 100 76 76
246117.14184570 3357447.40884399 14.60722828 123 144 137
246123.19006348 3357448.00033569 14.86888409 36 38 37
246112.71105957 3357444.71743774 14.43661213 25 25 23
246123.93920898 3357448.54150391 14.80088711 58 68 44
246119.69372559 3357446.83447266 14.59846210 30 34 35
246123.87207031 3357448.56130981 14.79149151 38 47 28
246113.47863770 3357446.17608643 14.99703121 48 42 44
246120.45410156 3357448.27502441 14.07350254 97 86 80
246112.03576660 3357444.59863281 14.56079674 62 69 61
246125.45153809 3357449.53338623 14.62176418 38 37 33
246117.63317871 3357446.83129883 14.26613903 26 27 22
246122.52026367 3357448.24844360 14.63852406 45 47 42
246118.61267090 3357447.61444092 14.57677460 54 58 59
246118.01391602 3357446.94952393 14.87624836 54 64 66
246122.46643066 3357449.15493774 14.63091087 65 67 64
246114.55065918 3357446.57876587 14.30006313 29 28 33
246113.14306641 3357444.93975830 14.68463898 13 23 25
246123.90588379 3357448.88885498 14.70858383 105 99 87
246117.75878906 3357446.37002563 14.31985569 65 66 61
246118.43359375 3357447.44949341 14.67251682 29 30 32
246113.48376465 3357446.15206909 14.96201038 60 50 51
246124.15527344 3357449.15472412 14.34742737 58 55 48
246113.55883789 3357445.57583618 14.91409397 61 63 62
246116.91345215 3357445.66381836 14.18589687 47 48 42
246111.69409180 3357444.97915649 14.46636200 61 69 72
246116.48217773 3357447.25698853 14.12855911 82 80 81
246113.47875977 3357445.49899292 14.76269245 60 59 57
246113.27514648 3357444.47851563 14.22151470 60 59 54
246116.65551758 3357446.66067505 14.11263275 80 81 73
246119.69018555 3357447.20590210 14.48587513 19 24 27
246121.48193359 3357447.91696167 14.40584278 208 182 169
246111.28430176 3357445.34530640 14.14737415 116 115 113
246119.18457031 3357447.76947021 14.27453804 51 53 50
246119.79858398 3357448.09796143 14.07165146 80 80 82
246112.89624023 3357445.60946655 14.61000443 81 82 84
246118.11572266 3357446.20065308 14.36337566 40 39 34
246113.28881836 3357444.71710205 14.31345749 54 55 50
246122.46130371 3357448.00561523 14.72539234 16 21 15
246118.13354492 3357446.85382080 14.56562424 11 12 14
246120.13964844 3357446.92938232 14.34333038 29 30 34
246111.63024902 3357444.47244263 14.78589535 34 36 33
246113.76342773 3357446.37637329 14.45162296 63 68 64
246122.82446289 3357449.08023071 14.44174480 108 109 93
246114.26977539 3357445.90737915 14.88173962 49 57 59
246113.37683105 3357446.26052856 14.42809582 114 71 78
246115.30334473 3357446.92242432 14.15026093 53 54 56
246123.25598145 3357448.34573364 15.00642681 27 31 32
246116.29772949 3357446.75704956 14.09795570 46 41 37
246125.00903320 3357449.29003906 14.69607449 62 59 54
246120.55468750 3357446.93984985 14.24706936 49 50 52
246114.01721191 3357446.37103271 14.46198750 51 53 52
246120.01696777 3357447.48849487 14.28606701 35 37 36
246120.79931641 3357447.25836182 14.32606316 37 39 36
246120.35168457 3357447.03918457 14.27545357 22 24 23
246112.38842773 3357445.46838379 14.60784340 79 80 75
246110.37976074 3357444.77352905 14.19207382 87 86 91
246115.69665527 3357445.86984253 14.27383900 54 55 49
246117.38879395 3357446.40725708 14.26318359 54 54 52
246114.50512695 3357446.51705933 14.35240936 33 32 37
246114.11657715 3357445.84194946 14.86127186 48 52 55
246124.10583496 3357448.87832642 14.79542923 88 85 70
246117.49035645 3357445.91836548 14.22756386 40 37 32
246115.63989258 3357445.50021362 14.33311939 57 57 59
246121.22583008 3357447.21493530 14.69232655 29 31 26
246115.37048340 3357446.77124023 14.34911728 55 56 58
246118.58325195 3357447.60800171 14.58564091 50 54 57
246110.94958496 3357444.44995117 14.44047070 41 40 38
246112.77404785 3357444.59323120 14.34604645 48 49 44
246122.30651855 3357449.08993530 14.50539303 55 46 29
246121.88903809 3357447.84292603 14.63068104 86 85 91
246120.02880859 3357447.27770996 14.33720493 51 52 56
246117.49414063 3357447.30822754 14.28573704 75 83 85
246118.11901855 3357447.16101074 14.80403805 81 82 84
246122.22314453 3357449.05346680 14.80171108 248 244 241
246123.16430664 3357448.69821167 14.68004036 90 87 78
246114.75219727 3357446.72637939 14.17747879 68 69 73
246122.17395020 3357448.88662720 14.55396938 96 77 63
246116.51867676 3357446.52505493 14.10006332 65 65 55
246121.30822754 3357447.31942749 14.64909935 33 35 32
246114.91430664 3357446.42495728 14.52550888 49 58 63
246122.24450684 3357448.70135498 14.55069542 48 35 26
246115.97619629 3357445.78042603 14.23115444 91 90 86
246124.59008789 3357449.29156494 14.66065788 32 31 27
246118.90307617 3357447.18490601 15.14671803 32 33 35
246111.86743164 3357445.71835327 14.20918179 120 120 118
246113.29016113 3357445.93994141 14.37791252 111 106 100
246123.57556152 3357449.03839111 14.23302937 69 65 62
246119.29418945 3357447.03710938 14.88560581 68 76 78
246122.17199707 3357448.89865112 14.72579479 50 42 29
246122.59521484 3357448.71417236 14.81835365 46 47 49
246122.26977539 3357447.89657593 14.75189114 39 41 36
246118.81103516 3357447.05358887 15.19527149 23 25 24
246114.90393066 3357446.38781738 14.53922653 52 61 66
246122.87548828 3357448.55316162 14.74548817 115 108 98
246119.22302246 3357447.47445679 14.89738178 45 48 53
246119.61999512 3357447.17013550 14.52471352 25 31 31
246121.01684570 3357447.32821655 14.62842178 39 38 34
246111.63671875 3357445.36572266 14.16257954 110 110 108
246113.53063965 3357446.11364746 14.83866405 64 55 56
246123.30297852 3357448.19903564 14.89388466 54 58 57
246115.72143555 3357446.73416138 14.19421864 60 60 60
246119.25964355 3357446.90829468 14.86703205 122 126 129
246112.14892578 3357445.22909546 14.77824402 50 54 55
246116.21264648 3357447.04022217 14.10487556 190 174 159
246113.71447754 3357444.97482300 14.38201618 25 25 17
246119.53686523 3357447.60122681 14.26421452 74 78 79
246114.72216797 3357446.46499634 14.37563896 41 44 49
246109.94921875 3357444.82412720 14.45938110 45 56 60
246113.09338379 3357444.74243164 14.46235561 40 40 38
246123.25488281 3357448.15368652 14.87663460 45 50 46
246116.03405762 3357446.43954468 14.14548492 72 72 72
246124.13269043 3357448.86386108 14.80910969 84 82 67
246112.84814453 3357444.94149780 14.75828075 27 45 33
246113.70336914 3357445.04623413 14.46040630 21 20 18
246124.95800781 3357449.32379150 14.65156746 46 43 36
246123.43908691 3357447.99234009 14.87328243 36 47 43
246119.74072266 3357446.83200073 14.56671047 10 14 15
246123.54272461 3357449.04077148 14.27539349 66 62 59
246121.17980957 3357447.59082031 14.72057343 32 34 31
246113.54699707 3357445.86013794 14.62507248 84 83 79
246110.27197266 3357444.90188599 14.18424320 78 79 81
246121.87109375 3357447.78396606 14.61842632 100 99 104
246112.70812988 3357444.90274048 14.57731628 14 20 18
246119.11853027 3357447.57751465 14.56097126 9 15 15
246116.41528320 3357446.71801758 14.09345055 100 96 84
246113.20812988 3357445.71353149 14.55339622 71 71 69
246117.03479004 3357446.02508545 14.14544106 67 66 61
246114.03356934 3357446.11175537 14.70524120 51 53 52
246111.09619141 3357444.34796143 14.47762108 64 62 63
246119.92358398 3357447.96926880 14.08178711 77 76 81
246120.12609863 3357447.09268188 14.33777905 28 29 31
246116.91308594 3357447.20898438 14.27519321 108 114 114
246115.78649902 3357446.06076050 14.19874287 52 51 47
246118.41516113 3357447.34945679 14.66554737 32 33 37
246113.28100586 3357445.02270508 14.70679379 22 31 36
246119.76391602 3357447.68090820 14.22553730 49 49 47
246125.03112793 3357449.19400024 14.80880356 59 56 51
246120.91564941 3357447.67416382 14.48056889 85 90 86
246118.39636230 3357446.75811768 14.51184273 0 4 5
246118.12915039 3357447.82342529 14.39534378 103 107 106
246123.50537109 3357448.77969360 14.66332436 106 100 88
246123.55810547 3357448.93716431 14.54532242 55 56 48
246121.47973633 3357448.24456787 14.41799641 115 95 86
246113.04345703 3357445.37722778 14.73708153 88 84 81
246123.06811523 3357448.34252930 14.88277626 51 52 47
246123.91992188 3357449.01593018 14.64490604 98 89 82
246116.84375000 3357446.21429443 14.16541386 71 74 63
246114.93371582 3357446.50042725 14.45959091 55 60 66
246120.83300781 3357446.95886230 14.46363163 62 66 67
246111.58752441 3357444.72955322 14.57263279 68 69 73
246117.81555176 3357446.40704346 14.30054951 61 60 56
246114.05725098 3357445.64031982 14.99663067 16 24 27
246121.19799805 3357448.12103271 14.19385242 110 92 80
246118.01818848 3357446.85671997 14.50225067 55 56 58
246118.92663574 3357447.79031372 14.25428009 60 64 65
246120.39123535 3357447.69873047 14.17026711 45 47 46
246111.20800781 3357444.19842529 14.43275452 67 65 66
246123.11914063 3357448.87799072 14.58406067 50 50 48
246113.53247070 3357446.40274048 14.51793003 108 65 72
246118.61840820 3357446.63024902 14.64258289 46 54 56
246114.20324707 3357446.13671875 14.62219143 90 93 98
246121.12341309 3357448.40603638 14.12898827 124 111 95
246123.24902344 3357448.27307129 14.94964600 42 46 45
246114.29833984 3357445.88232422 14.91819954 39 44 47
246116.86132813 3357446.89590454 14.17101288 85 87 84
246122.50805664 3357447.61697388 14.83054352 24 26 25
246117.13439941 3357447.21163940 14.47743988 106 126 125
246124.58947754 3357449.33941650 14.56576443 61 57 54
246121.93664551 3357448.06695557 14.69123650 42 37 41
246110.05078125 3357444.83108521 14.31845570 68 79 81
246116.51574707 3357446.82794189 14.09579945 66 62 59
246121.96960449 3357447.78179932 14.77367115 50 54 57
246113.44482422 3357445.82070923 14.54903126 93 89 86
246117.46411133 3357446.68063354 14.20635605 47 47 45
246118.01550293 3357446.86029053 14.52488899 57 61 60
246124.85888672 3357449.37664795 14.51013184 69 65 62
246124.29028320 3357449.21588135 14.50003147 92 84 81
246120.06396484 3357447.79034424 14.11700630 62 61 59
246118.22863770 3357447.32235718 14.60179043 87 88 90
246114.40808105 3357446.11312866 14.65977764 31 36 42
246115.63513184 3357445.43222046 14.33639908 69 69 69
246117.68591309 3357447.67492676 14.09871578 89 90 82
246110.37597656 3357444.78704834 14.18852711 89 88 93
246117.24157715 3357446.16305542 14.20976448 57 62 55
246123.75183105 3357449.05548096 14.51067924 59 58 53
246119.57763672 3357447.58895874 14.28227901 66 70 71
246113.31872559 3357446.18402100 14.30730915 106 103 94
246113.32617188 3357445.87246704 14.43193817 100 97 92
246118.65588379 3357446.82666016 15.02295685 130 140 139
246114.15234375 3357446.06460571 14.71079445 82 86 89
246115.35388184 3357446.49047852 14.51573944 25 33 35
246118.67346191 3357447.02084351 15.18839264 61 59 64
246113.14672852 3357445.68743896 14.56152821 72 72 70
246122.92565918 3357449.00222778 14.51191711 52 53 48
246125.44299316 3357449.56188965 14.57254410 53 54 49
246114.86584473 3357446.01446533 14.74492073 80 104 114
246115.11193848 3357446.12585449 14.63443279 54 77 85
246116.32873535 3357447.14974976 14.10505962 177 169 148
246113.52148438 3357446.39450073 14.67503452 103 71 76
246118.42651367 3357447.76861572 14.34869576 65 65 67
246122.88513184 3357449.04702759 14.47962856 88 89 81
246116.58386230 3357446.78970337 14.09977913 69 70 65
246113.73425293 3357446.09008789 14.88719082 38 39 44
246122.62255859 3357448.45175171 14.67871666 46 47 42
246116.85205078 3357446.95462036 14.16762352 85 87 84
246120.26586914 3357446.88015747 14.31362820 44 45 47
246111.88732910 3357445.30120850 14.42676926 73 83 84
246122.13171387 3357448.34225464 14.51363850 60 34 17
246117.74133301 3357447.75366211 14.15047550 90 92 87
246124.69689941 3357449.10980225 14.83692932 59 58 56
246113.10131836 3357445.90197754 14.26861095 102 98 95
246112.38317871 3357445.53015137 14.33707809 92 91 87
246117.59619141 3357447.30368042 14.60128498 46 55 54
246110.97705078 3357444.21020508 14.34158230 88 84 81
246114.26403809 3357446.11676025 14.65392876 31 32 36
246117.26574707 3357447.59506226 14.12804317 61 61 61
246115.03393555 3357446.62808228 14.44496918 67 72 76
246122.14025879 3357448.84869385 14.23948193 118 102 89
246118.64843750 3357447.18856812 15.14909554 64 66 65
246117.42736816 3357446.94265747 14.39520931 185 188 197
246121.95007324 3357448.44555664 14.50160027 59 62 51
246118.55895996 3357447.49865723 14.72500896 21 22 24
246117.81738281 3357447.65234375 14.31416416 81 83 82
