245771.34521484 3357416.32455444 17.76607513 105 105 113
245771.09289551 3357415.86901855 17.81407166 65 66 70
245770.72540283 3357417.51641846 18.05362129 56 51 57
245770.37982178 3357418.75418091 17.99074364 226 225 230
245769.62713623 3357417.91854858 17.69035149 32 34 31
245770.72027588 3357417.42651367 18.04487610 126 125 131
245770.11645508 3357416.07742310 17.68022346 82 86 85
245772.07617188 3357417.25222778 17.66310692 86 87 91
245771.21063232 3357418.69879150 17.84749603 43 42 47
245770.03643799 3357417.49743652 18.01347733 13 15 14
245770.55389404 3357418.87124634 18.08379173 201 202 206
245771.21936035 3357415.97689819 17.78036118 129 128 124
245770.75195313 3357418.99298096 18.08943558 16 16 14
245769.97100830 3357418.11080933 17.80963707 51 52 56
245770.96472168 3357415.40167236 17.88583374 62 65 70
245771.80169678 3357417.20898438 17.66319847 82 83 88
245771.66589355 3357416.10717773 17.65540695 79 80 85
245771.38970947 3357416.90209961 17.78232193 21 21 23
245771.62170410 3357418.05819702 17.62900543 78 76 79
245770.93627930 3357419.13934326 17.97072983 27 27 27
245769.93432617 3357418.23718262 17.80336189 64 72 75
245770.80303955 3357418.30291748 18.05547333 136 145 152
245771.62481689 3357415.96478271 17.64154625 91 94 99
245771.69842529 3357417.83911133 17.62489128 121 121 121
245771.26165771 3357417.77319336 17.93572426 60 58 59
245771.09204102 3357417.77673340 18.06580353 48 48 46
245769.84887695 3357418.04919434 17.67715073 31 32 34
245771.30590820 3357415.35122681 17.79738617 53 54 58
245770.33758545 3357418.86474609 17.98347473 139 139 141
245772.38153076 3357416.70025635 17.69293213 89 90 95
245769.73608398 3357417.41030884 17.68924332 188 164 152
245770.41711426 3357416.44622803 17.74897766 113 108 105
245770.58874512 3357417.29965210 18.10155869 50 50 52
245770.36682129 3357419.26937866 17.97552681 57 58 60
245770.63964844 3357415.74206543 17.77613831 39 43 44
245770.35699463 3357415.43585205 17.85348320 51 51 51
245770.98516846 3357418.12850952 18.01564026 27 31 32
245770.71539307 3357415.27722168 17.85399055 152 152 160
245770.30364990 3357419.32617188 17.91682053 62 63 65
245771.34106445 3357419.12390137 17.68850136 100 101 106
245771.40832520 3357415.49642944 17.72119713 83 86 93
245771.92761230 3357416.36105347 17.67397118 91 92 97
245771.21234131 3357416.23300171 17.82365990 96 95 100
245771.24755859 3357416.23831177 17.80929184 103 104 109
245771.63439941 3357416.08859253 17.65204048 77 78 83
245770.30975342 3357419.16882324 17.95237732 44 43 48
245770.06085205 3357418.83804321 17.90594864 154 158 167
245770.51641846 3357417.93252563 17.99819756 97 90 97
245771.50427246 3357416.15365601 17.65158463 81 82 86
245771.48278809 3357417.16564941 17.73412514 54 52 55
245771.63427734 3357415.84371948 17.65127754 98 99 104
245770.46124268 3357416.49993896 17.75877571 166 155 153
245770.61297607 3357419.43350220 17.96179771 57 61 62
245770.68896484 3357418.16223145 18.01756668 76 81 85
245770.95422363 3357417.37570190 18.05120659 31 32 36
245771.40460205 3357415.92706299 17.68750000 86 85 90
245769.77227783 3357415.15292358 17.85279083 83 92 97
245771.24896240 3357419.02252197 17.73070717 69 70 75
245769.78820801 3357417.94235229 17.64743996 9 13 14
245771.34851074 3357415.86398315 17.72570610 82 76 76
245771.19274902 3357416.09457397 17.80394363 34 36 35
245771.89599609 3357416.94567871 17.66395187 82 86 89
245771.05297852 3357416.80352783 17.92069817 193 197 209
245771.56762695 3357416.29681396 17.66603088 76 77 82
245769.58654785 3357418.00659180 17.69081306 45 50 46
245770.15740967 3357417.41357422 18.13268089 48 49 53
245770.83367920 3357419.22918701 18.01613235 62 63 67
245770.50512695 3357416.59167480 17.76565361 155 136 130
245770.54559326 3357418.66659546 18.04182816 220 221 223
245770.25518799 3357418.02557373 17.98052979 49 50 52
245772.29742432 3357417.03320313 17.68711853 90 91 95
245771.57482910 3357418.70642090 17.68425179 77 78 82
245771.99487305 3357416.92645264 17.66824150 83 87 90
245771.08789063 3357418.13061523 17.95127678 145 150 156
245770.70727539 3357417.19522095 18.06938171 93 94 96
245771.16772461 3357418.54064941 17.93199539 33 33 35
245770.97625732 3357418.87545776 17.99617004 211 212 214
245770.60247803 3357418.72082520 18.06052589 148 149 144
245771.39385986 3357416.86584473 17.76680946 32 32 32
245770.84674072 3357415.11355591 17.64129639 91 89 90
245770.62915039 3357417.03176880 18.04323196 104 105 110
245770.93707275 3357415.07702637 17.64108086 102 103 107
245770.32745361 3357415.30593872 17.67054558 36 32 29
245770.12677002 3357415.24267578 17.68371964 160 165 171
245770.16967773 3357418.95806885 17.93363762 75 79 80
245771.18927002 3357415.64382935 17.78482056 56 60 63
245770.88305664 3357417.87237549 18.07616806 42 40 41
245771.00897217 3357415.24859619 17.87308693 127 131 140
245770.10809326 3357415.48870850 17.72390366 131 136 139
245771.45629883 3357417.99337769 17.69262314 113 114 118
245770.98883057 3357418.76046753 18.02885437 127 127 127
245771.47979736 3357416.79406738 17.69464493 58 59 61
245770.84759521 3357417.42706299 18.06371689 106 105 111
245771.33477783 3357416.83331299 17.80144119 29 29 31
245770.17828369 3357417.82949829 17.99170685 35 33 34
245771.19372559 3357418.46615601 17.90678596 46 50 53
245771.27056885 3357417.55108643 17.89845276 57 53 50
245770.94128418 3357417.61666870 18.08550644 103 96 104
245771.28344727 3357416.20355225 17.78615570 42 43 47
245771.80426025 3357416.97076416 17.65979004 78 82 85
245770.90484619 3357416.23757935 17.81687737 14 14 16
245771.53009033 3357416.46234131 17.68718529 72 73 78
245771.91534424 3357417.43710327 17.65970993 88 89 93
245770.32080078 3357415.50347900 17.88226128 111 116 112
245772.32012939 3357416.98397827 17.68978500 93 94 98
245770.05853271 3357415.57022095 17.70570374 134 137 142
245772.03826904 3357416.29479980 17.67974281 100 101 106
245770.11975098 3357417.10446167 17.74752235 136 135 141
245771.70178223 3357417.57434082 17.67313004 87 86 91
245771.69549561 3357418.52780151 17.64995003 94 95 97
245770.30725098 3357415.21591187 17.64040565 55 54 50
245771.18347168 3357417.65963745 18.01257896 78 73 69
245770.20513916 3357417.16903687 17.85442162 57 59 58
245771.36834717 3357417.48599243 17.80492210 55 56 60
245770.45745850 3357418.83972168 18.03230095 180 180 182
245772.11267090 3357416.93139648 17.67264557 94 98 101
245769.85400391 3357415.25436401 17.77739334 127 134 142
245771.02313232 3357419.19268799 17.89366913 49 49 51
245770.92230225 3357417.01782227 17.99172020 43 42 47
245770.01818848 3357417.67355347 17.86688042 81 79 82
245770.78033447 3357415.62524414 17.83760262 54 58 59
245771.05316162 3357418.67578125 18.00238609 53 49 48
245771.72198486 3357417.32662964 17.69318008 74 75 79
245770.26312256 3357417.95443726 17.99595833 50 49 54
245769.80468750 3357417.33404541 17.69316101 210 193 186
245771.83593750 3357416.86477661 17.66324997 89 90 94
245771.43640137 3357418.35693359 17.68396759 66 65 70
245771.80206299 3357416.36370850 17.66838455 87 88 93
245769.99627686 3357415.80087280 17.68482971 103 107 110
245770.60339355 3357416.82995605 17.93606377 116 120 129
245770.39495850 3357417.48843384 18.14151382 15 13 14
245770.42871094 3357416.61111450 17.73741722 164 147 137
245770.07928467 3357415.16522217 17.69077301 118 123 127
245770.13391113 3357417.05899048 17.74328423 146 144 149
245770.93109131 3357416.60916138 17.89756393 133 131 134
245771.04296875 3357416.77236938 17.92131233 179 183 195
245771.44470215 3357417.22109985 17.76013947 50 50 50
245770.05444336 3357415.53021240 17.71225548 134 139 143
245769.95989990 3357418.80233765 17.85340881 47 50 55
245771.13262939 3357416.25262451 17.83580399 56 56 58
245771.71466064 3357416.00933838 17.65220451 88 91 96
245770.49462891 3357415.72518921 17.73723030 31 32 36
245770.80364990 3357415.50167847 17.87107086 49 53 54
245771.76245117 3357415.83447266 17.63440132 107 108 112
245770.12023926 3357418.45169067 17.94349480 102 105 112
245770.73846436 3357417.82666016 18.06538010 92 81 85
245771.11529541 3357419.41946411 17.78224945 90 91 96
245770.46398926 3357416.74612427 17.79916573 210 206 205
245770.27020264 3357417.21853638 18.04859734 11 12 14
245770.16595459 3357415.70690918 17.73621559 74 76 75
245771.25677490 3357418.24600220 17.80793381 87 86 92
245771.74761963 3357417.29907227 17.68534470 78 79 83
245770.19354248 3357415.62487793 17.77694702 83 85 84
245770.66027832 3357419.02407837 18.12573814 15 16 11
245769.98889160 3357417.43569946 17.72499657 67 67 65
245770.54174805 3357416.03366089 17.74678993 113 117 118
245770.24163818 3357415.65536499 17.84842300 106 107 102
245770.67993164 3357415.60583496 17.80986595 89 93 96
245770.67449951 3357416.69796753 17.86314392 193 193 205
245771.49218750 3357417.84271240 17.69711494 83 84 86
245770.05346680 3357416.17453003 17.66879654 108 112 111
245770.77313232 3357418.45065308 18.08801651 77 82 88
245769.97937012 3357418.73641968 17.87779427 25 26 30
245770.07202148 3357418.20654297 17.91241455 42 46 49
245770.59490967 3357417.44036865 18.08426857 68 67 72
245770.62567139 3357417.39779663 18.07847786 81 79 84
245771.17272949 3357417.37573242 17.95940018 27 28 30
245770.46398926 3357415.49618530 17.78316689 62 61 66
245771.58477783 3357418.24243164 17.63312912 154 152 153
245771.11572266 3357418.31442261 17.97010612 172 181 190
245770.48638916 3357419.73324585 17.82071495 76 78 77
245771.97479248 3357416.00445557 17.67891121 82 83 88
245770.87060547 3357416.96249390 17.98531532 11 15 18
245770.18585205 3357417.99499512 17.97048569 53 52 57
245771.50207520 3357415.56423950 17.66214561 97 100 109
245771.20178223 3357419.14105225 17.74749947 67 70 75
245771.10308838 3357416.47665405 17.87464905 38 39 41
245770.87536621 3357417.88098145 18.07474136 41 39 40
245771.20611572 3357416.57937622 17.86887360 31 32 36
245771.22491455 3357415.52520752 17.80020905 67 72 76
245770.43389893 3357416.09854126 17.75187302 143 147 148
245770.30364990 3357419.03683472 17.95169640 27 25 26
245770.78430176 3357417.93188477 18.05910110 44 44 46
245770.38964844 3357417.11920166 18.00456619 29 28 26
245771.28820801 3357416.81732178 17.82918167 25 25 27
245770.38647461 3357416.48999023 17.73570824 154 147 141
245770.18157959 3357416.89520264 17.72672462 147 125 128
245770.76733398 3357418.97509766 18.08291626 19 19 17
245770.20300293 3357419.53726196 17.88682365 75 79 82
245771.00463867 3357417.67715454 18.08514786 126 117 120
245771.15447998 3357416.76184082 17.89859009 159 163 174
245769.85198975 3357418.68548584 17.78907013 61 64 71
245771.73272705 3357416.21435547 17.67830849 82 81 89
245771.02990723 3357418.44818115 18.05697632 27 35 38
245770.25756836 3357415.60128784 17.85163498 73 75 74
245770.24822998 3357418.59954834 17.97093773 100 98 99
245770.41925049 3357415.32681274 17.71106720 33 29 26
245770.69940186 3357419.13595581 18.11929512 39 40 42
245770.83441162 3357419.09167480 18.04529762 35 36 38
245770.55804443 3357416.93151855 17.95869255 115 118 125
245770.35839844 3357416.80871582 17.77461243 210 199 203
245770.65380859 3357419.09231567 18.13346100 41 43 42
245771.88665771 3357416.46234131 17.67081833 88 89 94
245770.15301514 3357418.20968628 17.95849800 71 74 79
245771.41845703 3357418.13891602 17.67095757 95 96 98
245769.82147217 3357417.66448975 17.70141220 58 60 57
245771.42187500 3357418.05398560 17.70158577 76 80 81
245771.59100342 3357417.63464355 17.70199776 116 117 121
245770.56072998 3357415.59072876 17.77717018 73 76 81
245771.53875732 3357416.97204590 17.68736458 25 25 27
245771.48120117 3357416.25726318 17.67792320 80 81 86
245772.10058594 3357417.54278564 17.64717865 106 106 106
245770.16247559 3357415.80313110 17.71862411 69 70 74
245770.60192871 3357418.25155640 18.00247955 112 123 129
245771.16455078 3357418.84054565 17.84719276 63 61 62
245771.15661621 3357417.19918823 17.97499275 23 24 29
245769.96148682 3357417.56774902 17.76633453 176 176 178
245771.87982178 3357417.78567505 17.61311722 117 117 115
245770.36004639 3357415.27661133 17.67589569 44 41 36
245772.05426025 3357416.05197144 17.68016815 87 88 93
245771.44830322 3357417.70050049 17.74715042 77 77 79
245772.25482178 3357416.58666992 17.68545341 92 93 98
245771.79602051 3357417.49911499 17.65367126 89 90 92
245770.83416748 3357415.20251465 17.85269737 204 204 212
245769.89276123 3357416.87252808 17.68493271 100 100 98
245771.39721680 3357418.89157104 17.69672012 72 73 78
245769.87695313 3357418.19714355 17.73453522 58 63 66
245770.69494629 3357415.54113770 17.82521629 50 54 57
245771.40246582 3357416.07424927 17.69640350 76 77 79
245771.13391113 3357415.83715820 17.80830193 13 13 15
245770.99084473 3357415.32955933 17.89022255 108 111 118
245771.36218262 3357415.74530029 17.72050858 45 43 48
245770.77868652 3357418.74334717 18.08539009 87 87 89
245770.08227539 3357417.53842163 18.04081726 41 41 43
245771.99200439 3357416.63861084 17.67314529 90 91 96
245770.00231934 3357417.47497559 17.81186485 75 77 76
245770.11334229 3357419.20361328 17.91521645 41 39 42
245771.58819580 3357416.75506592 17.66458893 83 84 88
245770.79644775 3357419.09573364 18.06836510 27 28 30
245770.72991943 3357417.68081665 18.07076263 125 114 120
245771.17480469 3357417.76119995 18.02451515 57 56 54
245771.59997559 3357415.86816406 17.65009308 103 104 109
245771.34564209 3357417.48425293 17.82796478 46 46 48
245771.91162109 3357416.31942749 17.67381477 84 85 90
245770.32342529 3357418.85449219 17.97406197 139 139 141
245771.94122314 3357416.96438599 17.66521835 87 91 94
245770.14739990 3357418.17608643 17.95304680 29 33 36
245771.11315918 3357416.14044189 17.81527138 28 29 31
245769.74682617 3357417.69659424 17.69335365 52 54 51
245770.80383301 3357418.63232422 18.08689308 79 79 79
245770.21374512 3357417.82745361 18.00445747 29 29 31
245770.22406006 3357417.04696655 17.77463531 67 62 68
245770.69573975 3357419.00650024 18.11002731 16 16 14
245771.24206543 3357415.24322510 17.82431412 68 69 71
245771.34130859 3357415.50057983 17.76627159 82 85 92
245770.98358154 3357417.08749390 17.99922180 26 27 31
245771.87945557 3357417.74499512 17.61295891 109 107 108
245770.19061279 3357415.81210327 17.72150612 69 70 74
245771.64984131 3357417.61987305 17.67951965 144 145 149
245770.86138916 3357419.62051392 17.86110878 42 43 45
245770.16748047 3357415.17849731 17.66578674 95 99 102
245770.48040771 3357419.40274048 17.95297623 62 66 67
245770.96972656 3357417.35324097 18.04397964 32 33 37
245770.59332275 3357416.29287720 17.79375076 82 86 89
245770.82867432 3357417.69372559 18.08743477 51 41 42
245770.66668701 3357418.38070679 18.05391502 230 242 255
245770.06274414 3357417.74880981 17.92463684 55 51 52
245769.63238525 3357417.64019775 17.70067596 22 23 15
245770.13104248 3357418.64581299 17.92810822 103 102 107
245770.98724365 3357417.57791138 18.07407761 172 164 175
245771.64105225 3357418.34179688 17.63739777 140 138 139
245770.29858398 3357416.11938477 17.72881699 136 137 139
245770.09173584 3357417.14248657 17.74560547 96 95 100
245769.83300781 3357416.98974609 17.69400978 162 162 154
245770.20568848 3357417.91088867 17.98958778 44 44 46
245770.96490479 3357419.27243042 17.92398262 166 165 170
245770.62701416 3357415.62551880 17.79072762 92 97 101
245772.28167725 3357416.88558960 17.68191528 97 98 102
245772.23596191 3357416.32135010 17.68454933 101 102 106
245771.00567627 3357416.11422729 17.81135941 27 26 31
245771.51562500 3357418.10958862 17.62774277 85 85 87
245772.08093262 3357417.53286743 17.64628029 86 87 89
245770.02618408 3357417.72607422 17.86589622 65 61 62
245769.65783691 3357418.20269775 17.64720726 72 78 76
245770.51684570 3357417.91549683 18.00292778 92 82 90
245771.28063965 3357416.97375488 17.87270546 27 28 30
245770.59967041 3357418.55206299 18.05512619 64 65 69
245771.65423584 3357416.38949585 17.67637634 84 85 90
245770.87854004 3357417.95092773 18.05882454 32 33 37
245771.25805664 3357417.51556396 17.91140366 44 40 37
245770.83758545 3357415.19827271 17.74934578 163 164 169
245770.59985352 3357415.38748169 17.88479042 140 140 150
245770.68823242 3357415.58920288 17.81518173 64 68 71
245771.04815674 3357416.29367065 17.84751129 40 41 45
245769.85113525 3357416.95416260 17.69125938 161 160 155
245770.16851807 3357417.83566284 17.98739052 47 45 46
245770.29327393 3357419.16461182 17.94132042 44 43 48
245771.36853027 3357417.80923462 17.78016472 81 80 85
245770.76348877 3357416.35208130 17.82678223 62 65 72
245770.75933838 3357419.23947144 18.06016922 113 114 119
245769.86663818 3357417.75683594 17.69669724 25 23 26
245772.42437744 3357416.79736328 17.70278740 91 92 97
245770.18792725 3357417.25378418 17.96747589 26 27 31
245769.83551025 3357418.56805420 17.79958916 85 90 96
245771.37158203 3357415.43298340 17.74909973 76 79 84
245770.01916504 3357417.40621948 17.82379150 60 62 59
245771.62799072 3357418.33459473 17.63789177 140 138 139
245771.78698730 3357416.42819214 17.66686440 85 86 91
245772.22076416 3357416.85675049 17.67869377 98 99 104
245770.92138672 3357417.48211670 18.07000160 56 55 63
245771.59637451 3357415.66204834 17.65066910 119 119 129
245770.20965576 3357419.11401367 17.92253685 51 52 57
245771.03387451 3357416.32293701 17.85369110 48 49 53
245770.16479492 3357415.28057861 17.67566872 170 175 181
245770.56317139 3357417.09811401 18.07495880 43 41 44
245769.98602295 3357417.60226440 17.83011436 26 26 26
245770.26904297 3357415.26525879 17.64795303 26 28 25
245770.72058105 3357419.51385498 17.93446922 57 61 64
245770.34936523 3357417.80258179 18.02774048 59 58 63
245770.68890381 3357419.10391235 18.12011528 38 39 41
245771.52325439 3357415.53909302 17.65623474 111 114 123
245769.91717529 3357415.75280762 17.67021179 36 42 40
245771.37322998 3357415.65359497 17.71660614 86 89 94
245770.30389404 3357417.93490601 18.00453758 51 52 54
245771.16650391 3357415.31750488 17.86652184 65 66 70
245770.42169189 3357415.14474487 17.64820290 135 134 129
245770.66253662 3357415.46389771 17.83496475 123 126 133
245769.96313477 3357415.14257813 17.72136688 150 161 167
245770.63610840 3357416.37442017 17.79728127 53 56 61
245770.05725098 3357415.64019775 17.71052933 124 127 132
245769.66693115 3357418.16415405 17.63820839 81 87 87
245770.16595459 3357415.49331665 17.75219345 106 110 113
245771.38525391 3357417.84597778 17.75153923 83 82 87
245770.03338623 3357418.29949951 17.89683533 58 68 70
245770.18621826 3357415.48031616 17.75932312 106 110 113
245771.08502197 3357416.70501709 17.90926933 122 124 137
245769.92291260 3357418.63189697 17.85963058 36 41 44
245771.16900635 3357417.73587036 18.03582191 57 56 54
245770.32812500 3357416.28732300 17.73795319 27 27 25
245771.52117920 3357418.69915771 17.69219398 79 80 85
245772.12347412 3357416.83212280 17.67557907 107 110 115
245770.31658936 3357416.95132446 17.80615234 52 47 51
245771.74511719 3357417.40679932 17.68003273 92 93 95
245770.76690674 3357415.23632813 17.92294884 175 179 188
245770.60168457 3357416.92062378 17.98226357 103 108 114
245772.55035400 3357416.68408203 17.68070221 112 116 119
245771.53192139 3357417.80422974 17.68819237 87 89 88
245770.94500732 3357417.38156128 18.05323601 31 32 36
245769.82745361 3357417.17553711 17.68644142 133 124 115
245771.10491943 3357417.34747314 18.00620270 24 25 29
245771.05010986 3357417.79550171 18.06949615 55 55 55
245771.16119385 3357415.47909546 17.83370781 72 75 80
245770.06597900 3357418.99072266 17.90857506 38 40 39
245770.36199951 3357419.65927124 17.85413361 71 75 74
245770.96295166 3357417.82177734 18.07965851 36 34 37
245770.59918213 3357419.01150513 18.14422798 16 21 15
245770.94897461 3357418.95037842 18.00337219 185 186 190
245770.11352539 3357416.62207031 17.68458557 191 184 178
245771.23419189 3357418.77166748 17.80613899 43 42 47
245772.03198242 3357416.37554932 17.67839432 90 91 96
245770.19061279 3357417.55093384 18.12252426 15 16 18
245770.86358643 3357418.49020386 18.08921432 28 32 33
245770.53607178 3357416.86022949 17.90670586 120 127 133
245770.43243408 3357419.47821045 17.89674568 69 73 74
245771.66033936 3357418.42205811 17.64319038 120 119 117
245770.60919189 3357417.55929565 18.07097626 32 26 30
245770.71618652 3357417.91165161 18.05096626 39 33 35
245770.18798828 3357419.29440308 17.91890717 41 45 46
245771.55438232 3357418.69345093 17.68610001 78 79 84
