245707.27276611 3357600.75103760 17.18502998 122 119 104
245706.60437012 3357600.76708984 17.27329826 106 93 84
245707.00469971 3357600.73352051 17.11257553 69 59 57
245706.67401123 3357600.75592041 17.17860222 89 82 74
245706.75854492 3357600.77813721 17.21217346 100 90 80
245706.48522949 3357600.50158691 17.12762451 41 42 36
245709.33599854 3357599.98565674 17.34861946 36 41 35
245707.82305908 3357600.30938721 17.03624344 131 125 113
245714.36676025 3357600.11761475 17.85273743 11 13 2
245706.95257568 3357600.68261719 17.07931900 55 50 47
245713.99102783 3357599.98095703 17.85689926 197 183 182
245719.02447510 3357599.85333252 17.58505630 18 18 16
245707.59527588 3357600.32794189 17.01113129 139 137 124
245708.02105713 3357600.06604004 17.11141396 124 120 111
245706.48449707 3357600.14862061 17.14898682 71 72 67
245708.20648193 3357600.04577637 17.52599525 154 153 151
245714.31188965 3357599.98693848 17.65622330 111 100 108
245720.74725342 3357599.78710938 17.14604187 32 34 29
245707.55084229 3357600.49737549 17.04553223 120 115 111
245707.46331787 3357600.02947998 17.04312325 88 85 76
245705.98498535 3357600.25457764 17.56303024 128 108 110
245705.80255127 3357600.18615723 17.26006126 29 29 27
245706.10577393 3357600.23608398 17.43550491 39 30 31
245705.68041992 3357600.08111572 17.22157478 104 106 105
245707.41894531 3357600.25463867 17.02886391 137 138 120
245705.68066406 3357600.24157715 17.67641830 32 37 33
245707.24029541 3357600.13220215 17.04203606 124 125 117
245718.77014160 3357599.86706543 17.36275101 72 71 67
245705.32513428 3357600.29876709 17.60608673 151 151 153
245706.74194336 3357600.41546631 17.03906822 55 54 50
245705.82470703 3357600.27099609 17.54860115 39 40 35
245708.15679932 3357600.41412354 17.37281036 98 89 82
245713.96008301 3357600.03869629 17.94002151 77 74 67
245706.31805420 3357600.19561768 17.27631950 123 123 123
245705.87030029 3357600.26922607 17.48631096 56 48 46
245705.28051758 3357600.07318115 17.26106262 118 115 108
245706.38348389 3357600.35791016 17.28209305 34 34 32
245714.37103271 3357600.03863525 17.60203171 132 123 126
245706.06170654 3357600.18792725 17.18189812 39 37 38
245714.19567871 3357600.09027100 18.00870705 121 105 106
245708.18511963 3357600.11303711 17.28680801 131 128 123
245714.03607178 3357600.05523682 17.97634697 69 61 59
245706.36181641 3357600.31298828 17.28201485 20 20 22
245705.22784424 3357600.23352051 17.19053268 138 129 124
245720.96990967 3357599.91003418 17.10516357 17 22 18
245705.73730469 3357600.13189697 17.20012283 86 88 87
245714.49346924 3357600.15069580 17.41974068 18 18 16
245705.22369385 3357600.54364014 17.39986801 64 62 63
245706.71478271 3357600.12225342 17.06759262 33 31 32
245705.19891357 3357600.50170898 17.27963829 58 60 57
245707.31237793 3357600.40930176 17.02950287 122 124 111
245705.77447510 3357600.26171875 17.50593948 31 33 28
245720.66955566 3357599.86309814 17.31455040 55 55 53
245705.31536865 3357600.32006836 17.57494545 143 143 145
245706.16809082 3357600.20440674 17.67244720 146 123 129
245705.98870850 3357600.24938965 17.38402367 43 35 33
245714.39813232 3357600.36822510 18.07692337 42 44 33
245714.43432617 3357599.96600342 17.20903969 35 35 43
245705.27966309 3357600.19476318 17.32411957 124 119 115
245706.92803955 3357600.53234863 17.02750206 58 54 51
245705.73822021 3357600.28283691 17.56388664 40 45 39
245714.43640137 3357600.17205811 17.79640388 28 30 17
245709.27972412 3357600.00427246 17.39779091 39 44 40
245720.88793945 3357599.79949951 17.05646133 30 30 30
245706.95928955 3357600.25866699 17.01753426 102 97 91
245714.25079346 3357599.94067383 17.67818069 151 141 150
245713.95825195 3357600.05194092 17.96937943 23 24 18
245713.90478516 3357599.98394775 17.86075783 129 115 112
245714.34796143 3357600.02264404 17.67148399 125 116 121
245707.43609619 3357600.05938721 17.03877831 93 91 79
245708.13537598 3357600.44427490 17.38867188 98 89 82
245707.63305664 3357600.34765625 17.01038361 139 135 123
245714.33782959 3357599.99743652 17.45541763 124 124 136
245707.81085205 3357600.39465332 17.03138542 133 131 118
245714.45605469 3357600.17584229 17.76774979 46 48 34
245707.58111572 3357600.56097412 17.08474350 88 81 75
245708.03784180 3357600.00402832 17.13405037 124 117 109
245706.35449219 3357600.52099609 17.39277077 116 114 89
245706.90362549 3357600.16558838 17.01966858 71 63 60
245707.31420898 3357600.42095947 17.02893448 122 124 111
245707.52746582 3357600.38543701 17.00123787 140 140 128
245707.45172119 3357600.28375244 17.02215767 140 141 123
245707.05371094 3357600.70837402 17.09664917 62 53 54
245705.47119141 3357600.10272217 17.63941002 101 99 102
245705.29724121 3357600.28588867 17.51090813 119 115 114
245705.77166748 3357600.30804443 17.58276558 58 59 53
245707.63201904 3357600.52832031 17.05904961 115 110 104
245708.03125000 3357600.00909424 17.12925529 124 117 109
245706.60375977 3357600.31286621 17.07986450 48 48 46
245706.34802246 3357600.43359375 17.38055992 68 66 51
245707.18951416 3357600.09283447 17.04126740 118 117 113
245707.17095947 3357600.05859375 17.04223251 115 111 108
245706.40747070 3357600.43261719 17.23244858 61 62 56
245706.96246338 3357600.18084717 17.02223206 87 79 76
245706.96667480 3357600.72155762 17.10166740 61 53 51
245705.23565674 3357600.12878418 17.16858101 152 145 137
245714.51794434 3357600.06347656 17.21189880 20 21 25
245707.32214355 3357600.67517090 17.10803604 97 94 89
245706.39294434 3357600.44342041 17.26538086 66 66 56
245708.21252441 3357600.29248047 17.37059212 67 64 57
245708.10809326 3357600.49737549 17.33333778 106 93 85
245707.23864746 3357600.55053711 17.03490448 87 86 81
245709.17364502 3357600.01989746 17.40012932 34 34 32
245706.77050781 3357600.51885986 17.04169464 48 47 45
245705.83392334 3357600.05310059 17.09762573 41 41 41
245706.66552734 3357600.52020264 17.05398178 48 48 50
245705.72045898 3357600.21319580 17.39893532 31 31 31
245707.59576416 3357600.06646729 17.04464912 117 113 104
245714.27911377 3357599.92877197 17.42947769 103 111 122
245707.40368652 3357600.53204346 17.05493546 112 109 102
245705.71435547 3357600.04913330 17.16427994 40 40 38
245705.46337891 3357600.08642578 17.56452942 109 107 108
245714.40081787 3357600.05834961 17.42613983 112 111 117
245718.85156250 3357599.88525391 17.55348015 32 32 30
245706.45056152 3357600.48028564 17.15106773 51 50 45
245706.43634033 3357600.64147949 17.28636551 115 109 95
245720.92559814 3357599.93035889 17.11746216 12 16 15
245708.05664063 3357599.99353027 17.14976311 124 117 109
245705.92541504 3357600.25482178 17.37686920 38 33 30
245714.11859131 3357599.97631836 17.85099411 209 197 201
245714.45172119 3357600.12860107 17.72142792 39 41 30
245714.42895508 3357599.89239502 17.17947578 23 22 27
245718.73779297 3357599.88140869 17.38875771 87 86 82
245707.78497314 3357600.59942627 17.12363243 119 110 101
245706.69952393 3357600.32208252 17.05622482 68 69 64
245708.19476318 3357600.00750732 17.44045830 155 151 150
245707.47100830 3357600.67553711 17.27366829 98 92 80
245709.32861328 3357599.70257568 17.15701294 43 42 40
245720.75103760 3357599.72332764 17.12102318 59 59 57
245706.74902344 3357599.56011963 17.12457848 113 112 108
245705.28198242 3357599.58270264 17.62385941 161 166 159
245719.32098389 3357598.96148682 17.03214645 184 180 177
245714.22161865 3357599.48266602 17.37742805 20 20 22
245720.32977295 3357599.52270508 17.72428894 47 50 43
245711.10772705 3357599.04095459 17.05083656 193 182 176
245710.56921387 3357599.31909180 17.30375671 141 130 128
245719.34191895 3357598.76348877 16.97752380 175 171 162
245706.85516357 3357599.55273438 17.09596252 110 109 105
245707.80053711 3357599.86657715 17.05316162 132 125 115
245710.83111572 3357599.60449219 17.40600586 46 47 41
245708.65625000 3357599.42968750 17.40150452 136 137 129
245708.93579102 3357599.97308350 17.42205048 102 102 100
245707.15771484 3357599.66937256 17.05616570 91 88 83
245711.71875000 3357599.84924316 17.74203110 168 173 176
245715.76300049 3357599.44683838 16.95387650 141 134 124
245712.84936523 3357599.41961670 16.99394989 185 176 167
245718.81927490 3357598.88848877 17.06610870 64 63 59
245718.89129639 3357598.92425537 17.03800201 75 74 70
245715.11236572 3357598.97906494 16.95722961 176 167 160
245720.43725586 3357599.29974365 17.46053123 34 33 29
245716.12774658 3357599.21343994 16.95156097 175 166 157
245713.81988525 3357599.69573975 17.41573143 68 67 65
245713.96691895 3357599.34423828 17.43678093 59 59 57
245711.56164551 3357599.44494629 17.56807137 56 56 56
245716.34423828 3357598.94464111 16.98188400 167 163 154
245705.37268066 3357599.07440186 17.39995193 131 126 123
245708.85247803 3357599.25891113 17.17127609 59 50 43
245709.23480225 3357599.35089111 17.05930901 127 119 116
245719.53582764 3357599.11926270 17.34311485 67 60 54
245711.16357422 3357599.05987549 17.06290817 188 179 170
245705.62469482 3357599.33062744 17.22700119 104 105 99
245711.93438721 3357599.67285156 17.15306091 40 46 46
245715.92370605 3357599.48010254 16.96152878 153 144 135
245712.93823242 3357599.02471924 17.05149651 195 185 183
245713.19354248 3357599.31695557 17.00712967 191 186 180
245707.07867432 3357599.30938721 17.05399704 149 142 136
245708.60339355 3357599.29040527 17.15220451 141 140 135
245713.98236084 3357599.78033447 17.64043236 218 211 218
245719.07000732 3357599.60607910 17.30825806 53 51 52
245711.67517090 3357599.17413330 17.27755547 68 67 63
245713.52380371 3357599.71221924 17.22275543 101 92 87
245719.69702148 3357599.76934814 17.64695549 23 25 24
245711.58666992 3357598.92102051 17.10240364 196 189 183
245711.26983643 3357599.75903320 17.66697693 161 169 171
245706.96472168 3357599.23083496 17.05632973 162 155 149
245712.40649414 3357599.28857422 16.95964622 174 165 158
245720.23022461 3357599.04266357 17.11461067 50 50 50
245720.86846924 3357599.16198730 16.93816566 151 144 138
245709.00958252 3357599.61810303 17.19070244 115 118 107
245720.27484131 3357598.76043701 16.94015694 172 163 156
245708.98248291 3357599.48547363 17.24051094 48 49 35
245717.25732422 3357598.79156494 17.06534386 155 156 138
245717.93139648 3357598.85351563 17.01320267 165 160 156
245708.69012451 3357599.80328369 17.65483093 45 47 44
245713.71478271 3357599.73687744 17.31326103 56 52 53
245720.58502197 3357599.65832520 17.40252876 61 62 57
245706.63867188 3357599.26434326 17.08639336 158 151 143
245710.34918213 3357599.33703613 17.24701881 74 64 63
245711.03070068 3357599.62261963 17.47108078 47 48 50
245707.49304199 3357599.52105713 17.04424858 151 146 140
245705.32922363 3357599.16925049 17.64425278 228 224 223
245705.31695557 3357599.34649658 17.33925629 43 38 34
245716.27355957 3357599.21868896 16.98602867 169 161 148
245718.87402344 3357599.69915771 17.25442505 30 29 25
245710.32281494 3357599.39019775 17.30617332 51 46 50
245713.77813721 3357599.84771729 17.64880180 242 242 244
245705.66754150 3357599.33789063 17.51068878 81 82 84
245717.61871338 3357599.15142822 16.97138023 141 133 122
245708.09991455 3357599.53741455 17.16057587 128 123 117
245719.91284180 3357599.58618164 17.49935532 19 11 9
245714.48352051 3357599.79785156 17.14875412 45 44 49
245705.62219238 3357599.22277832 17.15496254 176 173 168
245705.32263184 3357599.87237549 17.36622047 70 67 62
245707.15612793 3357599.54919434 17.05539322 120 115 111
245715.99420166 3357599.18328857 16.94677734 155 148 140
245705.64959717 3357599.45263672 17.37876320 28 28 26
245719.96923828 3357599.52911377 17.79567719 26 28 25
245707.23730469 3357599.77630615 17.05431175 93 90 85
245708.44274902 3357599.73590088 17.49591637 174 176 175
245720.51171875 3357599.11718750 17.15503883 43 43 43
245719.37591553 3357599.80798340 17.50913239 61 59 60
245707.98266602 3357599.22045898 17.07783127 167 160 154
245710.89611816 3357599.51196289 17.42691040 131 122 125
245720.01000977 3357599.47229004 17.58246040 210 206 203
245705.38232422 3357599.39825439 17.88037491 154 146 144
245705.31042480 3357599.56561279 17.68963051 176 178 173
245715.39501953 3357599.55383301 16.96724892 143 134 127
245705.47143555 3357599.23394775 17.78074837 83 77 77
245718.77294922 3357598.92913818 17.13768768 33 35 32
245718.65679932 3357599.69195557 17.23322678 123 122 120
245705.30865479 3357599.45001221 17.27170944 64 57 51
245711.87365723 3357599.87908936 17.55743027 28 28 28
245705.58325195 3357599.90002441 17.44548035 78 84 82
245714.24157715 3357599.29895020 17.34312439 64 63 61
245716.12353516 3357598.91284180 16.95257187 165 156 149
245705.36248779 3357599.03356934 17.25190163 109 104 98
245714.31457520 3357599.34375000 17.28843117 62 63 58
245718.62292480 3357598.83404541 17.13003540 192 191 186
245708.94757080 3357599.17443848 17.08432579 120 113 107
245709.58465576 3357599.41253662 17.06366920 139 130 125
245718.70825195 3357598.92681885 17.18906212 33 33 31
245705.21466064 3357599.59692383 17.14158821 163 157 145
245713.49627686 3357599.77777100 17.21737289 68 63 60
245720.65850830 3357599.29272461 17.12755585 37 37 37
245718.70214844 3357599.59112549 17.23818970 178 183 179
245711.69567871 3357599.85632324 17.76312637 168 173 176
245705.65576172 3357599.23742676 17.39209366 23 23 23
245715.03869629 3357599.05633545 16.95573044 177 168 161
245713.89440918 3357598.94500732 17.05628967 189 180 171
245718.74432373 3357599.52209473 17.23669243 201 203 200
245712.04711914 3357599.74584961 17.12045479 34 35 37
245718.35577393 3357598.72949219 17.02780342 147 143 140
245716.23339844 3357599.63293457 17.03827286 175 161 152
245705.74829102 3357599.59460449 17.03286362 49 49 47
245711.58233643 3357599.60626221 17.66498756 168 175 181
245708.82556152 3357599.60485840 17.39790535 47 48 40
245714.12567139 3357599.55596924 17.42863274 24 25 29
245717.82037354 3357598.94232178 16.99696159 147 143 134
245711.75061035 3357599.60717773 17.34945679 22 26 27
245711.03210449 3357599.32659912 17.32385254 231 221 222
245709.27392578 3357599.31787109 17.03902626 121 113 110
245711.27069092 3357599.49090576 17.55882645 12 16 19
245716.39398193 3357599.15185547 17.20187950 107 93 82
245720.50073242 3357599.34442139 17.41449356 103 103 93
245711.53839111 3357599.89404297 17.79130936 149 154 158
245720.34307861 3357599.46197510 17.62100792 54 57 50
245708.15930176 3357599.95483398 17.32707596 130 125 121
245715.95397949 3357598.95037842 16.94722366 150 143 137
245711.64593506 3357599.91931152 17.82636070 176 180 183
245713.89190674 3357599.48413086 17.45112991 67 66 62
245712.28381348 3357599.43707275 16.95222855 152 147 141
245709.34191895 3357599.81372070 17.18100166 43 43 43
245708.55242920 3357599.61041260 17.48388290 168 168 168
245711.57153320 3357599.02697754 17.21965599 174 169 163
245718.11395264 3357599.27294922 17.37584114 193 192 188
245708.83331299 3357599.76397705 17.36615181 86 86 78
245718.92590332 3357599.64428711 17.25479698 33 29 26
245718.35583496 3357599.48834229 17.36053276 58 58 56
245718.19683838 3357598.77416992 17.05527878 110 107 102
245716.40521240 3357599.00378418 17.03152847 163 158 154
245712.35406494 3357599.43548584 16.94631577 150 143 135
245706.85656738 3357599.67529297 17.06868553 83 82 80
245708.19201660 3357599.96911621 17.44635773 164 163 161
245707.98162842 3357599.87377930 17.13017654 123 119 110
245710.46972656 3357599.39880371 17.38023567 53 47 49
245710.18981934 3357599.44818115 17.41129112 64 65 60
245709.57452393 3357599.45544434 17.07688713 143 136 130
245717.47045898 3357599.15625000 16.96030426 137 128 119
245705.43927002 3357598.92755127 17.39047813 170 169 165
245716.34820557 3357599.08325195 17.07458878 159 150 141
245705.67138672 3357599.43548584 17.07089806 115 114 109
245718.38763428 3357599.37725830 17.39480019 73 72 68
245713.99139404 3357599.78784180 17.65281868 190 180 188
245714.74865723 3357599.39855957 16.98450470 77 77 77
245714.98474121 3357599.45843506 16.97479057 98 97 93
245715.34899902 3357599.57318115 16.96961594 142 133 126
245720.08026123 3357599.47589111 17.79147911 19 20 15
245719.38848877 3357599.78735352 17.62825775 33 35 34
245718.95977783 3357599.76867676 17.73447609 17 18 20
245720.13812256 3357599.27972412 17.93389702 25 30 24
245705.44830322 3357599.94848633 17.56707764 97 97 95
245707.31488037 3357599.57305908 17.05039597 120 117 110
245715.25207520 3357598.99932861 16.95434570 169 162 156
245706.78808594 3357599.68597412 17.08675766 89 89 89
245714.78460693 3357599.03955078 16.97938156 183 174 167
245720.08380127 3357598.81774902 17.02615166 54 53 48
245705.29364014 3357599.74340820 17.35671616 80 77 70
245705.39990234 3357599.88684082 17.58185768 86 86 84
245705.53210449 3357599.87152100 17.58771896 75 75 73
245705.50701904 3357599.09918213 17.67901039 80 75 72
245711.85705566 3357599.40057373 17.04294586 94 93 91
245714.13183594 3357599.04290771 17.25466156 105 101 92
245715.16845703 3357599.11706543 16.95310783 167 160 152
245711.55676270 3357599.36962891 17.53149986 65 67 66
245709.40466309 3357599.73760986 17.17653847 41 40 38
245714.10852051 3357599.07354736 17.29557037 83 78 74
245708.95922852 3357599.99096680 17.49493217 98 100 97
245715.91052246 3357599.61767578 16.97070122 153 147 135
245712.15100098 3357599.22259521 16.96228981 202 199 192
245709.08538818 3357599.55566406 17.15253448 45 46 38
245710.90209961 3357599.24011230 17.17224121 154 149 146
245713.34265137 3357599.62414551 17.13833809 150 138 124
245714.92395020 3357599.47357178 16.97929382 93 92 90
245708.28387451 3357599.92443848 17.55971718 120 122 121
245711.99859619 3357599.58947754 17.00924683 61 64 69
245705.30120850 3357599.39373779 17.71009064 252 253 247
245718.02667236 3357599.24377441 17.19201088 247 247 245
245720.74798584 3357598.98779297 16.93872070 156 148 137
245711.72271729 3357599.48052979 17.34617233 35 39 42
245713.65588379 3357599.68090820 17.26121712 89 79 78
245710.74658203 3357599.61242676 17.40224266 29 35 25
245709.36145020 3357599.98284912 17.53109169 28 33 29
245715.46313477 3357599.59295654 16.97172928 143 134 127
245718.05462646 3357599.04431152 17.15842819 164 160 159
245710.87194824 3357599.83880615 17.44524384 39 39 37
245718.64135742 3357599.32550049 17.36831093 54 56 55
245716.08703613 3357599.09759521 16.94860077 173 166 156
245711.75488281 3357599.75805664 17.47085953 13 18 21
245714.28552246 3357598.91955566 17.10757065 182 181 179
245720.27178955 3357599.45867920 17.59851456 15 20 14
245705.65277100 3357599.43957520 17.39366341 33 33 31
245717.90515137 3357598.82220459 17.00110817 163 158 152
245710.22705078 3357599.41241455 17.31044388 58 56 57
245709.08056641 3357599.64923096 17.14892578 63 64 58
245714.51013184 3357599.54266357 17.12277603 48 48 48
245713.81359863 3357599.07421875 17.20377159 234 221 202
245705.16278076 3357599.45306396 17.10590553 161 153 142
245709.72723389 3357599.30828857 17.07728195 122 115 109
245708.66723633 3357599.57379150 17.50308037 67 62 59
245705.62109375 3357599.29779053 17.12875557 184 183 178
245705.64923096 3357599.57293701 17.09679985 140 137 132
245708.88726807 3357599.29785156 17.21418571 53 43 34
245709.02868652 3357599.86572266 17.20334625 33 32 27
245714.32904053 3357599.49072266 17.26596642 43 43 43
245712.62805176 3357599.30572510 16.98853111 178 167 161
245714.49816895 3357599.57739258 17.13415527 46 46 48
245712.76940918 3357599.51898193 16.98180580 155 146 137
245719.85278320 3357598.81970215 17.09366989 148 149 143
245707.41711426 3357599.61743164 17.04737854 125 118 110
245707.39343262 3357599.50396729 17.04717827 139 134 128
245720.53277588 3357599.62951660 17.51505661 82 85 78
245718.14868164 3357599.14294434 17.37947083 206 206 204
245716.49188232 3357599.02331543 17.22427559 192 183 178
245712.00024414 3357599.24603271 16.97327805 189 182 174
245705.39501953 3357599.94305420 17.51179504 91 89 90
245707.45104980 3357599.94177246 17.04849815 91 88 81
245705.88824463 3357599.54956055 17.05795670 77 77 77
245718.04931641 3357599.40093994 17.34321594 168 163 159
245711.89031982 3357599.83325195 17.37327194 22 26 29
245715.57043457 3357599.63940430 16.97699928 147 138 131
245710.86248779 3357599.65856934 17.41753197 46 48 43
245705.61737061 3357599.11553955 17.29376030 53 49 46
245705.63616943 3357599.82550049 17.26228714 19 21 18
245712.96032715 3357599.38598633 16.99665451 178 169 160
245705.64202881 3357599.12066650 17.57759476 53 53 55
245717.76556396 3357598.99633789 16.98355675 150 141 132
245711.00769043 3357599.28308105 17.22329140 234 232 235
245708.97070313 3357599.93981934 17.31340599 45 44 39
245708.84594727 3357599.58972168 17.36379814 46 47 41
245719.26501465 3357599.31481934 17.31338501 221 217 216
245709.65515137 3357599.44171143 17.08761597 137 130 124
245708.83300781 3357599.93597412 17.57057571 93 95 90
245710.37573242 3357599.41931152 17.37136269 49 44 48
245705.29315186 3357599.72210693 17.34801292 82 79 72
245708.83532715 3357599.59320068 17.38268661 46 47 41
245717.28894043 3357598.77935791 17.03503990 115 116 110
245710.87579346 3357599.42712402 17.47307014 84 71 78
245716.28668213 3357599.45751953 17.05551147 154 144 135
245711.26239014 3357599.18658447 17.22660828 131 123 120
245705.27874756 3357599.65527344 17.24840355 131 126 120
245720.28625488 3357599.17309570 17.42200279 142 141 137
245708.84112549 3357599.91589355 17.52142143 111 112 106
245719.84118652 3357598.85333252 17.17538643 222 218 207
245715.17712402 3357599.06652832 16.95391083 161 154 144
245714.12500000 3357599.05169678 17.26735497 105 101 92
245707.59265137 3357599.48474121 17.04054070 157 150 144
245706.17803955 3357599.52148438 17.09501648 92 94 93
245710.23822021 3357599.51257324 17.45635605 4 6 5
245718.73864746 3357599.34643555 17.28098106 93 95 92
245705.27478027 3357599.41979980 17.61601067 239 240 232
245718.30084229 3357599.27636719 17.40189934 58 55 50
245707.44232178 3357599.59002686 17.04637146 129 124 118
245719.67840576 3357599.66113281 17.38539886 18 18 18
245709.57958984 3357599.65850830 17.14488411 75 72 65
245707.28417969 3357599.46020508 17.04993248 135 130 124
245718.32635498 3357599.08953857 17.38745689 45 44 39
245715.18865967 3357599.62744141 16.96807861 111 108 103
245718.50659180 3357599.46063232 17.35695648 78 80 79
245718.43127441 3357599.24316406 17.38770676 32 32 30
245711.80169678 3357599.82525635 17.43546295 9 13 16
245718.46563721 3357599.29791260 17.38942337 26 26 24
245715.37377930 3357599.39971924 16.95633316 145 138 130
245713.99407959 3357599.82110596 17.69330215 179 168 174
245711.81494141 3357599.71789551 17.32686615 28 30 27
245715.28680420 3357599.42016602 16.95964432 140 133 125
245706.77606201 3357599.79376221 17.06972122 65 64 62
245705.29284668 3357599.51055908 17.34073257 120 115 109
245717.98663330 3357599.35583496 17.18595695 130 126 123
245718.79846191 3357598.85919189 17.05599213 69 68 64
245718.29632568 3357599.45971680 17.37558746 79 79 77
245715.84667969 3357599.59790039 16.96924782 162 156 144
245710.59655762 3357599.50292969 17.47556114 27 35 24
245720.19317627 3357598.92913818 17.02105904 64 63 59
245718.22283936 3357598.81610107 17.11500740 38 37 35
245707.92529297 3357599.91003418 17.09137726 134 130 121
245710.77178955 3357599.21905518 17.17501640 141 134 126
245711.38598633 3357599.02874756 17.09686661 179 172 166
245719.88714600 3357599.26336670 18.00549507 18 25 18
245713.79754639 3357599.80279541 17.53607368 213 214 218
245716.38153076 3357598.91210938 16.98059845 158 153 147
245706.34228516 3357599.52581787 17.11705017 99 98 96
245708.55523682 3357599.55749512 17.46616364 185 185 185
245711.49902344 3357599.99938965 17.88834381 37 38 40
245707.19714355 3357599.62475586 17.05457878 107 104 99
245717.47088623 3357598.87243652 17.00729752 112 107 101
245715.91638184 3357599.68298340 16.97750092 150 144 132
245705.36309814 3357599.10198975 17.40588188 151 146 143
245719.95593262 3357599.54473877 17.78834534 30 32 29
245717.89862061 3357599.30358887 17.09261703 131 127 124
245706.40417480 3357599.97467041 17.16793251 56 58 53
245713.24560547 3357599.32385254 17.00473785 178 173 167
245713.99407959 3357599.08258057 17.29914856 78 74 65
245719.31036377 3357599.35827637 17.38802719 255 254 252
245713.90191650 3357599.18334961 17.40073776 73 60 51
245710.92120361 3357599.09149170 17.05017090 194 183 177
245708.32391357 3357599.53808594 17.30219269 109 108 104
245711.61138916 3357599.44427490 17.48835564 18 20 19
245714.58990479 3357599.32879639 17.05194855 60 60 60
245711.58178711 3357599.77911377 17.72098923 175 186 192
245713.66290283 3357599.79937744 17.28352737 46 44 47
245718.58697510 3357599.66400146 17.26669502 12 12 12
245705.35302734 3357599.13134766 17.40992546 125 120 117
245713.72106934 3357599.92553711 17.76750374 253 251 254
245719.89544678 3357598.87835693 17.26691437 224 216 197
245714.44659424 3357599.34716797 17.17349052 50 48 51
245715.97845459 3357598.94592285 16.94700050 154 147 139
245714.43499756 3357599.06286621 17.10620117 179 176 171
245718.56750488 3357598.94793701 17.27725029 152 147 144
245719.96563721 3357598.98382568 17.43300438 19 8 4
245711.34716797 3357599.49121094 17.59480095 37 39 38
245720.73370361 3357599.69073486 17.12409401 36 36 34
245712.07824707 3357599.72271729 17.07747841 53 54 56
245715.76873779 3357599.60961914 16.97195244 157 149 138
245705.34771729 3357599.60559082 17.75411224 99 98 96
245718.74871826 3357599.63024902 17.21538162 220 220 218
245705.59771729 3357599.85546875 17.48017311 79 83 84
245718.07580566 3357598.86431885 17.11270905 172 171 169
245717.25372314 3357598.89501953 17.08489609 228 222 200
245710.17462158 3357599.32861328 17.10274124 148 139 142
245715.39611816 3357599.39819336 16.95565796 145 138 130
245716.33502197 3357599.11309814 17.04768181 162 153 144
245709.60906982 3357599.34741211 17.05107689 140 131 124
245705.42309570 3357599.67230225 17.79147148 123 119 118
245708.14935303 3357599.80767822 17.29405403 127 122 118
245707.76629639 3357599.58020020 17.06114006 131 123 120
245706.43084717 3357599.99114990 17.17346573 96 97 91
245710.60186768 3357599.52313232 17.44756317 60 68 57
245711.54180908 3357599.35498047 17.52898788 66 68 67
245714.25341797 3357599.03015137 17.19775200 201 199 187
245707.44140625 3357599.57073975 17.04626846 129 124 118
245710.13232422 3357599.37738037 17.25455856 52 48 47
245711.31292725 3357599.62634277 17.62176323 71 76 80
245710.86877441 3357599.31536865 17.30172729 120 111 112
245719.17169189 3357599.50921631 17.31228828 69 65 66
245707.44293213 3357599.20373535 17.06617355 170 163 155
245708.78143311 3357599.70343018 17.45315552 92 93 85
245719.05847168 3357599.01861572 17.00433540 77 78 73
245720.49255371 3357599.60833740 17.56912994 28 33 27
245710.01739502 3357599.22540283 17.09051514 140 133 127
245708.28375244 3357599.38861084 17.11038780 105 101 98
245719.39343262 3357599.13592529 17.32306671 45 34 32
245708.46734619 3357599.77825928 17.54485512 223 224 226
245712.65863037 3357599.54602051 16.97364616 158 154 145
245709.03277588 3357599.22174072 17.07002258 124 116 114
245711.60778809 3357599.76800537 17.72006226 182 193 199
245708.28839111 3357599.51000977 17.25001907 98 94 91
245705.60430908 3357599.13598633 17.19484138 109 104 100
245716.23693848 3357599.63214111 17.04052162 175 161 152
245714.17620850 3357599.25024414 17.34840584 50 50 50
245709.57965088 3357599.10333252 17.04819298 137 128 119
245715.25561523 3357599.59478760 16.97233391 132 127 121
245706.42370605 3357599.55346680 17.13729286 99 95 92
245711.13073730 3357599.40368652 17.44469833 20 22 21
245705.70062256 3357599.65924072 17.02493286 68 68 66
245707.98718262 3357599.86236572 17.13573837 123 119 110
245715.92309570 3357599.31976318 16.94674110 154 145 136
245719.21936035 3357599.76605225 17.70431519 30 31 33
245706.00347900 3357599.80047607 17.06994247 73 73 71
245717.84466553 3357598.88769531 17.00276947 154 149 143
245705.63732910 3357599.55145264 17.32897568 42 43 38
245706.87744141 3357599.67199707 17.06567955 84 85 80
245719.85217285 3357599.31353760 17.47429848 41 43 42
245718.51794434 3357598.92852783 17.26926613 196 191 187
245705.64666748 3357599.90478516 17.19027519 76 76 78
245708.21600342 3357599.96679688 17.51091766 191 189 190
245705.49957275 3357599.51647949 17.83258629 62 58 57
245716.23529053 3357598.91802979 16.96562576 165 158 148
245719.14880371 3357599.15020752 17.05822563 66 67 61
245720.05426025 3357599.02563477 17.36666489 13 10 5
245720.23223877 3357599.10327148 17.24435234 36 36 36
245719.86346436 3357599.65576172 17.43328667 26 25 21
245705.31378174 3357599.43493652 17.73218536 248 249 243
245712.97491455 3357599.05944824 17.04696274 191 182 177
245711.50433350 3357599.38311768 17.54146004 80 82 81
245719.46978760 3357599.53491211 17.41452789 16 12 13
245707.91784668 3357599.43493652 17.07536316 151 147 138
245713.64154053 3357599.85052490 17.44856071 85 84 89
245713.78308105 3357599.77325439 17.43666077 82 82 84
245713.97808838 3357599.00213623 17.23613358 152 139 130
245720.84405518 3357599.57263184 16.97001076 40 38 39
245711.72448730 3357599.93347168 17.84514236 180 185 188
245715.69885254 3357599.54693604 16.96585655 139 129 120
245718.81915283 3357598.96295166 17.11557388 52 54 51
245714.21960449 3357599.86657715 17.48949623 82 90 101
245708.97723389 3357599.27703857 17.14011192 72 63 56
245712.79455566 3357599.14294434 17.02462578 191 182 173
245714.34649658 3357599.46826172 17.25829506 44 46 45
245720.07946777 3357599.35717773 17.88869667 23 28 22
245719.29974365 3357599.79998779 17.47706032 51 47 46
245705.60162354 3357599.77905273 17.58402634 55 55 57
245718.63018799 3357598.71740723 17.00950432 122 114 112
245714.21508789 3357599.74188232 17.37795067 61 66 70
245717.61932373 3357599.00439453 16.97643089 137 129 118
245711.34973145 3357599.11779785 17.17145157 187 180 174
245707.03045654 3357599.34143066 17.05604935 147 142 136
245710.76367188 3357599.43518066 17.48511887 58 54 45
245706.17675781 3357599.86138916 17.10556602 75 76 78
245710.50683594 3357599.08044434 17.10153198 178 169 162
245714.55407715 3357599.35241699 17.07939720 56 56 58
245719.07244873 3357599.75335693 17.73762321 21 22 24
245707.60180664 3357599.75512695 17.04231834 106 101 95
245720.16754150 3357599.36541748 17.88170815 26 28 23
245714.11083984 3357599.93212891 17.81039238 209 194 199
245718.90283203 3357599.40167236 17.19661713 34 30 27
245711.99151611 3357599.85418701 17.87610817 31 36 30
245708.34027100 3357599.94805908 17.61396980 149 153 154
245717.82653809 3357599.25708008 17.03295708 150 145 139
245705.62420654 3357599.31945801 17.20467186 161 162 156
245711.57446289 3357598.92919922 17.11369514 196 189 183
245709.40454102 3357599.48059082 17.09002495 103 98 94
245706.07098389 3357599.82299805 17.07583427 74 75 77
245709.59881592 3357599.45562744 17.07671928 137 130 124
245706.29656982 3357599.40332031 17.07196426 96 92 89
245713.32556152 3357599.45349121 17.04174995 179 173 161
245705.64086914 3357599.90155029 17.21089172 37 37 39
245715.74414063 3357598.96575928 16.94951248 165 154 148
245711.87377930 3357599.74658203 17.29440689 26 30 31
245714.31146240 3357599.88513184 17.31525803 46 53 63
245711.44738770 3357599.15698242 17.35548019 164 157 149
245714.12811279 3357598.87139893 17.05307961 192 187 181
245707.51263428 3357599.87023926 17.04600716 101 96 90
245716.05688477 3357599.21722412 16.94902992 173 166 156
245720.93737793 3357599.47509766 16.96236229 42 41 39
245715.33435059 3357599.03106689 16.95296478 165 161 152
245711.34967041 3357599.39794922 17.56624794 21 21 21
245710.43353271 3357599.16076660 17.13538170 171 162 153
245711.98913574 3357599.71142578 17.13389015 40 44 45
245711.86004639 3357599.88903809 17.62751579 62 62 62
245714.54486084 3357598.92871094 17.01517296 143 133 131
245711.56750488 3357599.91589355 17.82070351 132 136 139
245718.48797607 3357598.96514893 17.31722069 47 39 37
245707.46020508 3357599.32568359 17.05259895 162 155 147
245708.83990479 3357599.90673828 17.50964165 111 112 106
245708.23449707 3357599.62878418 17.30400848 119 118 114
245714.44702148 3357599.20971680 17.14718056 67 57 55
245712.03210449 3357599.84869385 17.77071762 27 32 26
245710.59143066 3357599.03417969 17.08110619 188 179 174
245711.78735352 3357599.40618896 17.13629723 77 78 80
245706.76855469 3357599.40631104 17.11789894 124 121 114
245713.68444824 3357599.89465332 17.66222954 228 223 227
245705.64178467 3357599.64117432 17.61256027 42 41 46
245713.77081299 3357599.14624023 17.24831009 170 144 121
245713.39721680 3357599.52343750 17.09259415 166 160 144
245719.43609619 3357599.51263428 17.42966652 33 29 28
245718.24163818 3357598.88214111 17.27134895 41 37 34
245714.40515137 3357599.82110596 17.19748497 34 32 37
245719.76104736 3357599.12023926 17.44014740 64 62 63
245711.85772705 3357599.51031494 17.11694145 57 61 64
245719.23199463 3357598.76306152 16.97548676 177 170 162
245720.49291992 3357599.32318115 17.40851402 119 119 109
245705.63903809 3357599.64477539 17.61919212 27 26 31
245712.70440674 3357599.41528320 16.99071693 174 163 157
245718.37408447 3357599.61230469 17.33011246 12 11 9
245718.93682861 3357599.31994629 17.17439270 41 40 38
245715.78906250 3357598.97155762 16.94887543 155 146 139
245710.63299561 3357599.51678467 17.44144440 64 72 57
245718.10229492 3357598.87921143 17.16438866 243 243 243
245711.58569336 3357599.29748535 17.49136925 70 72 71
245718.67572021 3357599.03704834 17.27060318 27 21 21
245714.04425049 3357599.69311523 17.51500702 40 39 44
245711.61230469 3357599.62554932 17.66015244 73 81 84
245718.81115723 3357598.80963135 17.00433540 75 70 66
245707.34210205 3357599.56561279 17.04945946 128 123 117
245718.78070068 3357599.37341309 17.24338531 40 42 41
245711.26440430 3357599.68035889 17.61622429 174 179 183
245717.26397705 3357598.89965820 17.07720757 228 222 200
245710.85528564 3357599.75708008 17.42648506 22 24 21
245708.22363281 3357599.82904053 17.41558266 112 111 109
245711.69970703 3357599.72076416 17.63697433 95 102 108
245709.26531982 3357599.42156982 17.08116722 116 111 108
245711.34423828 3357599.29205322 17.48858070 212 212 210
245713.60778809 3357599.30377197 17.12553787 171 162 153
245720.19866943 3357598.95001221 18.15085220 54 59 52
245719.27459717 3357599.80981445 17.61276627 102 102 102
245719.64038086 3357599.30072021 17.40519524 21 21 19
245719.52050781 3357599.71813965 17.39010429 34 34 34
245715.53411865 3357599.20678711 16.94787788 152 145 137
245718.10583496 3357599.10314941 17.28191948 249 247 248
245713.36828613 3357599.52276611 17.08284187 168 162 146
245709.67059326 3357599.24554443 17.04920578 137 130 124
245715.23870850 3357599.38928223 16.95948601 144 137 129
245713.45471191 3357599.16497803 16.97523499 193 187 173
245711.99041748 3357599.16204834 16.97440338 188 184 175
245718.17633057 3357598.85491943 17.18308449 74 74 72
245715.55285645 3357599.41937256 16.95242882 146 139 131
245719.02581787 3357598.82482910 16.97663498 179 172 162
245715.71441650 3357599.64892578 16.97731781 145 137 126
245708.16168213 3357599.79663086 17.30592918 126 121 117
245711.25286865 3357599.34063721 17.47066498 68 66 67
245705.98724365 3357599.63897705 17.07459831 67 69 68
245714.02423096 3357599.81817627 17.69873047 181 170 178
245709.00537109 3357599.27838135 17.11117744 73 64 59
245720.85626221 3357599.56823730 16.96222115 40 38 39
245711.62500000 3357599.52893066 17.53711700 25 25 27
245708.21563721 3357599.99713135 17.53106880 187 186 184
245715.88183594 3357599.68957520 16.97885513 151 145 133
245708.88049316 3357599.86004639 17.33533096 62 63 57
245718.91046143 3357599.62872314 17.23995972 33 29 26
245720.26483154 3357598.77990723 16.94268227 169 160 153
245705.63592529 3357599.40179443 17.30843544 35 36 31
245705.41589355 3357600.07708740 17.78897858 111 109 112
245713.67230225 3357599.42663574 17.34644508 249 248 246
245712.52239990 3357599.21185303 16.97237206 176 168 157
245711.16094971 3357599.23034668 17.22400093 114 104 103
245715.47766113 3357599.07159424 16.95082092 164 155 148
245720.13488770 3357599.46234131 17.58977509 143 143 141
245716.21722412 3357599.58154297 17.02956390 166 153 144
245705.32470703 3357599.25329590 17.39678955 91 86 82
245720.19781494 3357599.47882080 17.80678368 30 31 26
245719.37683105 3357599.11828613 17.27936554 126 117 112
245720.33367920 3357599.31585693 17.55618477 36 37 32
245711.67999268 3357599.06848145 17.18381500 137 130 124
245719.30230713 3357599.80902100 17.57877350 97 95 96
245716.42681885 3357598.89440918 16.99021912 156 148 145
245710.98974609 3357599.34710693 17.36999702 164 152 156
245719.28106689 3357599.71307373 17.44626236 45 41 40
245716.36059570 3357599.10150146 17.10859299 157 148 139
245715.97943115 3357599.22625732 16.94681358 154 147 137
245711.52185059 3357598.98303223 17.12797165 185 178 172
245715.02740479 3357599.19506836 16.95603752 159 152 142
245706.05621338 3357599.41241455 17.04846954 80 80 80
245715.65356445 3357599.04486084 16.94933891 157 148 139
245713.24334717 3357599.50915527 17.04044151 174 168 156
245708.42156982 3357599.26574707 17.09333038 99 91 89
245716.70886230 3357598.89624023 17.03540230 162 157 154
245706.25372314 3357599.73742676 17.14365196 84 86 83
245706.60632324 3357599.94183350 17.10165596 25 26 20
245716.64758301 3357598.96392822 17.08256721 163 158 154
245705.34094238 3357599.77661133 17.58084679 80 79 77
245710.28784180 3357599.30090332 17.14484215 175 163 163
245705.27789307 3357599.56695557 17.62078476 220 225 218
245711.70397949 3357599.26452637 17.25920868 63 65 62
245710.57653809 3357599.33917236 17.32950783 131 119 119
245705.98718262 3357599.52294922 17.06973839 70 72 69
245705.62249756 3357599.06463623 17.37904930 25 23 24
245713.55883789 3357599.55853271 17.18798065 158 145 137
245705.62994385 3357599.85803223 17.31259537 16 18 17
245716.98211670 3357598.78247070 17.01511574 156 151 145
245709.03692627 3357599.65472412 17.14762497 89 95 83
245715.92034912 3357599.06683350 16.94576645 145 136 131
245716.30114746 3357599.10839844 17.00435829 168 160 149
245711.36267090 3357599.26171875 17.46528053 146 142 139
245718.85919189 3357599.09741211 17.13328552 47 47 47
245714.55773926 3357599.79693604 17.08840370 52 52 54
245713.68859863 3357599.48693848 17.35165787 170 162 160
245708.85266113 3357599.81951904 17.34386444 82 83 75
245710.12738037 3357599.38537598 17.27851105 52 48 47
245711.81622314 3357599.92370605 17.97374916 112 115 108
245714.11657715 3357598.87170410 17.05389977 192 187 181
245712.16162109 3357599.07824707 16.97398949 190 183 175
245711.20434570 3357599.24511719 17.30731964 57 54 49
245719.69073486 3357599.71673584 17.72303009 25 27 26
245712.71783447 3357599.35070801 16.99782181 178 167 161
245715.74298096 3357599.25024414 16.94497490 149 142 134
245719.74194336 3357599.69055176 17.38768196 22 23 25
245715.95776367 3357599.01153564 16.94619942 151 144 138
245720.31250000 3357599.48681641 17.64930725 83 84 78
245715.72894287 3357599.64190674 16.97626877 145 137 126
245710.80932617 3357599.34753418 17.35835075 121 117 116
245719.17864990 3357599.79046631 17.68159485 25 26 28
245708.84802246 3357599.87072754 17.42978668 170 171 165
245707.63549805 3357599.69122314 17.04078484 116 109 103
245707.24371338 3357599.69989014 17.05357933 101 98 93
245711.00988770 3357599.53234863 17.44022369 43 39 40
245706.60046387 3357599.35882568 17.14525795 136 132 123
245715.83178711 3357599.25915527 16.94375992 148 139 130
245705.61187744 3357599.11486816 17.27626038 53 49 46
245705.94708252 3357599.78985596 17.06020164 62 62 62
245708.70269775 3357599.59759521 17.51381493 64 59 56
245711.75653076 3357599.62292480 17.34353447 21 25 26
245705.34692383 3357599.93859863 17.42363358 81 77 74
245719.18371582 3357598.97943115 16.98622704 173 170 165
245719.66772461 3357598.70611572 16.96623230 173 166 156
245719.23205566 3357599.32684326 17.26852036 151 150 148
245713.76513672 3357599.20843506 17.38743591 136 122 113
245720.09210205 3357599.04919434 17.26476669 54 53 48
245719.64593506 3357599.65270996 17.38257408 18 18 20
245717.82147217 3357598.80328369 16.98379326 157 150 144
245711.82684326 3357599.87304688 17.65397453 137 138 140
245720.37921143 3357599.21777344 17.48751450 87 86 84
245711.58673096 3357599.51409912 17.59178543 26 26 28
245705.58331299 3357599.26519775 17.73990250 25 25 25
245711.71545410 3357598.95483398 17.09451675 141 128 120
245717.44549561 3357599.11560059 16.95978165 138 129 120
245719.53680420 3357599.24932861 17.39620972 22 19 14
245719.51373291 3357599.73382568 17.71274376 18 20 19
245708.26257324 3357599.88677979 17.50999641 139 141 140
245705.28442383 3357599.49688721 17.44330025 150 149 144
245705.64434814 3357599.76580811 17.40265465 11 15 14
245719.87799072 3357599.62036133 17.44819260 24 16 14
245712.93481445 3357598.98059082 17.04497719 197 190 184
245710.74188232 3357599.32421875 17.31431198 126 118 116
245708.52514648 3357599.84460449 17.63111115 129 129 129
245707.79614258 3357599.48724365 17.05980492 136 129 123
245715.73254395 3357599.54760742 16.96567345 147 138 129
245709.68719482 3357599.15869141 17.05824471 139 132 126
245718.28009033 3357598.91040039 17.30728340 58 54 51
245707.05102539 3357599.89288330 17.04498291 96 92 91
245719.50109863 3357599.00805664 17.17233276 170 167 158
245709.87268066 3357599.44860840 17.23876762 208 195 178
245707.36474609 3357599.54388428 17.04857445 131 126 120
245719.26300049 3357599.45037842 17.36101913 160 156 153
245719.27081299 3357599.70013428 17.43987656 45 41 40
245716.27349854 3357599.48083496 17.04916573 159 146 138
245705.81158447 3357599.95593262 17.06096840 53 53 53
245705.36779785 3357599.30871582 17.80035210 126 121 118
245711.76855469 3357599.80694580 17.49239540 11 15 18
245715.43359375 3357599.15020752 16.94987679 163 154 149
245711.66186523 3357599.24328613 17.35491371 59 59 57
245708.09552002 3357599.82446289 17.23316193 125 120 114
245714.43457031 3357599.23834229 17.17185402 79 65 64
245707.11895752 3357599.66522217 17.05739594 86 83 78
245713.54479980 3357599.89990234 17.45446587 46 46 48
245715.66357422 3357599.50439453 16.96091270 144 134 125
245710.76184082 3357599.71069336 17.41034698 26 31 25
245708.72387695 3357599.61114502 17.50312042 67 64 59
245716.36291504 3357599.21008301 17.14478493 137 124 115
245708.18432617 3357599.17626953 17.05324173 135 124 122
245713.17602539 3357599.03582764 17.01165771 194 189 183
245716.32360840 3357599.60052490 17.14551163 168 153 146
245712.13146973 3357599.81408691 17.33141136 31 32 34
245719.20703125 3357599.73352051 17.42636299 37 36 34
245720.63916016 3357599.44177246 17.18659019 98 100 95
245705.47937012 3357600.00482178 17.52901840 110 110 108
245715.89923096 3357599.56958008 16.96632576 154 148 136
245707.77044678 3357599.90002441 17.03876686 125 118 108
