246135.15295410 3357728.30426025 11.83901882 236 228 226
246132.99035645 3357727.45257568 11.94845486 153 138 119
246133.14074707 3357727.61816406 12.32185745 214 214 216
246134.42968750 3357727.87200928 11.68534184 191 173 159
246132.70251465 3357727.65124512 11.59301567 192 172 147
246135.67346191 3357728.29315186 11.46078014 149 127 106
246135.56945801 3357727.99090576 11.46173859 158 132 105
246133.26757813 3357727.96563721 11.97015762 88 83 80
246133.41052246 3357728.17028809 11.85946655 73 65 62
246135.16906738 3357727.53533936 11.57261944 204 178 145
246135.27001953 3357727.94506836 11.77047443 140 130 121
246133.33959961 3357728.44879150 11.77807045 52 48 45
246135.28442383 3357727.98742676 11.71560001 148 134 125
246133.01708984 3357728.27673340 12.08951092 199 189 177
246133.22473145 3357727.53424072 12.32722855 160 159 164
246135.42077637 3357727.87609863 11.51035881 162 135 114
246135.27429199 3357728.05615234 11.77575874 149 138 132
246134.65539551 3357728.12646484 11.48285961 184 158 131
246133.80078125 3357728.18316650 11.91521168 31 30 28
246135.64636230 3357728.03411865 11.45781231 153 127 100
246133.26953125 3357727.97967529 11.98619080 88 83 80
246135.24902344 3357728.32910156 11.76935196 98 85 79
246135.18835449 3357727.81115723 11.78171825 157 136 119
246133.74243164 3357727.66021729 11.49329090 203 174 142
246132.96459961 3357727.96276855 11.98031330 216 215 213
246134.39929199 3357727.94299316 11.77678490 192 180 168
246134.80688477 3357727.86071777 11.45544147 170 144 111
246132.98803711 3357727.93127441 12.07524681 229 231 230
246134.42346191 3357727.96972656 11.83174324 186 176 164
246133.32751465 3357728.36071777 11.79640007 46 43 38
246135.12792969 3357727.64611816 11.58694839 203 174 142
246132.38525391 3357728.44134521 11.62844849 193 175 151
246134.59362793 3357728.42254639 11.59959984 214 183 152
246133.29345703 3357728.27111816 11.84880924 33 23 22
246135.12695313 3357728.17779541 11.75791550 141 130 126
246133.66516113 3357727.91021729 11.84563255 100 93 87
246133.12011719 3357728.15563965 12.21597862 105 96 89
246134.51184082 3357727.52410889 11.49867439 212 185 155
246135.72778320 3357728.28314209 11.46301937 162 139 121
246132.86779785 3357728.27423096 11.55710506 185 170 149
246133.17211914 3357727.51080322 11.82317257 237 212 182
246135.45385742 3357728.38592529 11.46654987 185 164 143
246135.28857422 3357727.77685547 11.64589977 167 140 119
246132.86718750 3357727.69445801 11.66991901 182 162 137
246133.08044434 3357727.40997314 12.13096809 194 185 180
246135.46240234 3357727.55401611 11.50237274 195 168 139
246133.50524902 3357728.19879150 11.86766434 69 64 61
246134.80908203 3357727.50384521 11.49172211 202 177 147
246133.13745117 3357727.79748535 12.25702667 159 158 164
246134.29284668 3357728.03118896 11.75340652 222 213 204
246133.97216797 3357728.44317627 11.70601940 66 59 49
246132.93969727 3357728.09228516 11.75742340 114 104 95
246132.67053223 3357727.91558838 11.60719585 187 167 143
246135.78906250 3357728.19793701 11.46922874 174 152 131
246135.38476563 3357727.73815918 11.50986576 142 112 86
246134.25500488 3357727.99450684 11.65923595 144 127 119
246135.23876953 3357728.03393555 11.92586899 163 155 153
246134.48010254 3357728.30645752 11.92432976 211 190 173
246135.45825195 3357727.46942139 11.50687504 197 171 144
246132.67053223 3357727.92858887 11.60527229 184 164 140
246134.92895508 3357728.31762695 11.48237896 132 112 88
246133.20703125 3357727.52929688 12.04403591 167 152 133
246132.95324707 3357728.09729004 11.95152855 205 199 199
246135.08471680 3357728.30230713 11.72039032 74 55 49
246134.71838379 3357727.48767090 11.51143265 204 177 148
246135.25061035 3357727.68133545 11.72007942 146 118 96
246135.11401367 3357728.04718018 11.64265728 153 129 117
246135.32861328 3357727.62353516 11.61734867 167 137 109
246132.76293945 3357728.45050049 11.57803345 187 170 144
246132.95544434 3357727.48425293 11.81136608 190 170 145
246133.16186523 3357728.16497803 12.18524456 100 91 86
246133.20910645 3357727.58642578 12.08091640 104 97 91
246134.37487793 3357727.49633789 11.49822426 207 183 149
246133.04797363 3357728.39111328 11.85431004 167 160 154
246135.03942871 3357727.89184570 11.54227543 202 174 137
246132.79663086 3357728.00878906 11.63527203 165 147 125
246132.70336914 3357727.74578857 11.60815525 188 168 143
246135.42065430 3357727.70306396 11.48916626 170 140 114
246135.28198242 3357728.04656982 11.73768234 163 150 142
246133.19946289 3357728.26654053 11.89294720 74 65 66
246132.94177246 3357728.14801025 11.84028912 133 123 114
246133.59985352 3357728.09594727 11.92966938 80 75 72
246133.98852539 3357727.85858154 11.60394859 125 94 73
246134.25793457 3357728.30102539 11.80099297 145 117 103
246134.49914551 3357728.35858154 11.85329533 162 146 130
246132.87329102 3357728.20825195 11.58874798 175 160 139
246132.95471191 3357727.74267578 12.16552734 131 132 134
246133.12573242 3357728.46057129 11.81032276 161 160 158
246134.64306641 3357727.72045898 11.48360443 201 175 142
246132.51403809 3357727.60021973 11.58862686 194 174 147
246133.21264648 3357727.82684326 12.10333729 58 57 63
246132.49377441 3357727.86193848 11.59930992 183 165 141
246132.95642090 3357727.83819580 12.04831505 123 123 121
246134.49731445 3357728.01177979 11.61689568 217 200 192
246135.27551270 3357728.20654297 11.75681400 101 90 84
246133.79479980 3357727.97637939 11.84329987 36 26 24
246135.60473633 3357727.79547119 11.44973087 166 141 111
246133.16308594 3357727.89575195 12.24302101 146 145 151
246134.62451172 3357727.82055664 11.50641727 163 136 107
246135.47741699 3357727.97949219 11.47684669 177 153 125
246135.00915527 3357727.81488037 11.49859524 203 173 137
246134.40808105 3357727.97100830 11.85891247 188 178 166
246133.21093750 3357727.77667236 11.96939564 65 63 64
246133.59228516 3357727.85595703 11.64855766 94 78 63
246135.28625488 3357728.32940674 11.66044903 84 70 59
246133.24523926 3357727.90093994 11.95728874 36 35 33
246133.84045410 3357728.26434326 11.82314491 31 27 26
246134.43835449 3357727.65478516 11.52657032 205 180 150
246134.42968750 3357728.11212158 12.11804867 231 198 179
246135.47790527 3357728.05255127 11.47426414 167 143 115
246133.96179199 3357727.98370361 11.72686100 71 53 43
246134.22277832 3357728.02154541 11.70297527 138 124 113
246134.14465332 3357728.20147705 11.81239128 132 110 97
246132.98095703 3357727.87133789 12.07581615 166 168 167
246133.90466309 3357728.01812744 11.76106453 53 38 31
246133.19824219 3357727.66772461 12.03451061 88 84 85
246134.30273438 3357727.60601807 11.49715042 211 186 155
246135.72424316 3357727.93963623 11.44871902 189 163 136
246135.51501465 3357728.04132080 11.46399784 150 124 97
246134.06237793 3357728.25811768 11.75788879 104 86 74
246134.73498535 3357727.87133789 11.46846485 187 162 131
246135.57031250 3357727.67779541 11.46089554 188 163 132
246133.80920410 3357728.01629639 11.87862873 34 28 28
246132.51135254 3357727.62176514 11.59013462 194 174 147
246135.28430176 3357727.74053955 11.66171169 185 158 137
246135.20166016 3357728.17480469 11.87049389 203 195 193
246134.26977539 3357728.29718018 11.81084633 140 112 98
246134.30334473 3357727.74359131 11.50829601 202 177 146
246134.44775391 3357727.97442627 11.88415241 184 176 163
246132.89233398 3357727.74694824 11.75429058 150 135 116
246135.20214844 3357728.06304932 11.90781403 215 210 207
246132.95007324 3357728.45379639 11.61732864 165 153 139
246135.51562500 3357728.22918701 11.45750809 140 120 96
246133.41137695 3357728.04632568 11.87210178 139 130 123
246135.27429199 3357728.35095215 11.68273258 115 101 90
246135.47277832 3357727.96624756 11.47864246 184 160 134
246133.03955078 3357728.31536865 12.02233696 239 229 219
246135.50915527 3357728.25256348 11.45857430 140 120 96
246133.65808105 3357728.28948975 11.95147610 44 42 43
246134.48974609 3357727.98394775 11.65718555 200 187 179
246135.57409668 3357728.38751221 11.44940472 116 94 73
246134.75439453 3357728.37725830 11.48023033 125 105 81
246132.61181641 3357727.88232422 11.59921741 188 168 143
246134.46667480 3357728.00079346 11.75886631 180 171 164
246132.93310547 3357727.70574951 11.83126926 126 118 107
246135.19140625 3357727.53808594 11.58220196 205 176 146
246134.66455078 3357728.31994629 11.49524212 166 143 111
246135.00708008 3357727.70465088 11.49558163 198 167 136
246134.50964355 3357728.23883057 11.73261166 137 116 97
246133.26184082 3357727.94470215 11.94176769 55 51 48
246133.22851563 3357727.74768066 11.88811207 45 41 38
246135.14233398 3357728.14343262 11.81379700 210 202 199
246132.57861328 3357728.08581543 11.59409904 181 165 140
246134.10949707 3357727.97119141 11.62539959 124 103 86
246132.99499512 3357728.31774902 12.01538658 209 197 183
246132.94494629 3357728.19909668 11.90187931 132 121 115
246133.14599609 3357727.63842773 12.31946659 197 195 198
246133.18151855 3357728.37274170 11.81014538 140 139 137
246135.24438477 3357727.93853760 11.94196796 147 137 135
246132.97827148 3357728.26818848 11.78733063 117 108 103
246133.66040039 3357727.98876953 11.92550182 143 139 136
246133.11816406 3357728.48999023 11.80695343 157 153 152
246133.21032715 3357727.57739258 12.08595753 104 97 91
246132.46105957 3357728.18188477 11.57935715 196 176 152
246133.08166504 3357728.10455322 12.25122452 164 159 156
246135.21716309 3357727.80462646 11.86136341 126 110 97
246134.49157715 3357728.15704346 12.04503059 184 163 142
246133.25329590 3357727.95111084 12.05294609 107 102 108
246135.31921387 3357728.33892822 11.55863285 114 95 81
246132.81433105 3357727.95892334 11.64614582 166 148 126
246135.27734375 3357728.02954102 11.76737595 160 149 143
246133.84948730 3357728.23370361 11.80384541 36 32 31
246135.47241211 3357728.26867676 11.47497845 152 132 108
246133.04809570 3357727.43438721 12.21880054 221 219 220
246132.98693848 3357727.83093262 12.12107849 114 114 114
246135.26013184 3357728.11285400 11.83989143 138 128 126
246133.63476563 3357727.84686279 11.63699913 126 109 91
246133.21191406 3357727.79473877 12.18748951 64 64 72
246133.99084473 3357727.87786865 11.61801720 125 97 76
246132.78930664 3357728.47161865 11.58065796 187 169 145
246133.31042480 3357727.68115234 11.66790867 50 36 25
246135.29016113 3357728.29650879 11.66658211 86 72 61
246133.31018066 3357728.26110840 11.83316231 87 77 75
246133.67651367 3357727.85363770 11.69115639 151 134 116
246135.21130371 3357728.40875244 11.84418869 135 124 120
246133.67004395 3357727.88281250 11.78318214 104 92 80
246133.09436035 3357728.31970215 11.92395878 198 191 183
246134.30029297 3357727.71105957 11.50929165 211 186 155
246132.41955566 3357728.35784912 11.61524677 197 177 152
246134.62207031 3357727.91906738 11.51178932 191 167 143
246134.15161133 3357728.04846191 11.74413872 100 86 73
