245809.02880859 3357722.22711182 15.56109333 105 121 120
245807.21771240 3357723.33990479 15.33570099 43 53 55
245806.69158936 3357722.84466553 15.29337406 100 114 123
245807.43572998 3357723.09283447 15.35213947 32 42 51
245810.80969238 3357721.77966309 14.98690605 14 13 18
245807.48101807 3357722.91668701 15.41788960 39 46 54
245810.54406738 3357721.88214111 15.34731960 168 171 186
245807.45434570 3357723.24713135 15.34379673 47 58 64
245806.91418457 3357723.38110352 15.61895370 144 134 122
245812.64764404 3357721.47930908 14.85225010 28 34 34
245810.51171875 3357722.16503906 15.17332649 68 71 76
245808.68658447 3357722.54345703 15.56748390 15 19 22
245806.31103516 3357723.48419189 15.53459454 41 46 50
245806.71911621 3357722.84045410 15.28789330 100 114 123
245809.01129150 3357722.16870117 15.58980751 122 134 132
245807.74346924 3357722.25335693 15.36656570 18 28 30
245811.08276367 3357721.88671875 14.80840492 99 103 104
245808.38854980 3357722.14093018 15.60353374 9 22 13
245808.04864502 3357722.03350830 15.34288788 17 30 23
245809.66455078 3357722.02954102 15.41615677 21 30 29
245806.70678711 3357723.24200439 15.62421608 121 114 108
245808.34661865 3357723.16979980 15.21783352 51 58 66
245806.29589844 3357721.97961426 15.04385948 28 39 33
245812.76373291 3357721.36724854 15.09355450 30 34 37
245810.64709473 3357721.92803955 15.08860493 71 74 79
245806.71087646 3357723.10363770 15.49234009 102 111 118
245806.66943359 3357723.42523193 15.69818592 101 83 73
245808.79638672 3357722.91320801 15.37154198 39 42 51
245810.23699951 3357722.48614502 15.35912132 40 47 55
245808.50671387 3357722.89086914 15.37216949 28 35 43
245809.46752930 3357722.20172119 15.50002575 28 21 29
245809.71588135 3357721.79461670 15.43073559 4 20 10
245806.80169678 3357723.44921875 15.68950367 152 129 111
245807.01470947 3357721.91003418 15.00832367 20 35 28
245808.86956787 3357722.02301025 15.75483418 14 26 24
245807.13110352 3357722.57818604 15.42614269 39 48 57
245808.31591797 3357722.31494141 15.32393742 19 23 22
245810.89660645 3357722.04522705 14.81706715 39 40 42
245810.29724121 3357722.14208984 15.48422718 125 128 135
245806.49163818 3357722.65679932 15.35195637 91 104 110
245806.53057861 3357723.86071777 15.55633831 43 52 59
245807.19348145 3357722.55218506 15.46836948 26 35 44
245806.89685059 3357721.52795410 15.11710167 18 44 17
245806.80908203 3357723.02709961 15.32659054 46 54 65
245809.66577148 3357722.09307861 15.43069172 23 31 34
245807.42687988 3357723.45556641 15.34914875 43 52 59
245809.83020020 3357722.34448242 15.68785572 33 41 43
245809.81732178 3357722.48834229 15.54026604 38 48 50
245809.19415283 3357722.31170654 15.63916302 38 43 46
245806.83843994 3357722.20587158 15.01281357 49 56 62
245806.51745605 3357722.55847168 15.17200661 40 55 62
245806.92700195 3357722.34967041 15.14941406 42 51 56
245810.59375000 3357721.86315918 15.32485008 175 178 193
245808.55780029 3357722.11358643 15.74808216 10 20 19
245806.69293213 3357723.04101563 15.44887543 47 56 61
245812.42102051 3357721.33618164 15.07039642 0 6 9
245813.26153564 3357721.07055664 15.45389557 39 51 49
245806.57379150 3357722.66485596 15.23615551 83 100 108
245807.31317139 3357723.21667480 15.30443096 44 53 60
245806.68188477 3357723.03314209 15.45327950 43 52 57
245808.56213379 3357722.48321533 15.51662731 92 93 95
245806.41101074 3357723.84826660 15.51987457 45 56 60
245808.08984375 3357723.16082764 15.16243839 47 56 61
245807.11016846 3357722.72540283 15.40495872 46 55 60
245810.83959961 3357721.76788330 14.92287827 30 29 34
245812.52862549 3357721.27008057 15.24856949 47 37 46
245810.62231445 3357722.05914307 15.04619694 60 66 66
245807.42645264 3357722.07702637 15.06945705 33 43 42
245809.18768311 3357722.86462402 15.44977570 31 39 42
245807.32208252 3357722.34344482 15.35182667 40 48 51
245808.06842041 3357721.93048096 15.53911018 20 33 23
245807.63348389 3357722.15905762 15.24798679 17 27 28
245806.31921387 3357722.46771240 15.69540405 31 36 42
245812.04443359 3357721.77014160 14.82639885 75 79 78
245808.20434570 3357722.12237549 15.33936310 15 19 18
245813.68066406 3357721.09753418 15.42392826 47 71 83
245806.95178223 3357722.11492920 15.00568008 46 56 58
245810.30334473 3357722.29290771 15.34251785 51 54 63
245807.83618164 3357723.12182617 15.26541901 23 30 36
245807.02453613 3357723.27313232 15.39087772 35 40 43
245811.72326660 3357721.86090088 14.79712391 72 73 77
245806.45080566 3357722.33410645 14.97759342 30 40 42
245807.27581787 3357721.71209717 15.06910515 21 45 19
245808.32458496 3357722.02807617 15.71476746 13 29 18
245806.69342041 3357723.42175293 15.70013237 115 95 86
245810.93524170 3357721.68402100 14.90502357 31 32 34
245811.83551025 3357721.61853027 14.79077721 65 69 70
245808.47644043 3357722.71777344 15.37918758 32 36 45
245810.38214111 3357722.15734863 15.37650681 70 78 81
245806.40509033 3357722.78955078 15.53904819 49 54 58
245808.62536621 3357722.30792236 15.60620785 64 75 79
245806.52795410 3357722.64404297 15.28409481 86 101 108
245812.97491455 3357721.18194580 15.33345318 127 142 145
245813.89196777 3357721.07061768 15.06212711 73 81 83
245813.03808594 3357720.91540527 15.41711426 33 46 39
245806.93951416 3357723.71618652 15.58538723 41 51 60
245808.93774414 3357722.18084717 15.62564182 64 72 74
245810.58068848 3357722.23321533 15.02587032 48 53 56
245807.09387207 3357723.56207275 15.49735355 37 45 48
245812.34454346 3357721.56524658 14.87845230 61 62 64
245810.71093750 3357721.84155273 15.12009811 186 189 198
245806.51202393 3357721.89758301 15.03003597 44 57 50
245807.54827881 3357722.58917236 15.49250317 25 34 39
245808.19915771 3357722.24432373 15.24718094 22 26 27
245812.91619873 3357721.14123535 15.32585907 77 91 92
245813.64428711 3357721.21990967 15.47113991 225 242 250
245810.17340088 3357722.17956543 15.57288551 161 171 180
245808.73303223 3357722.65405273 15.56607056 31 36 40
245806.80682373 3357722.00097656 14.98553944 31 41 40
245810.42669678 3357722.19238281 15.28499413 63 71 74
245809.64538574 3357722.12255859 15.44997025 24 29 33
245806.82995605 3357722.99835205 15.29866314 49 58 67
245808.38293457 3357722.20129395 15.49501705 9 15 11
245807.56463623 3357722.07537842 15.12210369 42 51 50
245810.33264160 3357722.23748779 15.36446476 52 57 63
245809.12280273 3357722.27185059 15.58047771 104 120 119
245806.91906738 3357722.30615234 15.11277103 44 53 58
245808.69708252 3357722.99914551 15.35634899 49 56 64
245810.05505371 3357721.74572754 15.59163761 191 195 204
245808.87927246 3357722.02752686 15.74388695 14 26 24
245807.93127441 3357722.08679199 15.30424976 46 55 52
245809.43817139 3357721.90966797 15.55873585 25 41 31
245808.28289795 3357722.26721191 15.31033325 20 24 23
245808.60565186 3357722.44848633 15.54801750 43 45 44
245806.25189209 3357723.40856934 15.51046562 38 43 47
245806.41101074 3357722.53533936 15.46729088 76 86 95
245806.30108643 3357722.57653809 15.66004467 49 54 58
245806.65325928 3357721.62182617 15.13566875 17 30 21
245812.01068115 3357721.42785645 14.80298424 70 74 75
245809.60742188 3357722.23669434 15.54139709 91 81 89
245809.66253662 3357722.63592529 15.29534817 43 51 54
245813.43157959 3357720.98419189 15.52273560 35 45 37
245807.77984619 3357722.31671143 15.33586693 26 34 36
245812.79797363 3357721.38610840 15.05181503 32 35 40
245809.30053711 3357722.24291992 15.57135296 23 26 31
245806.40106201 3357723.61968994 15.57120705 51 56 60
245806.92938232 3357722.22741699 15.04103565 44 51 57
245810.59649658 3357722.16900635 15.03258705 41 46 49
245806.45727539 3357722.97332764 15.54874992 73 77 78
245809.99389648 3357721.83111572 15.36523914 58 62 65
245807.81787109 3357723.37097168 15.24307251 27 36 45
245811.03216553 3357721.64953613 14.86739635 56 58 57
245809.25427246 3357722.68206787 15.51232529 46 47 52
245806.95703125 3357722.94781494 15.30944157 36 45 52
245807.09942627 3357722.32165527 15.21940804 41 52 58
245811.31933594 3357721.92712402 14.77523232 52 54 53
245808.95770264 3357722.62683105 15.72700596 120 115 121
245810.93029785 3357721.62585449 15.25343323 14 14 16
245807.40417480 3357722.24511719 15.24008465 60 69 68
245810.66461182 3357721.82568359 15.30633163 117 119 131
245808.86157227 3357722.77636719 15.55758381 46 47 51
245813.04046631 3357721.15808105 15.35786152 116 137 142
245809.52618408 3357722.53692627 15.44351101 40 48 51
245807.49499512 3357722.97418213 15.40251160 26 35 42
245808.54223633 3357723.00762939 15.36940670 18 25 35
245806.51330566 3357722.83984375 15.46876526 86 92 92
245806.77600098 3357722.51049805 15.17094231 40 49 56
245809.80090332 3357722.30712891 15.66479778 34 39 43
245809.98669434 3357721.96081543 15.42995930 48 53 57
245808.40350342 3357722.56243896 15.34194660 29 34 38
245806.89300537 3357723.16302490 15.36422157 33 41 43
245806.39343262 3357722.44287109 15.50036526 75 85 95
245808.40917969 3357722.36901855 15.41551113 16 20 21
245807.76873779 3357722.97912598 15.33458996 14 21 27
245807.66644287 3357722.10974121 15.22781849 20 30 32
245807.14691162 3357721.77984619 15.04409695 21 44 24
245807.33642578 3357721.93640137 15.03006172 65 78 68
245808.04107666 3357722.16412354 15.24448109 29 38 35
245807.67858887 3357722.31207275 15.44879150 142 154 154
245808.44726563 3357722.61590576 15.36591148 43 47 56
245808.93273926 3357722.88372803 15.39726162 64 63 68
245809.05310059 3357722.89990234 15.40118599 35 36 40
245807.40588379 3357722.70916748 15.45773220 26 35 42
245807.22070313 3357722.17053223 15.08853626 37 47 49
245809.56793213 3357722.70581055 15.22063351 25 32 38
245809.11456299 3357722.07409668 15.58810425 19 34 29
245809.87530518 3357722.08801270 15.52058411 51 52 57
245806.56115723 3357722.76239014 15.36082172 133 144 150
245806.84301758 3357721.89544678 15.01595879 35 48 41
245806.38458252 3357722.02453613 15.01095009 29 40 36
245806.94458008 3357723.05273438 15.30976963 31 40 49
245810.81115723 3357721.79974365 14.93709755 16 16 18
245808.26159668 3357722.32067871 15.27597332 26 32 32
245806.53619385 3357723.45324707 15.66107368 40 41 45
245808.16278076 3357722.38916016 15.23067570 36 41 44
245811.01446533 3357721.64978027 14.87656689 49 51 50
245807.90972900 3357723.19470215 15.20138836 36 43 49
245811.67376709 3357721.46026611 14.77655125 37 39 38
245808.98266602 3357722.24176025 15.58285999 100 115 112
245807.08386230 3357722.58917236 15.39655304 40 49 56
245806.23126221 3357722.19055176 15.31840134 157 173 172
245809.48132324 3357722.67712402 15.25524235 9 19 21
245808.79138184 3357722.43963623 15.61785889 29 40 42
245810.26281738 3357722.24658203 15.42213058 48 48 58
245811.00012207 3357721.57513428 15.32122898 26 25 30
245806.65545654 3357721.63464355 15.12999344 19 32 22
245807.79663086 3357721.95581055 15.30932713 15 28 18
245810.47900391 3357722.34570313 15.10022736 38 43 49
245811.54827881 3357721.86578369 14.76897430 57 62 66
245806.55120850 3357722.14099121 14.96163082 37 45 47
245807.60870361 3357723.26611328 15.37765884 32 42 51
245808.74560547 3357722.29919434 15.60706615 30 39 44
245812.53546143 3357721.46704102 14.86092186 44 50 50
245807.48883057 3357722.59588623 15.49033642 21 28 34
245810.01989746 3357722.57415771 15.37940598 142 146 149
245812.19061279 3357721.33520508 14.91095161 46 51 54
245811.59002686 3357721.66607666 14.77637005 77 78 82
245807.03778076 3357723.02111816 15.30695629 37 46 53
245806.37524414 3357723.34576416 15.57521248 42 47 50
245809.35894775 3357721.93719482 15.61205482 16 33 17
245807.28527832 3357722.23956299 15.18189335 38 46 49
245812.36877441 3357721.38629150 14.97384739 24 33 32
245808.50689697 3357722.32781982 15.55326557 42 51 46
245806.53320313 3357723.06872559 15.56340122 63 64 68
245810.60552979 3357722.18554688 15.00803471 52 57 60
245809.04205322 3357722.63543701 15.72857094 80 75 81
245806.38000488 3357722.60473633 15.54667568 54 63 70
245810.96551514 3357721.60211182 15.20505810 27 21 25
245809.44250488 3357722.50488281 15.59198952 46 47 52
245806.67303467 3357722.42297363 15.02568817 40 47 57
245808.16400146 3357722.49530029 15.22290897 44 52 55
245812.79064941 3357721.14916992 15.30198288 46 46 48
245809.47088623 3357722.13348389 15.47337627 29 30 35
245813.12994385 3357721.38012695 15.34191704 239 240 242
245810.37249756 3357722.22210693 15.33730602 63 71 73
245807.17572021 3357722.64379883 15.45042706 39 48 55
245809.23413086 3357722.56945801 15.65589809 57 52 56
245807.79046631 3357723.17102051 15.29172421 13 20 28
245812.35491943 3357721.30688477 15.08990479 51 61 63
245807.28216553 3357722.07019043 15.05093765 33 43 42
245812.67645264 3357721.44512939 14.89686394 40 44 43
245808.77160645 3357722.40435791 15.61550522 41 52 54
245810.21228027 3357722.11041260 15.59656429 216 223 229
245808.01080322 3357722.44519043 15.21703529 36 44 46
245812.94567871 3357721.22216797 15.31357670 248 252 255
245806.36621094 3357722.32183838 15.33065987 49 73 75
245813.47515869 3357721.18566895 15.50350761 62 70 81
245806.50988770 3357722.39624023 14.98031998 35 44 49
245810.96618652 3357722.11108398 14.81534767 28 32 31
245809.91546631 3357722.18255615 15.60950089 225 232 240
245810.77545166 3357721.75543213 15.24143124 27 28 32
245806.94818115 3357722.52331543 15.32170391 46 53 59
245808.07788086 3357723.17797852 15.16163826 46 55 60
245808.01641846 3357722.01959229 15.37129688 24 37 30
245811.23419189 3357721.42803955 14.79041576 59 58 56
245806.72125244 3357723.06616211 15.44201851 59 68 73
245806.33276367 3357721.60815430 15.23125172 16 27 21
245810.65521240 3357721.92095947 15.08198071 71 72 77
245806.57525635 3357721.69750977 15.11453915 23 39 29
245806.26409912 3357721.97430420 15.05170822 27 40 31
245812.81982422 3357721.19354248 15.29939270 81 79 80
245808.72479248 3357722.81750488 15.50467014 37 42 46
245806.66717529 3357722.23394775 14.97581768 48 53 59
245808.04553223 3357723.19232178 15.16437054 43 52 59
245809.40832520 3357721.95208740 15.53757763 20 33 24
245807.98187256 3357722.26000977 15.23574066 33 39 39
245809.45416260 3357722.48107910 15.65590191 72 70 75
245807.08007813 3357722.95233154 15.30714321 42 51 58
245809.76721191 3357721.80578613 15.38957405 19 32 25
245806.46527100 3357722.15960693 14.97204971 38 48 49
245808.78942871 3357722.18267822 15.63611794 16 26 28
245810.54138184 3357722.24530029 15.07978535 38 46 48
245807.54547119 3357723.20562744 15.38181686 23 36 44
245810.69549561 3357721.85736084 15.11291504 158 161 170
245809.65551758 3357722.33001709 15.67432213 34 31 38
245807.00897217 3357723.66668701 15.55219841 43 52 57
245807.71356201 3357722.91845703 15.40095425 15 24 31
245807.11822510 3357722.54376221 15.41642857 40 49 58
245810.85986328 3357721.67614746 15.30423164 46 45 50
245812.55926514 3357721.23358154 15.27714634 56 43 52
245807.86871338 3357722.83172607 15.28661728 28 33 37
245809.50439453 3357721.97998047 15.45874691 19 29 30
245806.55792236 3357721.63372803 15.16029930 20 33 24
245806.34344482 3357721.63171387 15.22480202 16 27 21
245813.23071289 3357721.25537109 15.40849018 165 182 190
245811.20306396 3357721.60729980 14.77120018 57 59 56
245807.20819092 3357722.26562500 15.18566704 39 47 50
245813.78753662 3357720.98291016 15.23323345 50 55 61
245809.10943604 3357722.77227783 15.51937580 41 39 44
245809.15637207 3357722.80023193 15.44677830 42 43 47
245808.38690186 3357722.68176270 15.32715797 36 41 47
245809.42279053 3357721.89099121 15.59981155 21 37 26
245813.31579590 3357720.92742920 15.51005840 30 43 33
245810.85180664 3357721.74163818 14.97171402 27 26 31
245811.69500732 3357721.72644043 14.78974724 77 76 81
245806.93493652 3357722.84674072 15.31016254 43 52 57
245806.29339600 3357722.44903564 15.70974159 44 49 55
245806.54675293 3357722.53881836 15.05017567 25 34 43
245812.31250000 3357721.38958740 14.96005535 15 23 25
245812.33477783 3357721.33837891 15.01801014 71 79 82
245806.34484863 3357722.52709961 15.63677692 41 50 59
245807.22961426 3357723.05743408 15.31413269 42 51 58
245806.74444580 3357721.60003662 15.14145184 20 36 23
245807.21356201 3357722.86511230 15.36966038 46 55 62
245806.88989258 3357723.42541504 15.65905857 133 123 113
245809.10247803 3357722.87371826 15.44832993 31 35 38
245807.56884766 3357721.82415771 15.10995865 22 43 24
245809.53179932 3357721.91516113 15.47106266 16 26 25
245807.97686768 3357723.06445313 15.19434929 40 47 53
245806.89678955 3357723.40856934 15.64511776 144 134 122
245808.01312256 3357722.07287598 15.26984119 18 27 22
245806.36718750 3357721.99517822 15.02482319 35 46 42
245807.76885986 3357723.37322998 15.27867985 24 33 42
245807.68109131 3357721.81665039 15.20709991 19 36 18
245809.83404541 3357722.10546875 15.51784515 44 48 51
245807.94012451 3357722.49505615 15.23159885 35 40 43
245806.81738281 3357723.49066162 15.69130898 130 114 99
245806.45831299 3357722.39410400 14.98176003 31 40 45
245806.70501709 3357721.94348145 15.00677395 38 49 45
245806.24768066 3357722.49456787 15.72184563 52 57 63
245806.52941895 3357723.21710205 15.59074974 38 37 42
245806.26660156 3357721.70452881 15.20639038 23 36 26
245810.37274170 3357721.73565674 15.57910442 28 44 34
245809.67462158 3357722.25067139 15.58376122 65 63 68
245806.89984131 3357721.94042969 15.00162983 48 60 56
245808.88287354 3357722.53198242 15.66199112 21 26 30
245806.28094482 3357722.91326904 15.57746792 57 62 65
245810.45623779 3357722.14300537 15.27332020 81 88 94
245807.82275391 3357721.96844482 15.34003067 18 31 21
245811.41882324 3357721.43109131 14.77059650 60 62 61
245807.81787109 3357723.13153076 15.27735233 18 25 33
245806.51391602 3357723.41265869 15.65098095 40 44 47
245808.57440186 3357722.90051270 15.41350174 25 32 42
245811.55200195 3357721.68493652 14.76548290 69 70 74
245809.94079590 3357721.88018799 15.34350872 51 55 58
245809.65783691 3357722.55273438 15.44116783 36 41 47
245807.07434082 3357722.70330811 15.39914036 48 57 64
245813.92565918 3357720.90808105 15.04951477 60 65 61
245806.33337402 3357723.58142090 15.54127216 60 65 68
245808.60284424 3357722.64483643 15.50038433 20 23 32
245806.65844727 3357723.44775391 15.70467472 72 63 54
245806.59606934 3357723.17944336 15.59521008 85 86 88
245807.71191406 3357722.51751709 15.43911552 29 37 40
245808.75817871 3357722.06640625 15.73173904 14 26 24
245809.02600098 3357722.87103271 15.42413902 63 62 67
245809.54840088 3357721.99609375 15.43204117 20 30 31
245806.59429932 3357722.78149414 15.33521652 155 168 176
245811.01019287 3357721.56298828 15.44810009 32 38 38
245811.68981934 3357721.68676758 14.78769970 80 81 85
245808.31152344 3357722.30383301 15.32416248 20 24 23
245807.77526855 3357721.91925049 15.29097939 16 30 17
245813.62622070 3357721.01416016 15.45877171 39 49 50
245807.97875977 3357722.09539795 15.27667141 37 46 43
245809.78918457 3357722.39880371 15.65980530 38 46 48
245807.25952148 3357722.94879150 15.35583878 46 55 62
245807.10229492 3357721.78338623 15.04105568 22 43 28
245807.12756348 3357721.78765869 15.04099846 27 48 31
245812.05047607 3357721.56848145 14.81791306 68 72 71
245812.30572510 3357721.56488037 14.88254261 65 66 68
245811.02349854 3357721.50628662 15.10255432 23 21 24
245808.08172607 3357721.92840576 15.57003784 18 31 22
