245715.39715576 3357591.46392822 17.17473221 55 56 51
245718.45019531 3357583.70434570 17.21614265 184 180 169
245712.55017090 3357585.82360840 17.22166252 235 232 225
245711.19598389 3357586.23358154 17.48188400 48 54 54
245730.77258301 3357580.44598389 17.27772713 33 35 32
245728.88824463 3357580.84808350 17.55253410 102 101 106
245726.25463867 3357589.33276367 17.06365585 135 131 128
245727.80804443 3357582.55157471 17.72039986 17 22 28
245727.61077881 3357588.00524902 17.06950378 80 79 84
245716.04754639 3357587.69995117 17.13128471 109 109 107
245730.79101563 3357584.36224365 17.13137627 114 115 109
245713.08843994 3357583.73260498 17.58436775 125 127 126
245714.62249756 3357586.01635742 17.31989861 219 212 204
245724.68103027 3357590.29718018 17.24326897 158 154 153
245718.58679199 3357584.62689209 17.33234978 144 130 119
245711.60839844 3357584.23791504 17.38180542 64 64 62
245728.91461182 3357582.75036621 17.46405029 100 111 115
245730.41302490 3357580.87219238 17.74163246 240 241 243
245715.91949463 3357584.37677002 17.40206718 58 63 67
245726.25634766 3357581.49212646 17.26947975 161 163 160
245721.71343994 3357583.84167480 17.40816689 102 107 110
245717.70812988 3357590.75805664 17.12372398 96 97 91
245730.85736084 3357581.70007324 17.18180847 60 66 66
245729.46636963 3357579.95477295 17.01234818 49 44 41
245712.11077881 3357585.83251953 17.21010399 234 235 229
245726.96191406 3357584.37243652 17.19093513 173 172 168
245721.42004395 3357582.33343506 17.16801643 131 132 136
245714.91497803 3357587.29498291 17.19368553 53 63 65
245726.26580811 3357587.44866943 17.21635628 89 90 94
245726.81555176 3357582.92333984 17.65398026 134 137 142
245724.29748535 3357582.72064209 17.42854309 173 165 163
245717.34442139 3357588.26605225 17.15611649 155 154 149
245717.87658691 3357590.69366455 17.20627213 215 214 210
245717.76086426 3357585.07507324 17.29275131 113 96 88
245720.27081299 3357586.73010254 17.09189415 81 84 89
245716.06066895 3357591.76147461 17.08706856 178 179 174
245714.87786865 3357587.58233643 17.14248085 62 70 73
245711.38433838 3357586.28717041 17.23546600 70 73 78
245714.71533203 3357587.47955322 17.33695793 11 20 19
245720.18017578 3357591.58374023 17.02820587 139 141 138
245714.70812988 3357583.60729980 17.47861862 41 40 38
245722.24853516 3357591.07037354 17.28171158 54 55 59
245724.90576172 3357584.00579834 17.08520126 159 161 160
245725.51580811 3357590.61352539 16.98346519 85 93 96
245717.90325928 3357588.09625244 17.26903534 200 192 181
245725.27838135 3357588.48431396 17.51737595 87 89 88
245715.60540771 3357584.67999268 17.35756493 175 175 167
245732.01239014 3357583.35247803 17.08814430 89 85 82
245710.26104736 3357586.24633789 17.32298279 170 158 146
245731.22729492 3357582.69946289 17.58179283 116 117 112
245718.73651123 3357581.69183350 17.58292198 131 118 112
245725.71771240 3357584.54425049 17.03801346 203 202 197
245727.00463867 3357580.81219482 17.04891586 72 82 92
245730.59814453 3357584.30096436 17.12358856 113 113 111
245715.90856934 3357589.43774414 17.12108421 76 84 86
245723.67279053 3357585.74865723 17.11117744 198 191 181
245725.21789551 3357590.08215332 17.24788857 33 34 36
245724.33367920 3357591.40765381 17.52700996 217 223 223
245727.68951416 3357583.21496582 17.01005554 132 134 133
245730.22973633 3357581.48870850 17.34216499 169 169 169
245731.01983643 3357583.39477539 17.01436615 138 138 138
245731.55554199 3357581.95642090 17.06782913 43 53 62
245715.47882080 3357585.47534180 17.23752022 199 195 184
245722.48223877 3357591.38061523 17.24108315 38 36 37
245719.22692871 3357591.25958252 17.29518700 27 29 28
245724.86968994 3357581.85119629 17.05443573 50 60 70
245719.87011719 3357584.20379639 17.16606331 56 59 64
245726.27624512 3357581.41864014 17.45240021 174 174 172
245722.99890137 3357591.22406006 17.73362923 47 48 43
245712.83898926 3357583.82763672 17.54122162 114 113 109
245715.51379395 3357588.23559570 17.32319260 38 35 30
245721.65344238 3357590.54113770 17.50289726 35 35 35
245715.15258789 3357583.75665283 17.20721436 184 187 180
245720.42828369 3357587.74694824 17.09727287 251 250 248
245721.66876221 3357588.33422852 17.34156227 17 15 18
245716.32556152 3357585.03369141 17.21024895 122 124 121
245722.77093506 3357590.78613281 17.25064659 77 77 75
245724.03649902 3357584.32122803 17.02340889 162 166 165
245722.15795898 3357583.53131104 17.73490906 233 237 238
245709.36889648 3357584.89807129 17.27940941 235 230 224
245724.77105713 3357591.53234863 17.25281143 35 37 36
245723.24304199 3357590.78198242 17.34505844 61 62 66
245732.38610840 3357582.75512695 16.98576736 91 91 89
245721.12982178 3357583.24224854 17.51636124 114 115 117
245731.93066406 3357582.15228271 17.13055420 74 75 79
245729.14605713 3357583.02270508 17.19505692 48 55 63
245723.31976318 3357591.40075684 17.58516121 213 217 220
245707.51940918 3357586.49890137 17.27218437 87 91 92
245721.31414795 3357582.50073242 17.38165092 8 8 10
245725.93823242 3357584.39886475 17.02844048 157 157 155
245720.74829102 3357586.40185547 17.10925102 178 155 139
245730.18225098 3357583.29705811 17.35827637 127 129 128
245727.18322754 3357582.84613037 17.46772766 125 126 128
245716.77117920 3357584.64251709 17.20058250 49 45 46
245717.65447998 3357586.05078125 17.21870232 201 198 189
245725.51342773 3357587.94732666 17.12716484 153 153 151
245716.64965820 3357586.53234863 17.47984505 76 89 95
245713.83959961 3357586.37365723 17.18370056 206 202 191
245718.63592529 3357583.97393799 17.20211983 189 186 177
245722.69641113 3357585.92370605 17.06285667 81 86 89
245721.71612549 3357584.81402588 17.15565872 142 142 144
245717.64349365 3357589.80108643 17.09152222 104 105 107
245719.49633789 3357586.28625488 17.55605316 33 33 33
245715.35125732 3357583.35797119 17.45735550 142 120 107
245720.03680420 3357590.97943115 17.04328156 240 242 241
245726.70556641 3357581.95208740 17.24563408 144 146 143
245718.76324463 3357583.79589844 17.32848549 212 213 208
245728.57031250 3357584.71014404 16.99740410 202 202 194
245725.03540039 3357590.63409424 17.34322548 64 70 70
245710.63055420 3357585.19311523 17.28954506 206 203 196
245725.24499512 3357581.41467285 17.08353424 74 83 88
245723.59832764 3357582.73352051 17.09749222 75 81 81
245725.90618896 3357587.79614258 17.01249886 74 78 81
245730.80889893 3357582.17523193 17.16623497 45 57 57
245729.81488037 3357579.97015381 17.24265671 89 82 76
245731.43518066 3357581.17071533 17.01597595 63 63 65
245730.74291992 3357581.28912354 17.45612907 94 102 105
245707.67218018 3357586.52038574 17.31323051 95 96 98
245720.74414063 3357586.28894043 17.12224960 185 166 152
245724.37353516 3357586.88555908 17.38151360 147 144 137
245725.90362549 3357582.70367432 17.69577026 38 38 38
245716.34204102 3357590.70977783 17.67172241 139 110 114
245722.70208740 3357583.54675293 17.61318588 86 62 62
245716.08081055 3357587.30908203 17.25708961 66 79 87
245719.36785889 3357584.92687988 17.11699677 179 178 173
245714.52392578 3357584.39556885 17.40231133 65 65 65
245722.23779297 3357584.48999023 17.06318474 82 83 85
245720.47760010 3357583.16021729 17.62444496 158 160 159
245723.17285156 3357583.38812256 17.73830223 32 35 42
245723.02288818 3357581.42364502 17.29228210 73 47 48
245724.20867920 3357585.73815918 17.01433945 94 92 95
245716.25256348 3357588.87445068 17.13447952 155 150 147
245720.84680176 3357584.63305664 17.24331474 214 211 204
245716.14855957 3357590.91284180 17.21544838 159 149 147
245728.81451416 3357580.65911865 17.52733994 23 24 26
245722.66217041 3357582.76739502 17.68699837 161 152 155
245716.21209717 3357582.73663330 17.48892784 144 130 121
245730.54809570 3357579.97406006 17.71332359 211 215 216
245724.71246338 3357583.16046143 17.37930107 58 58 60
245728.92742920 3357584.38323975 17.09325600 199 196 189
245708.00012207 3357586.57788086 17.30996323 44 47 52
245721.88970947 3357587.34259033 17.02472496 84 97 103
245716.86096191 3357588.92132568 17.55433655 143 88 68
245728.80487061 3357581.22833252 17.61047363 158 162 161
245710.98901367 3357585.20098877 17.35927010 234 235 230
245708.97003174 3357586.89819336 17.40266037 72 74 73
245721.56561279 3357588.15093994 17.25673676 168 165 160
245707.41809082 3357587.33111572 17.22736168 86 96 98
245722.55950928 3357583.20361328 17.90398598 129 118 122
245715.75476074 3357588.37121582 17.12305641 60 63 70
245720.57092285 3357583.31988525 17.73572731 170 170 168
245721.85961914 3357583.68847656 17.77880096 153 157 160
245722.71350098 3357582.62872314 17.58870888 106 98 113
245718.64739990 3357582.03778076 17.43979263 143 144 146
245711.91796875 3357584.03448486 17.66223907 105 109 110
245718.80535889 3357587.12554932 17.36977386 56 64 66
245726.48370361 3357588.32818604 17.41118240 44 42 43
245724.20623779 3357587.31994629 17.19287872 154 156 153
245710.60284424 3357586.10260010 17.31254959 220 220 210
245727.31219482 3357582.32910156 17.67386055 52 57 61
245715.85394287 3357582.88604736 17.25743294 160 138 125
245718.67211914 3357582.53155518 17.25598717 76 76 78
245716.39385986 3357583.12536621 17.68424416 50 50 48
245732.64910889 3357584.82733154 16.92630196 79 87 100
245725.59729004 3357591.23388672 16.97135353 108 115 121
245710.41351318 3357586.64697266 17.25499916 78 79 81
245711.93676758 3357584.01000977 17.64410400 93 98 101
245730.64111328 3357584.22637939 17.28604126 75 77 74
245714.41925049 3357585.32965088 17.16614914 203 200 195
245726.85955811 3357579.98193359 17.07969093 176 177 172
245714.90515137 3357587.69403076 17.13953209 85 95 97
245710.82598877 3357586.20361328 17.33793259 216 212 201
245723.45330811 3357585.83227539 17.13897133 195 191 182
245723.73504639 3357584.02734375 17.23830795 85 85 83
245728.14599609 3357581.38171387 17.33893394 49 54 57
245728.39172363 3357589.23541260 16.93893242 165 155 153
245713.58544922 3357586.99896240 17.18296242 76 85 92
245717.84423828 3357591.31469727 17.11175728 107 107 107
245719.71295166 3357587.69714355 17.08939934 158 169 175
245722.49438477 3357583.80780029 17.51401711 41 42 47
245718.23931885 3357587.01751709 17.31105423 62 71 76
245730.83526611 3357584.08843994 17.15113449 156 153 148
245723.82269287 3357583.88281250 17.52643967 83 85 84
245718.23620605 3357588.80303955 17.33542824 48 52 53
245726.95739746 3357589.54699707 16.97895050 99 103 104
245725.20465088 3357587.13287354 17.00900459 106 112 112
245731.88836670 3357581.50024414 16.99876785 128 128 130
245729.81726074 3357583.11224365 17.03368187 152 152 152
245725.28765869 3357591.99963379 16.95642090 161 165 166
245723.88446045 3357592.18151855 16.94952202 159 164 160
245717.35839844 3357587.80749512 17.12857246 160 175 178
245731.41186523 3357580.54998779 16.99772835 71 69 70
245710.04827881 3357586.79663086 17.61495590 83 83 85
245712.49645996 3357585.88476563 17.21967506 231 228 221
245725.04730225 3357591.04858398 17.53827477 61 63 62
245717.30480957 3357588.32257080 17.16257668 60 62 57
245723.20086670 3357582.70227051 17.19602203 61 66 70
245721.51239014 3357585.05963135 17.39279747 69 70 74
245729.45092773 3357583.24798584 17.33037949 6 9 16
245724.67181396 3357583.99578857 17.06707573 84 89 93
245713.19775391 3357585.00604248 17.18723297 161 161 159
245725.65301514 3357586.86602783 17.32286263 45 55 57
245712.58837891 3357585.28265381 17.16111565 137 143 143
245718.74566650 3357584.10894775 17.34533310 162 163 158
245717.76776123 3357584.19488525 17.20249748 77 67 65
245711.30090332 3357585.00476074 17.34180641 24 14 15
245722.52856445 3357585.35375977 17.15202904 100 108 111
245724.21765137 3357585.46453857 17.06214142 65 70 74
245721.30480957 3357582.10986328 17.40920258 78 82 85
245721.95312500 3357583.27172852 17.42151070 46 52 52
245716.71936035 3357590.83105469 17.68904877 69 60 63
245726.08428955 3357582.08142090 17.23483276 46 50 59
245724.96099854 3357587.93463135 17.09437561 101 103 100
245726.65777588 3357584.00653076 17.01899147 174 173 168
245714.86096191 3357589.34429932 17.16424942 85 86 88
245730.98583984 3357580.43145752 17.00522614 44 42 43
245710.89141846 3357586.72222900 17.30943871 121 125 128
245718.44842529 3357588.13671875 17.18941498 202 199 194
245716.88964844 3357589.21875000 17.38180161 174 160 151
245723.36041260 3357581.73693848 17.50725174 86 90 91
245723.31658936 3357591.64965820 17.00866318 163 166 171
245713.40454102 3357586.12518311 17.18807030 205 198 190
245732.78857422 3357584.18859863 17.08065414 26 27 31
245722.90618896 3357581.74310303 17.45987892 75 54 53
245725.02142334 3357587.64086914 17.05846214 118 122 123
245727.19335938 3357584.04400635 17.24495888 156 160 161
245727.99609375 3357588.07531738 17.02441406 94 98 99
245725.30786133 3357581.90332031 17.15287018 145 149 152
245723.48944092 3357592.06915283 16.96586800 144 148 147
245724.73937988 3357590.90740967 17.38732529 38 43 46
245718.15515137 3357587.31506348 17.26374054 79 80 82
245730.46624756 3357580.75677490 17.65438271 232 230 235
245714.63977051 3357589.71087646 17.15560722 188 189 184
245730.99334717 3357581.20642090 17.14694023 34 35 40
245728.46240234 3357589.47119141 16.94601059 183 170 162
245710.67791748 3357584.46453857 17.27211571 186 179 173
245724.32061768 3357590.69915771 17.53159904 181 181 179
245725.33251953 3357590.60467529 17.11667252 112 112 110
245727.00970459 3357584.00860596 17.23081207 82 81 77
245731.58294678 3357584.78283691 16.97093010 108 109 111
245715.54998779 3357591.00146484 17.17487526 145 146 141
245725.10241699 3357590.26684570 17.52696609 85 87 86
245708.04968262 3357585.87432861 17.47503662 56 60 63
245727.46154785 3357582.73248291 17.30293274 23 24 28
245727.30053711 3357588.34808350 17.29256439 116 118 117
245719.66760254 3357590.95288086 17.05364227 131 134 141
245726.22424316 3357587.81402588 17.17676544 89 89 87
245722.84301758 3357584.04040527 17.28626823 70 76 76
245710.21014404 3357586.57983398 17.54487991 9 10 12
245724.36499023 3357587.61395264 17.40842056 90 89 87
245726.57873535 3357583.46484375 17.36042404 100 104 105
245723.09521484 3357581.77868652 17.57196617 71 73 72
245727.36608887 3357587.34185791 16.96399689 96 101 104
245717.36810303 3357583.46868896 17.21373940 39 44 40
245718.40905762 3357582.15753174 17.21779251 54 63 70
245726.95361328 3357581.05865479 17.11144829 76 84 95
245717.23907471 3357582.17633057 17.24864960 144 148 147
245711.30865479 3357585.61840820 17.21709442 179 178 173
245716.97656250 3357591.23803711 17.47518349 119 124 128
245709.34881592 3357586.84545898 17.22799492 114 118 121
245726.46209717 3357587.32519531 17.00894737 66 77 83
245718.20965576 3357582.54724121 17.16816139 113 114 118
245724.02459717 3357581.48693848 17.37448883 48 57 64
245718.30273438 3357586.58239746 17.35393906 54 59 65
245709.19757080 3357586.72912598 17.27208900 108 113 116
245730.19439697 3357582.22961426 17.28682327 159 167 170
245724.95336914 3357589.28637695 17.12279129 200 200 188
245716.17486572 3357591.25646973 17.11820412 140 132 129
245721.65081787 3357588.50274658 17.51036453 34 35 37
245715.64398193 3357591.80285645 17.09014130 246 248 247
245722.08947754 3357583.30334473 17.69948196 251 252 254
245714.61199951 3357584.72290039 17.77535057 3 7 10
245708.80084229 3357586.90069580 17.36408615 204 204 202
245715.91204834 3357583.74804688 17.63899803 48 48 48
245714.65319824 3357591.73083496 17.08293152 88 92 95
245719.68939209 3357581.78137207 17.23827553 171 173 170
245721.62854004 3357582.51086426 17.23207092 69 70 72
245728.71679688 3357579.99560547 17.36331177 134 120 109
245722.22235107 3357583.94061279 17.97558784 230 231 233
245718.18664551 3357590.97711182 17.14676094 178 171 163
245721.80224609 3357584.94885254 17.09944916 47 51 50
245720.36865234 3357590.66998291 17.12989616 173 182 181
245725.66711426 3357582.64221191 17.56851959 86 85 83
245714.76708984 3357584.12835693 17.14107704 58 62 63
245724.18975830 3357582.84088135 17.48765755 57 32 35
245726.41833496 3357583.78210449 17.01143074 83 89 87
245728.15753174 3357581.31555176 17.31561852 110 120 112
245719.25878906 3357581.87518311 17.16060066 67 80 89
245714.68566895 3357587.76062012 17.18707085 201 203 200
245722.47821045 3357581.04254150 17.23116875 67 64 59
245722.31097412 3357583.56677246 17.64598274 34 38 39
245724.70843506 3357582.88250732 17.50167274 78 80 79
245717.79437256 3357589.89929199 17.08461952 120 120 118
245721.99719238 3357591.81115723 17.04109192 162 163 158
245726.23236084 3357584.01330566 17.01444054 97 101 102
245729.34863281 3357580.76892090 17.25036430 65 64 70
245718.11419678 3357591.02801514 17.19407845 154 151 146
245716.52832031 3357589.67279053 17.13494301 123 124 119
245716.20062256 3357587.13537598 17.23965454 105 109 108
245724.39648438 3357587.61975098 17.45455742 214 214 214
245725.24078369 3357583.14929199 17.48122406 55 55 53
245715.34613037 3357587.15606689 17.30854988 180 184 183
245720.80340576 3357589.78234863 17.06592178 105 107 104
245708.32720947 3357587.07354736 17.24767685 66 74 77
245719.99017334 3357584.79980469 17.11132240 117 116 122
245715.27398682 3357586.58557129 17.23077965 95 105 106
245716.52465820 3357589.35809326 17.18373108 191 187 178
245728.35333252 3357582.68676758 17.19874573 57 62 65
245726.55853271 3357580.15765381 17.12834740 201 200 195
245726.98858643 3357580.95397949 17.10102463 73 85 97
245717.68817139 3357586.61407471 17.25374222 162 159 152
245725.39953613 3357584.73486328 17.06022072 191 188 181
245709.60162354 3357585.97711182 17.22338486 121 122 126
245722.69396973 3357582.67407227 17.62768555 50 40 49
245721.32434082 3357584.42596436 17.31534386 119 123 124
245732.99218750 3357583.49957275 16.94452667 189 184 178
245724.22894287 3357582.89935303 17.48701477 59 37 40
245715.44458008 3357590.13507080 17.12093925 248 249 244
245728.39916992 3357589.08038330 16.93587303 94 92 93
245721.11480713 3357582.74743652 17.23181915 167 167 165
245714.43444824 3357586.33001709 17.68264771 57 66 71
245728.19885254 3357582.59167480 17.42382240 31 29 42
245717.15222168 3357591.17041016 17.19362068 44 45 50
245728.28527832 3357583.79266357 17.01228905 195 195 185
245718.04400635 3357582.71429443 17.21461678 7 9 6
245721.24389648 3357581.76776123 17.47971535 72 66 66
245715.65142822 3357584.37347412 17.71725845 154 160 160
245731.87164307 3357583.99957275 17.19604111 79 83 86
245716.93994141 3357584.36132813 17.13012695 86 76 74
245726.74450684 3357583.25006104 17.47618675 33 37 38
245714.99713135 3357590.67150879 17.12527275 202 199 190
245716.13635254 3357590.99261475 17.16906548 116 111 108
245719.03533936 3357589.91693115 17.17126083 244 240 239
245717.24053955 3357582.16906738 17.24720192 144 148 147
245722.82678223 3357581.33105469 17.24901962 60 61 63
245722.17541504 3357583.07043457 17.61800194 240 240 242
245712.60528564 3357586.95153809 17.31060600 109 119 121
245728.18225098 3357580.05261230 17.15292168 12 13 15
245721.74554443 3357591.53570557 17.17172813 101 103 98
245709.04125977 3357586.92590332 17.31287766 26 27 29
245720.19097900 3357581.68530273 17.53203011 116 117 119
245726.58392334 3357583.18518066 17.89599419 49 53 56
245730.70050049 3357582.50012207 17.23724747 46 51 54
245714.90197754 3357586.45983887 17.16163063 68 76 79
245727.45648193 3357589.22546387 17.01749611 179 174 168
245721.58587646 3357589.08203125 17.30858994 65 67 66
245717.25463867 3357586.74804688 17.16567230 77 90 99
245706.76831055 3357587.02423096 17.27928734 163 163 161
245730.98437500 3357582.90582275 17.04847717 84 92 95
245717.87200928 3357587.22521973 17.43225670 148 143 140
245726.49426270 3357589.23455811 17.01671982 45 46 41
245724.54425049 3357591.70117188 17.09902382 165 167 162
245706.99444580 3357586.72003174 17.53765869 71 71 71
245723.92340088 3357585.83837891 17.65784836 192 182 183
245717.81060791 3357586.64324951 17.44730568 184 179 176
245729.39636230 3357580.99627686 17.08672905 145 146 148
245712.96069336 3357585.27435303 17.18405533 173 175 174
245723.96270752 3357586.04022217 17.17563057 189 184 180
245716.71740723 3357586.20599365 17.13567924 213 210 201
245721.29724121 3357582.03448486 17.40378952 71 74 79
245732.15502930 3357584.60375977 17.34012985 108 109 113
245711.19104004 3357586.44213867 17.59459114 60 69 68
245728.60180664 3357581.04010010 17.36763763 184 176 157
245724.55090332 3357587.14617920 17.68798828 103 104 108
245716.76220703 3357587.21441650 17.15923500 36 53 60
245721.51153564 3357582.83477783 17.41519165 91 94 99
245717.28887939 3357583.77447510 17.46308136 103 101 102
245714.81225586 3357586.19073486 17.21221733 75 81 81
245715.31774902 3357590.22167969 17.15043449 215 212 203
245724.62322998 3357581.87762451 17.08970070 36 45 54
245721.42956543 3357584.93627930 17.31860352 81 81 81
245719.20178223 3357583.03027344 17.14988899 71 73 70
245721.10412598 3357583.72930908 17.67017555 84 88 91
245707.67120361 3357586.76135254 17.33690071 61 61 59
245714.66070557 3357587.80389404 17.15231705 252 252 250
245721.95385742 3357584.77508545 17.07589149 51 58 64
245722.15545654 3357586.04809570 17.11268806 167 166 162
245722.46270752 3357584.71520996 17.07441902 156 155 151
245724.25646973 3357584.78369141 17.06209755 65 66 68
245726.92462158 3357589.05511475 17.02342415 132 123 114
245724.28277588 3357587.96972656 17.09287453 199 199 191
245708.82238770 3357586.45520020 17.29938889 213 210 201
245723.96667480 3357585.46557617 17.31412315 104 102 103
245719.67645264 3357587.67132568 17.09036636 138 149 155
245722.05700684 3357590.74780273 17.11602592 128 127 125
245716.46746826 3357584.68292236 17.24659157 111 113 112
245722.41558838 3357585.10302734 17.51215553 92 96 97
245725.02520752 3357591.66394043 17.04096413 141 146 152
245730.27246094 3357580.46801758 17.33670044 59 45 42
245730.82165527 3357583.27697754 16.98789215 113 117 118
245712.30944824 3357584.83404541 17.24092674 126 127 131
245722.91369629 3357584.68035889 17.00955009 112 112 110
245728.00683594 3357583.89282227 17.01458549 202 204 201
245722.98931885 3357591.08520508 17.84544373 98 98 98
245730.35668945 3357584.08087158 17.22270775 119 119 117
245720.46978760 3357588.94805908 17.08878708 175 172 165
245719.91937256 3357590.14398193 17.15233803 55 54 50
245720.34661865 3357589.74578857 17.05684090 82 81 79
245718.27398682 3357590.86029053 17.11485100 209 202 192
245724.31109619 3357583.97778320 17.45257187 67 69 66
245724.18652344 3357585.18170166 17.04746437 65 69 78
245726.33343506 3357584.84539795 17.09161377 201 202 196
245714.55676270 3357589.43426514 17.61870003 103 113 112
245713.39556885 3357587.38195801 17.17349243 100 104 107
245725.78338623 3357584.44451904 17.02934265 204 206 201
245715.32165527 3357583.35778809 17.45943832 146 124 111
245714.64324951 3357584.60583496 17.52094078 76 74 75
245722.27844238 3357592.05505371 17.00586128 153 157 156
245717.15197754 3357589.68402100 17.15161324 191 191 183
245730.14978027 3357582.38037109 17.15730286 190 190 182
245722.09228516 3357591.33038330 17.37523460 69 69 69
245728.63934326 3357580.05096436 17.27943802 165 143 129
245721.07641602 3357590.30065918 17.25366020 135 137 134
245722.36053467 3357584.96459961 17.57083893 39 47 50
245718.90313721 3357589.26702881 17.21476173 70 71 66
245719.04925537 3357582.78845215 17.15940094 49 54 57
245725.89019775 3357582.86712646 17.52702904 47 48 52
245712.42443848 3357587.32580566 17.23818970 73 86 92
245713.53900146 3357585.80133057 17.19127274 203 198 192
245718.76788330 3357588.72399902 17.41820335 45 46 48
245722.18713379 3357586.14038086 17.09552574 173 169 166
245725.03570557 3357580.62988281 17.09892273 191 190 185
245709.82104492 3357586.58526611 17.26146698 139 138 134
245717.08392334 3357585.48059082 17.13123703 125 127 126
245713.09899902 3357584.38189697 17.65124702 55 60 64
245725.20715332 3357588.98254395 17.40001297 231 235 238
245724.89562988 3357588.69873047 17.24430466 200 199 194
245729.37255859 3357581.14825439 17.04959297 64 67 74
245720.71301270 3357585.26037598 17.34918976 53 53 53
245729.99359131 3357579.87213135 17.46002579 67 35 22
245723.12213135 3357581.05718994 17.28563690 44 42 43
245721.14788818 3357590.31109619 17.25946426 146 149 142
245709.84002686 3357586.43542480 17.26465988 114 118 119
245725.94030762 3357588.30053711 16.99868011 194 193 188
245716.20489502 3357588.81878662 17.13581467 119 115 114
245726.52819824 3357584.26068115 17.04550171 176 175 171
245710.23944092 3357584.51837158 17.30097771 88 95 101
245719.24224854 3357590.59326172 17.16396904 68 69 73
245728.08160400 3357588.11810303 17.01191711 191 189 192
245719.34844971 3357584.35339355 17.21943474 45 49 52
245720.18994141 3357587.07397461 17.08474922 107 112 115
245718.17614746 3357583.18829346 17.16248703 171 171 163
245731.31591797 3357581.65789795 17.15321350 28 29 31
245722.37463379 3357585.95104980 17.38037682 97 100 105
245718.21429443 3357589.76995850 17.10310936 200 199 194
245717.88446045 3357587.33209229 17.72200584 235 236 231
245722.51214600 3357591.39447021 17.20874596 42 42 42
245723.81854248 3357590.78894043 17.00164223 83 83 83
245722.20227051 3357583.17547607 17.72522545 176 176 176
245729.50714111 3357582.31372070 17.09836578 96 99 106
245728.18469238 3357582.62713623 17.20366287 160 164 165
245712.45812988 3357587.13610840 17.21066856 61 70 77
245716.60290527 3357586.98565674 17.44248581 124 128 131
245715.31091309 3357588.56951904 17.41759682 50 50 50
245725.13177490 3357589.13043213 17.25281525 132 134 123
245710.33172607 3357587.20288086 17.75093079 11 14 19
245731.76977539 3357582.96215820 16.96166229 94 98 101
245726.93127441 3357581.29675293 17.14917183 60 72 86
245727.42028809 3357588.05834961 17.32861137 139 141 140
245730.84143066 3357580.19030762 17.02207947 43 42 40
245727.76013184 3357584.33868408 17.00249481 103 107 108
245720.94049072 3357581.63909912 17.19866562 162 163 158
245724.03222656 3357582.62652588 17.41041565 86 87 81
245723.63818359 3357590.54632568 17.01216316 80 84 85
245721.05603027 3357587.86163330 17.13460732 158 155 148
245714.44000244 3357589.52581787 17.62794113 144 150 146
245728.93664551 3357582.21643066 17.40983582 47 52 55
245721.17840576 3357581.94610596 17.36643982 63 62 67
245720.06311035 3357585.14056396 17.11683273 193 189 178
245712.19042969 3357585.83007813 17.22237396 233 232 228
245721.98168945 3357591.62359619 17.06357765 86 84 85
245714.96905518 3357586.89434814 17.21645737 56 66 75
245716.83911133 3357588.16839600 17.28724670 159 160 155
245723.61395264 3357591.20410156 17.32346344 53 57 58
245708.47863770 3357586.64544678 17.22471046 220 216 213
245718.58135986 3357583.92413330 17.18852997 185 182 173
245723.63098145 3357584.74731445 17.17646408 174 171 164
245718.05273438 3357586.53021240 17.38944054 45 46 51
245724.46868896 3357581.06768799 17.47468758 49 50 52
245728.39630127 3357582.69610596 17.25745583 37 41 44
245722.51751709 3357584.89709473 17.13436317 140 140 142
245715.21130371 3357583.97595215 17.19081116 81 90 89
245719.68426514 3357591.30346680 17.05020332 123 123 121
245732.42810059 3357584.19866943 17.42147827 78 78 80
245724.27239990 3357588.48168945 17.04863167 215 211 202
245729.24328613 3357583.34741211 17.32710457 31 34 39
245723.00494385 3357583.11407471 17.57211494 69 70 74
245716.06127930 3357587.52227783 17.18926048 162 166 165
245729.84100342 3357579.95086670 17.29749870 115 108 100
245717.55499268 3357590.72570801 17.09313583 181 180 175
245717.32769775 3357582.03326416 17.23964310 141 143 142
245722.71966553 3357590.82214355 17.25884247 59 60 55
245710.84942627 3357585.26635742 17.31457710 221 222 216
245723.81927490 3357592.05975342 16.95251656 170 175 171
245726.26745605 3357587.85131836 17.15328026 158 158 156
245726.13476563 3357587.23815918 17.39122200 175 181 171
245716.07397461 3357589.38781738 17.12986946 93 93 91
245730.30523682 3357583.46905518 17.40001297 78 82 85
245716.54559326 3357587.75341797 17.28039551 152 156 155
245718.03637695 3357588.94647217 17.36431122 69 73 72
245729.20709229 3357580.51483154 17.38708115 68 72 71
245719.07067871 3357582.42980957 17.29167938 50 59 68
245722.48962402 3357583.12915039 17.74490929 211 204 211
245724.31433105 3357581.83209229 17.64966774 118 123 127
245715.51806641 3357591.09136963 17.22648621 153 152 148
245719.10327148 3357586.69055176 17.32180977 73 81 84
245725.10864258 3357590.21179199 17.47952080 119 120 122
245726.70672607 3357584.25561523 17.05168152 165 164 159
245724.88336182 3357588.04345703 17.04787064 108 108 108
245712.18316650 3357584.07098389 17.32419395 81 90 95
245726.56634521 3357581.67541504 17.04473305 138 142 141
245725.49859619 3357591.85498047 16.98333359 175 180 176
245715.42285156 3357590.10308838 17.11768341 246 246 244
245722.38079834 3357582.77758789 17.51274490 187 175 175
245723.80609131 3357581.88397217 17.17358398 17 22 26
245729.55163574 3357584.30004883 16.99664497 89 94 97
245717.92950439 3357583.52288818 17.13258171 90 93 86
245717.08514404 3357583.78631592 17.28709793 135 120 113
245727.41992188 3357583.47607422 17.04724312 58 65 71
245720.72247314 3357589.86981201 17.05708122 209 215 215
245720.78802490 3357586.80407715 17.13609123 152 153 155
245712.65405273 3357585.46112061 17.17157936 189 189 187
245708.45416260 3357585.46380615 17.55256081 229 230 232
245724.08874512 3357591.56536865 17.01314163 204 208 207
245725.00622559 3357583.22686768 17.38422585 72 73 77
245726.04016113 3357588.65795898 17.01839066 97 108 110
245716.39703369 3357591.06103516 17.52601433 41 35 39
245715.34033203 3357585.36877441 17.20568466 201 197 185
245728.60021973 3357580.69110107 17.17312813 160 157 148
245715.68371582 3357588.61596680 17.12017632 54 62 65
245715.54907227 3357585.68139648 17.24390793 207 198 189
245708.47003174 3357586.29486084 17.24289513 95 98 103
245723.44329834 3357590.47741699 17.05556297 70 74 77
245715.80517578 3357584.46282959 17.67714500 88 93 96
245717.03338623 3357588.80920410 17.41102219 123 125 124
245728.50488281 3357584.15441895 17.03596115 183 182 177
245730.55480957 3357584.23809814 17.22084236 73 75 72
245724.08923340 3357591.72839355 16.99319649 154 159 162
245714.44299316 3357589.37445068 17.39005089 126 129 120
245718.86260986 3357582.90722656 17.34126854 22 23 25
245717.99633789 3357584.90802002 17.61159897 88 89 91
245726.76080322 3357583.57403564 17.20085907 51 55 58
245716.49322510 3357588.06311035 17.19463539 215 208 198
245730.39837646 3357580.46746826 17.49125099 255 253 254
245718.03167725 3357587.07482910 17.39820671 120 124 125
245718.81066895 3357584.00463867 17.54608727 51 57 57
245719.00274658 3357590.98236084 17.19861794 124 126 125
245709.09600830 3357585.42730713 17.21788597 128 132 135
245728.59716797 3357580.48669434 17.17268944 142 142 142
245721.98040771 3357583.16552734 17.37341309 69 73 74
245721.95538330 3357585.61077881 17.24232674 62 64 61
245714.74084473 3357587.00781250 17.43559647 98 102 103
245720.94439697 3357587.32171631 17.12665939 160 166 164
245717.05895996 3357583.18572998 17.33617401 146 144 147
245721.76690674 3357588.95233154 17.24072647 51 55 56
245721.14410400 3357583.35577393 17.56242180 52 56 59
245716.11944580 3357585.05279541 17.16178703 92 94 91
245729.43188477 3357580.64831543 17.15793610 38 36 39
245729.28771973 3357582.95849609 17.27403259 71 82 88
245712.99871826 3357585.51019287 17.19361877 227 224 219
245715.05822754 3357589.70397949 17.13089180 100 106 106
245721.81585693 3357581.25372314 17.09841728 164 163 159
245726.66949463 3357588.03143311 17.13446236 47 26 23
245720.88610840 3357586.63720703 17.13077927 161 152 145
245726.25762939 3357587.36035156 17.29082489 124 126 125
245731.09771729 3357580.93469238 16.99243164 44 43 48
245718.37878418 3357591.25292969 17.06804085 90 90 92
245731.23724365 3357580.61175537 17.01406860 45 43 44
245721.26910400 3357591.30297852 17.21688461 199 196 189
245709.18029785 3357586.39764404 17.31354332 54 59 65
245724.58459473 3357587.44238281 17.07607269 77 81 84
245725.07781982 3357590.43841553 17.44419861 73 77 80
245729.83740234 3357580.68194580 17.21333694 56 48 46
245723.74597168 3357583.60675049 17.18788147 75 79 82
245728.95373535 3357583.51495361 17.05959320 189 189 181
245723.85290527 3357582.96240234 17.24210739 165 166 161
245720.53045654 3357582.60852051 17.20154572 121 122 124
245718.76605225 3357582.79315186 17.55084801 180 181 183
245727.01873779 3357581.12158203 17.09243011 77 85 96
245716.46246338 3357585.78894043 17.21147156 216 212 203
245716.25097656 3357587.35510254 17.33440018 69 73 74
245725.34039307 3357587.97808838 17.22560692 101 102 106
245729.00524902 3357580.47180176 17.53375626 220 218 219
245730.31750488 3357584.74822998 17.02879524 212 214 203
245711.14935303 3357584.65924072 17.49807930 171 168 163
245725.66326904 3357583.07531738 17.43425560 118 122 123
245725.74151611 3357583.06390381 17.16286087 69 69 69
245714.97430420 3357585.97637939 17.39579773 211 208 199
245727.44354248 3357582.51092529 17.82957077 70 73 78
245709.92559814 3357585.22198486 17.52206039 32 33 35
245715.55731201 3357587.74548340 17.11994362 121 125 126
245715.37017822 3357586.77551270 17.41970253 106 111 117
245724.41882324 3357587.15997314 17.74875641 219 221 220
245711.53686523 3357587.49603271 17.22338867 166 174 176
245724.60681152 3357582.19097900 17.07739449 79 84 90
245724.13055420 3357582.90826416 17.50283241 26 14 16
245723.91491699 3357591.68572998 16.99750137 177 182 185
245711.39733887 3357584.91143799 17.29788780 135 127 125
245714.47564697 3357584.77001953 17.27103615 193 194 189
245730.25134277 3357581.38562012 17.76547241 202 233 236
245731.99078369 3357583.38677979 17.13945961 137 126 124
245716.38757324 3357586.57653809 17.28428268 98 98 98
245722.03662109 3357591.16204834 17.16012001 90 88 89
245728.55187988 3357583.06488037 17.11059952 80 81 83
245730.56927490 3357584.14050293 17.42258453 173 172 167
245727.85760498 3357587.79687500 17.06661034 120 124 123
245708.20593262 3357586.40637207 17.24950981 82 87 91
245723.19958496 3357584.59832764 17.11632347 135 136 131
245726.10198975 3357581.28149414 17.22174835 165 167 162
245719.82617188 3357590.87854004 17.05231667 112 113 117
245713.05853271 3357585.41180420 17.19111824 206 203 198
245716.70471191 3357583.85369873 17.24493599 61 57 58
245719.22662354 3357582.45336914 17.20050812 66 76 85
245721.74151611 3357585.97601318 17.08823776 172 169 162
245724.56359863 3357582.98345947 17.49937820 28 36 38
245718.53765869 3357581.67742920 17.34283638 71 81 83
245713.48516846 3357584.82336426 17.30198860 104 106 105
245719.82019043 3357589.66113281 17.64586067 116 116 118
245720.20880127 3357581.69006348 17.60510254 141 142 144
245715.05822754 3357587.11840820 17.25514603 66 77 83
245723.55517578 3357582.02185059 17.16909981 52 57 60
245728.06085205 3357587.93139648 17.05999947 216 217 219
245722.76312256 3357590.13604736 17.10977554 197 189 186
245718.07806396 3357589.62353516 17.12817574 152 152 150
245723.92419434 3357585.22003174 17.42858505 103 107 110
245716.51483154 3357590.78326416 17.75611305 46 35 41
245720.08410645 3357581.89239502 17.69993210 58 62 63
245716.89410400 3357588.37121582 17.43616676 161 162 164
245719.87628174 3357583.74230957 17.19739342 60 65 68
245723.95642090 3357585.21411133 17.37600136 105 105 113
245726.03942871 3357581.75567627 17.08742905 39 45 43
245730.60278320 3357581.14672852 17.77057648 151 162 168
245728.42877197 3357579.98742676 17.09557724 84 80 79
245721.80908203 3357591.40893555 17.28166008 60 64 63
245717.84521484 3357591.34179688 17.10869789 111 111 111
245724.02886963 3357590.32318115 17.06596375 191 186 180
245717.86547852 3357587.46136475 17.58648491 254 254 254
245715.40386963 3357587.80358887 17.13859749 192 196 197
245716.33007813 3357583.40100098 17.58712578 58 58 60
245722.05877686 3357582.92028809 17.30789375 65 65 67
245716.00073242 3357591.24780273 17.09705925 192 185 177
245719.27221680 3357582.47479248 17.17129517 66 75 80
245726.32171631 3357588.58459473 17.19904900 100 100 100
245721.30560303 3357590.23632813 17.17284966 195 192 183
245716.84210205 3357585.00146484 17.21802139 46 51 57
245717.54888916 3357584.01110840 17.14539719 64 60 59
245718.75744629 3357590.48937988 17.13675308 178 177 172
245713.17443848 3357584.85192871 17.24289703 91 93 92
245714.66748047 3357590.37152100 17.13051605 211 209 197
245721.38702393 3357582.96697998 17.30624008 169 173 172
245716.69476318 3357590.22735596 17.15330124 197 193 182
245714.67340088 3357589.20416260 17.31296730 101 103 102
245724.30261230 3357587.41217041 17.37421227 148 136 136
245725.47955322 3357590.41497803 17.01922798 152 156 155
245729.64819336 3357581.55682373 17.01659203 64 79 86
245730.23559570 3357583.83770752 17.17209816 140 140 138
245723.10430908 3357592.16937256 16.98022079 167 173 169
245731.29119873 3357583.36694336 17.03657341 138 140 137
245716.14251709 3357584.69689941 17.16147804 66 74 77
245730.57489014 3357584.57214355 17.00534630 192 191 186
245718.17443848 3357584.83502197 17.40450668 73 69 68
245728.26898193 3357582.59826660 17.67816353 145 163 175
245717.51226807 3357584.35516357 17.20935822 162 136 123
245714.86041260 3357584.49462891 17.16610909 62 66 69
245722.04541016 3357586.33520508 17.07727432 173 170 163
245721.01312256 3357588.27014160 17.15700722 182 178 166
245721.03137207 3357581.64428711 17.24603653 164 163 158
245724.01916504 3357583.44146729 17.31986618 90 91 96
245711.68054199 3357584.89520264 17.27137375 133 133 131
245714.83935547 3357585.88574219 17.38159943 206 203 194
245725.94824219 3357582.26147461 17.35355759 59 58 63
245732.46984863 3357584.73651123 16.93710709 75 83 86
245726.70660400 3357583.25903320 17.50903511 24 30 30
245728.03918457 3357589.39965820 16.99995232 161 126 130
245731.54626465 3357580.29870605 16.97282410 91 81 80
245729.13690186 3357583.77893066 17.29060173 90 89 85
245714.32220459 3357591.50506592 17.33954048 97 98 100
245719.14239502 3357582.53753662 17.22985458 61 72 78
245713.13287354 3357587.35040283 17.23301697 107 111 114
245723.91497803 3357583.62890625 17.42853355 59 60 62
245722.86425781 3357591.07000732 17.74698067 246 244 245
245725.52978516 3357582.52239990 17.31291008 167 166 162
245732.96386719 3357583.73010254 16.93545151 178 177 172
245724.30084229 3357582.20214844 17.06530952 93 97 98
245720.79809570 3357585.31146240 17.29012871 33 34 38
245721.82281494 3357588.56457520 17.14915276 63 65 64
245722.87664795 3357583.12451172 17.56389809 105 105 107
245722.57287598 3357590.55651855 17.12702560 81 85 88
245709.02691650 3357587.55401611 17.23915291 162 167 163
245726.41253662 3357583.88861084 17.01384544 88 94 94
245724.65423584 3357592.12896729 16.97076797 205 204 199
245724.05249023 3357584.78845215 17.19345665 26 33 41
245715.16992188 3357589.25262451 17.22962189 164 164 154
245716.53839111 3357583.02331543 17.42786217 34 33 38
245722.79418945 3357583.90142822 17.36000633 146 148 147
245717.49420166 3357585.31555176 17.13810539 137 124 115
245715.51959229 3357586.19818115 17.80762672 35 66 87
245708.00866699 3357585.65612793 17.57320213 163 156 148
245719.85168457 3357590.10083008 17.37788010 84 86 85
245717.34918213 3357582.25823975 17.32087898 144 144 144
245722.37200928 3357582.22418213 17.28647423 135 137 136
245715.70800781 3357584.35961914 17.62943840 108 116 118
245717.82202148 3357587.48675537 17.22132111 166 167 161
245718.82775879 3357586.76971436 17.41189766 80 81 85
245723.42401123 3357582.12896729 17.24264336 40 41 43
245712.51000977 3357585.34246826 17.15840149 232 232 232
245710.16461182 3357587.52032471 17.76529884 49 53 52
245719.53009033 3357582.09967041 17.20191383 93 102 107
245725.11584473 3357588.29315186 17.45730209 253 253 253
245721.82135010 3357582.86962891 17.26633263 31 32 34
245717.15820313 3357590.39495850 17.22353935 165 162 157
245723.81341553 3357591.22723389 17.31921005 167 169 164
245714.90661621 3357591.62237549 17.09426689 126 128 125
245719.57183838 3357583.92431641 17.45910835 102 106 109
245730.45111084 3357581.41375732 17.42379761 91 85 87
245722.41992188 3357590.46508789 17.30396843 39 43 46
245720.30877686 3357586.54345703 17.09887695 85 80 77
245712.29467773 3357585.58953857 17.20105362 198 198 196
245721.30694580 3357585.25201416 17.16735077 78 79 83
245730.64379883 3357580.01464844 17.15638924 33 20 14
245725.46380615 3357587.38574219 17.14399529 130 131 135
245724.45623779 3357580.95263672 17.43555260 154 154 154
245723.68035889 3357585.84252930 17.12858963 196 190 178
245719.14428711 3357583.98675537 17.20536613 86 87 82
245708.22607422 3357586.69714355 17.23609352 86 85 91
245726.58874512 3357580.44134521 17.19040298 91 91 91
245715.59289551 3357585.00262451 17.21053314 196 197 191
245725.71789551 3357586.83929443 17.24919128 38 47 52
245723.35888672 3357591.44323730 17.20165825 106 107 111
245731.10412598 3357584.80236816 17.02057457 157 146 140
245710.30859375 3357587.36560059 17.41728592 28 36 39
245719.93444824 3357589.92108154 17.59281349 137 141 144
245716.43572998 3357582.91271973 17.66930962 23 32 37
245731.05078125 3357583.10314941 17.00360680 88 95 101
245723.21496582 3357591.79901123 16.98856735 83 96 105
245712.50634766 3357585.10998535 17.18365288 127 128 130
245713.55218506 3357586.42681885 17.18245125 228 223 217
245721.68469238 3357590.35327148 17.15910149 101 100 98
245707.86938477 3357585.92425537 17.53240967 4 4 6
245717.51086426 3357586.64111328 17.18740654 94 99 103
245720.61791992 3357586.08056641 17.15242767 121 125 128
245722.36895752 3357590.02655029 17.16665077 187 183 174
245726.22564697 3357583.84844971 17.01049805 95 101 101
245719.79211426 3357590.94311523 17.05213928 161 166 170
245714.16387939 3357591.15789795 17.25539017 201 200 195
245718.68090820 3357584.84301758 17.78035927 64 64 66
245714.48095703 3357584.06201172 17.57172394 11 12 14
245729.45599365 3357580.28405762 17.12940598 65 63 66
245710.72479248 3357587.24676514 17.31631470 58 62 71
245708.53833008 3357585.09478760 17.49388695 47 43 44
245711.18273926 3357585.86114502 17.25977325 225 225 217
245722.06896973 3357588.59191895 17.09659576 89 94 98
245717.63830566 3357587.18634033 17.16907310 137 138 132
245721.82128906 3357591.44671631 17.16720963 58 62 61
245724.04925537 3357585.78790283 17.29685783 84 55 59
245719.03778076 3357583.75372314 17.39319420 203 200 193
245724.03942871 3357583.61401367 17.53416443 44 42 43
245717.64923096 3357584.43243408 17.27492905 167 145 132
245715.61627197 3357590.68078613 17.15561295 150 152 149
245720.01940918 3357586.23114014 17.14494324 71 66 63
245721.54705811 3357588.65545654 17.31184959 50 54 55
245715.30535889 3357587.85406494 17.15874863 255 255 255
245708.84197998 3357586.60742188 17.30478477 244 243 241
245709.11871338 3357587.67468262 17.22770309 165 167 162
245726.34368896 3357589.31909180 17.23876762 151 152 147
245716.38958740 3357586.54986572 17.41044807 183 181 182
245714.91571045 3357589.85437012 17.11435890 165 167 164
245722.68719482 3357582.14898682 17.66437912 118 84 83
245725.90130615 3357589.30468750 17.02543449 104 106 105
245722.66473389 3357583.68041992 17.53839302 122 91 89
245720.19390869 3357582.21423340 17.23962212 131 135 136
245730.19055176 3357582.40637207 17.22054863 143 146 139
245717.44073486 3357583.32128906 17.16451836 49 53 56
245719.13867188 3357587.17126465 17.15029335 72 76 79
245717.79034424 3357589.85955811 17.08709335 99 101 100
245722.80126953 3357583.06970215 17.54558182 170 170 172
245725.93347168 3357587.41113281 17.24890518 70 77 83
245725.16473389 3357583.07897949 17.39802742 54 58 61
245716.16503906 3357590.26446533 17.11783218 210 203 193
245726.01470947 3357581.90081787 17.19999313 47 52 56
245722.44116211 3357581.94244385 17.49683571 120 119 115
245731.87396240 3357584.75323486 17.45903778 93 101 103
245727.17474365 3357587.80926514 17.13744926 166 170 171
245718.90301514 3357591.05084229 17.14798927 202 202 202
245720.25720215 3357584.95220947 17.11091614 90 92 91
245730.43554688 3357580.44824219 17.53485107 253 255 254
245725.67987061 3357587.10754395 17.26068306 26 36 37
245729.59045410 3357583.94787598 17.00799942 59 64 70
245731.94525146 3357584.72888184 17.54144096 47 53 53
245714.20922852 3357586.84045410 17.29445648 174 175 169
245706.96960449 3357586.08026123 17.55233574 216 212 209
245716.72174072 3357586.72467041 17.17343521 34 47 53
245721.25830078 3357590.65124512 17.31600571 87 91 94
245715.62347412 3357586.58197021 17.34280205 133 142 147
245715.81256104 3357584.90081787 17.28434372 85 81 80
245715.33953857 3357583.09112549 17.49129677 175 146 128
245730.44183350 3357582.61944580 17.48836327 65 90 94
245714.36450195 3357589.79235840 17.15169144 164 165 159
245725.05187988 3357590.42352295 17.48403358 124 128 131
245722.05383301 3357589.14764404 17.05940628 88 87 83
245712.86816406 3357585.00476074 17.18893051 179 178 174
245715.70007324 3357584.79058838 17.36603928 57 56 54
245710.58837891 3357585.59423828 17.21559143 113 118 121
245716.23150635 3357588.79974365 17.13827324 119 115 114
245725.42968750 3357582.02136230 17.13466644 113 117 118
245724.13195801 3357591.49865723 17.11222267 159 159 157
245712.10473633 3357585.83544922 17.20895004 234 235 230
245730.76885986 3357581.00207520 17.90520477 47 50 55
245723.44268799 3357590.44366455 17.05222321 70 71 75
245721.21783447 3357582.78106689 17.19062424 170 170 162
245729.72711182 3357580.36993408 17.19310570 83 54 56
245725.04870605 3357587.47821045 17.01442719 83 88 92
245719.32684326 3357583.49780273 17.26060104 154 153 149
245724.22393799 3357591.15380859 17.34550667 230 232 227
245727.85864258 3357588.08404541 17.02725601 81 86 90
245721.27606201 3357588.18005371 17.10704422 179 175 166
245723.68475342 3357591.46649170 17.02530670 114 114 114
245714.43536377 3357588.79418945 17.44503403 86 88 87
245724.33160400 3357582.35430908 17.07143784 179 178 174
245713.63146973 3357585.22045898 17.18866730 134 139 133
245726.85247803 3357588.22570801 17.10159111 73 78 82
245725.70452881 3357591.74182129 16.98934555 140 146 144
245724.46185303 3357580.99505615 17.44033432 163 164 166
245718.20782471 3357585.60992432 17.10308647 53 47 47
245715.53674316 3357586.26220703 17.77059174 85 108 122
245719.62353516 3357582.39178467 17.24232483 74 78 81
245728.66156006 3357584.72271729 16.99705505 140 140 132
245722.66522217 3357583.58825684 17.55638123 131 93 92
245726.65466309 3357580.15667725 17.15203857 206 197 188
245732.53186035 3357584.35729980 17.21981621 82 83 85
245724.03613281 3357590.64160156 17.00457954 183 180 171
245722.02740479 3357584.09204102 17.43815613 76 80 83
245711.19934082 3357584.50769043 17.47129822 104 104 102
245730.54315186 3357584.15838623 17.42701912 44 45 47
245715.68115234 3357583.41577148 17.91458321 16 13 22
245724.17779541 3357588.16552734 17.05364037 202 199 190
245727.08361816 3357584.48046875 17.20106125 159 160 155
245716.28076172 3357591.27337646 17.27725792 201 194 188
245728.10131836 3357580.89129639 17.20370674 72 68 59
245724.01782227 3357584.80920410 17.25368690 0 4 16
245718.07122803 3357581.88891602 17.39807510 30 31 33
245725.59631348 3357584.05603027 17.02356339 75 84 89
245726.44866943 3357588.12396240 17.25633430 110 109 107
245722.58148193 3357591.33557129 17.24079895 96 97 99
245717.97650146 3357591.73248291 17.05407333 138 142 143
245708.54620361 3357585.90161133 17.27577019 106 107 111
245724.65411377 3357590.21417236 17.12763214 198 195 190
245722.90228271 3357584.24981689 17.22281456 73 83 85
245716.51550293 3357587.31335449 17.58303070 134 136 135
245728.05120850 3357580.92480469 17.33311081 197 194 187
245729.29052734 3357580.60809326 17.37505531 54 54 52
245708.76531982 3357587.71722412 17.21516228 169 174 170
245730.93542480 3357580.91204834 17.08033562 45 45 45
245716.73260498 3357582.79669189 17.19324112 61 68 76
245719.73614502 3357584.66998291 17.18095779 13 14 19
245730.35437012 3357583.60864258 17.29583549 62 63 65
245720.61022949 3357587.00543213 17.12112617 160 166 166
245723.63439941 3357591.21630859 17.36008835 115 116 118
245719.25408936 3357591.35406494 17.25243187 36 36 34
245721.72247314 3357582.30682373 17.11871910 60 68 71
245708.03363037 3357586.25189209 17.36266708 55 56 60
245722.85449219 3357582.04028320 17.57093620 144 146 143
245724.31494141 3357580.99993896 17.27787399 87 91 94
