245895.12561035 3357370.50787354 16.92913437 111 114 107
245893.48095703 3357371.26385498 17.36548424 98 97 95
245901.18353271 3357370.90093994 17.08294296 112 113 107
245896.60900879 3357370.69113159 16.95535851 117 120 113
245896.97979736 3357371.89770508 17.24645805 126 136 83
245900.67517090 3357370.52615356 16.89903069 159 158 154
245897.15209961 3357371.56561279 17.25126839 98 79 65
245900.67120361 3357371.01422119 17.03658676 119 123 124
245899.00616455 3357371.50643921 17.00401115 59 63 64
245901.43902588 3357372.47940063 17.02951813 121 120 115
245896.29321289 3357371.23831177 16.94012260 67 69 66
245900.48040771 3357371.24111938 17.05726814 54 58 57
245901.36346436 3357372.51184082 17.03912926 101 98 91
245894.36486816 3357371.60357666 17.13603401 46 45 41
245894.35803223 3357370.29708862 16.81040764 199 198 194
245901.18621826 3357371.01141357 17.13493919 77 79 76
245897.71289063 3357372.07141113 16.85888481 103 101 89
245896.99688721 3357371.34899902 17.10509872 100 105 99
245898.86901855 3357371.69940186 17.02754593 21 23 22
245900.26831055 3357370.72198486 16.87140465 155 156 148
245897.18792725 3357371.06762695 17.06660843 112 114 111
245901.56219482 3357371.44720459 16.85260582 108 107 102
245897.32971191 3357371.52801514 17.20862961 81 83 69
245900.89031982 3357371.89089966 17.37413216 59 59 57
245895.40197754 3357371.80792236 16.95249939 69 72 63
245901.40032959 3357371.76351929 17.23846245 37 38 33
245902.48382568 3357370.91842651 17.11070633 162 161 166
245893.29901123 3357371.05755615 17.49716759 80 81 76
245901.53039551 3357372.37854004 17.02580261 125 122 117
245896.45001221 3357371.87176514 17.59764099 76 77 69
245893.28436279 3357370.63644409 17.08909798 100 108 67
245899.96240234 3357372.75357056 16.96937180 116 113 106
245894.38830566 3357371.02963257 17.12649918 27 26 22
245899.59521484 3357371.87982178 17.12988091 13 13 13
245893.54418945 3357371.02365112 17.27827072 90 88 89
245901.49713135 3357371.78356934 17.01066780 110 106 103
245900.77319336 3357371.85919189 17.39727974 80 78 79
245900.50830078 3357370.46002197 16.86240005 162 163 155
245900.31683350 3357372.41885376 17.02576447 139 134 130
245898.76165771 3357370.88833618 16.88929367 123 124 119
245897.33892822 3357371.20513916 17.25195694 31 32 36
245897.24792480 3357371.01663208 17.03848076 117 118 113
245896.37744141 3357371.28140259 17.12487602 84 82 83
245900.14361572 3357373.08886719 17.01957321 122 120 108
245900.74737549 3357371.62371826 17.07865906 168 169 171
245901.11724854 3357371.14797974 17.10904503 32 34 33
245900.76568604 3357370.65316772 16.92354965 173 172 170
245900.45098877 3357371.31793213 17.04478073 66 68 67
245897.16485596 3357371.78079224 17.07628822 126 120 86
245893.15374756 3357371.27606201 17.36081886 101 100 95
245901.56481934 3357371.25018311 16.83813477 114 113 108
245901.92004395 3357371.49612427 17.00058746 131 133 122
245900.53350830 3357371.29949951 17.07613945 30 32 31
245899.95422363 3357371.88525391 17.21051788 0 0 0
245899.31884766 3357371.51641846 17.04503822 99 100 95
245899.83825684 3357372.21026611 17.02709579 53 52 48
245894.57171631 3357370.49539185 16.88701820 115 117 112
245901.49975586 3357371.10791016 16.86096764 97 98 92
245899.64947510 3357372.34295654 17.03869438 113 110 103
245900.02410889 3357371.36242676 17.05227089 47 51 52
245900.77716064 3357370.91168213 17.01472855 162 163 167
245898.29187012 3357372.59271240 16.99785233 106 106 98
245894.04388428 3357370.65579224 16.86240005 110 110 108
245893.81604004 3357370.92123413 16.94013023 115 116 111
245900.92303467 3357372.82623291 17.09294510 112 110 95
245899.72869873 3357371.93270874 17.20129395 22 22 20
245899.82623291 3357371.14254761 17.29311180 32 34 31
245901.69317627 3357371.23562622 16.84239578 132 132 124
245898.13085938 3357372.36480713 17.01343346 90 90 82
245901.71032715 3357371.87026978 16.91630363 119 116 107
245901.36743164 3357372.41976929 17.05324364 82 79 72
245893.58557129 3357370.67764282 17.37425041 39 41 38
245899.68841553 3357372.12881470 17.11844254 105 102 97
245901.56457520 3357371.88864136 16.94636917 106 102 93
245898.00567627 3357371.09390259 16.92471313 149 149 141
245902.37933350 3357370.65536499 16.84700203 139 139 131
245898.08734131 3357371.01223755 16.90798378 152 153 145
245899.54290771 3357372.31289673 17.05933571 122 117 113
245898.71856689 3357371.19183350 16.92891121 95 98 91
245897.89544678 3357371.54461670 17.02469254 130 130 118
245900.62847900 3357370.41595459 16.87176704 159 161 156
245896.97149658 3357371.31393433 17.08076859 98 100 97
245894.12408447 3357371.33819580 16.95957756 105 90 85
245899.59033203 3357371.66516113 17.11273956 124 128 127
245896.04034424 3357370.69372559 16.83175278 139 141 136
245902.47033691 3357370.96148682 17.14542770 117 118 122
245893.57775879 3357370.61285400 17.33964157 62 63 58
245901.24237061 3357371.73275757 17.45178604 78 86 65
245895.99139404 3357371.81402588 17.38672829 114 115 110
245899.53204346 3357372.87704468 16.98783684 140 136 124
245899.10943604 3357372.58840942 17.01873398 125 122 113
245902.21850586 3357370.98144531 16.90900421 124 125 120
245900.80163574 3357371.69406128 17.33567047 52 52 52
245900.06396484 3357371.23239136 17.01354980 27 29 24
245899.78515625 3357370.80871582 17.50264931 62 63 68
245900.23956299 3357373.15893555 17.05096626 114 112 100
245901.03430176 3357372.48803711 17.10050201 132 125 115
245898.98767090 3357370.50430298 16.84977722 146 148 143
245901.07299805 3357372.19857788 17.15415764 56 57 52
245898.71362305 3357372.81347656 16.99142838 120 120 112
245900.00567627 3357371.06210327 17.04954720 24 24 22
245895.09582520 3357371.55209351 17.18658447 94 94 94
245900.56628418 3357371.67395020 17.30512047 202 201 199
245899.65039063 3357370.40365601 17.18121910 116 110 98
245897.62292480 3357371.54913330 17.03400421 110 110 102
245900.48419189 3357371.73550415 17.50815582 139 116 122
245901.29693604 3357372.96166992 17.04249763 137 135 123
245898.06970215 3357372.19161987 17.02594566 111 108 101
245896.84411621 3357372.33401489 17.06952667 104 104 94
245901.32446289 3357371.01342773 17.15013123 99 101 98
245894.86956787 3357370.95828247 17.05954361 90 90 88
245899.12646484 3357372.93576050 16.99801254 112 109 102
245902.20153809 3357371.80291748 16.99649620 90 90 98
245898.21643066 3357372.87933350 16.97167015 109 110 104
245897.64923096 3357372.62234497 16.99394417 100 100 90
245899.40728760 3357372.76132202 17.00831223 114 111 102
245896.45166016 3357371.20245361 17.15846062 64 64 64
245900.70507813 3357372.14041138 17.09185410 94 92 93
245900.30633545 3357371.30783081 17.01591873 80 80 78
245896.95831299 3357372.01766968 17.09580803 48 52 17
245897.14160156 3357370.96395874 16.96950912 120 121 115
245896.99218750 3357371.94165039 17.12519646 104 111 60
245896.65734863 3357372.00241089 17.44558907 91 93 82
245899.44335938 3357371.45382690 17.07028389 124 125 117
245899.50390625 3357372.11230469 17.10469627 116 113 106
245897.90136719 3357372.77130127 16.97581100 113 114 106
245896.81335449 3357371.74096680 17.63699150 214 217 206
245898.47607422 3357372.81945801 16.97238159 113 114 106
245899.67773438 3357372.59402466 16.99896431 119 112 102
245899.15399170 3357372.07659912 17.06393623 95 90 86
245893.83941650 3357371.64929199 16.89564705 92 83 78
245893.86407471 3357370.73950195 16.93346977 99 98 94
245897.04064941 3357371.55163574 17.22476006 124 102 104
245900.94299316 3357372.83081055 17.08993149 105 106 90
245897.90832520 3357371.20062256 16.93669510 136 137 131
245898.41790771 3357371.90115356 17.31826210 126 127 129
245899.60131836 3357370.76306152 17.34803772 101 102 106
245895.39794922 3357371.81414795 16.95345116 69 72 63
245900.25537109 3357371.92895508 17.18804359 107 103 100
245897.46069336 3357371.93099976 16.88074112 126 126 114
245897.75933838 3357370.56988525 16.87999916 140 139 134
245899.33697510 3357370.78228760 16.98176575 87 88 83
245897.62207031 3357370.92352295 16.97390747 120 118 105
245900.96685791 3357373.06204224 17.08421898 90 88 76
245895.54168701 3357370.58609009 16.96492195 53 55 50
245897.18341064 3357371.55838013 17.26070595 96 84 72
245898.88226318 3357371.88555908 17.10781479 49 51 50
245902.18066406 3357370.72885132 16.83574104 150 151 145
245901.31079102 3357370.71786499 17.00066376 163 163 155
245899.56707764 3357370.63433838 17.29384041 85 87 86
245893.21105957 3357370.90768433 17.21825600 117 119 114
245899.50744629 3357370.74084473 17.17549324 102 103 98
245896.74224854 3357372.12893677 17.29391670 92 92 84
245895.98767090 3357371.12921143 16.85580063 122 121 116
245893.57543945 3357370.84857178 17.38049507 16 16 18
245900.53143311 3357372.02499390 17.15047836 168 164 163
245895.37353516 3357371.10449219 17.01507759 71 71 69
245901.46612549 3357370.66583252 16.90873528 141 142 134
245900.34600830 3357371.62609863 17.27056122 96 91 88
245902.22711182 3357371.02871704 16.94973946 122 122 120
245901.47943115 3357372.17593384 17.03393936 62 62 54
245898.11022949 3357372.54217529 17.01280785 101 100 96
245899.99029541 3357371.12463379 17.13796043 31 33 32
245895.27343750 3357371.45538330 16.99698830 110 111 106
245900.34283447 3357373.08181763 17.07527733 132 130 115
245901.14965820 3357372.95843506 17.07069588 103 100 91
245899.62823486 3357371.77203369 17.16992569 19 23 24
245897.79339600 3357370.74493408 16.87510681 161 162 156
245898.22454834 3357372.29556274 17.06698036 137 133 124
245899.12951660 3357372.33581543 17.07492447 119 116 111
245894.51843262 3357371.28256226 17.14221191 28 29 31
245899.55706787 3357370.46762085 17.35085297 99 100 95
245899.11798096 3357371.52636719 17.01160049 47 49 48
245902.07989502 3357371.66021729 17.07805824 77 79 74
245900.49652100 3357372.31665039 17.04614449 60 55 49
245899.77795410 3357371.98745728 17.15630722 37 36 32
245901.33605957 3357370.42129517 16.87360954 189 188 184
245895.54333496 3357371.52243042 16.83521652 105 102 95
245898.69995117 3357370.61355591 16.85758209 145 146 140
245898.48205566 3357371.07632446 17.13714218 113 113 113
245898.58996582 3357370.86776733 16.97832489 60 57 52
245896.48962402 3357371.05352783 17.06262398 92 93 87
245897.73095703 3357372.12390137 16.87914085 82 80 68
245900.85339355 3357370.73300171 16.95204353 117 117 115
245899.78356934 3357370.82443237 17.49815369 62 63 68
245893.52075195 3357370.97943115 17.51883507 67 65 66
245900.88275146 3357373.26724243 17.08722115 91 91 81
245902.71832275 3357371.21563721 17.06394577 132 131 127
245893.07562256 3357371.33276367 17.31344604 101 101 93
245896.20831299 3357371.12063599 16.83609009 103 104 99
245902.12109375 3357371.28982544 17.08394432 111 110 106
245896.45184326 3357371.81195068 17.66040421 77 78 72
245896.75195313 3357371.39819336 17.09678459 78 79 74
245901.81182861 3357370.99832153 16.82147408 144 145 139
245899.94738770 3357371.28240967 17.12084007 46 51 54
245901.77252197 3357370.55899048 16.82909012 144 145 140
245900.62457275 3357372.44839478 17.06916237 149 142 136
245895.37426758 3357371.27108765 16.96412659 89 88 83
245899.75695801 3357370.46377563 17.10119247 171 159 145
245901.47491455 3357372.01684570 17.05115128 85 84 80
245901.18640137 3357371.60281372 17.42754173 84 86 81
245901.22985840 3357371.20153809 17.11434746 9 11 6
245898.56597900 3357372.72790527 16.97934723 124 124 116
245896.98883057 3357371.78009033 17.27399254 117 114 63
245894.90783691 3357371.01919556 17.11321068 88 90 87
245899.56628418 3357373.02874756 16.97281456 146 141 135
245896.43493652 3357370.95913696 16.95967293 104 105 99
245895.04547119 3357371.12112427 17.20858383 75 76 78
245899.76525879 3357372.24911499 17.04909515 93 92 87
245900.94696045 3357370.48831177 16.90242958 159 162 155
245899.22650146 3357371.71716309 17.01527405 104 104 104
245897.21630859 3357372.38720703 16.95535278 103 100 91
245895.97766113 3357371.64642334 17.06841660 99 96 87
245894.89166260 3357370.90835571 17.03036118 102 103 98
245897.94567871 3357372.96954346 16.95499039 107 107 99
245902.24426270 3357371.35671997 17.17827034 84 85 80
245901.21325684 3357371.58975220 17.13134193 200 200 200
245893.43292236 3357370.60321045 17.31575584 59 63 40
245901.70581055 3357371.47946167 16.89920044 122 119 112
245901.73132324 3357371.58190918 16.92147827 120 117 108
245900.26965332 3357370.48025513 16.82980537 168 167 162
245896.84783936 3357370.75671387 16.91233253 127 128 122
245900.82318115 3357370.99295044 17.03004456 26 26 26
245900.59613037 3357371.68371582 17.32245827 168 168 166
245899.69024658 3357372.14678955 17.11132431 105 102 97
245899.43658447 3357371.56451416 17.06031990 118 119 113
245899.13232422 3357371.82168579 17.01569748 101 101 101
245901.57989502 3357370.60388184 16.87466049 151 150 145
245895.04089355 3357370.91354370 17.07361221 104 106 101
245901.16455078 3357370.63516235 16.92769241 165 162 153
245900.83532715 3357371.12576294 17.04206276 118 118 116
245900.36804199 3357371.20339966 16.99784470 71 73 70
245899.71051025 3357371.13922119 17.27784538 44 45 40
245900.09820557 3357370.51644897 16.84806061 123 124 116
245897.94201660 3357371.87945557 16.93678474 124 124 116
245898.87506104 3357372.85043335 16.99570274 122 119 112
245898.96673584 3357371.76181030 17.03734779 68 70 69
245900.50842285 3357371.19854736 17.05984116 27 31 30
245900.78155518 3357371.99621582 17.22878647 69 68 64
245896.07275391 3357370.80868530 16.82632637 137 140 133
245899.60784912 3357370.84957886 17.31949615 104 104 104
245896.37176514 3357370.77169800 16.88312340 132 133 128
245902.60162354 3357371.51232910 16.96857834 133 132 128
245899.01214600 3357371.46072388 17.00232506 53 59 59
245901.42669678 3357371.36303711 16.89585304 69 70 64
245894.83190918 3357370.73330688 16.97493362 118 121 114
245901.77618408 3357371.60485840 16.93347740 118 115 108
245901.05706787 3357371.70797729 17.52758026 106 110 111
245898.62347412 3357371.28732300 16.98943329 62 64 61
245894.12683105 3357371.15347290 16.92930412 96 93 88
245897.13311768 3357371.40505981 17.22971344 127 131 130
245899.04632568 3357372.35272217 17.07768440 117 114 109
245894.65582275 3357370.46081543 16.86422920 130 130 128
245900.86236572 3357373.11065674 17.09428024 91 88 79
245898.80468750 3357372.29171753 17.09618950 67 64 59
245893.40667725 3357371.10540771 17.54363060 95 94 90
245899.81890869 3357370.54180908 17.32226944 44 46 43
245901.15295410 3357372.63732910 17.06090736 135 133 118
245893.92437744 3357371.17425537 16.88826561 161 161 159
245899.73248291 3357371.32504272 17.19769096 75 76 71
245897.38861084 3357372.67025757 16.99267387 106 108 97
245897.94006348 3357371.24780273 16.96739578 128 129 124
245894.59002686 3357371.07427979 17.13863373 25 27 22
245896.30084229 3357371.24911499 16.97781563 40 41 36
245898.21875000 3357371.70935059 17.07805443 120 119 117
245900.44366455 3357372.83859253 17.08964539 127 121 107
245901.37731934 3357370.82061768 17.05970192 159 160 154
245898.52203369 3357372.61630249 16.97693253 132 127 121
245902.55761719 3357371.23266602 17.16897392 47 48 43
245899.94970703 3357371.92019653 17.17665482 0 0 0
245897.06005859 3357371.46719360 17.19351959 122 118 117
245895.58636475 3357370.83151245 16.95735741 74 76 71
245902.13183594 3357371.61679077 17.11964035 51 51 49
245901.10113525 3357372.94323730 17.07938576 100 97 88
245895.57342529 3357370.53829956 16.94759369 83 88 82
245899.13043213 3357372.80792236 17.00614357 123 121 109
245897.02087402 3357371.42544556 17.14422607 117 119 114
245902.43743896 3357370.84777832 16.96786690 115 114 110
245898.71203613 3357372.23327637 17.15896797 68 64 61
245902.00939941 3357371.32235718 17.01984406 118 117 112
245902.07934570 3357371.47000122 17.09765816 108 109 103
245895.53247070 3357371.27966309 16.87970161 97 94 87
245901.62408447 3357371.18420410 16.82516479 116 117 111
245901.44549561 3357372.00588989 17.07377625 82 81 79
245901.27386475 3357370.31585693 16.88267326 176 177 169
245899.17236328 3357370.96447754 16.96664047 54 56 51
245897.39196777 3357372.77172852 16.98242569 107 107 95
245893.64263916 3357371.07424927 17.00116158 27 27 27
245899.23565674 3357370.88000488 16.96704292 82 84 81
245899.79852295 3357372.56549072 16.99237442 116 111 105
245895.63598633 3357370.87295532 16.92649651 91 94 87
245901.31158447 3357370.76089478 17.05471230 178 183 179
245900.82580566 3357371.68997192 17.33218193 40 42 39
245894.66967773 3357370.98385620 17.11485100 32 34 31
245899.41125488 3357371.61352539 17.05227470 121 122 117
245898.24536133 3357370.85455322 16.91413116 165 153 139
245900.53698730 3357371.78204346 17.45312309 149 122 127
245899.17645264 3357370.80487061 16.90511322 111 113 108
245901.66015625 3357370.87115479 16.81940651 135 134 129
245895.34765625 3357371.71835327 16.92029762 65 66 58
245896.16546631 3357370.60382080 16.85189438 128 130 125
245900.69384766 3357373.01318359 17.12127304 67 64 55
245900.90386963 3357370.72286987 16.94476318 95 94 89
245899.89508057 3357370.50927734 16.97295952 3 4 0
245900.20123291 3357372.52560425 17.00636673 112 109 102
245900.40979004 3357370.99966431 16.95226288 98 98 96
245901.55084229 3357372.06134033 17.00278473 85 85 77
245900.12359619 3357373.27593994 17.02249908 124 124 114
245898.05267334 3357371.35995483 17.11372757 112 113 107
245896.12335205 3357370.91680908 16.82499123 120 121 115
245901.67401123 3357371.39736938 16.85346603 114 114 106
245897.97540283 3357370.85092163 16.84929657 153 152 147
245900.38812256 3357371.79818726 17.44466591 135 112 118
245898.69494629 3357371.90017700 17.30615807 52 53 55
245899.39874268 3357371.71740723 17.04601479 122 122 122
245899.66436768 3357370.88931274 17.40146828 60 60 62
245901.62268066 3357372.60781860 16.98273277 146 145 143
245900.41131592 3357371.93988037 17.22605133 103 99 96
245900.94744873 3357373.14694214 17.08438301 101 98 89
245901.59454346 3357370.70062256 16.86902428 134 133 128
245901.49768066 3357372.81057739 17.00493240 109 106 101
245900.79504395 3357371.69696045 17.24914742 18 18 16
245896.22814941 3357371.46395874 17.11925125 88 91 84
245900.11730957 3357370.49670410 16.83013535 143 144 136
245900.22521973 3357372.40844727 17.00693703 110 107 100
245901.00744629 3357372.04583740 17.25710678 90 89 84
245897.24523926 3357372.33572388 16.93879509 100 97 90
245898.88262939 3357370.88778687 16.88674164 138 138 130
245900.27276611 3357372.00964355 17.11331940 107 106 102
245893.22973633 3357370.98916626 17.35504532 100 101 105
245893.61364746 3357371.07861328 17.02197456 29 29 29
245898.81378174 3357372.82235718 16.99562836 124 121 114
245894.32714844 3357371.06732178 17.09103584 65 64 59
245900.09149170 3357372.80856323 16.99063301 126 124 112
245902.57836914 3357371.28817749 17.14076805 53 54 49
245901.10638428 3357372.56750488 17.08066940 121 117 105
245899.87347412 3357370.64328003 17.36969185 27 28 30
245900.65209961 3357370.63171387 16.91345978 169 165 162
245898.32104492 3357371.63806152 17.11878204 59 59 57
245898.02362061 3357371.89801025 16.99233246 115 115 107
245899.62884521 3357373.23110962 16.95149422 137 134 127
245897.73468018 3357370.93746948 16.93488121 135 135 123
245898.33178711 3357370.71166992 16.88078499 160 150 141
245899.96392822 3357370.93341064 17.08673477 25 26 21
245901.04980469 3357371.74481201 17.49317360 63 65 62
245896.62170410 3357372.03091431 17.41792488 101 101 91
245896.97949219 3357371.93435669 17.17996216 108 116 65
245901.41021729 3357372.54306030 17.02487946 89 86 79
245901.73510742 3357371.31906128 16.87319565 134 133 128
245893.93969727 3357370.87719727 16.90255356 136 141 135
245893.95660400 3357370.86907959 16.89987564 123 130 123
245898.72332764 3357372.15957642 17.20920944 91 90 86
245896.68151855 3357370.86257935 17.03287697 127 126 124
245893.48425293 3357371.24307251 17.37279129 91 90 88
245893.86151123 3357371.64285278 16.89225960 92 83 78
245899.61541748 3357372.14010620 17.12021637 121 118 113
245900.67651367 3357370.67367554 16.93755150 196 194 195
245899.92468262 3357370.82672119 17.15332794 12 12 12
245894.06665039 3357370.76055908 16.88616562 110 111 106
245899.96929932 3357371.58300781 17.12460709 70 75 78
245902.22070313 3357371.28933716 17.15689278 89 89 87
245899.17028809 3357372.36071777 17.06581116 114 111 102
245898.26916504 3357372.54559326 17.00418663 108 107 102
245899.60949707 3357373.02563477 16.96924973 146 141 135
245894.05950928 3357371.14694214 16.89911270 69 68 63
245900.18566895 3357370.42251587 16.80952835 156 157 152
245898.26031494 3357370.85928345 16.93004036 172 159 143
245896.83935547 3357370.99548340 17.00772095 75 77 74
245898.40423584 3357372.03131104 17.42485428 83 82 77
245900.95324707 3357370.85873413 16.98680687 212 216 215
245902.40905762 3357370.94836426 17.06554794 118 118 120
245898.90545654 3357372.77014160 17.00159645 126 123 114
245896.43096924 3357372.11581421 17.34389496 98 100 89
245897.59906006 3357372.81372070 16.97538185 100 100 92
245900.87701416 3357372.75161743 17.10157013 125 122 107
245896.08526611 3357371.61297607 17.09202766 87 89 78
245895.28717041 3357371.50183105 16.97262192 112 113 107
245901.70849609 3357371.43972778 16.87646103 118 118 110
245900.03430176 3357371.69845581 17.30569839 64 65 67
245897.96789551 3357372.01458740 16.94154930 97 96 91
245896.07000732 3357371.73855591 17.48169899 112 112 110
245900.54602051 3357372.17813110 17.06024170 17 17 9
245901.08856201 3357370.27401733 16.90187454 172 174 169
245901.57257080 3357370.45022583 16.87132454 150 149 144
245896.12933350 3357370.59033203 16.85858154 123 125 122
245898.33148193 3357371.44577026 17.19961166 60 59 57
245901.58410645 3357371.73419189 16.92449188 117 113 104
245902.12597656 3357371.81127930 16.99648094 71 74 83
245897.50073242 3357372.56414795 17.00181961 113 113 101
245896.36871338 3357371.63851929 17.33471298 102 102 100
245895.62011719 3357371.36123657 16.84151268 111 108 103
245895.81665039 3357370.64334106 16.88802719 129 135 125
245896.60589600 3357371.68017578 17.68353844 101 101 99
245896.40533447 3357371.63543701 17.60287476 60 61 56
245897.16247559 3357372.17108154 16.88796043 61 59 47
245896.55786133 3357372.05944824 17.39287758 103 105 92
245897.83843994 3357371.78302002 16.92943382 141 138 129
245902.06994629 3357371.01464844 16.90601730 129 129 121
245901.70727539 3357370.82296753 16.81764984 143 142 137
245899.30688477 3357370.45684814 16.87598228 148 149 141
245894.94720459 3357371.17630005 17.20119476 43 42 38
245901.47558594 3357372.86172485 17.00895882 109 106 101
245898.71539307 3357370.76138306 16.88982582 139 140 132
245901.30462646 3357372.98590088 17.04204369 117 115 103
245899.66455078 3357371.70745850 17.18366051 63 67 68
245898.07702637 3357372.18783569 17.03514099 111 108 101
245897.28808594 3357371.03280640 17.05481529 108 109 104
245899.87786865 3357371.50820923 17.09158516 72 77 80
245900.73553467 3357372.97482300 17.11623001 67 65 53
245900.49816895 3357370.66946411 16.88562202 163 160 151
245898.08911133 3357370.64547729 16.85004425 142 141 136
245897.72283936 3357372.06338501 16.85957527 103 101 89
245898.49835205 3357372.86083984 16.97427750 115 115 107
245900.64813232 3357372.04348755 17.15863800 51 50 48
245899.40832520 3357372.67828369 17.01500893 118 115 106
245902.22149658 3357371.23898315 17.12844086 99 99 97
245898.37939453 3357372.58654785 16.98526764 113 110 105
245896.21008301 3357371.63040161 17.21433830 90 91 85
245896.18377686 3357371.04446411 16.82653236 115 116 110
245896.67395020 3357372.01968384 17.42353058 95 97 84
245897.32250977 3357371.48962402 17.23246765 77 81 67
245899.86163330 3357371.82540894 17.27360153 55 55 55
245894.73822021 3357370.66720581 16.94933891 115 118 109
245900.62762451 3357372.93618774 17.13033295 101 97 86
245897.35302734 3357371.27178955 17.27868080 39 40 42
245900.53564453 3357371.33416748 17.07545090 30 32 31
245893.52130127 3357370.90362549 17.52621460 25 24 22
245896.53570557 3357371.37518311 17.23849487 77 80 85
245900.07690430 3357372.75292969 16.98372650 128 125 116
245900.41070557 3357372.88674927 17.08301544 115 111 99
245896.62615967 3357370.94055176 17.07013702 158 159 154
245895.20202637 3357370.37319946 16.91588974 171 174 167
245902.79425049 3357371.22268677 17.02072334 132 131 126
245899.30541992 3357372.90469360 17.00561905 120 118 106
245895.85925293 3357371.57739258 16.94214058 110 109 104
245897.21472168 3357372.48321533 16.98285675 97 97 89
245897.54571533 3357370.90014648 17.00731277 150 144 128
245894.19702148 3357370.87423706 16.91060829 100 100 90
245895.78552246 3357370.47720337 16.92272568 113 119 115
245899.83587646 3357371.88986206 17.23152733 35 35 35
245896.36706543 3357371.65258789 17.37998772 94 93 91
245898.49676514 3357372.06781006 17.39630127 78 78 70
245902.01440430 3357370.56399536 16.81445885 122 124 119
245896.20617676 3357371.69635010 17.36059380 52 51 49
245899.39093018 3357370.42550659 16.91331100 141 140 135
245893.40594482 3357371.22143555 17.50290871 103 102 97
245901.76361084 3357370.61758423 16.82948685 146 147 142
245896.62567139 3357371.09481812 17.11920357 75 75 73
245902.51330566 3357371.04968262 17.20677376 20 24 27
245902.26739502 3357371.35934448 17.18414688 94 95 90
245898.11785889 3357371.57748413 17.14361191 125 122 117
245895.21240234 3357371.20874023 17.19249725 78 80 77
245901.46746826 3357371.32601929 16.86223984 81 82 76
245897.94714355 3357372.87387085 16.96520424 102 103 95
245901.20397949 3357372.33554077 17.09900856 40 37 28
245901.21350098 3357370.98138428 17.14571381 72 74 71
245895.03857422 3357370.80700684 16.99294662 113 115 110
245902.13781738 3357371.17468262 17.03252983 121 122 117
245899.31701660 3357372.58105469 17.02547264 115 113 101
245898.57183838 3357372.21289063 17.19695854 122 117 113
245898.10083008 3357370.92236328 16.87680054 156 156 144
245902.46459961 3357371.45748901 17.12769890 113 112 107
245898.89068604 3357371.78237915 17.05957985 48 50 49
245901.97460938 3357371.38006592 17.01992416 122 123 115
245900.41424561 3357370.77484131 16.88754082 162 163 155
245901.63684082 3357372.00354004 16.93588448 78 78 68
245898.11572266 3357372.01672363 17.10154152 70 70 62
245893.77435303 3357370.87240601 16.97243500 80 81 76
245902.04962158 3357372.11636353 16.90562630 117 119 108
245900.01153564 3357370.83770752 16.99177742 37 39 34
245893.94610596 3357371.09732056 16.88795853 187 187 185
245900.03674316 3357373.20324707 16.99637604 118 115 106
245894.19622803 3357371.39038086 17.04093552 74 57 50
245900.88031006 3357373.20532227 17.08919334 102 102 92
245898.46929932 3357370.52609253 16.83328819 137 139 136
245896.34399414 3357371.65145874 17.43698502 67 66 64
245902.51019287 3357371.32064819 17.18012428 57 58 53
245902.28814697 3357370.99728394 16.97797012 92 92 90
245897.55737305 3357371.42959595 17.11892509 95 96 90
245901.54132080 3357371.18136597 16.83325958 113 114 106
245897.73266602 3357371.25430298 17.02462387 89 90 84
245896.94494629 3357370.95504761 16.93906021 113 114 108
245896.94915771 3357371.23455811 17.04153061 91 93 88
245898.91430664 3357371.36398315 16.98450851 42 44 43
245898.14428711 3357370.96929932 16.92063141 149 147 135
245897.04040527 3357372.06369019 16.93744469 69 69 57
245895.25512695 3357371.48294067 17.00560951 111 112 106
245898.90863037 3357371.21075439 16.94251823 122 123 118
245897.78747559 3357371.41561890 17.00861931 121 121 113
245894.56408691 3357370.72427368 17.00759888 115 111 100
245896.30096436 3357371.33935547 17.09648895 69 70 65
245901.53643799 3357370.34194946 16.86604881 161 162 156
245894.20159912 3357370.70712280 16.87495232 120 121 115
245894.19000244 3357370.55130005 16.87267303 117 118 112
245902.37084961 3357370.89248657 16.94118118 119 120 115
245893.92572021 3357371.00436401 16.89713478 88 88 86
245901.76123047 3357372.13803101 16.93816185 113 110 101
245901.74407959 3357370.56106567 16.83110046 144 145 140
245899.95654297 3357372.26651001 17.00251770 34 33 28
245899.76171875 3357372.08914185 17.10498619 71 68 63
245899.87469482 3357371.93099976 17.18470955 0 0 0
245900.16503906 3357371.53952026 17.10827065 54 54 52
245894.32147217 3357370.54284668 16.89293480 124 125 120
245902.74316406 3357371.23776245 17.03650093 132 131 127
245901.28540039 3357372.10620117 17.19399643 69 71 68
245894.44647217 3357370.85134888 17.08455658 142 139 124
245893.53088379 3357371.04031372 17.19445419 128 126 129
245897.56823730 3357372.65432739 16.99182892 103 104 90
245898.27056885 3357371.16403198 17.20493317 70 71 66
245900.73059082 3357372.66195679 17.10966873 56 53 38
245895.62335205 3357370.41818237 16.93111610 117 128 124
245901.04553223 3357373.01660156 17.08280754 85 81 72
245896.67700195 3357371.02471924 17.08106232 60 62 57
245899.88830566 3357370.63003540 17.16637993 0 1 3
245898.43853760 3357372.96273804 16.96458244 108 108 100
245901.12976074 3357372.15951538 17.18399429 37 38 33
245899.85620117 3357371.83486938 17.26883507 49 49 49
245901.98260498 3357370.78042603 16.82156181 139 140 134
245896.94500732 3357371.94192505 17.27862167 49 55 21
245901.98217773 3357371.91571045 16.91334534 101 100 95
245894.34600830 3357370.95132446 17.04042435 92 89 80
245896.30059814 3357371.39331055 17.18376160 67 69 64
245894.92297363 3357371.50482178 17.27791977 94 96 95
245898.86071777 3357372.22561646 17.14713287 91 88 83
245893.45581055 3357370.93069458 17.58134460 185 183 188
245899.14361572 3357372.76248169 17.00928116 123 121 109
245901.34533691 3357371.55490112 16.96680832 54 54 52
245897.47198486 3357372.41571045 16.98347092 101 101 93
245895.41918945 3357370.56072998 16.99720764 61 62 57
245895.17346191 3357370.51583862 16.95049667 111 117 107
245896.27044678 3357371.19580078 16.87850571 102 103 98
245896.85913086 3357372.27404785 17.07865524 98 98 86
245894.30236816 3357370.41854858 16.84938812 172 174 171
245899.72045898 3357372.49288940 17.00770378 122 118 109
245900.54437256 3357371.59362793 17.10519600 177 173 170
245893.38281250 3357370.95672607 17.57823944 118 120 117
245896.56970215 3357370.86090088 16.99963379 97 97 95
245900.27081299 3357371.37142944 17.02705574 99 101 98
245899.34967041 3357372.22546387 17.07172585 124 124 114
245894.13543701 3357370.67068481 16.86164665 123 124 119
245900.26910400 3357371.67465210 17.30649376 112 103 106
245901.15039063 3357371.22329712 17.11577034 34 34 32
245899.35107422 3357371.20587158 17.13371086 56 66 65
245901.20159912 3357373.05374146 17.06473732 97 94 85
245893.63201904 3357371.18710327 17.02986336 43 43 41
245902.39575195 3357370.90585327 16.99009895 106 106 104
245900.16650391 3357370.60977173 16.89012146 126 128 117
245897.78729248 3357371.88717651 16.89243126 130 127 120
245901.30340576 3357370.32058716 16.87966728 191 192 184
245900.52941895 3357371.45932007 17.07998657 145 144 140
245893.60961914 3357371.08514404 17.02667809 29 29 29
245898.79180908 3357371.89398193 17.18965721 26 26 26
245897.02941895 3357370.80493164 16.86852646 136 136 128
245893.59020996 3357370.59182739 17.28719330 64 66 61
245896.89385986 3357372.34497070 17.03906631 101 103 92
245898.02862549 3357372.77960205 16.98023415 104 103 99
245900.90844727 3357372.38690186 17.10481071 98 94 85
245902.00616455 3357370.61767578 16.81228447 128 131 124
245901.42248535 3357370.41229248 16.87217712 161 160 155
245902.77465820 3357371.12139893 17.04201317 127 126 122
245893.56921387 3357370.59277344 17.33629417 62 63 58
245898.23406982 3357370.54605103 16.83130264 148 147 145
245900.77960205 3357372.93847656 17.11079597 67 65 52
245899.32641602 3357372.05822754 17.03835487 78 77 75
245893.72991943 3357371.33624268 16.96666336 44 44 42
245901.09075928 3357372.52908325 17.08995819 132 128 116
245898.59283447 3357372.20022583 17.21342850 119 115 112
245895.41821289 3357370.47412109 16.97082329 114 116 111
245899.49981689 3357370.61642456 17.16177368 123 125 120
245900.00036621 3357371.84393311 17.25548553 9 7 8
245901.97467041 3357371.17614746 16.92284775 133 132 127
245898.21154785 3357372.90258789 16.96881485 107 108 102
245902.40893555 3357371.37850952 17.21972466 59 58 54
245901.41009521 3357370.92333984 16.99102020 78 81 70
245899.36560059 3357373.12561035 16.97901535 134 131 122
245899.73693848 3357372.05569458 17.12827492 73 70 65
245897.66448975 3357371.39077759 17.04737663 99 100 94
245899.74621582 3357372.02114868 17.14282990 57 54 49
245894.37518311 3357371.20870972 17.12991333 93 89 86
245901.76751709 3357370.93774414 16.80731583 148 147 142
245900.34515381 3357372.07775879 17.06688690 108 107 103
245900.14434814 3357371.95321655 17.14639664 88 87 85
245898.40869141 3357371.55670166 17.14283752 56 55 53
245894.89294434 3357371.41445923 17.22539139 89 89 89
245900.70367432 3357371.69186401 17.34702682 140 140 140
245900.65753174 3357371.00054932 17.03410149 136 140 141
245897.34930420 3357372.46011353 16.98380852 107 107 99
245896.74145508 3357371.66445923 17.58023262 41 42 34
245898.64379883 3357370.96844482 16.93785095 57 56 54
245899.15570068 3357372.66702271 17.01539993 121 119 107
245900.24645996 3357370.99719238 16.89573669 126 128 125
245894.13616943 3357370.76220703 16.87304497 114 115 110
245896.73956299 3357371.44479370 17.11897469 81 80 78
245896.53820801 3357371.95993042 17.49851227 86 88 77
245898.98638916 3357370.84143066 16.88451576 139 140 135
245897.39758301 3357371.96484375 16.88123322 127 127 115
245900.44677734 3357372.47763062 17.05194855 156 147 142
245901.47058105 3357372.33718872 17.04880714 148 147 143
245900.44494629 3357371.51455688 17.08287048 139 138 134
245900.07489014 3357370.79290771 16.92389488 77 79 74
245899.75213623 3357371.08383179 17.34870911 46 48 47
245896.60394287 3357371.35522461 17.19936943 69 73 74
245897.44201660 3357370.99200439 17.06583595 65 63 48
245894.22875977 3357371.57592773 17.10921288 71 60 54
245896.93341064 3357372.22412109 16.99515343 89 90 82
245899.04718018 3357371.14437866 16.98798370 53 58 54
245900.47503662 3357372.29846191 17.04266357 90 85 81
245896.41333008 3357371.91842651 17.55174065 81 82 74
245899.15802002 3357370.99917603 16.98066139 81 84 77
245901.29449463 3357372.16302490 17.14631844 31 31 29
245896.19976807 3357371.40261841 17.02897835 90 92 87
245899.51855469 3357372.83883667 16.99204826 133 129 117
245899.48754883 3357371.14694214 17.18436050 113 115 110
245896.40698242 3357371.35559082 17.23729134 71 75 78
245896.69012451 3357371.38314819 17.13897705 69 71 68
245900.11804199 3357372.28283691 16.98855209 99 98 94
245894.36590576 3357370.92822266 17.04558182 111 108 99
245900.49255371 3357371.66564941 17.33688927 126 122 123
245897.53466797 3357372.02368164 16.85740852 123 121 109
245898.25067139 3357371.92428589 17.28047943 58 60 57
245900.82672119 3357371.09445190 17.04231644 84 84 82
245899.96771240 3357373.23861694 16.97874451 115 112 103
245897.05133057 3357371.46990967 17.18634415 119 118 114
245897.64642334 3357371.99484253 16.86375046 129 127 115
245897.33880615 3357371.61672974 17.14340019 83 84 68
245899.14392090 3357372.72686768 17.01143456 123 121 109
245901.22143555 3357370.70034790 16.99073982 176 176 164
245900.10217285 3357371.65328979 17.23660660 68 69 71
245899.54125977 3357371.95330811 17.09418869 36 35 33
245894.30828857 3357370.66479492 16.92346764 115 115 107
245896.06146240 3357371.73703003 17.38744545 82 82 80
245894.95623779 3357371.03836060 17.13955307 90 92 91
245895.14477539 3357369.96499634 20.44196129 99 111 75
245900.85705566 3357372.29336548 17.11600685 81 78 71
245894.38696289 3357371.34368896 17.13393784 120 120 118
245898.07214355 3357371.30682373 17.09896851 115 117 114
245898.96966553 3357370.62457275 16.86623192 151 152 147
245897.95184326 3357372.60430908 16.99842644 100 99 95
245894.31646729 3357370.90997314 16.99361038 118 114 103
245895.22949219 3357369.94183350 20.47617531 79 91 55
245900.30743408 3357373.13098145 17.06839943 132 130 118
245895.22760010 3357371.74340820 17.00256729 66 69 62
245899.65136719 3357371.21701050 17.21466064 52 52 44
245899.83190918 3357372.50912476 16.99509048 119 116 111
245895.91381836 3357370.88146973 16.83356667 129 130 124
245897.72290039 3357371.77844238 16.91511917 126 124 112
245895.55975342 3357370.58673096 16.95748901 53 55 50
245894.98535156 3357369.97424316 20.38590050 109 118 89
245895.47753906 3357371.08535767 16.94852066 97 98 93
245898.52423096 3357370.57229614 16.84212303 146 148 145
245900.48583984 3357371.49996948 17.08364677 150 149 145
245898.57684326 3357371.40884399 17.08218193 69 69 67
245893.10754395 3357370.96322632 17.05177879 129 129 127
245898.62542725 3357370.79086304 16.90712547 108 107 103
245900.66290283 3357372.78158569 17.12602997 110 104 90
245897.73986816 3357372.60238647 16.99471664 102 102 94
245894.26055908 3357370.30688477 16.82385826 195 194 190
245900.73065186 3357370.31701660 16.87975311 158 160 157
245900.01483154 3357372.87496948 16.97285843 127 125 113
245893.48834229 3357371.16162109 17.38317490 70 68 69
245898.84143066 3357370.94909668 16.88333702 150 152 139
245900.50964355 3357370.75646973 16.92030334 156 157 151
245901.26885986 3357371.59207153 17.11327171 110 110 112
245896.64959717 3357371.31005859 17.14812660 78 80 79
245894.53912354 3357371.02020264 17.14897728 30 34 33
245900.93273926 3357371.41265869 17.06850624 39 39 37
245899.87298584 3357370.54098511 17.06638908 9 6 1
245897.30285645 3357370.87310791 16.94509506 130 130 120
245901.68682861 3357371.31347656 16.84913826 122 123 115
245898.56127930 3357372.80758667 16.97918701 121 121 113
245901.38452148 3357370.41967773 16.87114716 173 174 169
245897.52355957 3357371.53976440 17.08502960 100 101 93
245900.57617188 3357371.85726929 17.38845062 79 63 66
245901.34552002 3357370.97677612 17.08686447 67 66 61
245899.04449463 3357372.19119263 17.10276794 106 101 95
245900.30560303 3357371.69244385 17.33960915 171 162 167
245901.33380127 3357370.75402832 17.03076744 157 158 152
245901.55377197 3357371.24786377 16.83975029 105 106 100
245899.32696533 3357373.10574341 16.98165512 132 128 119
245898.71710205 3357372.32043457 17.07708359 34 33 28
245900.38940430 3357370.79598999 16.88516617 157 158 152
245897.72076416 3357371.24606323 17.03731918 89 90 84
245901.51098633 3357370.92910767 16.87613869 100 101 95
245900.48193359 3357373.12100220 17.11716080 115 113 101
245900.71038818 3357371.52264404 17.06383514 39 38 36
245898.88586426 3357372.63296509 17.02504349 123 120 111
245898.96185303 3357372.12347412 17.17493057 98 95 90
245897.60021973 3357372.29544067 16.94834900 116 113 106
245893.90631104 3357371.08941650 16.89593697 178 180 177
245893.72143555 3357371.59658813 16.97038651 32 31 27
245893.56054688 3357370.74884033 17.45945358 27 29 26
245898.78051758 3357372.08642578 17.27712440 82 83 77
245902.37976074 3357371.66690063 17.04969215 75 75 73
245899.56286621 3357370.45184326 17.32162666 110 109 105
245900.86065674 3357371.66192627 17.19366455 12 11 7
245901.42230225 3357371.69400024 17.00295639 90 90 88
245899.33917236 3357371.97998047 17.00215721 35 35 33
245901.45562744 3357370.45907593 16.88321304 154 153 148
245897.76043701 3357371.41949463 17.00857162 121 121 113
245899.00482178 3357372.85968018 16.99921227 132 129 120
245901.53613281 3357370.79129028 16.88653374 118 118 110
245895.39770508 3357370.82330322 17.05103111 29 31 28
245901.50769043 3357371.52035522 16.87377167 95 96 90
245900.85632324 3357371.93508911 17.30762482 61 60 56
245898.60589600 3357370.77450562 16.91083145 107 102 99
245901.84082031 3357371.71426392 16.95701599 134 135 127
245899.67492676 3357372.11062622 17.12662697 111 108 103
245898.28814697 3357371.53610229 17.17234612 128 127 123
245900.11614990 3357370.63543701 16.90303230 108 109 101
245900.36041260 3357371.80807495 17.41032219 99 78 83
245900.72796631 3357370.46231079 16.90053558 156 158 153
245898.19226074 3357372.12243652 17.18822098 109 106 99
245900.69226074 3357371.83609009 17.41435242 37 27 28
245898.57128906 3357372.13604736 17.30657959 109 106 99
245896.53991699 3357371.86062622 17.60309029 73 74 66
245900.75451660 3357372.19323730 17.09960556 76 75 73
245897.49389648 3357371.56192017 17.08896255 99 99 89
245896.25091553 3357371.58660889 17.21337509 114 115 110
245898.52087402 3357370.89776611 17.03981018 144 137 131
245897.21191406 3357372.43206787 16.96774864 102 99 90
245898.77447510 3357371.93945313 17.23865891 40 41 43
245898.56634521 3357372.88876343 16.97739601 114 114 106
245898.31018066 3357372.71160889 16.98764420 108 108 100
245901.63476563 3357370.89410400 16.82527924 135 134 129
245899.17059326 3357371.83410645 17.01444626 132 132 132
245900.07812500 3357370.80822754 16.92435265 74 76 71
245900.14080811 3357370.83590698 16.90664864 101 104 97
245900.33734131 3357373.11010742 17.07554245 133 131 118
245899.11395264 3357370.82769775 16.89849663 120 122 117
245898.45208740 3357372.03973389 17.42193985 84 83 78
245895.55682373 3357370.53213501 16.95390892 83 88 82
245900.47485352 3357372.46945190 17.05406570 162 153 148
245894.37835693 3357371.16040039 17.13220024 92 88 85
245901.14910889 3357370.46447754 16.89053726 167 166 161
245898.09844971 3357371.11898804 16.98706818 124 125 119
245898.40136719 3357371.50726318 17.16908455 54 54 52
245898.56054688 3357371.31378174 17.08088493 73 75 72
245900.27087402 3357372.50796509 17.02472878 128 125 118
245894.30816650 3357370.91024780 16.98633003 118 114 103
245901.76788330 3357370.50790405 16.82962036 148 149 144
245897.25677490 3357371.08456421 17.10264587 85 89 88
245901.52490234 3357370.48144531 16.88356590 153 153 145
245895.18273926 3357370.80368042 17.04182434 93 94 86
245899.75408936 3357370.54019165 17.55245209 36 41 45
245900.08142090 3357372.04263306 17.06612015 87 86 82
245900.77709961 3357370.43765259 16.90479279 151 152 147
245893.80194092 3357370.60028076 16.90881729 83 85 80
245902.52044678 3357371.02337646 17.19604301 22 26 27
245893.45153809 3357371.36892700 17.38545799 111 109 110
245894.85260010 3357370.86248779 17.01685715 103 102 98
245900.30999756 3357372.15701294 17.03473854 98 97 92
245900.47619629 3357372.46743774 17.05388641 162 153 148
245900.71105957 3357371.87658691 17.37877083 66 60 60
245896.94238281 3357370.80676270 16.88731384 135 135 125
245899.72583008 3357370.38674927 17.32904243 92 90 75
245900.22076416 3357371.57800293 17.17514801 63 62 60
245893.60321045 3357371.00573730 17.04983902 24 24 24
245898.61517334 3357372.33612061 17.07152748 91 88 81
245894.38568115 3357371.29620361 17.13422775 121 120 118
245899.01757813 3357371.29623413 17.00842476 19 23 26
245902.19671631 3357371.69729614 17.08486366 87 87 89
245900.62097168 3357372.12951660 17.08084679 19 20 15
245895.11468506 3357371.21786499 17.23378754 78 80 79
245901.44604492 3357372.01968384 17.07752991 97 96 94
245900.52111816 3357373.20297241 17.11137772 130 128 115
245893.67749023 3357370.65924072 17.06140518 28 32 33
245893.24542236 3357370.69760132 17.07408333 119 125 91
245897.60650635 3357370.78915405 16.93269730 140 140 132
245901.45477295 3357370.69802856 16.91206551 121 122 114
245900.34509277 3357372.33212280 17.01677704 128 123 119
245899.02154541 3357370.66049194 16.86959076 152 155 148
245899.45642090 3357371.06365967 17.20966148 96 101 95
245901.50238037 3357372.52859497 17.00909615 188 187 185
245901.28332520 3357371.88446045 17.35563278 40 47 39
245893.15008545 3357370.83126831 17.02390671 141 145 122
245897.20104980 3357370.95169067 16.98460579 124 127 120
245893.83654785 3357370.72399902 16.94102097 82 81 77
245895.18780518 3357370.97711182 17.13966942 78 83 79
245901.25738525 3357370.89627075 17.12863159 119 121 118
245894.66973877 3357370.80783081 17.05175018 90 87 80
245900.34838867 3357371.00302124 16.93196487 128 130 125
245897.11248779 3357372.40359497 16.95842934 97 97 87
245900.76300049 3357370.82064819 16.99074364 189 193 196
245895.20770264 3357370.47354126 16.94969749 117 120 111
245899.48498535 3357370.47546387 17.12495995 143 143 133
245902.48864746 3357371.60208130 17.01992226 121 118 113
245896.38470459 3357371.98059082 17.48896408 84 85 77
245893.71856689 3357370.53744507 16.93091011 76 78 73
245895.42962646 3357370.39682007 16.94671440 124 129 125
245897.34320068 3357372.10745239 16.85398293 104 106 95
245898.38745117 3357371.29046631 17.22668457 80 82 81
245898.42895508 3357370.75726318 16.93453026 151 134 126
245893.74743652 3357371.58377075 16.93713951 25 22 17
245897.15087891 3357371.24548340 17.15170860 82 84 83
245897.68041992 3357371.81375122 16.89552689 133 131 119
245898.33337402 3357371.46414185 17.19548607 93 92 88
245898.27893066 3357370.76751709 16.88087273 163 149 140
245895.49249268 3357371.81216431 16.96539116 97 99 88
245901.77838135 3357372.55014038 16.96312332 100 98 86
245897.52752686 3357371.29272461 17.18448830 47 49 46
245896.20819092 3357371.70080566 17.32787132 52 51 49
245899.56988525 3357370.53466797 17.36692238 87 91 90
245899.67095947 3357370.65771484 17.51523972 145 150 156
245901.35137939 3357371.53866577 16.95623970 53 53 51
245900.27404785 3357371.61068726 17.23323822 73 69 68
245897.59558105 3357371.59164429 17.02692986 113 113 103
245898.53656006 3357372.67871094 16.97685242 128 125 118
245899.52343750 3357371.28552246 17.14155769 110 110 102
245900.22119141 3357370.67715454 16.88330269 128 130 119
245896.93225098 3357370.79129028 16.88631058 145 145 135
245893.28143311 3357371.14459229 17.46298218 96 95 90
245901.58294678 3357372.10870361 16.99151802 107 107 99
245902.13354492 3357371.59799194 17.12107277 51 51 49
245896.37774658 3357371.66595459 17.69314766 26 26 24
245900.73101807 3357371.69427490 17.32377815 114 112 113
245894.82604980 3357370.35183716 16.81331444 200 201 196
245897.42449951 3357372.79452515 16.97968864 109 109 97
245896.98455811 3357371.11065674 17.01101303 104 107 100
245897.93731689 3357371.22329712 16.95390320 128 129 124
245896.73052979 3357372.39212036 17.11922455 106 107 99
245902.13592529 3357371.66928101 17.09140396 77 77 77
245894.83636475 3357371.12857056 17.11970520 76 76 74
245894.98773193 3357370.92193604 17.06511116 106 108 105
245894.33184814 3357371.02511597 17.08061028 55 54 49
245901.26464844 3357372.38137817 17.07966423 33 33 25
245899.46191406 3357370.79702759 17.12335968 135 136 130
245893.25335693 3357370.76336670 17.14934349 187 192 162
245897.50231934 3357372.20529175 16.90636444 110 108 96
245899.77612305 3357371.13302612 17.32413483 32 34 31
245897.85272217 3357371.13870239 16.93869209 121 124 113
245898.93774414 3357372.77719116 17.00214958 130 127 118
245895.02832031 3357370.68063354 16.95459938 114 116 111
245894.38787842 3357371.48330688 17.12401581 45 46 41
245899.86358643 3357370.61050415 17.43476295 30 31 33
245899.40045166 3357370.62841797 17.01954269 121 120 116
245899.41735840 3357371.18820190 17.15280342 109 115 113
245898.19445801 3357372.84310913 16.97689629 109 110 104
245900.23840332 3357371.63690186 17.25616837 55 51 50
245896.26434326 3357371.77853394 17.66349792 104 106 103
245900.16674805 3357372.55758667 16.99846840 106 103 96
245899.15246582 3357371.23703003 17.07928276 20 28 30
245899.43640137 3357370.99057007 17.18769836 89 92 85
245893.49426270 3357370.61706543 17.39976120 37 39 28
245898.59173584 3357371.20968628 16.99377251 40 42 37
245898.82220459 3357372.98245239 16.98514938 118 115 110
245900.08447266 3357371.39477539 17.03550339 21 23 20
245900.34820557 3357372.99896240 17.07153511 121 118 103
245899.35137939 3357372.96664429 16.99668694 125 121 112
245898.76049805 3357370.61114502 16.86161995 153 154 149
245900.90209961 3357371.49490356 17.06999016 53 52 48
