245682.07727051 3357685.39392090 16.81117058 31 38 44
245682.88159180 3357682.99707031 16.28181267 114 119 125
245681.16131592 3357683.74206543 16.35377693 75 82 88
245680.59997559 3357687.99792480 16.44240761 132 141 148
245681.63775635 3357683.06683350 16.93494606 15 22 30
245681.80017090 3357685.54998779 16.57853127 75 79 88
245681.35150146 3357683.34399414 16.50656891 89 96 102
245681.14172363 3357686.77160645 16.62806320 26 35 40
245681.09655762 3357688.89886475 16.64732933 37 45 48
245681.08959961 3357684.28613281 16.64920235 38 46 49
245681.54992676 3357687.89935303 16.90384674 99 104 108
245682.35113525 3357683.95019531 16.36671448 81 90 97
245682.60870361 3357678.83514404 16.90230560 127 156 170
245683.07037354 3357677.87408447 16.54105568 40 43 48
245682.01019287 3357682.93164063 17.11864281 148 156 177
245682.53393555 3357682.24481201 16.92275047 85 98 115
245682.16564941 3357682.66955566 17.03050232 38 47 56
245681.49938965 3357682.90081787 16.75223541 61 70 79
245680.68078613 3357688.62969971 16.32536507 124 127 132
245681.45147705 3357682.64495850 16.70868492 93 98 104
245680.98699951 3357688.24133301 16.29770279 178 187 194
245681.72540283 3357682.28338623 16.69917870 62 71 78
245680.75482178 3357684.70385742 16.62258911 42 47 50
245683.08166504 3357678.08380127 16.60194206 69 70 74
245681.72888184 3357687.61743164 16.39265442 14 19 25
245681.78247070 3357685.16503906 16.61679840 46 49 54
245680.67431641 3357686.95343018 17.08644867 57 81 91
245681.91888428 3357682.81878662 17.14385605 53 60 70
245682.34899902 3357685.54614258 16.35317421 24 34 43
245680.86627197 3357685.21234131 16.51288414 44 50 50
245683.62347412 3357677.50939941 16.33715630 90 95 98
245681.76196289 3357681.05572510 16.44301987 47 55 58
245683.62164307 3357679.02203369 16.22936821 77 81 82
245681.17883301 3357685.59869385 16.47168922 38 43 46
245681.35644531 3357683.38220215 16.43537331 81 85 94
245681.80059814 3357684.69085693 16.35359573 33 41 44
245683.10394287 3357679.55236816 16.38118172 50 57 63
245682.37384033 3357682.39581299 17.29494667 149 160 182
245683.32812500 3357680.46032715 16.27012444 62 67 71
245681.48736572 3357681.91430664 16.36431694 68 77 84
245681.15069580 3357684.70971680 16.81136703 30 35 41
245681.82214355 3357679.64880371 16.61105537 53 63 72
245683.55987549 3357677.94549561 16.33243752 82 86 85
245683.26373291 3357678.76263428 16.42659378 55 58 63
245682.38629150 3357678.16204834 16.80821228 39 47 50
245681.97320557 3357684.03375244 16.48356247 20 29 36
245681.53619385 3357683.88867188 16.57705879 68 75 83
245682.49835205 3357682.45690918 16.80655098 66 78 94
245682.22399902 3357678.70043945 16.81764412 110 127 145
245682.52136230 3357680.42047119 16.57353020 35 43 54
245683.89599609 3357678.12512207 16.24015045 129 129 131
245681.93640137 3357684.87609863 16.62027550 27 36 35
245682.93988037 3357680.78173828 16.67495537 19 22 27
245680.59722900 3357686.93377686 16.86630630 127 145 149
245683.63208008 3357678.08453369 16.28916931 97 101 102
245682.90191650 3357681.09729004 16.62150764 42 47 53
245683.04150391 3357679.49633789 16.42110825 54 61 67
245682.19677734 3357682.07476807 16.47139549 58 62 73
245683.32684326 3357679.72827148 16.31519508 60 68 71
245681.84729004 3357686.40655518 16.92645645 63 71 73
245682.23754883 3357682.16870117 16.99520493 13 22 27
245681.87896729 3357686.53039551 16.32413292 125 130 134
245683.88378906 3357678.53198242 16.21864891 121 121 123
245679.97467041 3357688.61981201 16.32414627 178 199 204
245680.88696289 3357689.01348877 16.68401527 38 45 51
245681.94183350 3357686.07897949 16.40175438 50 58 61
245682.83020020 3357680.62799072 16.93895912 23 24 29
245683.39166260 3357680.63574219 16.22807503 104 107 112
245680.59393311 3357686.86090088 16.77640915 9 19 21
245681.33331299 3357684.66790771 16.51749039 59 64 68
245682.76574707 3357682.94366455 16.31349754 70 77 85
245681.93499756 3357687.13928223 16.25464249 84 91 97
245681.17663574 3357683.05871582 16.69884872 6 9 16
245682.27801514 3357683.64447021 16.35098648 70 79 88
245680.79882813 3357684.87957764 16.55537605 34 42 44
245682.42907715 3357682.52777100 16.59460258 61 71 83
245682.25476074 3357679.11413574 16.53033829 34 41 47
245681.72833252 3357680.28118896 16.38170052 79 92 100
245682.76434326 3357682.31536865 16.47059822 20 27 35
245682.49621582 3357679.83416748 16.49387741 60 67 73
245681.22778320 3357683.00347900 16.48130989 11 14 23
245681.86297607 3357679.33929443 16.66005898 32 39 45
245682.15319824 3357686.58410645 16.26524353 109 117 120
245682.03302002 3357686.92248535 16.25510406 109 116 122
245681.49316406 3357688.70446777 16.30199051 49 56 64
245682.78924561 3357678.15460205 16.89009476 36 35 41
245683.62658691 3357679.62756348 16.22762680 119 123 126
245682.45489502 3357682.21813965 17.09489822 89 102 119
245681.69604492 3357683.28137207 16.97956276 12 24 50
245682.75567627 3357680.14666748 16.36868095 63 70 78
245680.77746582 3357684.71063232 16.70368004 39 44 48
245682.03887939 3357683.62683105 16.84229851 82 82 92
245680.93621826 3357685.81768799 16.43712997 47 55 58
245682.26495361 3357682.26184082 17.22359085 22 26 35
245681.69403076 3357683.25024414 16.98324776 7 18 40
245682.67211914 3357678.37872314 16.89317894 52 59 67
245680.76898193 3357685.00140381 16.44384575 43 49 49
245681.79803467 3357681.85162354 16.36951065 71 78 84
245682.54321289 3357682.99908447 16.34111404 67 78 84
245681.89794922 3357684.36639404 16.44271660 53 60 68
245683.48699951 3357677.71295166 16.38442039 96 101 104
245681.56768799 3357681.52832031 16.38743973 69 80 86
245681.29821777 3357688.64306641 16.29899406 49 57 60
245682.19628906 3357685.68756104 16.66391563 55 62 70
245682.39172363 3357677.47381592 16.58560562 64 73 82
245681.94671631 3357684.13714600 16.51902199 36 43 49
245682.16802979 3357683.92498779 16.42940140 81 88 94
245681.57604980 3357682.62597656 16.98937798 29 33 42
245681.65148926 3357686.67663574 16.30766296 115 120 124
245680.37292480 3357688.43621826 16.30632782 75 82 88
245681.96520996 3357684.57977295 16.36605835 67 72 76
245680.43267822 3357687.41259766 16.52480125 61 69 72
245682.66674805 3357677.46539307 16.77121925 33 38 42
245683.07250977 3357679.05432129 16.59699631 48 56 59
245682.57525635 3357680.62469482 16.99407578 62 66 77
245681.04241943 3357684.86749268 16.96000481 90 94 103
245681.10498047 3357686.25689697 16.47100067 53 61 64
245680.58569336 3357688.26434326 16.31248856 109 118 123
245681.36956787 3357686.77954102 16.32981491 19 23 26
245682.34545898 3357679.29431152 16.77608681 37 44 54
245682.97729492 3357680.58453369 16.41591263 50 57 65
245682.69122314 3357681.94586182 16.45819473 63 68 74
245683.04772949 3357678.52227783 16.66986465 57 60 65
245683.19042969 3357677.30389404 17.31606293 93 103 113
245683.07867432 3357678.32183838 16.80696869 50 54 63
245680.37738037 3357687.67144775 16.38286400 30 38 41
245681.54809570 3357686.02783203 16.33438492 67 70 75
245680.61645508 3357684.89367676 16.37275887 71 79 82
245681.31860352 3357683.15106201 16.88992691 18 22 33
245682.52380371 3357680.96643066 17.19365692 119 117 128
245682.24237061 3357681.20843506 16.67538643 41 48 54
245682.30371094 3357679.25695801 16.68455505 44 51 59
245682.21130371 3357682.71838379 16.76035500 72 80 91
245680.82482910 3357687.25921631 16.52496338 38 47 56
245682.21539307 3357685.54669189 16.66056633 90 97 105
245681.43585205 3357682.82934570 16.60339737 55 61 73
245682.89880371 3357680.97570801 16.87013245 21 24 31
245680.84094238 3357683.73040771 16.38133621 34 41 47
245680.73132324 3357684.69323730 16.51229286 43 49 49
245681.39129639 3357682.10241699 16.41638565 59 68 73
245680.93676758 3357687.90686035 16.82250214 26 36 46
245680.39276123 3357688.80688477 16.40086937 36 45 50
245682.02996826 3357679.38708496 16.76296806 29 36 42
245683.64605713 3357679.45068359 16.22516441 114 119 123
245681.23706055 3357685.92193604 16.38570023 48 53 57
245681.75329590 3357681.82434082 16.37303734 58 65 73
245681.75585938 3357687.69934082 16.90109825 101 110 119
245681.36431885 3357683.34552002 16.62678909 53 60 68
245682.72113037 3357681.58807373 16.63508987 64 63 68
245683.20971680 3357677.30236816 17.30714417 98 108 117
245682.51153564 3357683.37506104 16.30328941 84 95 101
245682.61364746 3357679.58898926 17.03399467 98 103 107
245680.57153320 3357686.98431396 16.81219292 135 152 160
245681.76458740 3357685.56237793 16.55348015 69 73 82
245682.11425781 3357684.60607910 16.35329056 69 78 85
245680.43719482 3357687.30615234 16.56846237 64 72 74
245682.28479004 3357679.75634766 16.59267998 60 65 69
245682.74047852 3357679.56756592 16.66467094 46 51 55
245681.44354248 3357685.80273438 16.35812187 87 92 98
245682.06750488 3357684.57421875 16.36514664 70 77 85
245681.18420410 3357685.91595459 16.40492439 47 55 57
245681.94537354 3357681.78942871 16.36947823 78 87 94
245681.37982178 3357688.06005859 16.84472847 49 52 59
245682.18707275 3357680.74615479 16.71717072 17 24 32
245681.29547119 3357688.03613281 16.84308624 46 51 57
245680.79766846 3357685.92663574 16.40942574 56 63 71
245682.23095703 3357681.15240479 16.65389061 37 44 50
245681.37103271 3357682.74108887 16.52370262 45 52 60
245680.87512207 3357688.40045166 16.29528236 96 105 110
245682.65075684 3357679.89074707 16.42803192 69 74 78
245682.15832520 3357682.70330811 17.00365639 34 43 52
245683.51293945 3357679.35858154 16.26134109 66 70 73
245682.73339844 3357681.03833008 16.97904015 83 83 93
245681.42694092 3357683.33074951 16.74706268 11 18 26
245681.72363281 3357684.85192871 16.74503326 72 81 78
245682.62414551 3357678.05584717 16.83439827 23 22 27
245683.43646240 3357679.88299561 16.24594116 59 62 67
245680.78778076 3357686.22595215 16.34755898 49 58 63
245680.89111328 3357688.02789307 16.57339668 129 136 142
245682.92901611 3357680.55926514 16.44727135 44 51 59
245680.97045898 3357688.64739990 16.30965996 126 135 140
245682.11260986 3357683.07537842 16.72100449 77 81 92
245680.59350586 3357686.82910156 16.65785980 10 20 22
245683.03717041 3357681.40032959 16.39886284 71 74 79
245681.61871338 3357683.71936035 16.92291451 100 107 115
245681.75427246 3357684.55084229 16.34342194 72 77 83
245682.14624023 3357683.48040771 16.59705925 57 61 72
245680.74615479 3357687.33471680 16.61785889 39 46 56
245682.03692627 3357678.49078369 16.80932617 15 22 28
245682.05218506 3357685.18579102 16.73899269 40 45 51
245682.47729492 3357683.47100830 16.30595207 70 81 87
245682.03991699 3357682.37384033 16.97200394 28 35 45
245681.95477295 3357679.08618164 16.46252251 52 61 66
245682.23492432 3357682.10998535 16.54561615 45 52 58
245682.27294922 3357682.43994141 17.26891899 53 57 69
245681.86450195 3357684.17755127 16.47276115 24 28 39
245682.07800293 3357683.57714844 16.69397736 68 71 80
245681.58166504 3357685.31567383 16.55626678 34 41 47
245683.13922119 3357678.17535400 16.51205063 26 27 31
245682.17242432 3357681.78887939 16.40263748 70 81 87
245681.35284424 3357682.33142090 17.11399841 29 33 45
245681.47241211 3357686.82000732 16.31750107 64 68 71
245681.43957520 3357681.37365723 16.38548660 90 99 106
245682.92767334 3357680.71716309 16.78921700 16 17 22
245682.50091553 3357678.62945557 16.88836479 58 89 109
245681.26611328 3357688.98358154 16.65435028 23 31 34
245680.78167725 3357685.34289551 16.44715691 55 60 63
245680.47479248 3357687.43206787 16.58197021 57 62 66
245681.19384766 3357682.93127441 16.39146042 32 37 43
245682.41168213 3357677.20178223 16.87079620 23 25 38
245681.18212891 3357686.74853516 16.58865547 21 29 31
245682.51080322 3357679.04876709 16.76699638 38 49 55
245681.56579590 3357686.01409912 16.33158493 81 84 91
245683.70587158 3357677.84423828 16.27804565 75 77 76
245681.23364258 3357685.69848633 16.43534660 51 56 60
245681.85833740 3357685.92376709 16.34981537 64 67 72
245682.54559326 3357680.91955566 17.23682976 95 95 107
245680.68151855 3357684.65509033 16.38525391 29 38 43
245681.15466309 3357682.61608887 16.46607971 66 73 79
245681.64691162 3357680.85809326 16.45772171 41 50 55
245682.86181641 3357681.24334717 16.65727997 66 69 74
245681.86029053 3357685.05841064 16.82073212 127 132 126
245681.67431641 3357684.80047607 16.50723839 24 29 32
245682.81805420 3357680.71051025 17.12109756 0 0 4
245681.45178223 3357682.26672363 16.88526726 12 16 25
245681.59515381 3357682.23577881 16.61120605 21 30 35
245681.79418945 3357682.02593994 16.36400604 71 81 83
245683.21014404 3357679.34985352 16.37031364 71 81 83
245681.67291260 3357685.72149658 16.39495087 90 95 98
245682.86590576 3357683.16308594 16.25168228 114 119 123
245683.56842041 3357678.96881104 16.25587845 37 41 42
245682.89105225 3357679.89196777 16.36818123 68 72 81
245682.47656250 3357680.89172363 17.07563400 112 112 122
245680.41607666 3357687.33044434 16.52447891 65 75 76
245682.49121094 3357682.17572021 16.89455223 70 82 94
245683.65435791 3357679.59686279 16.22649384 113 116 121
245682.86627197 3357678.70245361 17.04211617 80 89 98
245680.27374268 3357687.04235840 16.31735611 67 76 83
245681.72534180 3357684.07659912 16.45332909 65 70 76
245680.54962158 3357688.85162354 16.60455704 23 36 42
245681.05950928 3357687.86450195 16.86070061 41 51 60
245680.96435547 3357689.18780518 16.60676575 56 64 67
245683.35595703 3357679.56182861 16.31951141 83 91 93
245680.80700684 3357684.55902100 16.56909561 47 51 54
245682.59570313 3357682.25006104 16.72069550 90 103 119
245680.70739746 3357686.51495361 16.37368965 71 82 88
245682.80859375 3357683.32348633 16.28145218 68 75 81
245683.00170898 3357678.87506104 16.78548622 195 197 209
245680.76068115 3357687.96862793 16.68709373 35 44 53
245682.73461914 3357678.97534180 16.94751358 32 40 43
245681.92395020 3357681.20794678 16.47666740 70 79 86
245681.93756104 3357687.18206787 16.25222397 81 88 94
245681.82104492 3357682.22851563 16.44523811 69 74 78
245680.47772217 3357687.67730713 16.48876953 58 72 75
245681.27990723 3357684.26416016 16.56687164 34 42 45
245682.05834961 3357680.14013672 16.38325119 79 88 97
245683.02856445 3357678.63812256 16.65684700 44 47 54
245681.29882813 3357687.42620850 16.36233330 62 69 75
245682.63043213 3357678.63629150 16.95162964 53 82 96
245683.29028320 3357679.15112305 16.35887909 73 78 82
245683.37005615 3357677.30004883 16.45582390 32 35 40
245682.78295898 3357682.36340332 16.41106033 72 76 85
245682.21032715 3357679.04309082 16.49404526 37 40 47
245682.33184814 3357677.67364502 16.65189743 34 43 52
245683.70367432 3357678.95568848 16.20078278 120 121 125
245681.10668945 3357688.58239746 16.29712868 139 148 155
245680.84008789 3357684.90356445 16.69872665 42 50 52
245681.83996582 3357684.90899658 16.93104935 52 58 56
245681.84423828 3357684.31335449 16.43576241 67 74 84
245680.97174072 3357686.88476563 16.68621254 24 30 42
245681.02996826 3357688.04870605 16.48246956 86 93 103
245681.68292236 3357683.96197510 16.72451401 133 142 149
245681.47729492 3357688.52337646 16.27190018 49 56 64
245680.86785889 3357686.48937988 16.47339439 51 61 70
245681.19464111 3357683.97564697 16.49242973 33 38 41
245682.22619629 3357685.41052246 16.51935577 53 62 71
245682.31890869 3357680.40258789 16.49751854 47 54 60
245681.79284668 3357682.28332520 16.62878418 51 56 60
245683.09729004 3357678.60327148 16.50977898 67 70 77
245681.21374512 3357685.86425781 16.38902283 51 56 60
245681.74230957 3357686.07891846 16.42596626 72 77 83
245683.65563965 3357679.47283936 16.22532654 114 119 123
245681.36877441 3357684.09613037 16.61318588 24 32 35
245681.64703369 3357681.34680176 16.39317513 99 108 113
245681.75958252 3357683.99291992 16.45837402 44 47 52
245680.85620117 3357687.36187744 16.44789505 49 53 62
245682.19079590 3357681.14068604 16.63282013 36 45 50
245680.85400391 3357685.26159668 16.50120735 46 51 54
245681.43395996 3357683.07092285 16.77193069 39 43 52
245683.50439453 3357677.54711914 16.39049339 82 86 89
245682.67993164 3357679.48291016 17.04550552 15 19 22
245682.08367920 3357683.16961670 16.91182899 32 41 58
245683.30560303 3357679.96545410 16.30650711 71 74 79
245681.10119629 3357687.98828125 16.62291336 23 36 44
245682.98370361 3357680.60211182 16.41908455 50 57 65
245682.99401855 3357677.90093994 16.64170837 28 29 33
245682.24536133 3357685.36425781 16.40420151 75 85 94
245681.07250977 3357686.46063232 16.63275909 50 59 66
245682.05975342 3357685.61608887 16.64364815 99 106 112
245683.19561768 3357678.81219482 16.46444893 35 44 43
245681.79406738 3357687.25653076 16.26372147 84 89 95
245680.28283691 3357687.67083740 16.36637115 105 110 114
245682.61138916 3357679.59368896 16.98598862 87 92 96
245681.13812256 3357684.72735596 16.84177208 23 30 36
245681.93780518 3357685.43682861 16.72061539 47 58 64
245683.14617920 3357678.71197510 16.47569656 34 37 44
245680.58892822 3357688.80163574 16.53794098 16 25 32
245682.03826904 3357686.82592773 16.25872421 115 120 126
245681.87365723 3357680.34075928 16.39447594 63 73 82
245682.48944092 3357683.00115967 16.37997437 65 76 82
245683.04003906 3357682.06719971 16.27761650 87 88 92
245682.94738770 3357680.78070068 16.75411797 26 29 34
245681.35754395 3357687.06378174 16.31924057 70 75 79
245680.24188232 3357689.03143311 16.38793945 53 63 65
245681.30590820 3357688.87103271 16.56431198 27 36 35
245682.84259033 3357682.65454102 16.28673744 88 95 103
245682.75488281 3357680.55041504 16.96297646 96 100 109
245681.19195557 3357683.76239014 16.35375595 85 89 98
245681.75659180 3357684.44287109 16.35133553 56 63 69
245682.38946533 3357678.16418457 16.80864143 39 47 50
245683.05444336 3357677.47540283 17.29641342 51 58 74
245683.12890625 3357678.56219482 16.49633789 71 74 81
245682.67083740 3357677.71759033 16.76057816 45 50 54
245682.50506592 3357683.86285400 16.31162643 74 83 88
245682.61462402 3357680.52856445 16.90889359 82 86 97
245680.71051025 3357685.98962402 16.37081528 50 57 65
245681.19396973 3357682.94567871 16.40015984 32 37 43
245681.10095215 3357687.52728271 16.36962700 119 126 136
245682.21667480 3357685.92657471 16.32560349 87 92 98
245681.51184082 3357682.24346924 16.77046013 29 32 41
245680.99908447 3357683.22271729 16.69360352 73 81 84
245682.89215088 3357679.01501465 16.85598183 43 48 54
245682.96154785 3357679.14123535 16.73701477 48 52 61
245682.58197021 3357681.16796875 16.99130058 131 133 145
245680.83227539 3357684.18725586 16.41358376 36 44 47
245682.41265869 3357682.45373535 17.11491966 108 121 137
245681.75555420 3357687.65350342 16.92519379 54 64 76
245682.10156250 3357685.78710938 16.40750313 93 100 106
245680.88598633 3357686.59991455 16.72975159 52 65 73
245682.66705322 3357678.21850586 16.87201500 43 46 53
245683.05059814 3357677.59588623 17.05114746 98 115 122
245681.69104004 3357685.44366455 16.63992119 31 38 44
245680.13989258 3357688.77996826 16.31836319 20 29 36
245681.19012451 3357682.57873535 16.49283028 63 70 76
245683.43927002 3357677.60809326 16.41614914 81 89 91
245680.73565674 3357684.73260498 16.46687126 42 47 50
245682.72875977 3357681.70855713 16.51458740 62 65 72
245682.00238037 3357678.88708496 16.48810196 56 63 69
245681.04852295 3357686.96618652 16.53614426 27 32 38
245683.19158936 3357681.50451660 16.25154305 73 77 80
245681.17010498 3357687.73791504 16.67985725 72 86 95
245681.58081055 3357683.73486328 16.53834534 67 78 84
245681.86773682 3357686.28955078 16.80693436 59 67 70
245681.51318359 3357684.44134521 16.41817093 68 75 83
245681.16937256 3357684.83953857 16.89222145 37 46 45
245682.01293945 3357683.71679688 16.55032158 58 62 71
245682.64874268 3357681.31469727 16.85013580 88 98 107
245682.97546387 3357681.67700195 16.36089134 67 70 75
245682.07727051 3357684.70434570 16.34767723 79 84 90
245682.66259766 3357678.47827148 16.91150475 56 71 78
245682.68572998 3357679.16204834 16.97715187 36 41 47
245681.37036133 3357689.09478760 16.49784279 53 58 62
245681.76538086 3357681.25793457 16.41488457 67 76 81
245680.38250732 3357687.19927979 16.48742485 59 68 73
245680.84509277 3357686.95373535 16.73523331 20 30 40
245681.69982910 3357683.71264648 17.06097984 137 145 164
245681.60986328 3357685.05590820 16.70774651 147 155 142
245682.63360596 3357681.51336670 16.75476456 115 124 133
245681.44683838 3357683.30566406 16.87604523 21 28 36
245682.50958252 3357678.96185303 16.74415588 30 44 55
245681.09838867 3357685.54180908 16.49999428 25 30 33
245680.96740723 3357683.63488770 16.38143921 45 50 56
245682.26635742 3357682.63397217 16.87880325 64 72 83
245682.89178467 3357681.16485596 16.64124680 55 60 64
245680.49578857 3357687.96813965 16.39387703 170 179 188
245681.73248291 3357686.24560547 16.76261330 34 38 41
245681.58184814 3357680.52124023 16.38228798 44 53 62
245680.82122803 3357685.82855225 16.43425751 49 54 58
245681.19195557 3357683.85089111 16.37280273 71 74 83
245680.99194336 3357688.81036377 16.49897957 31 40 45
245683.46478271 3357679.02893066 16.29721642 87 92 96
245683.03533936 3357681.80718994 16.30611038 86 89 94
245680.60144043 3357687.93469238 16.62331200 138 148 157
245682.46838379 3357683.27111816 16.31861496 89 98 107
245682.56054688 3357682.68542480 16.32929993 60 73 81
245681.51422119 3357687.58166504 16.46189308 47 56 61
245682.15698242 3357684.45916748 16.43898392 77 87 96
245682.20794678 3357680.96405029 16.68478203 49 54 58
245681.68566895 3357679.84313965 16.40999603 81 91 101
245682.30480957 3357682.98480225 16.51754761 58 65 73
245683.27160645 3357681.23406982 16.21625710 83 87 90
245681.12469482 3357687.80847168 16.90972900 45 55 65
245682.27691650 3357685.70129395 16.45903206 31 41 50
245680.52453613 3357686.50085449 16.31357384 82 95 104
245682.23486328 3357685.15655518 16.36010551 53 60 70
245680.50146484 3357685.90655518 16.31845474 43 50 58
245681.26971436 3357684.64508057 16.59272957 58 63 66
245683.45989990 3357677.53143311 16.41298485 77 82 86
245682.31109619 3357685.21411133 16.31030273 61 68 76
245683.14807129 3357679.18933105 16.41887283 58 66 69
245682.45837402 3357684.70782471 16.28238869 60 67 73
245682.21234131 3357685.58898926 16.80077934 38 45 51
245680.80084229 3357688.23870850 16.28908539 156 165 174
245683.06127930 3357679.46844482 16.40415955 53 62 67
245681.71264648 3357683.96533203 16.73009682 130 137 145
245680.24243164 3357687.19915771 16.36177063 92 101 106
245680.32531738 3357687.43579102 16.38097382 131 140 147
245682.30047607 3357682.59741211 16.75748253 54 64 76
245682.58496094 3357678.98345947 16.84278488 36 46 55
245680.32226563 3357688.05151367 16.31827545 112 119 127
245682.01916504 3357681.51391602 16.38907242 73 82 89
245683.06909180 3357677.25030518 17.05247307 89 103 112
245681.74798584 3357679.89013672 16.39167213 69 81 93
245681.64984131 3357688.93487549 16.33388519 45 53 56
245681.17706299 3357689.21899414 16.55434036 56 61 67
245683.18829346 3357680.45629883 16.32828140 69 74 78
245682.77368164 3357682.04150391 16.42039108 66 71 77
245680.88366699 3357684.59472656 16.79014015 35 40 46
245679.98626709 3357687.89288330 16.34140778 148 155 161
245682.71704102 3357681.10217285 16.90228271 127 126 134
245681.47174072 3357683.59997559 16.45188332 44 51 59
245682.56762695 3357678.89434814 16.83398819 9 28 42
245681.59075928 3357687.59814453 16.46379471 57 64 70
245683.94897461 3357677.96820068 16.24263763 127 131 130
245682.38751221 3357681.36901855 16.80525017 144 153 162
245680.13043213 3357687.16485596 16.31873131 163 170 176
245681.48706055 3357682.61511230 16.86655045 64 68 77
245682.79058838 3357682.48370361 16.33945847 82 91 98
245682.37023926 3357684.76733398 16.28025818 65 72 80
245682.06781006 3357685.41772461 16.82768822 50 59 64
245680.71136475 3357687.32525635 16.69442940 48 57 66
245682.29071045 3357679.54223633 16.96380997 60 70 80
245681.56610107 3357687.96948242 16.51704407 49 57 60
245681.05609131 3357684.07012939 16.53870583 36 41 45
245681.73431396 3357682.28991699 17.01276398 23 32 41
245680.42132568 3357687.29266357 16.53765106 59 69 71
245681.53668213 3357684.91918945 16.88750839 57 62 65
245680.69757080 3357688.65856934 16.32865906 60 63 68
245681.38085938 3357684.92950439 16.67305756 156 159 166
245682.99725342 3357677.76196289 16.69449997 56 64 67
245682.25225830 3357678.56121826 16.96507072 35 42 50
245682.64440918 3357682.39666748 16.55935097 74 88 101
245681.12701416 3357684.92199707 16.83110046 87 95 98
245682.44750977 3357679.74255371 16.70527458 46 54 56
245680.35736084 3357687.32989502 16.42537308 69 78 83
245680.88958740 3357688.86218262 16.59391212 33 40 48
245682.03155518 3357682.60736084 17.02315712 62 71 80
245681.89038086 3357687.57067871 16.26395226 59 70 74
245681.99609375 3357682.32275391 16.91491699 33 42 49
245681.42315674 3357688.11035156 16.70585442 73 76 85
245681.50109863 3357682.25885010 16.97738647 16 20 29
245682.20581055 3357678.09857178 16.80350304 33 40 48
245681.26599121 3357688.07989502 16.61874580 92 95 102
245680.84393311 3357684.91156006 16.67179680 42 50 52
245683.11437988 3357677.63629150 16.72417831 58 69 73
245680.68542480 3357686.29437256 16.32833099 43 52 59
245681.14868164 3357689.22125244 16.56664276 59 64 68
245683.13372803 3357679.38446045 16.39013290 55 63 66
245682.36193848 3357681.82666016 16.46833229 59 68 75
245683.69598389 3357677.84558105 16.28222656 75 77 76
245681.87780762 3357685.49377441 16.66108894 65 74 81
245683.53491211 3357679.33209229 16.25163269 75 79 82
245681.46331787 3357687.29718018 16.30762482 80 87 97
245681.59356689 3357684.93341064 16.94704437 55 63 66
245681.50366211 3357687.97509766 16.89680099 19 24 28
245681.61767578 3357689.11737061 16.34804726 72 80 83
245683.45916748 3357679.99377441 16.23195267 74 75 79
245681.74359131 3357687.02783203 16.28053474 79 82 89
245681.70043945 3357687.60986328 16.39652634 15 19 28
245680.56805420 3357687.60186768 16.61926270 47 54 60
245680.60589600 3357685.81317139 16.36285210 58 63 67
245681.88610840 3357686.09661865 16.42102814 43 48 52
245683.13378906 3357678.93505859 16.56805038 4 12 14
245680.70062256 3357688.60388184 16.31764793 86 91 97
245682.37628174 3357685.41497803 16.30026054 38 49 55
245682.62854004 3357678.34399414 16.87722206 51 55 64
245682.92175293 3357681.02740479 16.61361694 41 46 52
245682.05303955 3357686.31793213 16.40265274 59 67 69
245681.18688965 3357687.93969727 16.87412453 86 96 105
245682.13903809 3357679.02154541 16.44129753 34 41 47
245682.68572998 3357680.49670410 16.77138329 82 91 100
245683.10516357 3357681.16882324 16.33119583 77 82 86
245682.32037354 3357683.45086670 16.35068321 71 80 89
245682.93511963 3357678.73657227 16.86968231 69 73 82
245683.15368652 3357678.12927246 16.46355438 26 27 31
245682.24554443 3357682.47467041 17.22568512 82 89 99
245680.26885986 3357687.53033447 16.37435150 96 101 107
245682.23785400 3357682.51550293 17.16391373 61 68 76
245680.37255859 3357686.05963135 16.32987404 139 152 161
245681.00726318 3357687.76348877 16.75535583 74 87 96
245682.15332031 3357682.68609619 17.02379608 38 47 56
245681.01269531 3357685.79937744 16.43898392 40 48 50
245681.14422607 3357683.95068359 16.44073296 28 33 37
245682.20715332 3357677.85614014 16.77218628 23 26 33
245680.93536377 3357683.57440186 16.38342285 41 46 50
245682.58752441 3357684.35467529 16.29024315 57 62 66
245682.91491699 3357681.04351807 16.59667015 43 48 54
245681.53515625 3357683.69915771 16.50361252 49 56 64
245680.83441162 3357686.92309570 16.82894516 25 35 47
245681.62377930 3357685.81726074 16.34094238 83 86 91
245681.31481934 3357689.14569092 16.53356361 58 63 67
245681.59313965 3357686.21600342 16.52400970 29 38 45
245681.96643066 3357678.62237549 16.74640274 10 15 21
245681.22503662 3357684.77227783 16.77538109 34 39 45
245681.38409424 3357681.52185059 16.39325523 94 103 110
245681.76947021 3357681.16339111 16.42823219 58 66 69
245681.37207031 3357688.53424072 16.28364182 67 72 78
245682.91607666 3357677.03265381 16.73304749 51 62 66
245682.29687500 3357682.65118408 16.57163048 61 71 80
245682.42358398 3357678.68115234 16.81179047 105 140 160
245681.24841309 3357685.28143311 16.53092766 51 55 58
245683.71972656 3357679.17315674 16.20549202 107 112 115
245681.13818359 3357685.25146484 16.55396080 45 50 54
245682.60290527 3357678.01843262 16.81948280 22 23 28
245680.61444092 3357686.63085938 16.38420677 56 63 71
245682.25024414 3357680.11004639 16.37620926 64 72 83
245680.78088379 3357684.86401367 16.56195450 36 41 44
245681.67541504 3357681.59783936 16.38642120 85 94 99
245681.34448242 3357684.31896973 16.51964569 47 54 60
245682.84869385 3357678.53680420 16.98529243 40 51 53
245680.11486816 3357687.90277100 16.33409882 176 191 198
245681.43688965 3357685.70855713 16.39092827 85 90 94
245681.55804443 3357685.93768311 16.31292725 82 83 88
245680.73712158 3357684.69219971 16.56061935 43 49 49
245683.16412354 3357680.71643066 16.32092476 68 76 78
245681.48901367 3357682.89141846 16.69296265 62 68 80
245682.74102783 3357678.52874756 16.96961975 69 89 100
245681.89776611 3357682.56549072 16.98133850 52 63 69
245682.59155273 3357684.53881836 16.27538681 75 82 88
245681.03045654 3357688.86273193 16.60089111 36 45 50
245681.66101074 3357687.42083740 16.28389549 58 63 69
245681.64184570 3357684.78356934 16.48529625 28 33 36
245682.95178223 3357678.15417480 16.88713074 33 30 37
245682.45117188 3357681.30065918 16.88771820 52 57 63
245682.14276123 3357678.00927734 16.80126572 35 44 51
245682.43237305 3357678.69390869 16.80658340 113 155 179
245681.22766113 3357688.77117920 16.42065239 41 49 52
245682.26855469 3357682.16119385 16.96695709 11 20 27
245681.64813232 3357687.60748291 16.63376808 85 90 94
245682.85327148 3357678.27111816 16.91177559 50 53 62
245681.23583984 3357682.18011475 16.48615074 45 49 58
245682.08892822 3357683.77539063 16.43835640 75 82 90
245680.87683105 3357685.05126953 16.52982140 56 62 62
245682.47613525 3357684.48797607 16.30687141 60 67 73
245682.58245850 3357676.99487305 16.64960098 46 53 61
245683.47076416 3357679.81219482 16.23829651 74 77 82
245681.69110107 3357684.87634277 16.87219429 61 66 69
245681.54913330 3357687.04357910 16.30026817 81 86 92
245681.73846436 3357682.12207031 16.36971474 80 85 89
245682.72375488 3357678.66076660 17.07044792 96 125 143
245682.88031006 3357679.68280029 16.43965149 60 64 73
245681.08538818 3357684.74804688 16.94536781 65 70 76
245681.94183350 3357679.99493408 16.38805580 76 86 98
245682.33142090 3357680.36840820 16.47200012 52 59 65
245681.36279297 3357682.48046875 17.14744949 58 63 69
245681.35333252 3357687.71411133 16.87601662 73 83 92
245682.09552002 3357679.59991455 16.72501183 31 38 46
245680.76440430 3357687.30084229 16.60290909 43 50 60
245682.53143311 3357681.58563232 16.64998436 44 49 52
245681.44519043 3357681.74139404 16.38496399 85 94 101
245682.37011719 3357682.54473877 16.85901833 46 58 70
245680.74389648 3357687.22033691 16.72824287 48 58 68
245683.68927002 3357679.10797119 16.20776749 113 117 118
245682.08355713 3357685.12744141 16.62599754 40 43 50
245680.93084717 3357683.46545410 16.38360596 34 45 47
245681.45043945 3357683.03491211 16.72532463 74 78 87
245683.59613037 3357679.09167480 16.23346519 102 106 107
245680.47692871 3357687.58154297 16.50913048 57 65 68
245683.20361328 3357677.21301270 16.94716454 52 63 69
245682.80712891 3357682.25616455 16.37766075 55 60 66
245681.65649414 3357683.68701172 17.00588989 127 134 144
245682.40997314 3357677.32928467 16.75393867 70 75 81
245682.14489746 3357685.20880127 16.57131386 50 53 60
245681.51300049 3357686.00708008 16.32835007 78 81 86
245683.09417725 3357677.60266113 16.96879387 49 64 69
245680.60186768 3357686.77203369 16.55221558 14 22 25
245681.01025391 3357687.17193604 16.33431053 73 80 86
245680.15124512 3357688.94378662 16.34131050 52 66 69
245681.52978516 3357687.63879395 16.85099411 74 87 93
245680.86303711 3357686.86328125 16.79615784 22 32 42
245682.36102295 3357679.16876221 16.62994003 45 54 61
245680.35205078 3357686.62036133 16.31982231 73 86 94
245681.32391357 3357688.93164063 16.57614517 15 23 25
245681.82781982 3357686.21148682 16.65292740 37 44 50
245681.14862061 3357688.07873535 16.50872421 75 82 88
245682.92163086 3357677.93927002 16.78268433 85 84 90
245682.09844971 3357685.18060303 16.65015793 21 26 32
245680.85754395 3357684.17108154 16.42689514 36 43 49
245682.19018555 3357677.65899658 16.62713242 20 27 35
245681.42376709 3357686.25201416 16.54926491 59 64 67
245681.14599609 3357688.06060791 16.53116608 58 65 71
245680.82702637 3357688.64685059 16.31871223 150 158 161
245681.66406250 3357687.77447510 16.92815781 39 48 57
245680.90991211 3357688.14208984 16.33835411 167 176 183
245682.37725830 3357684.39440918 16.41210556 55 62 70
245682.84069824 3357681.60345459 16.55033684 75 74 82
245680.79199219 3357686.22985840 16.34768105 49 58 63
245682.77606201 3357680.91522217 17.11787224 12 14 26
245682.77819824 3357681.55743408 16.63894081 70 68 71
245683.19042969 3357677.53637695 17.06935692 21 32 38
245682.55285645 3357680.40533447 16.53833389 46 55 62
245682.90368652 3357680.68072510 16.78579521 23 24 29
245681.60247803 3357687.92346191 16.53645134 91 101 103
245681.81182861 3357682.58197021 16.96283340 42 53 59
245681.89746094 3357683.36022949 17.24507141 65 80 111
245682.58239746 3357679.66290283 16.63142395 50 55 59
245681.53820801 3357686.57244873 16.35587502 125 133 135
245680.95074463 3357683.29083252 16.46370125 28 38 40
245681.12359619 3357682.80578613 16.37673950 20 27 33
245681.95928955 3357680.45324707 16.45658875 60 70 79
245683.11407471 3357680.99951172 16.33443832 73 78 81
245682.08587646 3357682.18634033 16.58008575 33 36 41
245682.29010010 3357682.15380859 16.96636200 11 20 27
245681.70117188 3357686.06439209 16.41212654 73 78 82
245681.81878662 3357686.20874023 16.64543152 37 44 50
245681.75286865 3357686.45684814 16.95778656 54 58 61
245682.24316406 3357685.70190430 16.59061813 56 69 77
245680.35272217 3357687.26385498 16.42739487 55 65 67
245682.38928223 3357680.37390137 16.48649025 45 52 58
245682.44580078 3357679.75012207 16.68849182 49 57 59
245682.05535889 3357686.36077881 16.35075569 85 89 92
245681.71032715 3357680.20428467 16.38386536 85 98 107
245682.17242432 3357685.75097656 16.46135712 46 56 65
245681.67663574 3357680.78759766 16.48994637 89 98 103
245683.16906738 3357680.50494385 16.33273125 74 79 83
245680.66729736 3357684.94653320 16.40241814 50 55 59
245681.66699219 3357686.81085205 16.29775238 81 86 90
245681.66876221 3357683.34014893 16.94771194 4 15 35
245682.33190918 3357685.38482666 16.32103348 35 44 51
245682.60485840 3357679.71264648 16.53772926 65 70 74
245682.10998535 3357679.26739502 16.56508446 37 46 51
245681.99328613 3357680.54473877 16.54865265 48 57 66
245682.15661621 3357683.22290039 16.79867935 43 52 61
245681.64654541 3357686.75891113 16.30202293 78 86 88
245682.04357910 3357683.96862793 16.45951462 78 83 89
245680.48779297 3357687.61376953 16.51618576 59 68 73
245681.62445068 3357682.23443604 16.55344772 29 34 40
245681.69152832 3357682.94390869 17.02784157 53 58 64
245680.72460938 3357687.63281250 16.58257294 37 42 46
245681.55218506 3357684.89746094 16.82713890 95 100 103
245681.55407715 3357688.78985596 16.32843781 44 51 59
245681.57269287 3357682.57739258 16.97703934 66 71 77
245681.90130615 3357685.74609375 16.43119431 79 84 87
245681.06414795 3357683.51226807 16.37014389 40 47 55
245682.26959229 3357682.12615967 16.65933037 33 38 44
245681.97467041 3357683.65570068 17.00881767 67 70 85
245683.50158691 3357679.42462158 16.26276779 62 65 70
245681.67987061 3357680.37829590 16.37962914 107 118 124
245682.08135986 3357686.43621826 16.29403114 117 122 128
245681.74859619 3357687.73138428 16.88742447 100 109 116
245682.31536865 3357679.12976074 16.58078575 41 48 54
245682.22009277 3357684.07867432 16.50102615 29 36 42
245681.75463867 3357681.85845947 16.36901093 64 71 77
245681.11248779 3357687.72784424 16.63317871 59 73 82
245681.98559570 3357683.73669434 16.63569450 76 80 89
245682.16107178 3357678.71862793 16.76919365 114 130 145
245681.77227783 3357683.32354736 17.08325768 149 168 201
245682.69158936 3357682.82000732 16.31519508 77 86 93
245682.07440186 3357684.81024170 16.36009598 72 77 81
245682.06182861 3357680.65551758 16.71164513 113 120 128
245680.92535400 3357685.31604004 16.55901718 48 53 56
245682.47021484 3357685.09826660 16.28129005 56 61 67
245682.56182861 3357681.95355225 16.52218628 56 60 69
245680.35815430 3357688.59173584 16.31294060 164 174 176
245681.11267090 3357686.72381592 16.70146179 16 25 34
245683.63177490 3357679.02795410 16.22241211 108 109 111
245683.06323242 3357680.92987061 16.39714050 50 58 61
245682.87286377 3357682.80615234 16.28047752 96 101 107
245681.57623291 3357688.42034912 16.25511551 46 54 65
245680.79553223 3357684.87799072 16.52437592 45 50 53
245681.39245605 3357681.86346436 16.37327385 83 92 99
245682.32751465 3357683.22802734 16.42489052 12 19 27
245681.47546387 3357684.97332764 16.66411400 78 87 84
245682.45581055 3357680.81561279 16.88837624 104 106 119
245680.56323242 3357686.76641846 16.48859978 16 21 25
245682.00140381 3357684.88470459 16.70665169 27 33 33
245682.30706787 3357682.62377930 16.56980324 55 65 74
245681.19183350 3357687.64947510 16.51024628 58 71 77
245682.32366943 3357681.94055176 16.47042656 57 61 70
245682.09527588 3357682.61230469 17.03863335 59 68 77
245681.72967529 3357684.37524414 16.36939240 30 39 48
245681.28845215 3357682.41418457 17.22120667 147 157 167
245681.49810791 3357681.47485352 16.38760185 116 125 130
245682.68237305 3357679.51086426 16.99172783 23 27 30
245681.98492432 3357685.62768555 16.58621597 101 108 116
245681.08276367 3357686.40063477 16.53491020 52 59 65
245682.60961914 3357677.61688232 16.71679306 48 53 59
245681.20214844 3357688.08569336 16.52797127 75 82 88
245682.07684326 3357683.03900146 16.84247208 110 118 139
245681.26171875 3357688.46069336 16.28632927 72 79 85
245681.89971924 3357680.47869873 16.43696404 58 69 75
245682.15930176 3357683.00708008 16.69351578 104 108 117
245681.81494141 3357684.70849609 16.36609840 44 52 54
245681.50262451 3357682.76159668 16.76192284 86 93 101
245681.30590820 3357684.78466797 16.67005920 48 53 59
245683.17907715 3357677.98889160 16.42524719 53 54 58
245681.18200684 3357683.06152344 16.70607185 6 9 16
245680.74871826 3357684.78625488 16.49102020 40 45 48
245682.42913818 3357678.00799561 16.79461670 16 19 28
245681.22137451 3357688.99517822 16.69161224 61 69 72
245681.49584961 3357684.29016113 16.46796799 37 44 54
245680.94122314 3357687.37145996 16.33803177 59 63 74
245683.52642822 3357678.90496826 16.27871132 62 67 70
245682.43389893 3357677.56915283 16.62342262 60 67 77
245681.57147217 3357680.88110352 16.42618370 110 117 125
245682.67187500 3357679.33013916 17.11411095 26 31 35
245683.56945801 3357678.21179199 16.31614876 97 101 102
245682.46746826 3357679.16278076 16.77040863 36 45 52
245680.70904541 3357686.17047119 16.34995842 46 53 61
245682.30346680 3357678.68395996 16.85461998 36 55 72
245682.00067139 3357683.70520020 16.80600166 125 125 135
245682.07220459 3357684.51049805 16.39990616 82 89 97
245682.51373291 3357679.65386963 17.08104134 110 113 120
245681.25872803 3357687.18939209 16.31590652 87 91 100
245682.51489258 3357681.04101563 17.15868950 115 115 123
245683.28662109 3357680.73443604 16.26414108 61 65 68
245681.30413818 3357684.05517578 16.61664200 9 15 15
245682.48156738 3357682.89385986 16.41751099 68 79 85
245682.73608398 3357677.10290527 16.73417473 34 43 50
245681.80883789 3357686.77191162 16.28470039 72 76 79
245681.76348877 3357683.72863770 17.10513496 115 123 146
245682.24902344 3357682.61090088 16.96977043 64 72 83
245681.72796631 3357685.05950928 16.76320076 145 147 146
245683.09436035 3357680.17565918 16.33381844 81 90 95
245682.28863525 3357681.94311523 16.44164467 54 61 69
245682.51275635 3357682.50231934 16.53396988 50 63 72
245682.29534912 3357684.36334229 16.52977753 26 33 41
245681.91107178 3357683.79119873 16.46695518 70 75 81
245681.97027588 3357686.24743652 16.54201508 66 71 74
245680.78582764 3357684.68536377 16.68648148 39 44 48
245681.78955078 3357687.63537598 16.74948311 40 50 52
245680.81286621 3357686.93341064 16.89867783 15 25 35
245681.08605957 3357685.04840088 16.70634460 55 63 50
245682.42065430 3357677.56054688 16.61878777 60 67 77
245682.21960449 3357686.24407959 16.29772949 78 83 89
245681.50885010 3357683.79071045 16.49686623 65 69 78
245681.95819092 3357679.65765381 16.61279678 66 74 85
245681.65161133 3357685.04943848 16.75652695 123 130 122
245681.47009277 3357688.78002930 16.34283066 40 45 51
245682.70294189 3357679.61059570 16.61787224 45 50 54
245682.70178223 3357679.30303955 17.06149673 37 40 45
245680.34466553 3357686.69921875 16.31700134 34 43 52
245681.85784912 3357683.99932861 16.44795799 33 38 42
245682.30236816 3357683.46643066 16.35480499 67 76 83
245682.08123779 3357682.42895508 17.03325462 33 40 46
245681.33361816 3357682.52276611 16.63588905 54 58 67
245682.99664307 3357681.07415771 16.46086502 55 63 66
245682.74774170 3357680.74810791 17.24710846 54 56 68
245683.09051514 3357680.95831299 16.36421013 52 60 62
245681.23663330 3357683.93518066 16.45091820 26 29 34
245682.75164795 3357681.84143066 16.43979454 65 68 75
245682.53662109 3357679.39160156 17.11770821 54 63 70
245680.53631592 3357686.37969971 16.31526947 83 96 104
245682.34814453 3357683.84655762 16.34798241 65 72 80
245681.22827148 3357685.33911133 16.51272011 34 37 42
245681.94616699 3357683.30792236 17.27780914 85 98 130
245680.89105225 3357687.83587646 16.80399132 61 74 83
245683.70733643 3357678.79382324 16.19497871 116 117 119
245682.33715820 3357684.76940918 16.28182983 64 71 81
245682.42187500 3357682.54107666 16.55916214 64 72 83
245682.57843018 3357677.88964844 16.75277901 30 31 36
245681.99700928 3357679.35314941 16.68644524 32 39 45
245681.27764893 3357682.96350098 16.38868332 24 29 35
245680.46002197 3357687.80389404 16.44038200 17 30 36
245683.68188477 3357678.71191406 16.21388817 92 96 99
245682.14392090 3357679.89929199 16.39196777 56 65 74
245681.72595215 3357682.85156250 17.10306740 55 63 66
245681.95904541 3357681.68597412 16.37278175 84 91 99
245681.33587646 3357683.31219482 16.73479843 59 68 75
245683.00793457 3357677.64038086 16.87689400 128 143 148
245682.08905029 3357686.43597412 16.29089165 117 122 128
245683.12738037 3357681.46362305 16.29465675 88 93 96
245682.15362549 3357685.65948486 16.68745613 88 95 103
245680.87927246 3357685.62945557 16.47064590 41 46 49
245682.21197510 3357677.52087402 16.57725334 37 44 52
245682.82629395 3357681.35577393 16.71228981 64 69 72
245682.42596436 3357682.96685791 16.43619728 66 73 79
245681.63494873 3357680.56518555 16.38178444 51 58 68
245683.00518799 3357677.71533203 16.80546570 111 122 126
245681.15924072 3357687.70697021 16.58720398 64 81 89
245681.72119141 3357686.18841553 16.55136490 38 43 47
245680.94238281 3357687.17675781 16.41580963 37 44 52
245682.70764160 3357680.97888184 17.10869026 32 35 44
245681.30810547 3357683.01464844 16.46946716 31 35 44
245681.70324707 3357683.11218262 17.01344872 4 7 16
245683.16784668 3357677.34222412 17.32454109 130 140 152
245682.60675049 3357683.97357178 16.30268097 59 66 72
245681.43859863 3357683.00482178 16.65939522 41 45 56
245680.90313721 3357687.63513184 16.49461937 32 37 43
245682.40673828 3357679.26171875 16.80849457 46 53 61
245680.39343262 3357688.82696533 16.42090416 36 45 50
245681.00079346 3357684.05187988 16.48214149 39 46 52
245682.16912842 3357685.86749268 16.35765839 89 96 102
245681.34472656 3357684.37017822 16.50682449 54 63 70
245681.41339111 3357681.20965576 16.38221550 60 67 77
245682.48339844 3357681.27935791 16.91653061 90 97 103
245681.63592529 3357687.16186523 16.28524017 79 88 93
245682.60711670 3357678.77404785 16.91082954 113 156 175
245682.06201172 3357683.94897461 16.45390320 78 83 89
245681.48168945 3357684.72277832 16.44917107 62 66 75
245682.95629883 3357680.25756836 16.35737610 78 85 91
245681.33087158 3357682.33068848 16.89171028 12 16 27
245681.63427734 3357684.11413574 16.48131180 38 43 49
245683.29833984 3357678.57086182 16.37798309 100 105 111
245681.28906250 3357682.60614014 16.54185486 58 65 71
245682.51647949 3357680.49902344 16.68659592 99 109 121
245681.53692627 3357683.06701660 16.88076591 25 34 41
245681.53222656 3357686.53839111 16.37416458 130 138 140
245681.30175781 3357685.18225098 16.52071953 36 42 42
245682.45788574 3357680.81994629 16.91916466 106 108 121
245681.22845459 3357684.86053467 16.77862167 72 80 82
245682.26147461 3357682.62567139 16.68703270 56 66 76
245680.62994385 3357686.32391357 16.31075478 49 59 68
245682.92572021 3357682.44445801 16.29686737 67 74 80
245681.91589355 3357679.62353516 16.66454315 31 41 51
245682.47247314 3357679.83856201 16.49676895 60 67 73
245682.11181641 3357683.07019043 16.72425079 77 81 92
245680.58947754 3357685.85968018 16.34813309 52 57 61
245683.51208496 3357678.06359863 16.34944153 56 58 57
245682.35803223 3357680.15991211 16.37088203 66 71 77
245681.92089844 3357680.30792236 16.39860535 62 71 80
245683.18359375 3357679.32763672 16.38029480 66 76 78
245681.24932861 3357682.40203857 16.60632515 41 48 58
245682.14624023 3357681.16479492 16.60198784 39 50 54
245682.37530518 3357682.13482666 16.97868919 66 74 85
245682.22326660 3357683.35314941 16.52967262 59 66 74
245682.77490234 3357679.86206055 16.40057564 70 75 81
245680.70239258 3357687.69653320 16.64478111 26 36 38
245681.45043945 3357681.60333252 16.39432144 100 109 116
245680.72204590 3357687.75872803 16.69848442 36 46 55
245681.68255615 3357687.79815674 16.54837608 101 112 114
245681.44122314 3357688.10003662 16.71495438 107 110 117
245682.20874023 3357679.71954346 16.59229660 59 66 72
245681.72222900 3357686.16217041 16.48050880 38 47 52
245680.81823730 3357684.61816406 16.67218781 41 46 50
245683.20257568 3357680.21917725 16.32031822 48 51 56
245680.61468506 3357687.46069336 16.64838409 42 49 57
245683.33721924 3357679.38739014 16.33541679 53 61 63
245680.54986572 3357685.79772949 16.34585953 49 54 58
245682.88702393 3357679.83776855 16.37556648 58 62 71
245680.99725342 3357683.19720459 16.81945038 130 135 141
245682.05993652 3357684.46606445 16.42321014 86 93 103
245681.16882324 3357683.58435059 16.34457588 59 68 75
245681.26489258 3357686.62274170 16.45962906 26 29 34
245681.16961670 3357683.71716309 16.35133934 120 127 135
245682.62786865 3357682.32165527 16.72126389 152 165 182
245683.88690186 3357678.54626465 16.21843529 121 121 123
245682.25836182 3357685.13519287 16.34205055 58 65 73
245680.50616455 3357686.79528809 16.41473579 42 50 53
245681.74035645 3357685.97375488 16.35041618 94 94 102
245682.79534912 3357683.16784668 16.27912521 70 77 85
245683.68194580 3357678.92852783 16.20292282 118 119 121
245681.50494385 3357687.62921143 16.75454712 71 84 90
245681.56457520 3357682.31335449 17.02684212 32 41 48
245681.06835938 3357688.61608887 16.29685974 164 173 180
245681.01318359 3357686.19635010 16.40792084 44 54 56
245682.24346924 3357684.12695313 16.53398895 19 26 32
245682.60815430 3357678.91015625 16.88832283 9 23 34
245683.01037598 3357678.58929443 16.66259384 64 67 74
245681.69610596 3357683.51751709 17.03676605 69 84 107
245682.68707275 3357677.72125244 16.77236366 46 51 55
245683.15197754 3357677.56030273 17.11720657 91 106 113
245682.78741455 3357678.02130127 16.85971260 54 48 50
245680.68627930 3357686.65460205 16.51351929 19 24 28
245682.45739746 3357681.10955811 17.05448341 96 101 107
245682.23541260 3357679.43811035 16.92328262 59 66 76
245681.06030273 3357683.25823975 16.78665352 54 59 63
245680.71264648 3357688.11981201 16.32994461 102 113 119
245681.41168213 3357681.88824463 16.37004852 66 75 84
245683.80242920 3357677.95220947 16.24195480 123 127 126
245681.92053223 3357687.31024170 16.24761009 81 88 96
245682.20141602 3357682.22467041 17.06848145 21 26 32
245682.43072510 3357681.54156494 16.64954567 40 45 49
245680.78155518 3357684.68170166 16.66722679 39 44 48
245682.05834961 3357682.06225586 16.40184021 70 77 85
245680.45233154 3357686.92993164 16.46377945 34 44 46
245682.03204346 3357683.22851563 17.09663010 50 65 88
245682.29315186 3357682.64465332 16.58050919 61 71 80
245681.91778564 3357680.93890381 16.59883881 88 96 99
245681.23083496 3357684.20996094 16.61738777 42 47 50
245680.70648193 3357688.75915527 16.39299965 14 19 25
