245764.44732666 3357594.06353760 16.52483940 254 255 255
245764.93457031 3357592.19183350 16.63893127 80 85 89
245768.77539063 3357592.86413574 17.04331779 57 58 60
245771.28399658 3357594.00067139 16.50062752 91 87 86
245776.40319824 3357592.71398926 16.43383408 184 183 181
245764.99542236 3357593.70184326 16.69551468 96 104 106
245768.01672363 3357592.89276123 16.61152840 185 186 181
245773.04162598 3357593.58331299 16.41899109 218 215 208
245765.42877197 3357591.92559814 16.50559425 208 203 199
245764.88006592 3357592.08020020 16.56011391 58 54 53
245765.69879150 3357592.27032471 16.54743004 240 239 235
245764.82971191 3357593.38104248 16.94839668 56 65 72
245764.93432617 3357594.34088135 16.51989746 192 182 172
245765.44433594 3357593.97784424 16.54224205 199 198 196
245768.70251465 3357592.81805420 17.18636131 53 57 60
245770.08752441 3357593.81457520 16.47550392 196 192 183
245767.30926514 3357594.19805908 16.52194214 222 219 212
245765.19171143 3357593.68798828 16.86604881 97 101 104
245766.09545898 3357592.89617920 16.67141342 83 93 95
245765.55285645 3357592.25659180 16.53798485 251 248 241
245765.63055420 3357591.96154785 16.50442886 196 192 189
245766.34631348 3357593.48583984 16.67958641 97 105 108
245768.45495605 3357592.67553711 16.56818581 187 186 181
245775.71118164 3357593.03967285 16.74117470 103 101 102
245775.71014404 3357594.15179443 16.51959610 194 187 177
245764.39715576 3357592.76708984 16.62012100 85 90 96
245765.82049561 3357593.98187256 16.55346680 210 211 213
245766.64941406 3357593.59301758 16.88948441 49 54 58
245764.59411621 3357592.26934814 16.61942673 93 98 101
245764.66790771 3357594.22540283 16.52163696 187 184 179
245775.63635254 3357592.24145508 16.42666435 222 218 217
245767.62127686 3357594.01538086 16.53697205 246 246 244
245776.21929932 3357592.58868408 16.44371986 175 174 172
245766.80944824 3357593.91448975 16.51536942 94 99 103
245764.13897705 3357591.99676514 17.16904259 89 84 90
245765.10394287 3357592.32269287 16.82306671 61 66 70
245765.75207520 3357593.45788574 16.81259537 75 84 89
245766.50305176 3357592.19989014 16.48086929 254 253 248
245765.02514648 3357592.94421387 16.88606071 46 50 59
245776.12011719 3357593.95434570 16.40628624 92 96 99
245770.87725830 3357592.97692871 16.61616707 100 100 102
245765.43688965 3357592.29058838 16.56899452 233 228 222
245768.30725098 3357592.36199951 16.50103188 197 190 182
245770.45068359 3357593.30297852 16.69024277 245 247 246
245775.44238281 3357593.37030029 16.71162033 167 166 162
245765.80059814 3357592.23608398 16.52628326 250 251 245
245764.55841064 3357593.28503418 16.86217117 63 66 71
245767.66290283 3357594.15771484 16.55627632 156 155 151
245766.38543701 3357592.15515137 16.47528267 210 211 206
245769.01544189 3357592.95587158 16.86973763 66 67 69
245768.44976807 3357593.29132080 16.65812492 77 81 84
245771.36206055 3357593.18823242 16.45079422 115 111 110
245766.70996094 3357592.79370117 17.03866768 19 20 22
245767.15277100 3357592.77154541 16.49685478 214 205 198
245765.71661377 3357594.09259033 16.55925179 255 255 255
245776.25585938 3357593.14196777 16.42716599 146 153 159
245775.77606201 3357593.93615723 16.44989586 184 184 182
245771.09448242 3357593.91717529 16.52413750 202 203 205
245776.11364746 3357593.59283447 16.39638519 114 115 117
245766.96936035 3357593.68817139 16.59740639 86 91 95
245766.55834961 3357592.21221924 16.48290062 255 254 250
245767.26043701 3357594.03533936 16.49681282 153 157 156
245764.40747070 3357593.31781006 16.63101578 105 112 120
245764.23571777 3357592.83752441 16.67724609 50 53 58
245767.00476074 3357592.36907959 16.52236557 192 185 175
245772.86407471 3357593.54016113 16.42421341 220 217 208
245765.42004395 3357592.48571777 16.87660980 150 148 136
245767.97467041 3357592.88433838 16.67964363 194 186 183
245770.37176514 3357593.88897705 16.51800919 241 240 236
245765.43359375 3357592.22985840 16.51644897 249 245 242
245768.70080566 3357593.09997559 16.88987160 72 72 74
245768.00292969 3357593.13360596 16.88491249 40 38 41
245765.19555664 3357593.49438477 17.20009232 62 65 72
245766.23968506 3357593.17144775 16.65134048 91 100 107
245765.55407715 3357593.86297607 16.61405563 97 97 99
245767.25036621 3357593.35845947 16.57164001 110 112 111
245770.54901123 3357593.22155762 16.70036507 141 142 144
245765.01068115 3357591.76031494 16.54011154 176 177 171
245766.86944580 3357592.68994141 16.53239632 141 138 133
245770.08111572 3357593.92449951 16.46913147 255 255 253
245765.17498779 3357593.37078857 17.11515617 127 132 138
245763.91717529 3357593.58947754 16.55844307 80 85 91
245771.31823730 3357593.33581543 16.44978333 254 255 255
245771.47723389 3357593.23022461 16.45148277 213 209 206
245767.37097168 3357594.38623047 16.50370979 223 216 210
245764.91955566 3357593.49652100 16.85359383 71 79 81
245766.27270508 3357593.22558594 16.63852501 95 102 108
245775.47247314 3357593.59448242 16.83330345 55 55 55
245767.81195068 3357593.44030762 16.95000458 33 38 44
245764.60504150 3357593.04089355 16.93260574 18 26 29
245766.77697754 3357594.33532715 16.51112366 221 216 210
245769.87176514 3357593.86578369 16.45349503 101 105 106
245767.63623047 3357592.66436768 16.52718353 212 208 196
245774.95166016 3357593.70849609 16.40420151 210 206 203
245768.61804199 3357592.79333496 16.98110580 22 24 23
245763.93078613 3357592.88079834 16.91413498 44 48 51
245766.34606934 3357592.73004150 16.60395241 217 210 204
245765.68133545 3357593.66571045 16.74970436 21 25 28
245768.89160156 3357593.02423096 17.02121925 85 79 79
245775.84918213 3357593.08129883 16.55690765 39 39 41
245771.90838623 3357593.35070801 16.44108582 218 211 203
245770.50872803 3357593.68243408 16.64480972 228 227 225
245767.88629150 3357594.06372070 16.64596367 76 74 75
245767.44659424 3357592.81933594 16.50618362 144 135 126
245767.59777832 3357593.62829590 16.69815636 158 160 159
245767.02685547 3357594.23590088 16.52747726 223 218 212
245768.02185059 3357592.59039307 16.54226112 122 119 110
245767.86083984 3357593.77026367 17.12515450 68 75 83
245767.35968018 3357594.07104492 16.50227165 151 153 152
245764.71514893 3357591.69238281 16.53799438 176 177 171
245775.05096436 3357593.64648438 16.43442154 219 216 209
245770.70062256 3357593.43127441 16.58920479 188 192 195
245768.41094971 3357592.86065674 16.87401390 66 68 65
245764.61596680 3357591.80712891 16.52369499 187 184 175
245776.69604492 3357593.45678711 16.44132233 184 183 179
245764.67272949 3357594.05511475 16.52618790 254 255 255
245775.70605469 3357593.21490479 16.71518135 137 138 142
245766.79986572 3357593.00921631 16.81694984 34 33 38
245767.29498291 3357592.98333740 16.50493050 106 105 100
245771.48431396 3357593.63616943 16.45662117 188 187 182
245768.73291016 3357593.32434082 16.84492302 33 34 36
245764.23999023 3357593.91424561 16.52980614 132 136 137
245764.95196533 3357594.05761719 16.51172256 255 255 253
245765.98126221 3357592.85333252 16.70804405 75 82 90
245764.74298096 3357592.61328125 16.81741524 31 44 52
245765.48364258 3357592.18572998 16.50950241 249 244 241
245776.43914795 3357593.81420898 16.39722252 199 199 199
245770.95513916 3357593.44885254 16.52330971 147 148 150
245771.35595703 3357594.17193604 16.46554184 169 161 159
245767.98828125 3357594.55139160 16.45156479 214 204 194
245765.94732666 3357594.12750244 16.53410912 234 233 229
245767.72436523 3357593.07690430 17.28234863 120 110 111
245764.51000977 3357593.29205322 16.75568581 56 61 65
245770.52349854 3357594.26867676 16.51389885 227 218 209
245770.64373779 3357593.40875244 16.63751030 227 231 234
245767.18292236 3357594.03607178 16.49697495 216 221 217
245775.39257813 3357593.41235352 16.73949051 130 126 123
245775.55609131 3357593.88769531 16.56029510 254 254 252
245768.93505859 3357592.83428955 16.95522118 70 74 73
245766.25823975 3357591.84503174 16.49389648 202 202 194
245764.44476318 3357592.19708252 16.60524559 96 105 110
245765.06481934 3357593.22363281 16.90642738 62 69 75
245766.41851807 3357593.79907227 16.61836052 106 110 111
245768.31115723 3357592.85998535 16.60748100 83 85 82
245776.66595459 3357593.61413574 16.43297005 175 174 170
245767.73803711 3357592.97125244 16.79450607 113 118 112
245763.96258545 3357593.33026123 16.62080765 63 72 77
245767.77502441 3357592.91625977 16.62450409 198 195 186
245768.76324463 3357593.26226807 16.99425888 87 60 65
245775.35870361 3357594.16442871 16.47423744 198 190 179
245767.69647217 3357593.21789551 16.87391281 75 82 88
245766.05322266 3357592.28375244 16.53281021 252 249 244
245768.39776611 3357593.38037109 16.59037590 74 78 81
245765.64276123 3357593.72607422 16.72272301 24 26 25
245767.73059082 3357594.28802490 16.59200287 156 154 142
245765.85327148 3357593.67041016 16.64442635 78 85 91
245769.14416504 3357593.26000977 16.69897842 64 69 72
245770.78784180 3357592.96057129 16.60122108 238 243 239
245776.44641113 3357593.37536621 16.43148422 96 99 104
245767.62573242 3357593.56738281 16.72445297 102 102 102
245766.96948242 3357592.02990723 16.47602463 220 217 210
245765.05725098 3357593.08282471 16.87204552 52 57 61
245773.26391602 3357593.58209229 16.42457962 220 219 215
245770.40008545 3357593.71392822 16.60559845 222 221 217
245764.86749268 3357591.95812988 16.52560425 198 191 183
245764.82684326 3357591.91516113 16.52617645 191 184 174
245764.99285889 3357592.11230469 16.56576157 94 90 87
245767.73547363 3357592.82312012 16.57088852 198 192 180
245766.49566650 3357594.51190186 16.48555183 226 221 215
245768.03027344 3357594.01483154 16.48488235 96 100 103
245767.66760254 3357593.09069824 16.74139595 158 159 154
245763.84930420 3357593.94305420 16.53239250 113 114 109
245776.37994385 3357593.56915283 16.41428757 153 152 148
245769.35656738 3357593.46643066 16.52569962 75 76 81
245768.29254150 3357592.91949463 16.67786980 79 81 80
245766.19866943 3357593.77453613 16.59692383 111 116 119
245775.53796387 3357593.43218994 16.85773277 83 83 83
245775.82025146 3357593.84680176 16.41381264 149 153 156
245765.51647949 3357592.75939941 16.98662758 69 72 79
245771.13854980 3357593.68304443 16.52399254 154 156 155
245775.84161377 3357593.00396729 16.64283943 61 59 64
245766.62713623 3357593.68957520 16.88280869 78 82 85
245770.75537109 3357594.23034668 16.53373909 223 217 205
245765.55236816 3357594.00909424 16.54713631 247 247 245
245765.72998047 3357593.83880615 16.58451462 94 95 97
245765.28692627 3357593.63208008 17.07712936 54 55 59
245768.27557373 3357592.59411621 16.50569153 211 207 198
245775.52917480 3357593.36425781 16.77821732 174 175 177
245765.52661133 3357592.92395020 16.95310020 47 52 58
245764.85198975 3357592.24725342 16.99258232 25 26 30
245768.73834229 3357593.29119873 16.91974258 67 56 60
245771.99090576 3357593.76489258 16.42329979 216 211 205
245766.82769775 3357594.17700195 16.51407623 173 172 168
245765.77490234 3357592.12158203 16.49370766 185 186 181
245764.89117432 3357592.14398193 16.60515594 65 64 69
245765.42932129 3357593.74688721 16.88037872 48 49 54
245771.65887451 3357594.05413818 16.45647621 112 111 107
245770.57611084 3357593.13787842 16.68310547 112 112 110
245764.82403564 3357592.84606934 16.86728477 26 36 45
245766.66510010 3357592.00103760 16.47579384 205 202 195
245764.61016846 3357591.98284912 16.54714775 143 140 135
245771.38275146 3357593.82678223 16.48386383 121 120 118
245768.51068115 3357592.53643799 16.65740204 101 101 99
245775.86004639 3357592.13623047 16.43638992 165 162 157
245775.66754150 3357594.25891113 16.50323105 198 191 183
245772.08825684 3357593.86437988 16.43059731 243 242 238
245767.75177002 3357592.94189453 16.66111374 143 140 131
245766.49133301 3357593.55804443 16.79273605 26 30 33
245767.24902344 3357592.07568359 16.47304916 226 223 216
245776.76757813 3357593.07879639 16.45305443 170 165 161
245766.66979980 3357593.40380859 16.83877945 51 56 62
245765.49542236 3357594.04058838 16.54310799 254 254 252
245767.71289063 3357593.80126953 17.07575798 123 118 124
245769.09698486 3357593.20245361 16.85413742 40 41 45
245764.20446777 3357592.13464355 17.07686996 113 118 124
245767.05053711 3357594.16064453 16.51256561 218 215 210
245764.29699707 3357592.94348145 16.60944748 61 68 74
245764.64611816 3357593.62982178 16.62502480 77 84 90
245764.97399902 3357592.85241699 16.86489487 50 59 64
245772.02020264 3357593.91333008 16.43649673 253 254 249
245764.04742432 3357593.65545654 16.53437805 76 83 89
245767.40618896 3357592.14306641 16.47032356 248 247 242
245765.25512695 3357593.72363281 16.86182976 98 102 103
245765.16552734 3357593.67950439 16.85211945 98 102 105
245770.88671875 3357593.60260010 16.56493568 182 183 185
245766.99645996 3357593.29119873 16.58510780 132 134 133
245765.64953613 3357592.16333008 16.51819992 225 225 223
245764.63989258 3357593.16345215 16.97897911 41 50 55
245765.52941895 3357593.33685303 17.01626587 95 102 112
245770.03887939 3357593.45977783 16.49892616 167 168 162
245767.95422363 3357593.08868408 17.39726257 103 102 100
245770.79418945 3357593.51391602 16.56598854 97 101 102
245764.50677490 3357594.21539307 16.52109909 184 181 174
245766.71343994 3357594.01977539 16.51070404 162 166 169
245765.03680420 3357592.23327637 16.60762978 95 95 97
245768.73199463 3357592.82635498 17.15355873 42 46 49
245768.04217529 3357593.60937500 16.72223473 30 29 34
245772.54144287 3357593.60333252 16.42504692 221 214 206
245766.99163818 3357594.48107910 16.50152588 229 222 214
245765.65063477 3357592.46929932 16.69515419 84 86 85
245765.93572998 3357592.90643311 16.73410606 71 78 84
245765.04260254 3357592.07800293 16.52596664 102 101 96
245766.59167480 3357594.23999023 16.49854660 224 223 218
245766.70275879 3357593.87982178 16.64513206 66 67 69
245767.67102051 3357593.07678223 16.69767189 168 167 162
245768.50695801 3357592.73706055 16.62763977 188 189 184
245765.35388184 3357594.44158936 16.51189041 224 212 200
245764.75170898 3357594.37322998 16.51812744 189 177 163
245768.96820068 3357593.36785889 17.19185257 84 81 88
245771.54168701 3357593.85827637 16.46774483 101 100 98
245775.82623291 3357593.55310059 16.43996811 164 164 166
245767.31433105 3357594.04119873 16.49769020 161 165 164
245767.32061768 3357594.15319824 16.51499939 139 138 133
245769.97137451 3357593.09454346 16.46611023 222 222 214
245771.19830322 3357594.04071045 16.49665451 93 92 90
245768.32531738 3357592.75769043 16.53877831 109 106 99
245765.73388672 3357594.38330078 16.55006027 227 217 207
245767.67620850 3357593.06219482 16.66555023 160 155 149
245770.68365479 3357593.66278076 16.58942032 167 167 167
245770.81445313 3357593.76770020 16.56377792 197 201 202
245767.84307861 3357592.74688721 16.90395355 170 151 153
245764.54284668 3357594.46539307 16.51463699 192 185 177
245764.12176514 3357594.06768799 16.52632904 190 183 173
245765.62518311 3357592.94012451 16.83123207 16 19 26
245764.57781982 3357593.29687500 16.89710236 57 62 66
245771.34204102 3357593.09967041 16.45080948 217 215 216
245770.91955566 3357593.82269287 16.54911613 158 160 157
245767.96264648 3357593.17810059 16.83344078 38 39 41
245766.10626221 3357593.56433105 16.64870453 93 101 104
245766.89074707 3357592.83715820 16.77116394 95 91 90
245767.73211670 3357594.22509766 16.66751289 168 167 162
245767.82324219 3357592.75695801 16.68979836 141 113 110
245764.84967041 3357592.58795166 16.89676857 32 42 51
245770.74670410 3357594.28637695 16.53034401 224 217 209
245766.83020020 3357592.98083496 16.72187424 106 101 107
245775.88018799 3357594.00457764 16.44299507 189 186 181
245767.98352051 3357593.73443604 17.01436806 17 18 22
245767.98266602 3357593.83233643 17.03778648 75 75 77
245766.40191650 3357591.84497070 16.49319077 201 198 191
245764.67950439 3357594.43768311 16.51605415 193 184 175
245775.39001465 3357593.68572998 16.63777161 123 122 117
245764.73529053 3357593.61590576 16.65785789 79 88 93
245766.69665527 3357592.18469238 16.48156929 252 253 248
245767.76538086 3357593.91320801 17.19903946 89 92 97
245767.36352539 3357592.63757324 16.51916122 196 188 177
245767.80371094 3357594.17993164 17.09182549 147 137 135
245766.12011719 3357592.18951416 16.48837280 248 244 241
245767.87615967 3357594.49981689 16.50064659 200 188 176
245766.82879639 3357592.68994141 16.62289619 109 105 102
245768.02142334 3357593.38494873 16.72991180 146 145 150
245767.70007324 3357593.78131104 16.88771629 73 69 68
245771.18811035 3357593.92816162 16.51819801 225 227 226
245775.83496094 3357592.79986572 16.69454384 128 129 133
245764.22454834 3357594.06768799 16.52540779 198 195 188
245766.86267090 3357594.41662598 16.50966072 215 208 200
245765.06921387 3357594.08129883 16.50772667 255 254 250
245776.55523682 3357593.41467285 16.43568802 90 92 91
245767.87084961 3357593.94738770 17.19347000 39 37 40
245767.49835205 3357592.94519043 16.50030708 107 106 101
245765.02294922 3357591.82824707 16.53733826 195 192 185
245768.08111572 3357592.98919678 17.04289246 39 37 38
245765.52239990 3357593.28887939 16.93705177 63 70 80
245763.89654541 3357592.83776855 16.91668320 45 46 50
245766.85113525 3357594.53387451 16.48952675 217 210 202
245764.77667236 3357593.94305420 16.52366829 98 102 103
245767.53851318 3357593.55120850 16.63283157 161 163 160
245766.03204346 3357591.99932861 16.48080254 203 198 192
245770.91168213 3357593.62255859 16.56203079 190 191 193
245774.24761963 3357593.56732178 16.40577126 223 222 220
245767.24328613 3357592.18280029 16.48255920 252 253 247
245771.38464355 3357593.29742432 16.45074654 197 196 194
245765.57659912 3357591.98345947 16.50226212 193 189 188
245766.47229004 3357592.87463379 16.69307137 106 106 108
245767.57519531 3357593.51196289 16.64084625 197 199 198
245765.21990967 3357593.76171875 16.69913483 101 105 106
245765.77319336 3357592.21411133 16.51177979 248 250 245
245766.33514404 3357593.40716553 16.65718269 90 99 104
245768.44152832 3357593.88781738 16.45141792 68 69 74
245775.70727539 3357593.47778320 16.56868553 153 153 153
245767.98400879 3357592.89227295 16.65961456 199 194 188
245770.79357910 3357594.09045410 16.52319908 136 137 132
245767.23071289 3357592.21166992 16.48790741 255 255 247
245764.78875732 3357594.17230225 16.52365303 196 195 191
245768.28662109 3357594.53186035 16.44572067 230 232 221
245766.55535889 3357591.86529541 16.48725319 208 205 198
245767.07604980 3357593.21008301 16.55256271 211 212 214
245768.84161377 3357593.23901367 17.14367104 226 204 206
245768.10229492 3357594.16851807 16.45466232 62 64 63
245764.31701660 3357592.90832520 16.58301353 83 90 96
245770.80865479 3357593.54974365 16.56985092 126 130 129
245766.11669922 3357592.75903320 16.63850975 99 99 99
245764.95953369 3357593.15521240 16.92178345 41 52 56
245775.67877197 3357593.98101807 16.52070236 185 182 175
245765.38061523 3357594.21032715 16.53178024 209 201 190
245771.16809082 3357593.71691895 16.52006721 144 142 143
245769.24438477 3357593.49816895 16.54859161 59 62 67
245767.79626465 3357593.16094971 16.98611641 98 99 101
245765.43872070 3357591.83374023 16.51412582 205 202 197
245767.12951660 3357592.55560303 16.52203751 215 207 196
245770.66125488 3357593.44885254 16.62205505 176 180 183
245766.94982910 3357592.25701904 16.50785065 255 254 249
245771.01025391 3357593.14385986 16.50117302 69 71 70
245775.61437988 3357593.71142578 16.55931282 65 67 64
245766.46392822 3357592.08483887 16.47547150 191 190 185
245768.41650391 3357593.87200928 16.45243835 69 70 75
245765.11492920 3357594.21252441 16.51824570 205 201 189
245767.91845703 3357593.09332275 17.35689735 92 91 89
245767.26544189 3357594.19213867 16.52104568 231 228 221
245768.06408691 3357592.93847656 16.65822601 247 248 243
245776.12988281 3357593.74847412 16.38706207 128 132 133
245764.53948975 3357591.88940430 16.53627205 193 190 181
245771.12316895 3357593.00756836 16.51754189 143 145 142
245776.17010498 3357593.28033447 16.42070198 79 84 87
245764.59777832 3357593.37121582 16.87700081 52 55 62
245769.11181641 3357592.96185303 16.65553856 77 82 86
245763.94024658 3357593.66625977 16.53783226 80 88 91
245764.35308838 3357592.88702393 16.56288910 85 92 98
245764.15118408 3357592.53649902 16.86631775 93 102 107
245767.26959229 3357592.08416748 16.47235680 225 225 217
245764.90997314 3357593.65765381 16.70627785 82 90 93
245767.82659912 3357592.77105713 16.69249535 141 113 110
245764.36083984 3357592.86950684 16.56635284 86 93 99
245770.20892334 3357593.89263916 16.48624229 229 230 225
245776.19805908 3357593.28173828 16.42197609 83 87 90
245766.27209473 3357594.50543213 16.49320412 231 226 220
245764.32666016 3357592.65087891 16.63424492 62 67 73
245764.85394287 3357592.50500488 16.97282219 43 52 59
245775.50854492 3357593.65002441 16.70119286 95 95 93
245771.16967773 3357593.22125244 16.44824219 133 137 138
245775.92443848 3357593.91717529 16.40656281 94 95 100
245765.61199951 3357593.35784912 16.92952919 72 81 90
245765.40332031 3357591.85363770 16.51366425 206 203 198
245764.30267334 3357592.36248779 16.76535225 34 37 44
245765.11828613 3357592.32385254 16.79119492 64 69 72
245775.61395264 3357594.05493164 16.54923058 197 193 182
245773.16448975 3357593.56213379 16.42305183 225 224 219
245766.44934082 3357592.89794922 16.67288399 90 90 92
245765.34582520 3357592.10803223 16.49055290 189 183 183
245767.19580078 3357592.90991211 16.50308609 208 204 195
245764.89398193 3357592.22735596 16.90005875 26 25 30
245767.69970703 3357593.78808594 16.94165039 58 54 53
245768.11938477 3357593.52502441 16.60404396 46 45 50
245767.81597900 3357592.85961914 16.68081093 204 199 193
245770.53802490 3357593.46179199 16.69737053 231 232 234
245764.81506348 3357593.46801758 16.83005524 78 83 87
245766.75384521 3357594.04211426 16.50157547 235 239 242
245767.74414063 3357594.11669922 16.67986107 116 117 111
245767.75537109 3357592.98120117 17.16195488 181 139 149
245775.39617920 3357593.81011963 16.56210709 249 251 248
245765.11791992 3357594.27026367 16.52268982 214 205 190
245767.96722412 3357592.36791992 16.52584839 201 192 185
245766.35253906 3357593.67742920 16.66130257 97 105 108
245766.47381592 3357594.51269531 16.48559189 225 222 215
245775.80151367 3357592.84558105 16.72040176 134 135 139
245765.04962158 3357592.82312012 16.87389565 60 67 73
245765.02062988 3357594.16302490 16.51844406 197 194 187
245767.50769043 3357592.93170166 16.50156593 110 107 102
245776.52734375 3357593.30389404 16.43684769 89 93 96
245766.80352783 3357592.79577637 16.98447037 46 44 47
245764.14184570 3357591.92755127 17.01699066 40 21 27
245764.60968018 3357592.36163330 16.66561508 55 60 64
245770.73944092 3357593.29132080 16.56797981 149 151 150
245767.66156006 3357592.92498779 16.52903938 175 165 156
245768.11932373 3357594.52832031 16.44867325 228 226 214
245764.57196045 3357592.92877197 16.77671242 63 68 72
245764.02655029 3357594.02368164 16.52871895 143 139 130
245768.63098145 3357593.54913330 16.52159309 149 148 144
245768.81341553 3357593.35754395 17.06744766 123 127 130
245776.31890869 3357592.80981445 16.43609810 111 112 116
245775.03228760 3357593.76971436 16.41130257 221 220 215
245770.97766113 3357593.84851074 16.54186058 192 194 191
245767.72644043 3357593.22003174 16.90677452 64 71 79
245771.51141357 3357593.25177002 16.45146179 215 212 207
245765.42871094 3357592.86517334 17.05698395 25 29 38
245764.09814453 3357592.15917969 17.14265060 93 98 102
245767.72955322 3357594.17181396 17.19428635 95 85 84
245765.38165283 3357593.74176025 16.95883751 94 95 100
245768.46472168 3357592.86737061 16.83524513 99 99 99
245765.53588867 3357592.27606201 16.55309486 232 225 217
245764.10394287 3357591.95178223 17.23151970 49 28 33
245765.56207275 3357592.92590332 16.89631462 58 61 66
245764.36285400 3357592.99792480 16.61109734 93 100 106
245767.80352783 3357593.36743164 16.92686081 79 82 87
245766.88891602 3357592.42742920 16.54182434 195 191 180
245776.09777832 3357594.01464844 16.41135979 93 95 94
245764.10491943 3357592.42340088 16.97596550 93 98 104
245775.54528809 3357593.33972168 16.75327492 245 247 246
245767.81439209 3357593.73016357 17.13396263 91 98 106
245764.32775879 3357593.15032959 16.62210655 106 115 122
245767.63684082 3357594.29364014 16.53386879 193 186 176
245767.75415039 3357592.91204834 16.94063377 107 109 104
245771.94494629 3357593.67584229 16.42822838 220 213 207
245768.16149902 3357593.42736816 16.63465118 54 55 60
245775.75628662 3357592.75695801 16.61229134 126 124 125
245768.75030518 3357593.39624023 16.77832031 38 43 39
245768.01458740 3357592.40167236 16.52635574 206 197 190
245765.41052246 3357593.37023926 17.21391487 72 75 80
245766.95477295 3357593.90582275 16.49645615 94 98 101
245765.78967285 3357592.64001465 16.74475098 65 74 79
245770.71026611 3357593.47949219 16.58021736 131 132 134
245765.21942139 3357594.37902832 16.52035904 234 220 207
245765.40881348 3357593.38995361 17.24520493 102 105 110
245776.21862793 3357592.51086426 16.44656754 185 184 180
245766.66900635 3357592.74114990 16.92235565 66 67 69
245770.67993164 3357593.86700439 16.55292702 103 99 96
245771.94921875 3357593.29089355 16.44158554 215 208 200
245768.37322998 3357592.88360596 16.83903885 61 61 59
245767.64996338 3357593.21868896 16.65169525 189 191 188
245767.98535156 3357593.99072266 16.50758934 87 88 92
245765.07440186 3357593.28509521 16.93161392 65 75 77
245768.13653564 3357593.93969727 16.45230484 93 97 100
245771.45501709 3357593.73205566 16.46616364 130 126 123
245770.13482666 3357593.57000732 16.54587746 222 219 212
245765.99548340 3357594.36743164 16.53112411 231 224 216
245767.41424561 3357593.33795166 16.55580139 111 115 114
245775.72229004 3357593.47229004 16.54979706 166 166 166
245775.94122314 3357593.96008301 16.42015839 94 94 96
245765.10491943 3357593.51428223 16.98756027 80 85 89
245764.37799072 3357591.92260742 16.61497498 71 66 70
245766.26641846 3357593.63238525 16.64119720 106 111 115
245772.46270752 3357593.59356689 16.42679024 212 205 197
245766.89160156 3357592.98309326 16.59714699 71 71 73
245765.35449219 3357592.40582275 16.76630211 77 78 70
245771.52770996 3357593.25054932 16.45146561 215 212 207
245767.98962402 3357592.97058105 17.21006203 68 53 58
245764.15063477 3357592.88110352 16.78702927 54 65 69
245765.77423096 3357591.99243164 16.49868774 192 191 187
245768.34667969 3357592.92077637 16.71541977 74 74 76
245766.25286865 3357594.14971924 16.50006866 130 132 129
245773.48437500 3357593.57910156 16.41866493 225 222 217
245766.80682373 3357592.35540771 16.53024864 196 187 178
245767.14562988 3357594.25256348 16.52975273 227 222 216
245775.97540283 3357592.98358154 16.49461937 161 161 161
245766.12219238 3357593.47839355 16.64984512 93 102 109
245770.63513184 3357594.19256592 16.55366325 224 217 209
245770.61828613 3357593.49334717 16.65069771 117 121 122
245765.81280518 3357591.80725098 16.51101303 209 208 203
245768.33380127 3357594.46441650 16.44334984 157 158 153
245766.00207520 3357592.44647217 16.59186745 190 181 174
245767.58679199 3357592.82244873 16.51226616 194 188 176
245765.36871338 3357593.52868652 17.23569298 38 39 43
245768.49359131 3357592.83337402 16.85951805 87 87 85
245766.62683105 3357592.10839844 16.47558212 196 196 188
245776.50549316 3357593.68139648 16.41170692 127 129 126
245775.23541260 3357594.02532959 16.45856857 216 211 205
245767.98645020 3357593.62677002 16.91463280 66 64 69
245771.11120605 3357593.55261230 16.51250648 118 118 116
245765.72430420 3357594.31713867 16.56021118 229 220 211
245767.16162109 3357593.10424805 16.52411079 115 117 114
245767.16607666 3357593.48754883 16.59686089 97 102 106
245767.86315918 3357593.95043945 17.19704628 39 37 40
245765.05584717 3357592.05456543 16.51847076 144 141 134
245770.13916016 3357593.38372803 16.50785065 208 209 204
245768.00085449 3357593.63195801 16.85877609 85 80 84
245766.63281250 3357593.96636963 16.56945038 119 120 122
245770.52856445 3357593.48455811 16.69873238 231 232 234
245765.43829346 3357592.95104980 16.96698189 36 41 47
245775.49566650 3357593.57617188 16.79411316 65 65 63
245771.56500244 3357593.20574951 16.45151901 209 205 202
245764.68402100 3357592.10614014 16.57336998 70 72 71
245767.89202881 3357594.12243652 17.24596024 105 80 86
245764.01702881 3357592.20672607 17.14093781 91 95 98
245767.54516602 3357593.28204346 16.55888557 108 111 104
245767.34967041 3357594.49237061 16.48970795 226 219 213
245764.67401123 3357593.31555176 16.97934151 42 49 57
245770.40429688 3357593.03924561 16.59537125 208 204 195
245770.63433838 3357594.07055664 16.55150604 225 222 217
245766.07342529 3357592.35528564 16.55373573 188 178 169
245768.57019043 3357593.00512695 16.77702713 71 73 70
245766.54821777 3357593.52178955 16.91348267 75 80 86
245775.45947266 3357593.98480225 16.53326797 189 185 176
245768.57843018 3357593.32220459 16.66666794 66 71 74
245764.73699951 3357593.20452881 16.98741722 36 49 57
245775.60693359 3357592.58392334 16.50834656 203 204 199
245765.53497314 3357593.59979248 16.97256470 76 80 83
245768.39978027 3357594.16534424 16.46191788 75 80 86
245767.71313477 3357593.00775146 16.59285164 199 190 181
245770.83288574 3357593.10559082 16.59551620 151 151 149
245768.70184326 3357592.79992676 17.00821114 76 82 82
245776.14880371 3357594.05316162 16.41365623 124 126 123
245767.67834473 3357593.47155762 16.77915382 251 253 252
245771.69177246 3357594.11431885 16.45141792 209 205 202
245767.05969238 3357593.65386963 16.59446716 91 99 102
245767.22436523 3357594.01495361 16.49368668 143 147 146
245768.84112549 3357592.73193359 17.02446938 138 139 143
245767.76080322 3357593.49664307 16.95056152 100 101 105
245764.18536377 3357592.98992920 16.70775986 27 32 38
245775.86358643 3357593.70721436 16.40135574 74 78 81
245765.14611816 3357593.64056396 16.88705063 95 99 102
245771.61358643 3357594.13946533 16.45833969 107 103 102
245767.84985352 3357593.50482178 16.97050476 34 39 45
245768.02636719 3357592.54406738 16.52100182 209 206 197
245776.63537598 3357592.98620605 16.44817734 165 164 160
245767.93261719 3357592.79541016 16.69692421 167 149 147
245767.27526855 3357593.07800293 16.51458931 125 127 126
245766.69781494 3357593.25079346 16.80962181 37 42 45
245764.67175293 3357593.59960938 16.64597511 79 86 92
245765.57800293 3357592.08428955 16.49433327 186 182 181
245765.91357422 3357593.47741699 16.71790314 81 92 96
245771.18994141 3357593.12420654 16.45965767 165 166 168
245768.06518555 3357592.60937500 16.53610229 109 109 101
245771.39532471 3357593.20288086 16.45117188 169 165 164
245764.37207031 3357593.48291016 16.58121490 125 136 142
245766.24206543 3357592.18402100 16.47783089 252 251 249
245768.53826904 3357592.50274658 16.74452019 89 89 89
245775.32171631 3357593.58087158 16.90779305 58 57 53
245776.49218750 3357592.77008057 16.43954277 144 144 142
245765.81457520 3357594.06341553 16.54816437 254 254 254
245765.81713867 3357593.03967285 16.77465630 64 71 77
245766.42553711 3357594.16143799 16.48081589 211 213 208
245767.78588867 3357593.10333252 17.37802887 117 102 107
245764.58612061 3357593.03521729 16.89290237 23 28 31
245767.50842285 3357592.54504395 16.52173042 200 191 184
245766.47277832 3357591.95123291 16.48381424 197 194 185
245768.78466797 3357593.54498291 16.57846260 52 58 58
245768.73706055 3357592.81726074 17.27290726 42 42 40
245766.54608154 3357591.97100830 16.48028755 200 197 188
245767.77795410 3357594.25927734 16.77736664 79 71 68
245770.61132813 3357593.09448242 16.67665100 76 76 74
245765.96997070 3357591.86920166 16.50255203 203 202 198
245764.68432617 3357591.97735596 16.55439758 183 180 173
245764.04400635 3357592.28198242 17.07690048 93 96 101
245767.87902832 3357592.62023926 16.62489128 178 148 148
245765.77862549 3357593.47021484 16.78713226 66 77 81
245768.33056641 3357593.15594482 16.69233131 76 77 81
245775.98175049 3357593.55389404 16.39452171 86 90 93
245766.42187500 3357593.58593750 16.72013283 31 39 42
245768.77239990 3357593.30566406 17.00331306 115 100 103
245764.85900879 3357592.26519775 17.02756310 22 23 27
245771.14929199 3357594.23986816 16.46862602 91 90 85
245770.96527100 3357593.94201660 16.52482033 203 205 204
245768.15252686 3357592.98339844 16.92695808 183 172 170
245764.25292969 3357592.19281006 16.99439240 74 79 85
245770.39508057 3357593.51507568 16.70457840 95 92 87
245764.65100098 3357593.72235107 16.58583641 73 80 86
245776.30236816 3357593.50585938 16.41517448 158 157 155
245765.14251709 3357592.87036133 16.88810730 63 68 72
245765.71539307 3357593.04687500 16.80053520 76 80 89
245765.28070068 3357593.91339111 16.54562378 179 180 182
245765.04541016 3357593.77569580 16.63554955 106 108 107
245764.25714111 3357592.46795654 16.84534454 26 30 39
245767.96850586 3357593.45434570 16.80886650 118 116 119
245764.55126953 3357591.83813477 16.53166580 194 194 184
245771.36022949 3357593.95751953 16.49510574 124 122 123
245764.35571289 3357593.56585693 16.56044006 128 138 147
245770.68377686 3357593.53002930 16.60158539 114 114 114
245768.83428955 3357592.68902588 16.95137787 111 112 116
245771.11718750 3357593.20391846 16.44762611 165 169 170
245775.99462891 3357593.60247803 16.39187050 112 113 118
245766.40954590 3357594.46252441 16.48669434 228 224 215
245770.58489990 3357593.14715576 16.69007301 112 112 110
245765.25897217 3357593.19738770 16.86980820 83 91 94
245770.24609375 3357593.25677490 16.55444908 135 128 120
245768.82067871 3357593.39483643 17.04922867 163 166 171
245764.16284180 3357594.02087402 16.52759361 143 140 133
245764.33477783 3357594.43444824 16.51442146 240 241 236
245766.27593994 3357592.09710693 16.47965050 194 191 184
245764.38671875 3357593.86798096 16.52962303 131 140 145
245764.91589355 3357592.95147705 16.90727997 40 48 51
245764.17016602 3357592.95043945 16.74436760 39 46 52
245765.98510742 3357593.77362061 16.60257530 102 107 111
245764.23303223 3357591.74267578 16.53874969 177 176 171
245764.23583984 3357592.06616211 16.91469765 91 92 97
245764.70727539 3357592.29949951 16.73541069 38 39 44
245767.79229736 3357594.41278076 16.53062248 189 185 173
245766.96679688 3357593.06024170 16.54386330 127 127 127
245767.74365234 3357594.26019287 16.68690681 166 166 158
245767.69183350 3357593.85913086 17.08313560 111 106 110
245768.73809814 3357592.87792969 16.91079330 71 76 72
245763.95208740 3357593.05377197 16.84170914 42 47 50
245768.03302002 3357594.35479736 16.48665047 208 200 189
245770.71594238 3357593.11035156 16.65801620 186 186 184
245764.43847656 3357592.42504883 16.59874916 85 92 100
245771.34228516 3357593.24554443 16.45036697 163 161 162
245766.99414063 3357594.28558350 16.52543259 228 221 213
245769.18139648 3357593.51013184 16.63475800 14 20 20
245770.76141357 3357593.32897949 16.53989792 131 133 132
245770.70904541 3357593.44757080 16.58185959 188 192 195
245764.62634277 3357593.13659668 16.96455383 46 55 60
245765.53192139 3357593.49499512 17.06377029 91 95 98
245768.41772461 3357592.61352539 16.54681587 186 186 176
245775.50738525 3357593.28771973 16.68940353 225 226 221
245765.37225342 3357592.32513428 16.61053467 135 130 126
245764.79138184 3357593.54827881 16.74069786 77 82 86
245768.78979492 3357593.25219727 17.06619835 178 135 142
245770.48846436 3357593.06652832 16.62680626 202 199 192
245767.40661621 3357593.34674072 16.55819702 111 115 114
245764.58673096 3357592.60137939 16.71526909 32 41 46
245765.47869873 3357593.35583496 17.16590691 138 141 148
245766.60473633 3357592.47906494 16.55166626 168 157 153
245775.37896729 3357593.93383789 16.49479485 210 209 207
245765.05682373 3357592.33178711 16.97447205 60 65 68
245767.46832275 3357592.69360352 16.51670837 203 195 184
245767.25152588 3357593.69854736 16.55995941 97 105 107
245766.13903809 3357592.76916504 16.63022995 98 99 94
245776.27752686 3357593.66351318 16.39728546 161 157 154
245768.61206055 3357593.49780273 16.54551888 92 91 89
245764.36895752 3357592.91796875 16.58009529 88 95 101
245765.05981445 3357592.26422119 16.66047287 85 86 90
245771.33148193 3357593.22875977 16.45027924 163 161 162
245764.24346924 3357592.87402344 16.65989876 47 52 56
245766.58227539 3357594.23822021 16.49791336 224 223 218
245768.44226074 3357592.58697510 16.57735825 172 172 164
245765.96740723 3357593.53747559 16.67818642 80 91 93
245768.02545166 3357592.70727539 16.56492996 123 113 112
245767.45373535 3357594.33728027 16.50323677 218 211 203
245770.88787842 3357593.51910400 16.54935074 146 150 151
245768.21643066 3357592.97595215 16.80510521 78 72 74
245770.46008301 3357593.45495605 16.73601913 171 173 170
245775.34301758 3357593.89520264 16.48003197 255 255 255
245768.01318359 3357593.45666504 16.77147293 97 97 99
245763.90747070 3357593.37329102 16.61669731 77 86 91
245767.24481201 3357594.48193359 16.50124741 222 215 207
245764.13391113 3357593.21496582 16.63372231 63 70 76
245776.24255371 3357593.92272949 16.40499115 140 142 141
245768.00561523 3357593.72064209 16.77275848 53 53 53
245766.07049561 3357594.06311035 16.51939201 161 165 166
245765.04766846 3357592.34771729 17.00389481 46 56 58
245764.60223389 3357592.90936279 16.82191849 29 34 38
245764.90118408 3357592.96020508 16.91107559 42 50 53
245764.99877930 3357593.89471436 16.56102753 120 122 121
245766.50952148 3357592.14404297 16.47541428 214 213 208
245766.34637451 3357593.49041748 16.67937279 97 105 108
245766.03948975 3357594.27716064 16.52561569 226 219 211
245767.11676025 3357593.15264893 16.53757668 103 105 104
245770.04101563 3357593.86022949 16.46486664 185 182 175
245768.77148438 3357592.68963623 17.07216263 162 161 166
245765.57440186 3357593.22833252 16.87529182 16 25 34
245765.37103271 3357594.18328857 16.53207970 213 206 196
245766.97113037 3357592.53417969 16.52146339 216 213 204
245776.11724854 3357593.54968262 16.39923668 120 120 120
245770.23394775 3357594.09606934 16.47493744 213 214 209
245768.62677002 3357593.30371094 16.73420906 75 80 83
245765.69348145 3357593.90277100 16.56767273 132 132 132
245767.56616211 3357592.33758545 16.51703072 204 197 191
245764.14831543 3357593.01660156 16.74566460 34 41 47
245768.45007324 3357592.91821289 16.69892311 175 175 173
245764.86474609 3357593.64483643 16.69905663 78 86 89
245770.73236084 3357593.45062256 16.56593132 207 211 214
245768.68615723 3357593.39587402 16.68117332 68 72 71
245765.82781982 3357593.21173096 16.78927422 54 65 71
245766.76696777 3357594.26513672 16.51027107 231 226 222
245771.09558105 3357593.89801025 16.52768707 134 135 137
245767.54235840 3357592.99340820 16.51055908 102 97 91
245767.82696533 3357592.88549805 17.14828873 169 97 111
245767.14288330 3357592.77154541 16.49643707 214 205 198
245767.88104248 3357592.99719238 17.42255020 155 93 106
245775.72613525 3357592.41821289 16.44010353 211 207 204
245764.52600098 3357593.28155518 16.79519844 48 53 57
245765.32684326 3357592.23779297 16.52036285 255 253 254
245765.48468018 3357593.37866211 17.21668243 91 94 99
245768.12811279 3357593.04943848 16.81426811 185 180 176
245764.34246826 3357593.38323975 16.57847977 121 130 139
245768.13604736 3357594.32562256 16.46066093 122 119 114
245764.56561279 3357593.15557861 16.89879608 42 47 51
245767.56109619 3357592.89727783 16.50748825 141 134 126
245770.65368652 3357594.17932129 16.55082893 220 216 207
245768.77435303 3357593.33209229 16.98097229 171 172 174
245766.93908691 3357593.54754639 16.66609383 77 84 90
245764.44567871 3357593.17425537 16.66300583 71 78 84
245766.69970703 3357592.54882813 16.59062004 106 101 97
245771.40496826 3357593.00360107 16.45223045 130 130 130
245767.44744873 3357593.84820557 16.51977158 101 105 108
245764.37213135 3357592.39031982 16.64050674 69 72 81
245765.43408203 3357592.67968750 17.02925301 24 29 33
245765.45263672 3357593.57482910 17.10169792 31 32 36
245770.49719238 3357593.89544678 16.54199982 246 242 239
245768.55944824 3357593.10119629 16.75570297 74 78 79
245766.26226807 3357592.48321533 16.55455971 197 189 176
245765.91265869 3357593.37866211 16.72858810 80 89 94
245766.39367676 3357593.89831543 16.55222702 107 111 112
245770.30004883 3357593.63641357 16.61346054 222 222 214
245766.83001709 3357593.10992432 16.65735245 91 96 99
245766.41339111 3357592.83349609 16.64341927 145 143 144
245769.18304443 3357593.26763916 16.62992287 72 76 79
245775.27618408 3357593.94659424 16.45718002 220 220 218
245770.79766846 3357593.88018799 16.54423332 202 202 202
245764.86828613 3357592.86810303 16.87545395 45 54 61
245764.81628418 3357592.70562744 16.85047150 26 36 45
245766.66864014 3357591.90490723 16.48118591 204 201 196
245775.44354248 3357593.45690918 16.89114380 106 106 108
245765.53143311 3357591.88684082 16.50949287 202 199 194
245774.93908691 3357593.57446289 16.44655800 221 217 208
245767.80908203 3357594.24700928 17.23206520 83 57 60
245766.84228516 3357592.95788574 16.70363045 95 93 96
245775.58056641 3357592.24267578 16.43334389 222 218 215
245766.86871338 3357592.86962891 16.84052086 68 63 67
245771.13110352 3357594.20214844 16.47218704 152 153 148
245773.36846924 3357593.57336426 16.42220688 225 220 216
245770.88116455 3357593.85266113 16.54508018 118 119 121
245767.40020752 3357592.73553467 16.51463318 188 180 169
245765.21228027 3357593.52624512 17.17407799 62 65 70
245764.56176758 3357592.65740967 16.69222450 41 48 54
245775.98132324 3357592.67279053 16.57170677 44 44 42
245765.44793701 3357592.39416504 16.69789124 104 100 91
245775.28033447 3357593.90423584 16.45658684 254 255 255
245767.78302002 3357592.81494141 16.90521240 184 175 176
245764.34631348 3357593.21960449 16.63893127 106 115 124
245767.21789551 3357593.07904053 16.51672745 202 202 202
245764.47717285 3357593.03930664 16.67772484 69 74 78
245765.30364990 3357592.21618652 16.50524902 250 248 249
245764.75988770 3357593.49719238 16.77042770 74 82 85
245765.21148682 3357593.39318848 17.15932083 176 181 187
245765.90789795 3357594.25396729 16.53974152 222 213 204
245767.57257080 3357593.22882080 16.57088661 193 192 187
245764.74786377 3357592.67468262 16.81414413 28 41 50
245776.19488525 3357593.88287354 16.39844513 161 162 164
245768.66229248 3357592.79327393 17.01584625 85 89 90
245775.76013184 3357593.44647217 16.51062584 158 160 159
245767.67645264 3357593.49407959 16.78741646 247 249 248
245767.26135254 3357594.45892334 16.50314903 224 217 209
245768.56726074 3357593.61505127 16.50408745 169 168 166
245764.56042480 3357593.59814453 16.59352112 70 75 79
245766.91723633 3357593.25567627 16.59875870 109 109 107
245763.86547852 3357593.13867188 16.77447319 48 51 56
245768.20007324 3357592.93499756 16.67485809 87 92 88
245770.33557129 3357593.60327148 16.64208984 223 220 215
245768.69903564 3357593.40515137 16.68871117 71 75 74
245772.92626953 3357593.47845459 16.42708015 224 221 212
245767.60919189 3357594.29150391 16.51706505 200 196 185
245768.13830566 3357593.06835938 16.78011131 163 162 160
245768.39813232 3357592.91290283 16.75975800 176 175 173
245764.46582031 3357593.37225342 16.63737488 54 62 65
245767.75476074 3357593.63488770 17.00233650 116 117 121
245775.62567139 3357594.37042236 16.46387100 195 188 180
245766.06707764 3357593.23388672 16.68338776 89 100 106
245771.00610352 3357593.60565186 16.54308510 211 215 216
245767.93273926 3357593.99194336 16.85402107 16 15 13
245767.82098389 3357592.61712646 16.63068771 186 162 160
245768.30700684 3357593.06604004 16.70321655 78 82 85
245765.91870117 3357593.21520996 16.75405884 65 76 80
245767.66693115 3357593.13842773 16.76361847 153 159 155
245766.09552002 3357593.90167236 16.53813744 116 121 124
245776.15112305 3357592.99017334 16.43611717 78 83 89
245775.62176514 3357594.00256348 16.54767418 184 181 172
245769.12011719 3357593.36218262 16.89275742 57 58 62
245772.08422852 3357593.72979736 16.42286873 221 216 210
245767.90350342 3357593.99792480 16.69473267 22 22 22
245775.80029297 3357592.57611084 16.49907684 132 132 130
245765.96228027 3357591.88116455 16.50167465 203 202 198
245766.11895752 3357592.71661377 16.62629509 103 102 100
245767.74957275 3357592.42974854 16.54582214 201 194 184
245775.84851074 3357593.40063477 16.44590378 69 73 76
245768.11187744 3357592.99584961 16.96267700 136 120 120
245776.22576904 3357592.62506104 16.44175529 159 158 156
245770.05322266 3357593.31927490 16.48834610 187 186 182
245775.86901855 3357593.58184814 16.41125107 169 170 172
245768.87683105 3357593.21972656 17.15300560 230 211 213
245768.92749023 3357593.00335693 16.99531746 79 75 76
245766.77209473 3357593.65405273 16.73416138 56 61 64
245766.82775879 3357592.60626221 16.54972458 146 143 138
245772.99920654 3357593.33428955 16.43483353 206 203 194
245767.97064209 3357593.88031006 16.55105019 134 134 134
245766.90948486 3357593.95355225 16.49615479 95 99 102
245764.76531982 3357594.09143066 16.52516174 254 255 255
245764.97137451 3357592.10455322 16.57420158 94 90 87
245764.23431396 3357592.58392334 16.75914955 28 35 43
245767.82263184 3357593.08697510 17.25405121 40 31 34
245767.03692627 3357593.03808594 16.51898766 85 85 83
245766.29925537 3357593.80487061 16.59213829 113 118 121
245770.16143799 3357593.47399902 16.53583145 161 160 155
245765.84527588 3357593.87908936 16.56322098 105 109 112
245775.10748291 3357593.75988770 16.41479111 214 215 209
245776.02636719 3357594.07043457 16.42564201 160 160 158
245774.90704346 3357593.61779785 16.43164825 218 215 208
245768.04925537 3357593.78277588 16.58379364 105 103 104
245766.12518311 3357593.54663086 16.65276146 93 102 107
245765.29089355 3357593.91992188 16.54450607 178 179 181
245773.27923584 3357593.56854248 16.42572975 220 216 213
245767.88281250 3357594.13586426 17.26599693 96 71 77
245765.58868408 3357592.08587646 16.49608803 186 182 181
245767.87615967 3357594.09020996 17.15124512 139 120 124
245772.36260986 3357593.74212646 16.41916275 206 201 195
245768.16534424 3357592.99920654 16.84297752 77 63 63
245775.82989502 3357594.12689209 16.48239136 194 187 179
245771.72570801 3357593.11456299 16.45163536 218 215 208
245768.33428955 3357594.13977051 16.45769691 64 69 75
245767.40173340 3357592.65747070 16.51816177 192 184 173
245767.40844727 3357592.99432373 16.50156593 108 108 106
245765.60247803 3357593.12005615 16.84077072 21 28 36
245776.32452393 3357593.97351074 16.40751266 170 171 166
245765.54040527 3357593.42993164 17.05050087 40 43 48
245766.58892822 3357593.00482178 16.83133507 85 89 90
245764.06420898 3357592.50177002 16.94040298 69 74 78
245765.88189697 3357593.60705566 16.65988159 78 89 93
245768.16009521 3357593.66180420 16.55073929 53 52 57
245764.36126709 3357591.85827637 16.57496071 111 111 111
245776.14721680 3357593.56481934 16.39926147 120 120 120
245768.48474121 3357593.79821777 16.46854973 62 66 67
245775.33728027 3357593.49609375 16.76630592 86 79 73
245764.84356689 3357592.92578125 16.91367722 31 41 50
245765.94775391 3357592.46722412 16.60504150 191 184 176
245768.68225098 3357593.45635986 16.64244843 61 67 63
