245874.93640137 3357437.03265381 16.65545464 97 98 102
245873.71289063 3357430.00576782 17.02033997 67 72 76
245875.08050537 3357428.62094116 17.03843498 64 65 69
245875.68383789 3357431.25674438 16.90998077 94 98 99
245875.05120850 3357436.15225220 16.77419853 91 92 97
245874.96734619 3357433.73498535 16.90501022 75 60 39
245873.48828125 3357427.15856934 17.18173409 79 79 79
245875.77551270 3357434.40042114 16.82154083 74 78 81
245875.78497314 3357435.62368774 17.10514641 54 60 60
245874.83111572 3357432.94897461 17.16370583 36 39 44
245874.37622070 3357427.08361816 17.04851151 74 75 77
245875.60791016 3357433.52331543 16.94915009 65 69 70
245873.79241943 3357427.05682373 17.16853714 152 162 163
245875.21221924 3357429.89208984 17.28247261 41 45 48
245873.17907715 3357428.53030396 17.04349518 74 79 83
245875.58966064 3357433.81030273 16.82674217 97 102 105
245873.28460693 3357425.83938599 17.19282913 70 70 70
245873.58117676 3357428.43246460 17.10534477 60 63 68
245874.62823486 3357426.28466797 17.24241638 110 115 118
245873.28002930 3357426.17248535 17.20347786 60 63 68
245873.66680908 3357430.89675903 17.09313202 76 80 83
245873.82922363 3357434.85235596 17.15790939 69 74 77
245876.69000244 3357433.52978516 16.89076233 93 94 98
245876.23870850 3357435.38674927 17.08436012 118 117 122
245873.74475098 3357425.10632324 17.22771263 65 67 66
245875.64916992 3357433.49700928 16.98930931 98 102 103
245874.40600586 3357434.22674561 17.14149666 65 74 79
245873.50842285 3357435.28106689 16.84822083 70 76 76
245876.70697021 3357436.41418457 16.85574532 109 112 117
245873.73931885 3357430.83923340 17.09000778 75 79 82
245875.86639404 3357431.97583008 17.15147400 197 199 198
245874.33190918 3357427.20916748 17.05450058 76 78 77
245873.43041992 3357429.46685791 17.05796623 60 65 71
245874.93975830 3357430.10754395 17.01048660 79 81 80
245872.67749023 3357425.36203003 17.08327103 64 70 70
245874.25311279 3357432.60455322 17.33961868 165 177 189
245876.08001709 3357431.09036255 16.96307564 108 111 118
245872.18170166 3357423.64477539 17.07886314 88 90 89
245875.03704834 3357435.79742432 16.88336945 57 60 65
245874.27465820 3357432.03625488 17.30000496 58 63 66
245875.16864014 3357435.67944336 17.10073280 209 216 222
245876.72375488 3357437.42068481 16.81764984 81 84 89
245873.88818359 3357427.88012695 17.36705780 69 76 84
245874.13989258 3357433.31976318 17.38287354 217 228 234
245875.54089355 3357427.34951782 17.04762650 93 93 93
245875.98333740 3357433.97421265 16.88840485 62 66 65
245874.67193604 3357431.67657471 17.18287277 50 58 61
245875.48553467 3357427.52966309 17.08473206 128 122 124
245874.57250977 3357433.58111572 17.05754089 145 144 139
245876.49310303 3357436.31729126 16.93586159 46 49 54
245875.29156494 3357433.63906860 16.85647583 66 66 56
245874.15252686 3357431.12918091 17.07644844 75 79 80
245873.48156738 3357430.15890503 17.01679230 70 75 79
245874.45404053 3357433.41503906 17.41489601 218 216 221
245875.95611572 3357427.04086304 16.86053276 87 89 88
245875.53399658 3357425.12948608 16.91543579 95 94 89
245875.77252197 3357426.74606323 16.98576355 133 133 141
245874.98004150 3357428.75390625 17.00770187 68 72 75
245874.21630859 3357431.60189819 17.15435219 57 61 62
245872.97644043 3357427.27767944 17.01544571 114 120 120
245874.39520264 3357429.44567871 17.22356987 207 205 206
245874.62005615 3357430.64849854 17.05646324 51 52 54
245874.69860840 3357433.79745483 16.98714256 39 38 33
245873.76599121 3357429.54602051 17.01861572 46 51 57
245875.70233154 3357432.26055908 17.25032806 93 89 86
245874.47088623 3357432.05020142 17.32819748 148 148 150
245876.98846436 3357437.37338257 16.65280914 81 86 90
245874.04510498 3357431.31655884 17.07246208 45 46 48
245875.00506592 3357429.98565674 17.05097198 68 69 73
245874.74151611 3357424.31417847 17.03871918 60 62 61
245874.51666260 3357436.26315308 16.74071503 75 76 81
245874.18835449 3357430.39932251 17.05303955 81 84 89
245875.40203857 3357434.93997192 16.96631241 97 98 102
245875.49829102 3357426.04922485 16.98923874 97 97 97
245872.65765381 3357424.46343994 17.32808304 74 73 71
245876.68139648 3357433.66104126 16.91696739 89 90 94
245874.94378662 3357433.50634766 17.08596420 145 149 148
245876.24969482 3357435.78625488 16.99762154 182 183 187
245876.41107178 3357433.05575562 16.87607574 87 91 94
245874.05084229 3357430.77767944 17.07436752 139 140 144
245873.97570801 3357424.29074097 17.11695099 57 59 56
245875.00122070 3357432.57467651 17.22217941 174 169 176
245876.15447998 3357431.86840820 16.93723679 178 178 178
245875.45849609 3357424.31433105 16.79870605 91 92 87
245873.50354004 3357425.93576050 17.25182152 54 48 52
245874.36236572 3357429.01074219 17.04256248 54 59 62
245874.71929932 3357426.36511230 17.23383904 33 39 39
245876.63702393 3357435.48709106 16.91415596 87 87 87
245873.79553223 3357424.49642944 17.11777496 35 34 30
245875.25274658 3357430.19509888 17.44207382 62 61 66
245876.06652832 3357431.45996094 16.94186974 80 84 83
245875.69946289 3357433.04742432 17.17955971 77 79 76
245874.01885986 3357423.97463989 17.16806412 62 62 60
245876.27770996 3357433.73962402 16.95820427 79 84 87
245875.02447510 3357430.72351074 16.94515038 81 82 86
245872.60095215 3357424.15426636 17.29579353 105 96 97
245876.44958496 3357435.74111938 16.91464424 64 65 67
245875.19720459 3357430.58435059 17.31755447 147 145 146
245876.06982422 3357433.19885254 17.02775192 82 83 87
245875.30432129 3357428.04769897 17.05270958 58 58 60
245874.28735352 3357435.81311035 16.88201332 54 61 67
245874.42358398 3357430.84466553 17.06674194 67 71 74
245874.92041016 3357432.13494873 17.13262749 39 34 40
245874.18212891 3357435.45867920 16.90629387 33 38 42
245874.42468262 3357431.67660522 17.14920616 60 64 65
245875.93273926 3357435.15036011 17.06091690 233 240 250
245875.14282227 3357424.16281128 16.92153358 81 83 78
245876.84912109 3357437.52484131 16.70605278 79 82 87
245874.33013916 3357436.24224854 16.77592659 69 72 77
245874.24780273 3357429.26449585 17.25281143 75 73 76
245874.90570068 3357437.08706665 16.65208626 91 92 96
245876.00939941 3357427.65469360 16.87418747 79 79 79
245874.70709229 3357430.24618530 17.09270859 123 123 121
245876.36413574 3357430.98165894 16.96361160 106 111 115
245874.29870605 3357430.41351318 17.10955429 170 171 175
245875.51690674 3357424.49673462 16.78416443 92 92 90
245876.49609375 3357430.96438599 16.93523216 97 102 105
245873.57354736 3357427.12548828 17.14347267 96 100 99
245873.24133301 3357427.05062866 17.37966156 36 45 44
245875.53259277 3357432.19683838 17.23539162 90 88 89
245873.77893066 3357431.25439453 17.00057983 48 48 50
245872.88409424 3357427.31707764 16.94318008 94 93 98
245874.59765625 3357431.45281982 17.10845184 26 30 31
245875.02581787 3357427.78189087 17.02002525 74 75 77
245874.22766113 3357426.68417358 17.57349205 86 100 101
245872.47894287 3357423.74957275 17.42539978 33 29 30
245874.32751465 3357423.78787231 17.01921082 74 78 81
245875.79479980 3357428.38195801 16.98768425 77 78 82
245874.48272705 3357433.01800537 17.41685295 124 138 149
245874.19439697 3357432.77246094 17.26471138 110 114 123
245875.81738281 3357431.33218384 16.94317627 96 97 99
245874.67993164 3357435.79592896 16.94765472 53 56 63
245872.98156738 3357426.76275635 17.21080971 40 49 48
245872.89007568 3357427.29721069 16.94956207 94 93 98
245875.44573975 3357434.86370850 16.97499275 104 108 111
245874.00823975 3357426.30752563 17.27618790 41 43 42
245874.56115723 3357435.95281982 16.79651833 70 71 75
245874.23297119 3357429.64419556 16.97427368 61 62 67
245873.76019287 3357433.23104858 17.10163879 70 70 70
245875.71118164 3357427.48187256 17.01453400 98 94 95
245875.85235596 3357432.68627930 17.06462860 78 82 83
245875.52459717 3357425.08572388 16.90715027 94 93 88
245875.89044189 3357427.89215088 16.98161125 51 49 50
245876.14947510 3357432.51126099 16.93714333 65 66 68
245875.86358643 3357437.16226196 16.96904373 0 5 3
245875.92187500 3357428.45620728 16.92324257 110 110 112
245873.73205566 3357433.97174072 16.71505165 84 88 87
245874.98339844 3357428.16104126 17.04075050 59 64 67
245874.44927979 3357431.63061523 17.12912560 54 58 59
245874.16955566 3357426.15267944 17.40880203 98 118 125
245873.59124756 3357428.43347168 17.08261681 60 63 68
245876.35211182 3357430.61328125 16.96195984 91 94 99
245876.40399170 3357435.16012573 16.84564209 98 98 100
245873.79077148 3357426.57888794 17.05722237 30 34 35
245874.39898682 3357426.77639771 17.23569298 63 63 63
245874.58197021 3357434.24783325 17.04328918 68 69 73
245876.01556396 3357427.24682617 16.84771919 88 88 90
245874.04309082 3357430.43713379 17.05491829 77 82 85
245875.82708740 3357426.59231567 16.90975380 84 85 89
245876.02777100 3357432.00576782 16.94449043 187 187 185
245874.13769531 3357428.06072998 17.23469734 72 77 81
245875.51715088 3357424.58587646 16.79613876 91 93 90
245873.78076172 3357426.59036255 17.04879951 30 34 35
245874.65844727 3357431.26382446 17.09479523 25 25 25
245876.86541748 3357435.07470703 16.71660423 101 102 106
245874.53204346 3357430.55990601 17.08352852 91 91 91
245874.80194092 3357436.13903809 16.73580170 82 83 87
245876.60406494 3357436.96575928 16.77557182 65 70 76
245875.25085449 3357424.89224243 16.94079208 150 150 148
245874.72149658 3357431.39907837 17.09270668 48 48 48
245873.58764648 3357429.07458496 17.30533409 67 72 75
245874.95434570 3357433.24368286 17.13875580 58 59 64
245874.70159912 3357426.33789063 17.22792816 35 41 41
245875.62225342 3357425.40243530 16.92671585 90 90 88
245873.79705811 3357434.34118652 16.87855721 78 83 86
245874.39562988 3357434.29190063 17.03887749 127 130 139
245875.24682617 3357424.68081665 16.91457558 83 79 78
245873.89324951 3357427.73376465 17.35132408 81 88 96
245873.71551514 3357432.08676147 17.05075455 63 63 61
245873.93090820 3357426.51715088 17.17152023 23 28 24
245873.80078125 3357425.15939331 17.24803925 63 63 61
245875.38922119 3357429.03155518 16.91103172 84 84 84
245873.26135254 3357429.10351563 16.96176147 69 74 78
245875.83489990 3357427.71926880 16.99934769 117 113 112
245872.45794678 3357424.25949097 17.46754265 175 175 177
245875.10906982 3357434.19488525 17.00450706 82 83 85
245875.17651367 3357424.51306152 16.92737198 79 79 77
245875.30505371 3357436.88470459 16.80694199 53 54 56
245873.63201904 3357435.47454834 16.89064789 56 60 61
245875.88525391 3357430.07843018 16.93021584 92 101 100
245874.33026123 3357433.10867310 17.41717720 44 45 47
245875.83386230 3357432.03613281 17.18499374 193 193 195
245876.97912598 3357436.50048828 16.69290161 88 92 95
245873.80377197 3357426.96438599 17.28747559 208 227 225
245874.85278320 3357425.66625977 17.01918793 69 69 69
245874.16741943 3357429.63177490 16.96189499 51 52 56
245875.36590576 3357433.53027344 16.86369324 70 70 68
245872.32080078 3357423.89181519 17.65675926 223 222 228
245873.65899658 3357426.48663330 17.05649185 48 50 49
245874.76800537 3357436.47680664 16.72677231 83 84 88
245875.24859619 3357424.22781372 16.88148117 81 83 78
245874.23632813 3357426.11590576 17.43138504 141 165 175
245874.86303711 3357430.19400024 17.06318474 83 82 80
245874.31207275 3357430.04428101 16.97492599 64 68 71
245876.56341553 3357434.74926758 16.65881157 67 68 72
245875.91711426 3357428.11422729 16.94025421 79 83 86
245874.66674805 3357424.78143311 17.16784859 83 83 83
245874.07165527 3357427.75271606 17.16254997 80 85 89
245875.60083008 3357436.97598267 16.97335052 3 5 4
245875.07122803 3357430.23013306 17.16580582 60 62 61
245875.46148682 3357437.11166382 16.83199692 19 24 27
245875.41064453 3357432.83367920 17.30296326 115 116 120
245875.31610107 3357432.48065186 17.24682426 89 90 92
245872.74420166 3357425.29968262 17.10019112 45 49 52
245873.00811768 3357427.00433350 17.33385086 120 131 125
245874.84838867 3357435.58419800 17.18288231 71 78 86
245876.04010010 3357434.04452515 16.87358475 58 59 61
245874.76538086 3357424.05990601 17.03100967 58 58 58
245875.70764160 3357432.24377441 17.25083160 58 53 50
245875.69482422 3357426.61508179 17.00519371 66 66 74
245874.20300293 3357424.74868774 17.22772789 193 195 192
245875.87054443 3357426.18951416 16.83212471 100 102 101
245874.12274170 3357435.84017944 16.86790085 42 49 55
245876.00158691 3357435.92416382 16.98495674 122 126 135
245872.70269775 3357423.67633057 17.23235512 79 81 80
245872.81909180 3357424.28314209 17.20772934 17 21 22
245874.01837158 3357424.26174927 17.13410378 58 60 57
245874.12493896 3357429.79766846 16.96230316 62 63 68
245873.47222900 3357427.85928345 17.42411995 38 49 55
245873.73919678 3357432.81793213 17.09010506 60 65 61
245872.63842773 3357424.68829346 17.16253471 42 46 49
245874.58276367 3357431.65927124 17.16496086 61 69 72
245875.04272461 3357427.79992676 17.02230835 104 105 107
245873.78900146 3357429.25912476 17.32853889 84 89 95
245875.16589355 3357432.50854492 17.19200706 103 102 110
245875.64752197 3357434.48483276 16.83087540 81 85 88
245875.14935303 3357430.68582153 17.02176094 37 36 42
245874.54772949 3357427.94064331 17.09469604 72 77 80
245874.38745117 3357426.57006836 17.47378540 211 227 216
245875.18969727 3357434.37426758 16.95914078 63 71 73
245873.90545654 3357429.33480835 17.29767609 28 33 37
245874.73010254 3357430.28961182 17.11105156 116 117 112
245875.38232422 3357434.43927002 16.89473534 76 80 83
245875.79528809 3357425.77383423 16.84300804 92 92 90
245874.29949951 3357424.44418335 17.05591393 41 41 39
245875.38439941 3357431.47988892 16.99821472 84 84 86
245875.34747314 3357437.00439453 16.78704071 24 25 27
245876.14648438 3357435.95907593 16.96227074 69 72 77
245874.02166748 3357434.25228882 16.98424149 54 55 60
245873.87365723 3357428.46609497 17.04106140 57 61 64
245875.57452393 3357437.17498779 16.90420723 12 16 19
245872.72674561 3357427.13815308 16.96450233 33 35 34
245874.86370850 3357432.61282349 17.23381615 114 113 118
245874.30926514 3357432.57870483 17.40577698 202 215 224
245874.71960449 3357435.35714722 17.22252846 72 73 75
245873.85125732 3357433.80123901 16.77748108 73 77 80
245874.56768799 3357430.62359619 17.05976295 35 35 35
245874.90759277 3357428.35906982 17.04500771 70 73 78
245875.71563721 3357436.24475098 17.05361938 40 41 46
245876.68963623 3357433.51013184 16.88727570 91 92 96
245873.93475342 3357426.02044678 17.26861763 63 67 66
245875.73968506 3357424.81359863 16.77631378 96 97 92
245874.19714355 3357430.81616211 17.08721733 48 49 51
245876.63946533 3357435.01373291 16.73757553 89 90 92
245874.53350830 3357432.11526489 17.36740494 110 106 105
245875.04730225 3357434.93600464 17.00938606 79 84 88
245874.41986084 3357424.19848633 17.05035019 59 61 60
245874.24920654 3357432.51409912 17.32657814 178 188 198
245875.99755859 3357432.33758545 16.97907829 85 86 88
245872.74053955 3357425.28872681 17.09785271 34 38 41
245876.38928223 3357430.14230347 16.87599373 82 86 89
245875.37786865 3357436.11529541 16.89247513 79 78 83
245874.99774170 3357431.00360107 16.94394684 65 66 68
245872.89678955 3357424.05401611 17.11750793 42 44 43
245876.60272217 3357435.14654541 16.76865196 120 121 123
245873.94183350 3357433.92694092 16.80737495 75 79 78
245876.21374512 3357437.14868164 16.92438889 72 77 83
245874.47064209 3357433.77627563 17.11092377 144 142 147
245874.03247070 3357423.79922485 17.03800964 30 32 29
245874.43029785 3357425.32797241 17.16808701 146 145 143
245875.23846436 3357428.63818359 17.00059891 154 157 164
245875.32269287 3357436.77374268 16.81925583 64 65 69
245875.05120850 3357424.88793945 17.03464317 110 110 108
245876.20690918 3357432.22827148 16.86072731 73 73 71
245875.07659912 3357425.50250244 17.04848480 72 72 70
245874.02050781 3357433.38632202 17.32474899 206 206 208
245873.89642334 3357424.13967896 17.12268639 66 68 65
245874.93072510 3357424.33523560 17.00029945 64 66 65
245876.83337402 3357435.21267700 16.75280571 83 84 88
245872.99383545 3357426.22113037 17.22674561 66 71 75
245873.79614258 3357431.97711182 17.08730316 82 86 87
245876.07714844 3357435.67575073 17.08371353 4 8 11
245876.27508545 3357435.57208252 17.08276176 64 68 71
245876.56799316 3357435.73901367 16.91509056 70 71 73
245873.49548340 3357423.97045898 17.01118279 93 93 91
245875.97698975 3357432.52154541 17.01254463 80 86 86
245876.60198975 3357437.03729248 16.78057671 66 69 74
245874.12341309 3357433.54412842 17.23905945 52 51 31
245875.52618408 3357432.54129028 17.37973976 193 203 213
245873.20233154 3357428.85852051 17.03986168 76 81 85
245874.93267822 3357431.84973145 17.16798019 74 73 78
245875.42730713 3357432.49862671 17.31896782 83 86 93
245874.43218994 3357423.84527588 17.05692673 58 62 65
245874.16857910 3357428.22106934 17.10356712 63 67 70
245873.85540771 3357423.70373535 16.93451500 67 67 65
245874.68316650 3357431.68161011 17.18323135 50 58 61
245873.21215820 3357426.79440308 17.15166283 47 52 55
245874.19360352 3357434.32144165 17.04971886 149 149 159
245872.34844971 3357424.62515259 17.31015396 42 43 45
245874.92089844 3357430.61968994 17.04088974 84 85 89
245874.06665039 3357435.17181396 16.97659302 57 61 64
245874.49322510 3357434.52267456 16.94298553 41 48 58
245874.25006104 3357428.82489014 17.02633095 61 64 69
245874.91662598 3357424.00021362 16.98424339 44 46 45
245873.92523193 3357432.49890137 17.05266190 54 59 63
245875.73553467 3357425.30944824 16.85640144 96 97 92
245875.91412354 3357429.04687500 16.82412148 87 89 88
245874.72888184 3357433.42138672 17.17019081 137 137 135
245876.02288818 3357436.93478394 16.91654396 64 65 67
245874.25445557 3357431.39443970 17.12302589 56 60 63
245874.32318115 3357428.45715332 16.99333763 61 66 72
245872.76580811 3357424.67361450 17.15813637 124 125 127
245874.29919434 3357423.95779419 17.09022903 42 46 47
245875.36474609 3357429.71133423 16.94615173 55 55 53
245875.82177734 3357434.24554443 16.82899857 94 95 100
245874.16003418 3357429.63607788 16.96184158 51 52 56
245875.73693848 3357427.41683960 16.99272537 69 68 66
245874.35070801 3357433.18988037 17.50946236 135 135 137
245874.78204346 3357425.65206909 17.02517700 64 66 63
245872.70922852 3357424.81933594 17.10185242 51 55 56
245875.71276855 3357432.53070068 17.24453545 96 109 118
245876.47894287 3357436.60894775 16.89042664 83 86 91
245872.29681396 3357423.59341431 17.43243217 152 152 152
245875.13946533 3357433.00726318 17.06576920 60 68 71
245874.72967529 3357427.00756836 17.17248917 17 19 18
245873.17150879 3357425.67147827 17.16079140 15 19 22
245873.48846436 3357429.65518188 16.92703247 59 64 67
245872.17333984 3357423.68161011 17.43865204 111 112 114
245873.76202393 3357434.22760010 16.81694603 81 85 86
245874.18585205 3357427.54998779 17.07731056 59 64 67
245875.33154297 3357434.32946777 16.92451286 78 83 86
245875.24041748 3357428.38272095 17.04993629 67 77 79
245874.48907471 3357425.39620972 17.14420128 158 160 159
245875.15563965 3357426.77172852 17.06519890 68 73 79
245873.68707275 3357423.69705200 16.92452049 94 96 91
245877.10058594 3357437.31838989 16.64456749 87 92 96
245873.92529297 3357424.51531982 17.32151222 129 122 112
245875.62963867 3357434.45989990 16.83596039 79 83 86
245874.72869873 3357428.49896240 16.97564507 57 60 65
245875.38507080 3357428.01828003 17.07344246 46 48 47
245875.61773682 3357432.03128052 17.27516556 183 173 172
245874.84558105 3357425.88385010 17.03691101 35 36 38
245875.97186279 3357433.75256348 16.93737221 55 59 60
245874.64807129 3357431.18969727 17.07849884 50 50 52
245875.29748535 3357429.97073364 17.51993561 50 49 54
245875.09216309 3357425.41156006 17.04011917 66 62 61
245875.66076660 3357437.09310913 16.97831726 53 54 56
245874.89190674 3357436.11633301 16.74274063 89 88 94
245873.63037109 3357425.27496338 17.20200348 72 74 73
245874.80590820 3357434.03338623 17.02410698 69 73 74
245875.99121094 3357430.95983887 16.90204430 155 163 176
245874.54907227 3357430.41711426 17.10640717 35 35 37
245875.90362549 3357426.10467529 16.80995369 102 102 104
245874.90167236 3357435.02371216 17.13085556 58 62 65
245873.84283447 3357434.95150757 17.07616234 67 72 75
245875.87103271 3357431.41268921 16.93661690 70 72 71
245872.86267090 3357427.20150757 16.99080276 76 80 79
245874.00933838 3357426.64675903 17.40922737 25 35 34
245874.34625244 3357431.19274902 17.10671806 67 68 70
245876.20751953 3357429.10809326 16.77196693 90 91 93
245874.42974854 3357428.28323364 17.04165459 27 34 40
245874.16125488 3357427.00439453 17.03473282 38 39 41
245872.74023438 3357426.67602539 17.09196091 61 59 62
245875.33221436 3357432.91439819 17.19946861 54 56 55
245875.63134766 3357436.99472046 16.98212051 25 27 26
245876.23400879 3357437.02749634 16.90471458 71 76 82
245873.83288574 3357425.74322510 17.25496101 72 72 70
245874.88494873 3357426.23794556 17.16731071 38 48 50
245875.91406250 3357435.98596191 16.98309708 50 51 56
245874.87249756 3357435.55990601 17.21063423 42 49 55
245872.87445068 3357427.91821289 16.96474457 76 81 85
245874.54071045 3357431.82455444 17.24895287 102 107 113
245876.56420898 3357434.86141968 16.67571449 74 75 77
245874.83618164 3357428.60287476 17.00011635 66 70 73
245874.76287842 3357433.36575317 17.19713593 152 152 154
245876.85491943 3357437.49603271 16.70605850 81 86 90
245875.09503174 3357431.20022583 17.03275108 83 84 86
245874.59790039 3357427.17675781 17.14807320 68 73 77
245875.70513916 3357436.28067017 17.06373596 43 44 49
245874.36938477 3357427.09017944 17.04769897 74 75 77
245875.34094238 3357428.07965088 17.05564690 65 65 67
245874.30151367 3357434.12881470 17.29602242 3 8 14
245876.71765137 3357436.09646606 16.89033699 125 129 140
245874.56262207 3357434.24246216 17.04592133 67 68 72
245873.30480957 3357428.31701660 17.07573891 71 79 81
245875.99017334 3357430.69906616 16.97814178 171 179 192
245875.18695068 3357436.87405396 16.70979309 85 86 90
245873.92742920 3357426.75244141 17.41377258 34 44 46
245875.18444824 3357435.40567017 17.12088203 66 66 68
245873.33801270 3357428.73422241 17.26409531 71 76 80
245873.89678955 3357426.74304199 17.39096451 48 59 61
245874.63580322 3357432.56903076 17.30864143 39 40 42
245874.47589111 3357431.91519165 17.27264595 129 130 135
245875.49383545 3357425.44296265 16.99646187 90 90 88
245873.71954346 3357434.88064575 16.96024704 77 81 82
245874.59350586 3357427.18786621 17.14649010 68 73 77
245875.86431885 3357434.54611206 16.74292755 75 83 85
245875.68469238 3357424.53201294 16.74260902 88 87 83
245875.24725342 3357430.85977173 16.74394989 100 102 99
245876.26068115 3357435.54656982 17.09080505 72 73 77
245874.77435303 3357436.85739136 16.68150139 93 94 98
245873.41168213 3357429.16140747 17.12641144 72 77 81
245875.76068115 3357426.17544556 16.87452126 93 95 94
245872.86590576 3357427.49407959 16.94225121 63 67 68
245874.37158203 3357424.32766724 17.04969025 49 51 50
245875.09210205 3357435.22366333 17.02675056 59 63 64
245875.86291504 3357433.65924072 16.98400307 135 141 141
245874.46423340 3357430.38885498 17.11648941 112 113 115
245876.00646973 3357431.81396484 16.93254471 121 123 122
245876.63305664 3357432.38796997 16.81539154 87 88 92
245875.57177734 3357424.09237671 16.74468231 73 74 69
245875.95397949 3357433.59948730 17.01721573 175 183 186
245873.75866699 3357431.85906982 16.98866081 78 84 84
245875.31018066 3357427.82186890 17.07480240 58 59 63
245876.37255859 3357430.29061890 16.92126656 83 87 90
245875.63732910 3357429.89755249 17.46967125 45 44 49
245876.26269531 3357431.63748169 16.96049118 104 105 107
245875.27203369 3357431.97436523 17.07869911 77 77 77
245874.48522949 3357426.92218018 17.11479759 66 72 70
245876.63293457 3357433.36749268 16.86556053 93 94 98
245875.45989990 3357436.16622925 16.94158363 70 71 75
245875.35565186 3357427.99850464 17.07024002 44 44 46
245875.40710449 3357429.05905151 16.90278435 85 85 87
245873.85913086 3357432.92501831 17.10849190 57 58 60
245873.27062988 3357426.09219360 17.23399162 115 116 120
245876.29168701 3357431.17248535 16.97294807 109 110 115
245874.45324707 3357430.12719727 16.99606514 68 68 70
245875.81787109 3357436.44625854 17.01785469 86 86 94
245874.34552002 3357434.31503296 17.01158524 151 158 168
245876.10095215 3357429.18316650 16.79220200 93 94 96
245873.57110596 3357435.10324097 16.86270142 80 86 86
245876.99066162 3357435.93371582 16.83461380 216 217 235
245873.97692871 3357427.04803467 17.02305412 28 32 35
245873.40350342 3357429.31115723 17.07525635 67 72 76
245875.12713623 3357435.60806274 17.31448936 82 87 93
245875.74877930 3357434.76507568 16.74532890 82 92 93
245875.26556396 3357435.73114014 17.05497551 84 75 78
245873.88726807 3357429.16448975 17.15830994 39 44 48
245873.12768555 3357428.37286377 16.96381950 71 76 80
245876.33044434 3357436.87173462 16.87494087 61 64 69
245874.59399414 3357428.83721924 16.96101761 57 60 65
245873.38195801 3357427.84506226 17.37871361 52 61 70
245875.95220947 3357426.94628906 16.85393333 82 83 85
245873.89703369 3357426.20788574 17.20749474 55 59 58
245874.67639160 3357435.42620850 17.21081924 33 36 41
245875.58117676 3357429.81832886 17.52438354 146 143 150
245874.80310059 3357424.16653442 17.02449226 63 63 63
245874.61309814 3357434.42285156 16.99169159 55 58 63
245874.41296387 3357429.28466797 17.31012154 196 192 193
245876.52764893 3357432.14221191 16.83649254 87 88 90
245875.26721191 3357430.29379272 17.46353149 131 134 139
245876.49792480 3357434.38388062 16.77493477 82 86 89
245876.08447266 3357428.74597168 16.81208229 70 70 70
245874.87762451 3357435.02517700 17.14324951 56 60 61
245873.50146484 3357429.71691895 16.90981865 63 68 71
245875.95458984 3357428.96496582 16.83676720 80 82 81
245876.35241699 3357435.18554688 16.91909218 133 134 136
245873.40258789 3357429.61999512 16.91397858 65 70 74
245875.90386963 3357426.78576660 16.89897156 118 117 122
245872.83514404 3357427.18218994 16.99456024 78 80 79
245875.53485107 3357429.74279785 17.23844337 166 161 165
245872.41479492 3357424.94897461 17.09263420 54 62 64
245872.70867920 3357426.05505371 17.04840279 31 37 37
245876.59960938 3357432.96389771 16.82626724 87 91 92
245876.18859863 3357432.41375732 16.91107178 83 84 88
245873.57830811 3357429.04760742 17.29410744 62 67 70
245876.14642334 3357433.86660767 16.90887642 85 89 92
245874.77325439 3357432.15570068 17.21537399 51 39 43
245874.38299561 3357435.39648438 17.06576920 36 39 44
245872.50921631 3357425.28778076 17.05947876 49 53 54
245875.21649170 3357424.86172485 16.94707489 83 83 81
245873.85205078 3357424.92147827 17.31678963 74 74 76
245876.17602539 3357429.31286621 16.76651573 91 92 94
245876.44628906 3357435.41607666 16.99506187 54 55 57
245873.95672607 3357433.59661865 16.96998215 27 29 16
245876.00646973 3357429.10482788 16.81023026 92 93 95
245875.98809814 3357427.51986694 16.88251686 83 83 81
245875.34313965 3357429.12084961 16.91167068 82 83 85
245873.55993652 3357426.61343384 17.00305176 41 43 40
245875.17877197 3357430.26083374 17.29171753 62 67 70
245874.04412842 3357433.75192261 16.92191505 54 53 49
245875.55621338 3357431.73913574 16.98971939 93 93 93
245874.71075439 3357429.97436523 16.91449547 72 73 75
245874.30303955 3357430.53097534 17.07566643 132 135 140
245875.46258545 3357425.50723267 17.01182175 84 86 83
245874.27691650 3357434.31320190 17.10294533 45 48 53
245876.14935303 3357430.21664429 16.98432732 82 90 92
245876.02752686 3357432.57376099 16.98779297 86 90 93
245874.20843506 3357429.70620728 16.96687126 57 58 62
245873.99761963 3357432.03384399 17.21901131 47 52 55
245874.91137695 3357430.31210327 17.10313606 85 85 83
245876.14764404 3357432.18704224 16.87255859 71 71 69
245875.91735840 3357431.27398682 16.93716621 149 151 150
245874.48907471 3357435.11718750 17.15291595 49 50 54
245875.25976563 3357432.87191772 17.21763611 35 39 40
245875.39312744 3357429.75628662 16.99572754 55 53 54
245876.80926514 3357437.06915283 16.69022751 70 73 78
245874.41680908 3357436.22286987 16.76533699 73 74 78
245874.62182617 3357435.55444336 17.17439842 20 23 32
245875.84423828 3357426.16143799 16.83917427 100 102 101
245874.47265625 3357432.63934326 17.41448975 38 39 43
245874.36053467 3357429.15591431 17.18187523 46 51 54
245873.54968262 3357429.27212524 17.33874321 83 86 93
245872.18420410 3357423.68176270 17.56848907 74 75 77
245873.97039795 3357425.67526245 17.30302238 72 77 73
245873.83990479 3357435.80496216 16.99598694 83 88 92
245874.44818115 3357426.78503418 17.18563271 57 57 57
245877.13537598 3357436.99490356 16.65796661 77 82 86
245872.81494141 3357426.13641357 17.10092926 79 83 86
245873.40667725 3357428.29043579 17.19041443 47 51 54
245876.69415283 3357433.15319824 16.82363129 87 88 92
245874.23736572 3357429.41101074 17.17326736 132 131 129
245873.82360840 3357423.94601440 17.08765793 74 75 70
245873.82330322 3357424.91473389 17.30660820 74 74 76
245875.93798828 3357428.24041748 16.91167831 96 100 103
245873.48028564 3357428.07562256 17.34428978 32 37 41
245875.06054688 3357428.90725708 17.01243782 83 84 88
245875.91076660 3357434.16094971 16.84430122 41 42 46
245874.54290771 3357433.98226929 17.11593437 55 57 56
245875.47406006 3357424.98880005 16.89628983 89 88 86
245875.54577637 3357426.22091675 17.00089645 83 88 84
245873.71899414 3357431.18841553 17.01611137 68 70 69
245876.09545898 3357430.61801147 17.01177597 134 138 141
245875.09533691 3357432.96331787 17.10507393 139 148 153
245875.36791992 3357435.30291748 17.12349510 76 75 80
245873.88751221 3357425.24450684 17.30607224 74 76 71
245873.89739990 3357433.38458252 17.20925522 110 104 106
245873.13671875 3357425.58895874 17.16986465 35 39 40
245873.62677002 3357424.02221680 17.04390526 80 81 76
245872.72058105 3357427.49740601 16.89875221 81 82 84
245874.67102051 3357432.04269409 17.32465935 200 198 201
245874.87139893 3357432.08990479 17.17810440 45 40 44
245876.70251465 3357435.51745605 16.88888741 89 89 87
245874.63513184 3357426.37579346 17.29843330 43 49 49
245874.56866455 3357433.12371826 17.39395905 114 128 139
245874.21392822 3357425.29180908 17.36371803 214 213 211
245876.48840332 3357436.53295898 16.91370392 129 132 141
245874.59210205 3357426.36071777 17.31650352 23 32 31
245873.41625977 3357435.52819824 16.85006523 50 56 56
245875.99853516 3357435.13012695 17.05368614 184 193 200
245876.16326904 3357436.03900146 16.94539833 116 118 130
245876.00384521 3357428.41226196 16.88094521 65 65 65
245874.78405762 3357426.98886108 17.16411400 20 22 21
245873.77716064 3357430.84814453 17.08117104 72 76 77
245874.42608643 3357426.55288696 17.44740295 125 135 124
245873.87084961 3357427.32882690 17.09211922 59 64 67
245874.94476318 3357433.50936890 17.08102989 184 189 183
245875.32116699 3357431.07846069 16.94816399 87 89 88
245875.28027344 3357425.09667969 17.02029037 166 168 167
245876.81884766 3357433.88604736 16.82820702 88 89 93
245873.81555176 3357430.98358154 17.05643654 77 81 84
245872.41851807 3357425.48748779 17.05169487 47 50 55
245875.26104736 3357435.24688721 17.00385284 68 69 71
245873.01007080 3357425.75164795 17.11186218 44 46 41
245875.35473633 3357426.17898560 17.10692787 109 114 117
245874.29705811 3357427.84570313 17.08996391 60 64 67
245873.48321533 3357426.20950317 17.12084961 38 41 46
245875.87359619 3357437.18011475 16.96881294 0 2 3
245873.70202637 3357434.27667236 16.81278610 84 88 89
245876.59216309 3357431.70632935 17.05798149 143 142 138
245875.37115479 3357427.92340088 17.08413124 85 86 88
245874.16973877 3357427.56048584 17.07913208 46 51 54
245873.35839844 3357426.80432129 17.05681801 59 64 67
245872.26452637 3357423.47839355 16.93510056 56 58 57
245874.12915039 3357429.26266479 17.19237518 31 32 37
245873.16241455 3357428.63064575 17.05449295 71 76 80
245875.48559570 3357429.78790283 17.43554306 140 137 144
245872.60650635 3357425.21505737 17.04292870 47 51 52
245876.33673096 3357431.96511841 16.86952782 208 208 210
245874.17114258 3357426.84194946 17.25087357 24 30 28
245872.33557129 3357424.33239746 17.48442078 148 147 152
245873.21868896 3357425.80490112 17.16595840 55 59 60
245874.47351074 3357426.67678833 17.36337090 46 52 50
245875.55755615 3357433.98416138 16.85498810 96 100 101
245876.58392334 3357432.65847778 16.81489372 87 91 92
245875.13146973 3357434.21240234 17.00610542 80 81 83
245873.29302979 3357423.75082397 16.96329308 89 91 88
245873.46087646 3357429.16445923 17.18511200 65 69 72
245874.73327637 3357434.98034668 17.18791771 57 58 63
245874.85601807 3357435.14904785 17.16406441 53 57 58
245875.94342041 3357431.45986938 16.92977333 72 76 77
245876.01458740 3357433.66180420 16.98709488 114 118 121
245876.61871338 3357432.20825195 16.82579231 81 82 86
245872.77593994 3357425.82452393 17.08436584 55 55 55
245874.58294678 3357435.92260742 16.80926704 69 70 74
245874.70849609 3357425.53839111 17.06105614 65 67 64
245876.24639893 3357430.45458984 16.99124336 86 91 94
245874.09460449 3357434.46017456 17.10022926 94 93 99
245875.33416748 3357430.87304688 16.77793121 107 109 108
245876.24554443 3357433.66052246 16.96070862 75 79 82
245875.47711182 3357427.87551880 17.11266327 114 116 115
245875.77947998 3357427.51004028 16.98395538 130 124 126
245874.96008301 3357424.53427124 17.00073814 61 61 63
245875.11486816 3357428.41149902 17.06871986 202 209 215
245875.09149170 3357433.82437134 16.90588570 54 56 51
245873.95556641 3357430.12991333 16.99622726 70 73 78
245874.42895508 3357433.21353149 17.52045822 226 226 234
245875.69567871 3357432.16387939 17.28301811 192 183 184
245874.98962402 3357425.04586792 17.14495850 208 206 207
245874.28100586 3357429.86282349 16.97459984 60 65 68
245875.28216553 3357426.14233398 17.12116432 119 127 130
245873.64764404 3357427.08526611 17.15129471 101 106 102
245875.06060791 3357428.12200928 17.04807854 64 69 73
245875.26293945 3357434.25433350 16.95905113 80 84 87
245873.71185303 3357429.54797363 17.03204918 44 51 57
245876.19714355 3357436.62411499 16.89760590 29 30 35
245874.12011719 3357429.49594116 17.05261993 25 26 30
245876.29357910 3357432.71221924 16.88459778 87 88 92
245872.14044189 3357423.68270874 17.07601166 51 51 51
245874.68762207 3357428.18713379 17.00305748 117 118 120
245874.16638184 3357434.17190552 17.16497040 34 38 49
245875.32061768 3357432.41357422 17.20536613 91 93 92
245874.19702148 3357431.71185303 17.17563629 60 64 65
245876.19671631 3357430.48229980 17.00733948 90 95 98
245875.12097168 3357435.90499878 16.83808327 67 66 72
245874.63482666 3357433.37371826 17.22180939 142 141 147
245874.60876465 3357426.22216797 17.21727180 116 126 128
245877.03118896 3357436.12744141 16.78433609 75 76 80
245875.01184082 3357427.54531860 17.10386848 148 153 156
245874.34503174 3357429.80120850 16.99176598 62 63 67
245875.61102295 3357431.12683105 16.87692451 79 83 86
245874.63586426 3357434.06130981 17.05257797 81 82 84
245875.92333984 3357432.04061890 17.01935768 216 218 217
245876.14257813 3357430.18038940 16.97998238 76 84 86
245875.90295410 3357432.66448975 17.03824425 82 84 83
245873.73846436 3357427.76458740 17.43688965 41 48 56
245873.70953369 3357432.53082275 16.95960426 49 53 52
245875.46124268 3357435.35348511 17.17441559 76 79 86
245874.33782959 3357434.88192749 17.08166695 150 153 160
245873.35998535 3357427.21252441 17.24593925 51 57 55
245875.70593262 3357426.97381592 16.97608948 17 15 18
245873.21942139 3357424.87826538 17.08539772 51 53 52
245872.72698975 3357425.79589844 17.09200478 47 48 50
245873.45568848 3357424.50991821 17.13392830 78 78 78
245874.56628418 3357433.88931274 17.06513023 47 47 47
245873.50292969 3357427.34631348 17.17095947 37 38 42
245874.90704346 3357436.70431519 16.69367409 96 97 101
245876.72320557 3357434.57540894 16.70226288 91 92 94
245874.02539063 3357424.78787231 17.37688828 141 145 146
245874.11590576 3357432.68002319 17.17182922 181 185 194
245873.41125488 3357429.17590332 17.12191963 72 77 81
245873.32519531 3357429.12759399 17.03104782 76 81 85
245874.63873291 3357424.24429321 17.04060745 63 63 63
245873.63763428 3357425.63958740 17.22110176 29 29 27
245875.42218018 3357431.69006348 16.99948120 86 86 86
245875.32366943 3357425.23327637 17.01021576 100 102 97
245874.54876709 3357433.50473022 17.11150551 60 62 57
245876.50360107 3357431.10144043 16.94871330 98 106 109
245874.89801025 3357435.48205566 17.19811630 42 45 50
245875.14440918 3357435.26394653 17.02037430 60 60 60
245876.40618896 3357430.92117310 16.94877243 105 108 113
245875.73272705 3357425.85955811 16.87027931 90 90 90
245876.70837402 3357436.47598267 16.84575653 127 131 134
245876.33428955 3357435.53726196 17.05579185 111 115 118
245873.47888184 3357426.83438110 17.08349991 60 69 68
245875.67907715 3357432.39950562 17.28581238 32 36 37
245875.19366455 3357429.55163574 16.92376900 74 76 75
245875.10052490 3357432.07189941 17.09572792 44 42 43
245875.30358887 3357426.09829712 17.09451485 125 133 135
245875.03094482 3357426.25610352 17.18359947 109 117 120
245873.51800537 3357429.54501343 17.06239891 54 59 63
245874.43048096 3357424.22769165 17.04423904 59 63 62
245874.93762207 3357435.74960327 16.96579742 87 87 95
245874.89324951 3357429.13937378 17.12032890 69 70 75
245876.87615967 3357436.23419189 16.78952217 38 39 41
245873.88867188 3357429.52096558 17.13047791 92 93 97
245874.64532471 3357435.34103394 17.23912239 60 64 67
245875.32971191 3357435.25735474 17.05266953 76 76 78
245876.51086426 3357435.35479736 16.93790627 87 88 90
245874.60607910 3357433.93188477 17.04918480 65 66 68
245876.29101563 3357431.81231689 16.96987152 187 187 187
245874.31402588 3357431.69021606 17.16378212 68 72 71
245873.16955566 3357423.87490845 17.02490997 86 86 84
245876.21588135 3357430.69320679 16.96729851 107 112 116
245876.28710938 3357435.49703979 17.07416153 108 109 114
245874.42022705 3357430.04940796 16.97532654 68 69 71
245874.49481201 3357432.60064697 17.40281677 42 46 49
245874.60571289 3357431.71307373 17.20414162 70 80 82
245872.78454590 3357424.43951416 17.29507065 91 90 88
245876.12969971 3357435.33288574 17.11780167 62 63 67
245873.36596680 3357427.10028076 17.27617073 50 51 53
245875.44763184 3357436.19857788 16.93352890 62 63 67
245875.82427979 3357430.19354248 17.08887100 55 60 63
245874.56945801 3357430.28146362 17.15230560 83 83 83
245875.89227295 3357432.36416626 17.04691887 73 73 73
245873.88555908 3357425.05636597 17.30185509 65 65 65
245872.64904785 3357426.68222046 17.03610039 64 62 67
245872.46545410 3357423.99783325 17.47983742 158 150 148
245875.98944092 3357430.78067017 16.94195938 168 181 200
245875.15557861 3357433.63040161 16.90584564 206 201 172
245875.17346191 3357427.73751831 17.05314064 77 81 84
245872.32550049 3357424.11193848 17.56982422 152 150 155
245875.62994385 3357430.20404053 17.37746429 58 59 61
245876.01141357 3357428.93423462 16.82406235 85 85 85
245873.88995361 3357434.46520996 17.01557732 46 51 55
245874.14318848 3357427.97650146 17.23388290 90 95 99
245873.84149170 3357428.47811890 17.03475952 61 65 68
245874.43481445 3357432.77716064 17.39096451 13 16 21
245876.02673340 3357435.53765869 17.14843369 74 73 79
245875.20916748 3357436.12951660 16.81495285 82 81 86
245873.65344238 3357423.89199829 17.01115227 80 82 77
245875.22351074 3357423.93725586 16.87525558 77 82 76
245873.00885010 3357426.00030518 17.12262344 64 65 67
245874.16052246 3357430.28030396 16.97848892 71 74 79
245874.56414795 3357434.35635376 16.98106384 60 64 67
245873.67303467 3357429.99041748 17.01760292 69 74 78
245872.59729004 3357423.60089111 17.18549728 33 33 33
245873.20117188 3357425.76647949 17.15081596 63 67 70
245876.51873779 3357431.71914673 17.03805923 140 139 137
245875.22473145 3357433.14782715 17.05928040 66 70 73
245872.67016602 3357426.16027832 17.11392784 23 28 31
245873.99194336 3357435.53274536 16.95041275 35 39 42
245876.36651611 3357435.10278320 16.78328896 23 23 25
245875.85235596 3357427.92178345 17.00841522 29 29 29
245874.73406982 3357425.73098755 17.02887154 61 61 61
245874.76611328 3357424.08367920 17.03111458 62 62 62
245876.79522705 3357434.60571289 16.69301033 90 91 93
245873.86535645 3357430.96478271 17.06048584 74 75 77
245875.07611084 3357433.02951050 17.06872940 17 25 28
245873.78527832 3357427.74670410 17.42721176 51 60 69
245875.95989990 3357435.69305420 17.07233238 129 134 137
245875.56835938 3357431.06259155 16.84732437 85 86 90
245874.62402344 3357425.42532349 17.10203552 99 99 97
245873.93090820 3357434.52096558 17.10503006 45 49 58
245873.59826660 3357426.45251465 17.05710983 53 54 56
245875.74829102 3357429.31002808 16.77548027 96 97 99
245876.02935791 3357432.37713623 16.96112061 88 92 91
245876.25012207 3357435.26190186 17.05897713 202 203 205
245872.41821289 3357423.46304321 16.88779640 67 69 68
245876.05401611 3357434.86917114 16.67518044 113 117 120
245875.61102295 3357436.49972534 17.04996681 16 18 17
245873.21270752 3357427.01318359 17.40179253 55 65 64
245875.70208740 3357433.74789429 16.88462448 52 56 59
245875.42730713 3357437.06042480 16.83051872 15 21 21
245874.91369629 3357424.99960327 17.13964653 161 160 158
245875.15722656 3357431.30233765 17.01458931 58 59 63
245875.69403076 3357431.50155640 16.95655441 83 83 83
245876.10919189 3357433.32403564 17.02099419 83 87 90
245873.42620850 3357424.86746216 17.14931488 73 75 74
245874.51489258 3357424.37637329 17.04328728 43 43 43
245875.38409424 3357425.89624023 17.00911331 50 55 49
245875.15051270 3357427.61944580 17.05520248 65 66 70
245874.12426758 3357429.36614990 17.21909904 6 10 11
245875.34466553 3357435.88815308 16.94001579 54 52 55
245874.19506836 3357430.42242432 17.06771088 92 95 100
245873.84259033 3357434.10333252 16.80865479 83 84 88
245876.05084229 3357431.57400513 16.92937469 65 69 72
245875.54516602 3357436.97692871 16.95559692 21 25 26
245875.03851318 3357426.45245361 17.16892624 28 34 32
245875.84375000 3357425.66012573 16.82348061 90 90 90
245875.51202393 3357433.22021484 17.08816719 57 59 56
245873.83990479 3357425.54986572 17.29903412 79 81 78
245874.89819336 3357426.99353027 17.11047935 47 48 50
245874.72497559 3357424.16873169 17.04047394 61 61 61
245872.77777100 3357427.47372437 16.89786530 69 73 76
245874.77807617 3357428.45181274 16.99407196 63 66 71
245876.22186279 3357434.27154541 16.81304932 79 84 87
245874.07470703 3357434.45715332 17.09456253 94 93 99
245873.84020996 3357427.33828735 17.10187912 62 67 71
245875.02185059 3357433.11260986 17.05448341 37 42 45
245873.84313965 3357427.67169189 17.33004761 69 74 80
245876.00939941 3357427.24411011 16.84957314 89 89 91
245874.20739746 3357425.91390991 17.33458900 37 42 45
245875.00195313 3357433.70761108 16.89809799 131 110 83
245875.10931396 3357430.30206299 17.19161987 31 33 32
245876.29913330 3357437.08746338 16.90351486 69 72 79
245876.17132568 3357433.96948242 16.87929153 82 86 87
245873.55334473 3357429.26547241 17.33829880 83 86 93
245876.45544434 3357431.13372803 16.96171188 104 109 112
245873.61737061 3357427.60458374 17.25535393 64 75 81
245874.20831299 3357426.53762817 17.55377960 222 243 236
245875.13702393 3357431.65264893 17.00315094 27 27 25
245874.24145508 3357429.42047119 17.14258003 181 180 178
245874.58709717 3357426.48602295 17.33512878 9 15 15
245874.97125244 3357429.50680542 17.01063728 80 80 80
245874.02154541 3357424.16665649 17.14584351 65 65 63
245873.99810791 3357435.19616699 16.95449638 53 57 60
245875.88171387 3357436.36590576 16.99080467 52 53 58
245873.19226074 3357435.52474976 16.79016685 55 64 63
245873.56756592 3357425.75222778 17.22832680 117 119 118
245876.17346191 3357429.98672485 16.84710121 72 80 82
245877.15051270 3357437.43426514 16.63475609 88 93 97
245874.49530029 3357424.51779175 17.06107330 78 80 79
245872.92462158 3357423.79406738 17.12767792 82 82 82
245874.07366943 3357433.62612915 17.00340462 148 151 132
245874.37548828 3357433.71527100 17.15798759 161 158 167
245876.53637695 3357432.14407349 16.83601952 87 88 90
245876.01599121 3357434.30651855 16.81098175 70 75 79
245875.46447754 3357432.79565430 17.32938194 197 199 211
245873.68371582 3357429.08181763 17.26899719 55 59 62
245874.83026123 3357430.04391479 16.91932297 85 89 92
245874.97644043 3357433.72418213 16.90024948 71 58 39
245874.46520996 3357428.05276489 17.15687370 82 85 90
245874.97235107 3357434.89862061 17.07104683 92 97 103
245875.92028809 3357437.24926758 16.96912575 9 13 14
245873.95166016 3357430.78155518 17.06596375 89 93 94
245874.89208984 3357428.24554443 17.03641129 64 69 73
245875.51550293 3357435.67333984 17.14061928 114 115 119
245875.47991943 3357425.63543701 16.99741173 82 84 79
245873.71899414 3357431.96658325 17.06924438 72 72 72
245875.92999268 3357437.16119385 16.95821762 5 9 10
245875.80786133 3357433.52117920 17.06669426 119 123 126
245875.63403320 3357430.80148315 16.85267639 218 225 241
245875.77215576 3357429.82226563 16.78200150 60 61 63
245875.19458008 3357427.84869385 17.04869461 79 84 87
245874.26879883 3357432.80603027 17.35882759 100 109 118
245873.81976318 3357434.92596436 17.07470703 67 72 75
245876.25140381 3357430.39508057 16.98348808 84 89 92
245873.91790771 3357433.31997681 17.21506691 141 136 140
245872.93432617 3357427.45898438 16.97142029 62 63 65
245873.77954102 3357432.20349121 16.97213554 59 60 62
245873.07568359 3357424.09887695 17.05309486 53 58 54
245875.41003418 3357424.92727661 16.89925385 76 76 74
245876.44299316 3357436.24645996 16.93354607 94 94 104
245875.28472900 3357436.45031738 16.81702614 78 78 80
245875.67083740 3357431.90026855 17.14128113 115 115 113
245874.22473145 3357432.76736450 17.32741547 94 102 113
245876.38336182 3357433.86352539 16.93053436 82 87 90
245874.86584473 3357436.69033813 16.69716454 91 95 98
245873.47534180 3357427.75668335 17.34925270 59 68 75
245875.93707275 3357434.92892456 16.90447998 140 153 159
245874.08789063 3357434.62667847 17.21317482 61 66 72
245875.31622314 3357430.27102661 17.48887444 207 210 215
245876.60888672 3357434.02182007 16.87362289 87 88 92
245873.88562012 3357427.44982910 17.13735199 67 72 76
245876.24847412 3357430.02252197 16.89845657 77 82 86
245876.34735107 3357432.06353760 16.83215523 59 59 59
245875.31799316 3357435.73690796 17.06025314 98 83 88
245873.36749268 3357428.90664673 17.17595863 72 77 81
245876.93011475 3357437.36380005 16.67772102 83 88 92
245876.77563477 3357435.97048950 16.88212967 222 225 240
245872.46685791 3357423.55218506 17.04409599 36 36 36
245874.00408936 3357429.42514038 17.25656700 19 24 28
245874.57757568 3357425.88024902 17.07308578 32 36 39
245874.34222412 3357429.11657715 17.14060783 50 55 58
245873.81811523 3357424.45895386 17.09408188 37 33 30
245874.17840576 3357427.22058105 17.03688240 76 77 79
245875.04205322 3357435.08486938 17.03048325 64 65 69
245876.04205322 3357430.68429565 16.99649811 158 165 175
245872.99401855 3357423.73168945 17.05931091 119 119 119
245873.68212891 3357427.99490356 17.45008659 191 192 194
245876.50939941 3357436.69830322 16.84885597 37 38 43
245875.13043213 3357435.62768555 17.25091553 42 45 54
245874.68688965 3357433.62380981 16.99781036 189 182 166
245875.19335938 3357432.53311157 17.22044563 116 115 121
245875.16632080 3357431.76867676 17.03035545 57 57 57
245874.36956787 3357426.98687744 17.05835342 67 68 70
245874.81811523 3357427.41235352 17.23230171 156 172 195
245874.86859131 3357432.41439819 17.15843773 53 53 55
245876.54406738 3357432.94216919 16.83628845 87 91 92
245873.55908203 3357424.58294678 17.20420456 72 72 70
245876.10552979 3357433.33032227 17.02321815 78 82 85
245874.64221191 3357426.24273682 17.20674896 114 122 125
245874.95989990 3357435.59744263 17.18040657 39 46 52
245875.10601807 3357434.18725586 17.00395775 80 81 83
245874.28747559 3357435.46884155 16.95313644 34 39 43
245877.00878906 3357437.04492188 16.66236115 78 83 89
245876.04132080 3357430.66265869 17.00578880 166 171 177
245874.50042725 3357433.69357300 17.05990601 157 155 160
245875.89105225 3357436.62887573 16.97301102 93 96 103
245872.21813965 3357424.36004639 17.43769646 74 78 79
245874.63537598 3357423.87252808 17.06555176 24 28 29
245876.53363037 3357436.53698730 16.90175056 101 106 112
245874.52972412 3357433.88958740 17.09718513 46 44 45
245875.74542236 3357435.24020386 17.09247780 95 96 100
245876.28271484 3357435.78131104 16.99092865 80 81 85
245874.08007813 3357432.26666260 17.22294426 33 38 41
245873.83105469 3357423.93078613 17.08755302 75 76 71
