245883.77294922 3357420.56204224 16.75033569 100 101 103
245888.56549072 3357411.95428467 17.14166069 79 79 79
245882.88317871 3357421.60424805 16.81788445 56 57 59
245886.07775879 3357415.13815308 17.05253601 71 70 75
245883.64514160 3357414.18115234 16.99216270 68 71 76
245882.98919678 3357419.76046753 16.96561813 86 87 89
245881.44750977 3357420.10961914 16.85279083 116 117 112
245884.15582275 3357413.10256958 17.36162949 112 114 113
245881.98822021 3357414.61398315 16.98803711 128 130 129
245883.38549805 3357415.36633301 16.88675690 108 108 108
245887.91583252 3357411.93359375 17.36363602 154 154 164
245884.00775146 3357413.15478516 17.08868217 41 45 46
245882.33154297 3357413.56985474 17.11598587 72 76 79
245884.58886719 3357415.84008789 16.96827507 45 51 51
245882.36401367 3357413.98794556 17.03351593 55 55 57
245884.57958984 3357419.16699219 16.69716454 124 123 119
245882.28033447 3357412.99511719 17.47541618 54 64 73
245885.33288574 3357417.47805786 17.10079765 80 79 75
245883.86157227 3357416.33331299 16.91189194 92 92 92
245887.92053223 3357412.72583008 17.22953987 102 110 112
245883.49377441 3357415.54885864 16.89897919 108 108 108
245883.27178955 3357419.09048462 16.91480064 64 71 77
245883.52563477 3357418.13430786 16.83983231 71 71 69
245884.32312012 3357413.94842529 17.14196396 89 105 104
245886.37304688 3357414.82446289 17.15929794 116 115 111
245882.35375977 3357419.08346558 17.21821022 109 107 110
245885.44183350 3357416.40945435 16.93793297 104 105 100
245885.14801025 3357417.75354004 17.53310204 101 101 99
245884.72900391 3357415.19076538 17.00412750 76 78 77
245882.98095703 3357418.36120605 16.95710945 147 141 129
245883.23809814 3357412.02502441 16.87361336 101 101 99
245881.98388672 3357414.75708008 17.08388138 130 131 133
245882.40832520 3357417.55056763 17.05310440 82 83 85
245883.70672607 3357416.99749756 16.89842987 100 102 101
245888.06939697 3357414.33450317 17.14838028 106 106 106
245882.97521973 3357417.07669067 16.85771370 128 127 122
245884.61096191 3357414.67236328 17.23413277 134 140 138
245884.03637695 3357418.27832031 16.77039909 123 122 120
245884.26239014 3357415.93701172 16.97849083 44 48 49
245883.72821045 3357412.39208984 16.94914436 75 77 76
245883.48181152 3357418.01193237 16.90604973 55 55 55
245884.79852295 3357414.47201538 17.09149170 64 64 64
245885.11755371 3357418.40164185 16.73232651 151 152 146
245882.65557861 3357416.16149902 17.06726265 100 101 103
245883.62860107 3357419.12365723 16.89827538 60 63 68
245883.27905273 3357417.65390015 17.11412621 81 81 83
245885.72222900 3357417.23205566 16.91725731 130 127 118
245882.86492920 3357416.25048828 17.40096283 52 54 51
245881.39831543 3357418.77835083 16.89807892 130 129 127
245881.86669922 3357413.88491821 16.96326828 113 118 114
245881.78649902 3357420.03149414 17.03487206 106 106 104
245884.31542969 3357416.89767456 16.79666710 91 95 96
245883.52563477 3357419.10864258 16.90607071 51 61 63
245882.90661621 3357413.09014893 17.52724075 119 124 127
245884.79217529 3357415.06280518 17.07694435 61 63 62
245882.81451416 3357414.20089722 17.07758331 92 93 95
245882.94458008 3357417.88150024 17.10115433 99 103 104
245886.84826660 3357415.48468018 17.10330772 116 115 110
245884.30938721 3357412.59838867 17.44596100 123 126 133
245885.32324219 3357416.74298096 17.20869446 73 73 71
245887.72283936 3357414.13888550 17.07233238 54 58 57
245881.79943848 3357417.78436279 17.10510635 117 118 120
245883.25726318 3357419.07055664 16.93605232 64 71 77
245883.78698730 3357417.44644165 17.29585648 187 197 196
245881.99865723 3357413.77328491 17.05457687 16 21 24
245882.17358398 3357420.89117432 16.96385193 64 63 68
245883.46166992 3357412.78588867 17.04512024 40 39 37
245884.59851074 3357413.23730469 17.40443039 64 68 71
245884.06323242 3357416.49105835 16.98194695 142 135 125
245886.69757080 3357415.27230835 17.27766418 139 135 124
245883.58660889 3357417.38687134 17.26315689 88 88 88
245883.48394775 3357415.94976807 16.98671532 98 99 94
245883.13299561 3357412.24429321 16.87615776 76 76 74
245884.64428711 3357413.58163452 17.26160240 31 32 36
245882.39190674 3357420.93066406 16.98913956 66 66 66
245883.81268311 3357412.74887085 17.40991211 46 51 55
245887.89501953 3357412.04284668 17.37234116 180 186 200
245883.45452881 3357412.93038940 17.08382988 98 98 96
245886.08764648 3357415.42401123 16.99380875 36 39 44
245888.13854980 3357413.91549683 17.46153831 170 170 172
245886.95452881 3357411.45156860 16.79667282 110 111 106
245886.11578369 3357416.91220093 16.82730675 159 156 149
245882.35498047 3357417.96136475 17.44907761 92 93 97
245885.28918457 3357417.30908203 17.17843437 131 130 128
245885.57714844 3357414.56094360 17.16484642 65 64 62
245884.57165527 3357415.57656860 16.97702026 60 61 63
245881.53405762 3357418.49597168 16.96286392 163 160 155
245884.75988770 3357419.45620728 16.71313477 120 120 118
245887.88464355 3357413.00848389 17.18308830 68 81 90
245881.82122803 3357414.03515625 16.94905090 118 120 117
245887.71563721 3357411.33480835 17.23761368 213 212 217
245882.37756348 3357414.85653687 17.19351196 115 119 120
245882.42254639 3357415.86038208 16.94305992 98 99 101
245882.64556885 3357412.57467651 17.34781075 187 180 164
245883.90209961 3357419.64321899 16.75949669 95 96 98
245888.51690674 3357413.85208130 17.31384277 81 82 84
245882.46191406 3357413.48718262 17.11157036 45 50 54
245888.58666992 3357412.58108521 17.09212303 78 78 80
245882.25848389 3357413.65670776 17.11587715 45 46 50
245882.61791992 3357417.63195801 17.33598900 143 157 158
245887.90527344 3357413.84024048 17.01811218 59 65 65
245882.62976074 3357417.45489502 17.05011177 85 99 100
245888.08355713 3357414.35235596 17.16127968 112 112 112
245885.12548828 3357415.66497803 17.32717133 127 129 126
245882.92254639 3357416.07662964 16.91220284 83 85 82
245883.09454346 3357414.27624512 17.08608818 79 83 84
245882.71685791 3357422.23645020 16.71926498 111 111 109
245885.57940674 3357416.68713379 16.88588333 98 99 94
245883.14605713 3357419.63256836 16.85043335 91 92 94
245884.72698975 3357414.47061157 17.11664391 87 89 86
245884.63336182 3357412.21884155 17.08569717 49 50 54
245881.51214600 3357417.17013550 16.87940407 127 127 129
245883.74865723 3357419.95092773 16.84665298 115 125 127
245881.76623535 3357420.44754028 17.03863907 57 58 53
245884.73663330 3357416.60830688 16.93113327 39 43 44
245884.29351807 3357420.54156494 16.77791977 110 114 113
245881.50781250 3357417.64251709 16.92423820 123 123 125
245887.36779785 3357410.91494751 16.86355400 115 114 110
245885.64550781 3357415.66842651 16.83049965 148 132 117
245882.57275391 3357419.52191162 17.20443916 94 98 101
245887.93780518 3357411.73245239 17.30522919 84 75 80
245888.58245850 3357412.78445435 17.17067337 84 84 86
245882.16839600 3357420.17810059 17.12261391 90 92 91
245884.55218506 3357416.12173462 16.93208885 52 57 60
245883.72735596 3357419.60305786 16.73522949 90 91 93
245885.13543701 3357414.85156250 17.32299042 87 86 84
245882.03027344 3357414.43002319 16.94740295 112 114 113
245882.86602783 3357412.45495605 17.47057343 197 195 196
245885.88616943 3357415.57763672 16.82019806 46 45 40
245884.88922119 3357412.40051270 16.93383217 46 52 52
245884.46093750 3357417.21936035 16.94350052 103 103 103
245882.37188721 3357421.19946289 16.98843193 81 80 85
245883.15008545 3357420.52233887 17.02020836 36 37 41
245883.57598877 3357411.95938110 17.10971451 50 50 58
245886.16168213 3357415.54797363 16.90993118 37 40 45
245882.99835205 3357414.57073975 17.16374397 90 94 97
245883.02044678 3357412.52493286 17.11414528 133 135 134
245884.10913086 3357417.86929321 16.88547707 46 46 46
245888.30480957 3357414.42233276 17.31923485 98 100 99
245885.04290771 3357418.44113159 16.72350121 144 149 145
245883.23553467 3357420.09030151 16.93807030 114 120 120
245883.25311279 3357419.28131104 16.82629204 81 84 89
245883.27600098 3357416.25595093 16.86302567 131 128 123
245884.25079346 3357412.82113647 17.42356682 36 37 39
245883.34106445 3357415.21377563 16.91139412 100 102 101
245882.25885010 3357412.53100586 17.19483566 65 63 64
245882.40447998 3357416.60025024 16.97970009 123 123 115
245886.62933350 3357415.77157593 16.83734894 54 56 55
245884.69281006 3357413.26577759 17.37428093 25 29 32
245882.31072998 3357413.99371338 17.03925705 51 50 55
245883.39868164 3357417.89013672 16.97689438 44 44 46
245882.07183838 3357417.40179443 17.07347488 118 118 120
245885.04687500 3357411.94113159 17.10360336 60 60 60
245887.98968506 3357412.15554810 17.39712334 162 161 166
245888.86132813 3357411.78924561 17.12240791 79 81 78
245887.95971680 3357411.60839844 17.25899696 150 147 154
245884.59020996 3357416.91955566 16.80941582 84 89 92
245882.89135742 3357417.86734009 17.15912056 140 145 148
245882.40716553 3357416.74258423 16.96784210 127 124 117
245883.92163086 3357419.76159668 16.79663086 99 101 100
245883.48522949 3357412.07000732 16.98927498 76 75 80
245883.03363037 3357412.53305054 17.28884125 46 46 46
245885.26306152 3357417.69635010 17.51776886 109 110 112
245882.22729492 3357417.32534790 17.08980560 108 108 110
245884.10089111 3357414.38333130 17.10023499 144 146 145
245885.29156494 3357415.61453247 17.22636795 57 56 52
245883.33972168 3357413.18917847 17.00833130 70 70 72
245887.77569580 3357413.25201416 17.12043571 50 57 67
245882.69512939 3357412.10067749 17.30639839 59 68 67
245881.65930176 3357418.49893188 17.01252174 133 133 131
245883.99865723 3357414.52117920 17.19088745 87 91 92
245883.85089111 3357414.27795410 16.98747063 83 92 91
245884.45343018 3357413.64016724 17.18269539 51 57 55
245881.66510010 3357418.07015991 16.97382164 127 129 126
245882.70843506 3357412.34591675 17.29552841 201 194 166
245882.38543701 3357413.09118652 17.40870094 99 106 114
245885.49591064 3357417.17874146 17.00320435 100 99 95
245882.64025879 3357420.31994629 17.24724007 75 75 77
245888.41253662 3357414.69747925 17.05197334 87 89 88
245882.25170898 3357415.71682739 17.03453445 106 106 104
245883.93121338 3357414.92358398 16.91854095 81 86 82
245884.61492920 3357412.92190552 16.87378120 71 75 76
245883.37902832 3357415.08538818 16.83997536 98 98 96
245888.42987061 3357414.56286621 17.12665558 81 83 82
245883.62573242 3357419.17193604 16.86845207 47 48 53
245886.50164795 3357415.07113647 17.30627823 117 114 109
245884.81976318 3357411.84490967 17.18280602 49 49 51
245886.59448242 3357415.55767822 17.14135551 43 49 49
245883.58807373 3357420.28479004 16.81140709 120 123 130
245883.32739258 3357419.58694458 16.79905701 96 97 99
245885.15637207 3357417.23168945 17.40485764 152 156 159
245881.37091064 3357417.81930542 16.87857628 132 133 135
245888.08306885 3357411.80798340 17.40100479 83 78 82
245881.89654541 3357418.97360229 17.23857307 95 96 98
245882.83850098 3357412.91723633 17.53400993 42 48 48
245885.76818848 3357416.28182983 16.80666733 153 151 138
245881.45971680 3357417.13366699 16.86916542 127 127 129
245882.51947021 3357413.13726807 17.31902695 33 43 44
245882.24310303 3357415.91857910 17.02952957 93 93 93
245881.60083008 3357419.69961548 17.00523949 122 116 116
245883.71044922 3357412.84490967 17.34831619 93 94 96
245884.24835205 3357420.51113892 16.78045845 111 115 114
245882.72418213 3357412.05346680 17.27242470 217 225 227
245885.50183105 3357414.90191650 17.30440521 49 48 46
245884.42987061 3357417.19421387 16.92432213 103 105 104
245884.83471680 3357415.46926880 16.96893692 87 89 86
245888.78997803 3357412.35025024 17.07717514 89 90 92
245884.95324707 3357415.78225708 17.05104446 45 47 46
245884.12463379 3357414.65640259 17.29367447 23 31 34
245884.19226074 3357417.86599731 16.90036392 43 43 45
245881.62280273 3357413.17065430 16.96661186 121 123 118
245885.03723145 3357416.60449219 17.20399094 18 22 31
245885.57775879 3357415.35269165 17.33915520 30 34 37
245884.28240967 3357414.71920776 17.14994621 43 47 48
245886.37658691 3357415.07440186 17.21102524 122 119 114
245882.47943115 3357416.55548096 16.98246193 123 120 113
245882.51306152 3357421.38897705 16.98176384 64 63 68
245883.36126709 3357419.84024048 16.86323738 78 79 83
245881.93750000 3357412.90011597 17.29762459 234 238 239
245885.00195313 3357418.71582031 16.70742989 138 135 130
245884.59393311 3357413.92245483 17.32064247 178 177 175
245881.81854248 3357413.95382690 16.95557594 117 119 118
245884.16717529 3357412.14566040 17.24221230 54 58 59
245888.66778564 3357414.13800049 17.11625671 99 99 99
245882.59179688 3357417.90179443 17.56991768 171 184 190
245883.40600586 3357414.01779175 16.97840309 59 62 69
245884.39196777 3357417.91732788 16.94334984 37 37 37
245884.15093994 3357417.86611938 16.89306641 45 45 45
245886.40289307 3357415.78057861 16.90781593 59 60 62
245883.57727051 3357416.81127930 16.82954025 105 105 105
245883.58721924 3357420.45303345 16.76134872 103 107 108
245883.52819824 3357417.18807983 17.01112556 94 100 100
245888.09027100 3357414.23468018 17.20769691 98 98 98
245881.70092773 3357417.59149170 17.01036835 124 125 127
245883.61004639 3357417.28515625 17.15074730 70 70 72
245883.69757080 3357417.37182617 17.27741051 165 179 179
245885.10290527 3357417.86016846 17.48000336 111 112 114
245882.76806641 3357411.92626953 17.04271698 93 97 98
245882.67968750 3357414.58807373 17.10530281 100 104 105
245884.72802734 3357416.66876221 16.88346672 54 59 62
245885.93420410 3357415.91641235 16.77991295 163 164 148
245883.86437988 3357420.51788330 16.75366592 100 101 103
245884.31549072 3357412.26229858 17.49367332 49 52 57
245884.25128174 3357420.49850464 16.78305054 100 106 106
245884.04833984 3357412.34997559 17.13733864 120 125 129
245884.94482422 3357417.36926270 17.17992401 66 79 85
245882.97528076 3357415.96807861 16.94266510 89 93 96
245881.78387451 3357413.60012817 17.04794312 131 133 132
245882.53350830 3357418.00753784 17.47956848 94 97 104
245883.91766357 3357418.44680786 16.77565575 127 122 119
245888.68951416 3357412.93447876 17.19898224 76 77 81
245881.98181152 3357418.09008789 17.09044647 106 107 111
245881.47949219 3357417.91644287 16.92127609 122 126 127
245883.54492188 3357414.49066162 16.98547554 70 75 79
245882.95648193 3357420.58261108 17.19926262 84 85 89
245884.51330566 3357415.33489990 16.93364906 80 85 81
245884.88073730 3357412.31829834 16.93056488 24 30 30
245884.85546875 3357412.05010986 16.95469475 56 60 63
245882.47528076 3357420.42678833 17.23886681 89 90 95
245887.23016357 3357415.83444214 17.00071335 111 110 106
245883.56896973 3357418.45498657 16.75426292 83 82 78
245884.22521973 3357418.37423706 16.75509453 131 130 126
245887.55541992 3357411.07174683 17.19177437 110 103 97
245884.68939209 3357414.11145020 17.18902969 28 30 29
245882.42333984 3357417.78509521 17.61837959 205 223 225
245882.19183350 3357417.71572876 17.07649040 97 98 103
245883.88549805 3357419.29730225 16.77342796 88 92 95
245882.44549561 3357417.43164063 17.03851509 95 97 96
245884.96734619 3357411.92462158 17.09732437 68 69 71
245884.46923828 3357419.12365723 16.69434166 129 128 126
245883.13049316 3357412.86700439 17.37621117 193 196 201
245885.34088135 3357416.58428955 17.06783676 59 57 58
245883.42535400 3357413.93725586 16.95758247 59 62 67
245883.84118652 3357417.59408569 17.20725632 141 146 150
245883.70062256 3357417.69555664 17.16015816 45 43 48
245883.89648438 3357419.12542725 16.82740402 77 81 82
245882.63232422 3357419.24234009 17.18648529 109 113 116
245882.85253906 3357412.14346313 17.07477570 187 197 198
245884.87506104 3357417.23318481 17.03947830 98 100 99
245882.89471436 3357418.07650757 17.06092262 51 53 52
245882.66638184 3357418.98477173 17.17906570 146 148 145
245883.25372314 3357418.65411377 16.85001373 98 100 99
245885.93188477 3357416.69305420 16.80873871 148 144 132
245884.43756104 3357411.89285278 17.35657692 35 38 43
245883.10247803 3357418.77645874 16.94870186 95 100 104
245884.67773438 3357416.47326660 16.99245453 45 50 54
245883.34979248 3357414.34487915 17.00946808 71 75 76
245884.40972900 3357413.46862793 17.14587212 38 39 43
245883.34265137 3357418.41787720 16.75440216 107 107 97
245886.33306885 3357415.86959839 16.82662964 73 70 65
245881.76361084 3357413.40701294 17.02801132 116 118 115
245881.87280273 3357419.69293213 17.16942787 123 108 113
245888.81451416 3357412.67193604 17.12268829 86 87 89
245884.45141602 3357413.48638916 17.18013954 52 53 57
245884.87115479 3357413.24285889 17.11383438 66 66 58
245881.89874268 3357419.00955200 17.21529388 159 159 167
245884.02838135 3357419.93432617 16.82987595 87 88 90
245881.15460205 3357418.40985107 16.78789520 125 127 124
245885.97845459 3357414.61737061 16.82126045 72 71 67
245887.27099609 3357414.40069580 17.18516159 59 59 59
245881.67840576 3357418.70541382 17.20983505 238 229 224
245883.10998535 3357412.76922607 17.34177780 212 216 219
245885.64825439 3357416.87658691 16.90476799 96 95 91
245883.35644531 3357415.49249268 16.92366219 108 110 109
245886.06597900 3357415.98498535 16.76591301 155 158 147
245883.32257080 3357417.04870605 16.88098907 113 113 111
245885.50531006 3357417.90127563 16.83894539 61 63 62
245881.61407471 3357413.09344482 16.97310638 120 122 117
245884.34753418 3357412.87033081 17.33144379 41 42 44
245887.81842041 3357414.28002930 17.00081444 84 88 91
245884.79022217 3357415.31488037 16.99641228 88 88 86
245882.88043213 3357412.53674316 17.53564072 187 192 196
245886.33825684 3357415.08822632 17.15198326 120 119 114
245883.31085205 3357419.94729614 16.90370941 92 96 95
245886.05456543 3357416.45608521 16.77156067 163 155 142
245884.72650146 3357418.82980347 16.70490837 137 136 132
245884.23095703 3357416.64138794 16.87122536 68 70 69
245888.44085693 3357412.37380981 17.07381439 67 68 70
245887.99774170 3357413.51235962 17.31774139 70 73 78
245882.92156982 3357417.03887939 16.83873177 132 131 126
245888.33410645 3357414.71566772 17.09244919 99 99 99
245882.28741455 3357420.97631836 16.98003197 67 67 67
245884.45147705 3357411.84591675 17.36691666 32 36 39
245883.79443359 3357417.79574585 17.00463676 40 40 42
245881.92578125 3357418.27548218 17.04921341 109 110 112
245881.95806885 3357416.65347290 16.98011017 111 113 108
245884.06506348 3357418.35079956 16.76430702 131 130 128
245883.25866699 3357416.04980469 16.97637177 102 103 98
245884.08325195 3357419.55892944 16.75493622 97 99 98
245886.44012451 3357415.09909058 17.25362587 116 115 110
245881.72521973 3357413.50787354 17.00650024 120 122 119
245888.04791260 3357414.63916016 17.08980942 108 110 109
245885.60968018 3357417.71887207 16.88981438 97 99 96
245885.63800049 3357417.43130493 16.94277191 125 123 111
245885.90093994 3357417.18499756 16.89454269 74 71 64
245881.73352051 3357416.78259277 16.92954254 112 114 113
245887.22430420 3357414.69165039 17.18618965 100 100 98
245884.39593506 3357412.44692993 17.47390175 30 33 38
245883.51202393 3357417.65548706 17.10239601 70 69 74
245882.16094971 3357414.69363403 17.17271423 121 125 126
245884.10223389 3357412.33023071 17.19738960 40 48 50
245887.58709717 3357414.38018799 17.13342094 61 61 61
245882.70196533 3357419.03576660 17.22745705 107 111 112
245881.88830566 3357419.15447998 17.12370300 131 132 137
245883.82110596 3357417.96209717 16.83771133 59 57 58
245882.27105713 3357416.59667969 16.99896431 123 122 117
245884.86779785 3357412.14773560 16.93528557 52 56 59
245882.39062500 3357412.74066162 17.15038872 135 137 134
245881.50396729 3357417.96697998 16.92988777 123 127 128
245881.74188232 3357419.26782227 17.02588844 97 95 96
245883.74224854 3357419.27838135 16.79772186 83 83 83
245881.76696777 3357418.03033447 17.03138161 118 119 121
245882.35595703 3357420.33520508 17.22064781 96 97 102
245884.16241455 3357420.63885498 16.75635147 114 116 115
245882.57861328 3357421.47903442 16.91328621 78 77 83
245883.19488525 3357421.77508545 16.75449562 89 89 89
245882.40637207 3357416.10827637 17.05794716 45 46 50
245884.03509521 3357412.43933105 17.21820450 237 242 245
245886.48413086 3357414.81451416 17.33324432 112 108 105
245886.69305420 3357416.11618042 16.77464104 152 140 128
245887.90533447 3357412.76214600 17.19793701 129 134 138
245884.77764893 3357414.50820923 17.10151482 146 148 147
245884.23388672 3357416.35958862 17.08336449 62 64 63
245884.36260986 3357413.99084473 17.22710228 94 106 104
245883.89508057 3357415.07345581 16.84747696 91 91 91
245887.76312256 3357411.03076172 17.15717888 66 67 62
245885.01965332 3357415.59378052 17.23473740 112 113 108
245884.05828857 3357416.65838623 16.84467316 91 93 90
245888.15704346 3357412.96792603 17.33685875 121 116 120
245884.20385742 3357412.28384399 17.33510590 59 63 64
245887.79626465 3357414.39840698 16.99372673 83 84 86
245883.97576904 3357417.98220825 16.82778549 93 89 88
245884.39520264 3357412.35510254 17.55081940 67 68 72
245882.94677734 3357421.64392090 16.80405426 64 64 64
245882.89978027 3357414.90188599 17.25815964 109 113 112
245883.13830566 3357417.99603271 16.96659088 56 55 53
245887.51245117 3357414.69467163 17.17464638 106 108 105
245888.60302734 3357414.33728027 17.09461594 91 93 90
245882.68237305 3357420.55380249 17.16728592 77 81 84
245882.17694092 3357413.44192505 17.21521187 13 17 18
245888.01715088 3357413.64959717 17.30077553 46 49 54
245885.84613037 3357417.86941528 16.93917274 72 76 77
245884.94415283 3357417.48858643 17.28375816 196 210 223
245882.23193359 3357413.37197876 17.21547508 0 1 0
245884.39312744 3357414.96954346 16.96372986 66 70 69
245887.90325928 3357413.28094482 17.20242691 9 18 27
245883.19677734 3357415.20410156 17.07533073 102 106 107
245888.12420654 3357414.27713013 17.23297882 100 100 100
245883.96594238 3357419.41976929 16.73702049 84 85 87
245882.78643799 3357412.84954834 17.53399849 109 118 117
245881.74072266 3357417.64865112 17.04769897 122 123 125
245882.74676514 3357416.40164185 17.36371231 61 60 55
245882.98736572 3357421.42922974 16.91475677 196 195 201
245884.14050293 3357415.05279541 16.90376091 78 80 79
245886.74804688 3357415.45596313 17.15742302 123 127 126
245883.03002930 3357418.05261230 16.97327995 55 55 53
245883.22436523 3357413.57855225 17.07548141 87 91 90
245883.12298584 3357413.00030518 17.39285469 223 228 232
245884.15002441 3357414.55578613 17.28834724 188 192 191
245882.15374756 3357413.58505249 17.17564583 90 92 91
245884.69775391 3357412.10275269 16.99864388 49 53 56
245887.97637939 3357412.53811646 17.38499641 126 133 139
245881.75219727 3357417.38269043 16.97120094 128 129 131
245881.81921387 3357418.36450195 17.02521515 115 117 116
245882.30249023 3357418.10052490 17.19986534 95 96 98
245887.27160645 3357415.90628052 16.94097519 84 84 82
245883.63659668 3357418.73953247 16.85425186 97 95 96
245882.46289063 3357421.83081055 16.72025871 85 85 83
245883.12103271 3357419.82229614 16.89554214 75 80 83
245887.77398682 3357412.96041870 17.13560104 35 39 48
245884.83050537 3357415.76049805 16.98172951 46 50 51
245882.44604492 3357421.06796265 16.99449730 77 77 77
245886.00958252 3357416.30416870 16.77549171 84 80 71
245882.29534912 3357415.20996094 17.15167618 103 106 111
245886.33551025 3357415.98577881 16.80212593 94 87 79
245888.16235352 3357411.14340210 17.06960487 58 59 63
245882.53350830 3357419.44760132 17.18824196 96 97 101
245886.29772949 3357416.10992432 16.78954506 154 150 139
245882.66412354 3357421.29452515 17.01528931 90 91 95
245886.08380127 3357415.01834106 16.98069191 97 101 102
245882.91119385 3357417.77975464 17.29904938 173 184 190
245883.78259277 3357416.08575439 16.85910225 87 89 88
245886.70080566 3357415.27059937 17.27750778 139 135 124
245887.71844482 3357413.76852417 17.06034470 64 73 72
245882.89593506 3357417.32116699 16.95058250 96 100 99
245883.74163818 3357420.37234497 16.77654457 95 96 98
245887.84069824 3357411.76046753 17.15785980 197 194 211
245881.35076904 3357417.67053223 16.84121132 122 123 125
245882.00762939 3357414.18246460 16.97841454 104 104 102
245887.95043945 3357412.44940186 17.29211807 107 115 118
245885.12854004 3357415.71710205 17.30446815 98 100 99
245883.06762695 3357414.85351563 17.25833511 101 103 102
245882.48187256 3357419.54052734 17.18863678 78 79 83
245882.13226318 3357413.69778442 17.12590027 20 24 27
245881.98919678 3357420.42993164 17.15846634 21 29 32
245883.13415527 3357412.70764160 17.15773010 48 48 50
245883.57458496 3357416.42947388 16.82403946 107 109 104
245885.27929688 3357417.64135742 17.53458595 99 103 104
245884.37707520 3357416.46963501 17.13385582 38 43 47
245888.45355225 3357414.70370483 17.00243759 92 94 93
245884.35223389 3357412.26867676 17.49645233 49 52 57
245882.95721436 3357413.10861206 17.53417969 133 137 140
245884.91711426 3357414.15756226 17.11037827 64 64 64
245884.75720215 3357412.92175293 16.81460190 57 61 64
245883.49517822 3357412.82409668 17.24691963 97 95 96
245884.85327148 3357419.05300903 16.70136452 132 129 124
245883.61621094 3357417.87973022 16.95078278 44 44 44
245883.45599365 3357420.17782593 16.86746025 113 118 122
245884.08514404 3357416.03442383 16.91684723 62 64 63
245888.06140137 3357411.71115112 17.35372162 88 84 85
245882.95727539 3357412.25930786 17.05204582 144 150 150
245883.14990234 3357421.00643921 16.93968010 86 92 92
245885.02062988 3357414.31512451 17.13858986 71 69 70
245885.41467285 3357416.82983398 17.07022858 86 86 86
245882.88354492 3357414.25613403 17.07156754 89 91 90
245884.77551270 3357417.39334106 17.07357597 97 98 100
245883.12139893 3357420.39984131 17.06734848 171 174 179
245882.61126709 3357421.41186523 16.97636795 68 69 73
245887.98254395 3357413.77322388 17.14557266 78 81 86
245882.03491211 3357417.94741821 17.11499596 103 104 108
245884.28076172 3357415.93276978 16.97995758 41 42 46
245884.38067627 3357415.62783813 17.01687622 49 50 52
245884.83471680 3357413.00885010 16.78493881 55 59 60
245881.94116211 3357417.97668457 17.10483551 109 110 114
245883.29229736 3357417.97293091 16.94988632 54 54 54
245887.79760742 3357414.40676880 16.98993111 83 84 86
245887.29785156 3357411.29275513 16.96178055 104 102 103
245883.62133789 3357411.84588623 17.09766960 57 60 65
245884.91473389 3357418.24398804 16.77353668 80 80 82
245884.49114990 3357414.06887817 17.32500839 104 104 104
245883.87542725 3357415.20031738 16.80983353 96 96 94
245881.78118896 3357417.31192017 16.97388268 129 130 132
245881.28631592 3357418.04989624 16.86648941 126 128 127
245881.68395996 3357419.51489258 17.01478004 118 112 112
245885.01477051 3357418.73858643 16.70622635 143 140 135
245883.03521729 3357416.81311035 16.85998344 121 120 116
245883.87414551 3357416.15917969 16.88633728 92 94 93
245882.41632080 3357419.91400146 17.14069939 67 61 61
245886.55535889 3357414.91958618 17.36318970 112 111 106
245884.33911133 3357416.10696411 16.96208382 56 60 59
245882.89624023 3357417.50863647 17.16099358 207 218 222
245888.00457764 3357413.26983643 17.34835052 86 91 97
245881.85870361 3357413.97384644 16.95656013 115 117 116
245883.25891113 3357415.12307739 16.94642067 96 98 97
245887.81787109 3357411.87298584 17.17075348 83 90 98
245886.74237061 3357414.82800293 17.41997719 106 102 99
245886.97546387 3357414.67904663 17.34370232 102 101 99
245885.14935303 3357417.47085571 17.66726494 230 231 236
245885.22692871 3357418.02395630 16.89925003 71 67 64
245885.52703857 3357417.49649048 17.02401733 73 68 62
245883.66461182 3357415.88171387 16.90095139 94 94 92
245885.36212158 3357417.29940796 17.07187653 78 77 75
245883.32580566 3357414.10714722 17.03305626 48 51 58
245884.87707520 3357412.05453491 16.95838547 62 63 65
245882.56585693 3357421.20721436 17.00679779 73 73 75
245885.15527344 3357417.13137817 17.33589554 83 88 91
245888.06011963 3357412.80374146 17.38325119 90 93 98
245885.21844482 3357417.69998169 17.54239082 98 100 99
245882.39782715 3357418.59219360 17.23379707 123 124 118
245883.59063721 3357412.46783447 16.86313057 94 94 96
245883.20684814 3357412.38421631 16.87065506 69 69 67
245885.56927490 3357415.09182739 17.32312584 116 116 114
245883.70898438 3357417.68023682 17.17587280 59 57 62
245882.98297119 3357418.94714355 17.19291496 171 184 190
245887.76318359 3357413.79229736 17.02364731 60 68 70
245881.69482422 3357413.53329468 16.99380493 130 131 126
245884.31213379 3357414.06182861 17.16261482 45 55 56
245883.23553467 3357418.19284058 16.85559273 68 64 55
245883.25842285 3357421.53967285 16.76452637 60 60 60
245882.87048340 3357416.41360474 17.09441757 82 84 79
245883.41351318 3357413.75805664 17.01926041 46 50 53
245888.03320313 3357414.55499268 17.07207108 101 103 102
245882.56890869 3357413.68252563 17.06455040 92 96 97
245882.55328369 3357416.24789429 17.25925827 141 141 141
245884.45336914 3357412.81796265 17.17791367 55 59 60
245882.45739746 3357417.66583252 17.21552658 142 147 150
245885.22283936 3357417.42730713 17.45604897 141 142 147
245881.90637207 3357420.05380249 17.06303596 102 104 101
245884.47503662 3357414.81121826 17.08799362 41 45 46
245882.87231445 3357412.12191772 16.99069786 189 193 196
245885.30474854 3357417.58239746 17.41015244 96 97 101
245888.66223145 3357411.77593994 17.22216225 45 46 48
245882.06091309 3357413.44018555 17.19620514 46 47 49
245888.17730713 3357411.55352783 17.23646164 71 71 73
245885.12506104 3357416.95828247 17.29435539 91 93 92
245884.67791748 3357412.08416748 17.01752090 49 53 56
245883.10089111 3357419.19299316 16.90755653 72 76 79
245887.94445801 3357414.60397339 17.04314995 101 103 102
245884.09466553 3357411.92489624 17.28911781 46 50 53
245883.28778076 3357414.95996094 16.91955376 100 100 100
245884.67340088 3357419.50772095 16.71545219 112 112 110
245886.27404785 3357415.78692627 16.83382988 68 67 63
245883.65301514 3357419.11627197 16.89972305 74 77 82
245882.71435547 3357420.92379761 17.04174805 62 63 67
245885.99151611 3357416.89999390 16.83740997 142 142 134
245885.38983154 3357418.43679810 16.74425697 163 157 141
245883.00476074 3357415.29196167 17.16536903 99 103 106
245882.89825439 3357416.33224487 17.12131500 117 114 105
245883.85540771 3357418.91036987 16.93382645 108 113 116
245883.86267090 3357413.30789185 16.95579910 70 72 71
245883.98730469 3357415.90963745 16.91178131 48 48 48
245882.75964355 3357416.40670776 17.29543686 61 62 56
245882.35180664 3357417.91857910 17.51053047 67 76 81
245884.43518066 3357414.79101563 17.08850288 39 43 44
245886.35644531 3357415.10623169 17.18655586 119 118 114
245885.11187744 3357415.77856445 17.03551102 31 31 31
245884.34265137 3357412.77542114 17.33127975 50 54 55
245884.12725830 3357420.38821411 16.79508018 85 93 96
245886.62866211 3357415.40490723 17.23008156 116 117 111
245883.05603027 3357420.13812256 17.09194374 115 119 120
245884.14550781 3357415.04281616 16.90863037 78 80 79
245886.71844482 3357415.56576538 16.95156288 33 37 36
245882.72967529 3357420.40393066 17.24653625 61 65 68
245883.36468506 3357419.29013062 16.80467415 78 79 83
245885.22540283 3357415.92254639 16.88372231 65 66 68
245881.77807617 3357417.48101807 17.00032806 131 132 134
245882.55572510 3357412.93701172 17.48503494 15 25 26
245881.64105225 3357413.23690796 16.97069168 121 122 117
245885.40191650 3357416.52615356 16.96528053 85 81 80
245883.86834717 3357417.15008545 17.01959991 88 93 96
245882.36633301 3357412.78527832 17.26766586 230 232 231
245888.74908447 3357411.64453125 17.25393295 203 204 208
245886.59924316 3357415.60217285 17.04584694 36 40 39
245881.86944580 3357420.00787354 17.06674385 102 102 100
245884.45281982 3357414.36233521 17.20140457 62 58 57
245888.77990723 3357412.60125732 17.09955025 87 87 89
245883.22375488 3357413.38964844 17.04957581 92 94 93
245882.61755371 3357420.41525269 17.21586609 85 89 92
245885.75463867 3357416.85473633 16.86322594 135 132 125
245883.23846436 3357415.13626099 17.02042961 99 101 100
245885.48590088 3357414.62402344 17.27179527 53 52 48
245883.86846924 3357419.07824707 16.86468506 47 52 55
245883.04766846 3357413.91210938 17.25713539 35 39 40
245884.29284668 3357419.09213257 16.73243141 106 106 106
245884.31121826 3357416.05728149 16.96277237 60 61 63
245887.94232178 3357411.78359985 17.33010483 61 52 57
245887.28167725 3357415.82669067 16.98579597 143 142 138
245885.12353516 3357416.46212769 17.07417107 40 43 48
245882.10485840 3357420.16519165 17.09907150 81 81 79
245886.03588867 3357416.89224243 16.83153152 153 150 141
245884.85473633 3357418.30044556 16.76321030 83 85 84
245888.18627930 3357413.04858398 17.31150055 45 43 44
245884.13769531 3357413.15039063 17.25748825 22 23 25
245882.52972412 3357414.03802490 17.03795815 78 79 81
245881.45275879 3357418.60147095 16.93404388 188 183 179
245888.39532471 3357412.66586304 17.16963387 64 68 69
245883.80487061 3357414.78427124 16.92779350 76 78 77
245887.92822266 3357413.14419556 17.24841118 94 104 116
245882.14947510 3357413.49795532 17.20808220 71 75 76
245887.23974609 3357411.21060181 16.93978500 107 106 102
245882.98980713 3357415.33395386 17.17495346 96 100 103
245885.35668945 3357417.74813843 17.09070015 49 51 50
245883.21990967 3357414.22323608 17.06429100 68 73 77
245886.55010986 3357414.90136719 17.36478043 112 111 106
245883.84472656 3357420.00665283 16.86213493 127 135 138
245883.48010254 3357412.99945068 17.03215027 81 81 79
245884.71722412 3357418.30953979 16.75645256 138 137 133
245883.86413574 3357414.63360596 17.25221062 16 25 24
245882.73455811 3357420.96099854 17.04255867 63 64 66
245883.50268555 3357417.07833862 16.91358185 103 105 104
245886.91857910 3357416.02267456 16.79727936 109 102 96
245884.77844238 3357415.27508545 17.00399399 84 84 82
245883.47583008 3357417.22503662 17.01383591 92 91 96
245882.77355957 3357417.76150513 17.42296791 213 223 225
245885.35473633 3357417.86120605 16.92339897 51 51 51
245881.70025635 3357418.37860107 16.99698448 124 126 125
245883.66015625 3357413.24560547 16.91700554 81 83 82
245884.17004395 3357413.32720947 17.05810928 56 57 59
245885.40881348 3357416.20800781 16.91548347 93 93 91
245886.16094971 3357415.70846558 16.80099487 59 55 52
245884.60815430 3357417.64431763 17.23890686 229 230 232
245884.52337646 3357413.00585938 16.97902489 65 67 64
245884.19573975 3357413.02056885 17.41409492 193 195 194
245887.23559570 3357415.90762329 16.95820236 84 84 82
245884.02636719 3357418.96490479 16.88158607 142 138 137
245885.92376709 3357414.60760498 16.82749176 69 68 66
245883.58953857 3357417.52960205 17.25020409 132 131 136
245882.29321289 3357420.14706421 17.14039040 73 75 74
245884.79425049 3357416.56484985 16.96018410 40 44 45
245883.92437744 3357417.68240356 17.01216125 37 38 40
245886.03289795 3357417.14736938 16.87343788 76 77 72
245883.88977051 3357420.80047607 16.74673843 111 113 112
245882.76452637 3357412.03067017 17.16031456 199 207 210
245882.75756836 3357412.12905884 17.29456520 59 70 66
245882.49566650 3357416.24337769 17.24765778 182 182 182
245887.89001465 3357412.94769287 17.17754173 85 96 102
245885.69866943 3357417.79928589 16.86433601 68 69 71
245882.71722412 3357412.41854858 17.34384155 199 183 157
245882.41479492 3357420.25796509 17.20267677 92 96 99
245886.02966309 3357416.98904419 16.84938049 103 104 98
245887.69458008 3357414.03762817 17.08616447 47 53 51
245881.62194824 3357418.90319824 17.00177193 71 75 76
245887.48956299 3357411.72799683 16.96661949 94 95 90
245883.88482666 3357416.24484253 16.91138077 90 92 91
245883.62145996 3357417.48831177 17.27281189 158 159 161
245886.14306641 3357416.30007935 16.75880051 134 131 124
245885.21350098 3357417.32186890 17.62008095 188 192 193
245882.14190674 3357415.87002563 17.06101418 93 93 93
245883.39703369 3357419.77117920 16.82764053 86 87 89
245885.10339355 3357417.61886597 17.61838150 184 184 186
245882.11456299 3357421.02172852 16.94916534 74 74 76
245882.39245605 3357420.76937866 17.03935814 58 60 59
245882.09637451 3357419.80932617 17.17453766 183 174 179
245884.70257568 3357413.11593628 16.88557434 106 108 107
245883.20513916 3357415.42874146 17.04549599 102 106 107
245882.40155029 3357413.80798340 17.04484940 35 36 40
245882.59967041 3357415.78503418 16.97108078 86 89 94
245881.66674805 3357420.02270508 16.99323273 111 112 107
245882.28259277 3357419.00350952 17.25653839 128 128 130
245881.41589355 3357419.39843750 16.91849518 124 124 122
245883.70996094 3357417.86532593 16.95682526 42 42 44
245884.86968994 3357417.67370605 17.30778885 228 238 247
245884.13995361 3357417.62759399 17.02128220 83 89 89
245881.62152100 3357417.80047607 16.97683525 128 129 131
245883.89501953 3357420.37384033 16.78484726 91 92 94
245884.07135010 3357419.80136108 16.79930496 95 97 96
245884.39440918 3357411.88793945 17.38241005 27 30 35
245883.24102783 3357415.12341309 17.01360512 99 101 100
245882.86682129 3357417.44702148 17.07375717 147 158 160
245882.38476563 3357421.54901123 16.81417465 77 75 80
245884.36865234 3357416.54321289 17.03801727 38 42 45
245885.31842041 3357416.47494507 17.02525902 31 29 30
245884.86517334 3357416.15075684 16.84742928 68 72 73
245883.19879150 3357416.50344849 16.79924011 115 116 111
245887.62762451 3357413.97247314 17.13326645 47 46 44
245883.70056152 3357414.32162476 17.04053879 44 54 56
245882.94079590 3357421.83270264 16.78627396 85 85 85
245882.69488525 3357412.54733276 17.45851707 125 122 105
245884.74261475 3357418.84487915 16.70403099 142 141 137
245883.59912109 3357418.65020752 16.81702423 103 103 101
245884.32220459 3357416.41647339 17.11353302 56 60 61
245882.76177979 3357417.52722168 17.13764381 192 210 212
245885.36517334 3357418.21508789 16.77845573 135 129 117
245885.29351807 3357415.20239258 17.21194077 59 55 52
245882.05163574 3357417.33666992 17.07417297 121 121 123
245883.12933350 3357412.82250977 17.33411789 213 217 220
245884.44573975 3357413.35443115 17.26180077 40 44 47
245881.80847168 3357413.75378418 17.00827026 77 81 80
245882.63818359 3357418.92977905 17.14088631 168 168 168
245884.26843262 3357415.32797241 16.91079712 86 86 84
245882.77001953 3357420.55413818 17.19815254 56 57 62
245884.45257568 3357416.36901855 17.11026764 43 48 51
245882.44726563 3357420.61245728 17.11436653 47 51 54
245883.03045654 3357415.64300537 17.09857178 89 96 102
245885.68927002 3357414.50817871 17.01460075 51 51 49
245883.46722412 3357417.09613037 16.92403984 104 106 103
245885.70904541 3357414.53433228 16.97096634 51 51 49
245885.23870850 3357417.93057251 16.96229172 57 56 54
245882.09094238 3357413.62478638 17.15583992 68 69 71
245883.39660645 3357415.34890747 16.87838364 108 108 108
245883.51165771 3357421.42282104 16.72222328 128 128 126
245887.71368408 3357411.28479004 17.23873520 130 132 131
245883.70989990 3357419.68978882 16.75984192 94 95 97
245883.36126709 3357417.12612915 16.91152000 112 114 111
245886.13146973 3357415.21929932 17.09731293 73 73 71
245884.48034668 3357413.33779907 17.31797981 63 68 71
245884.42834473 3357412.51660156 17.36268044 33 38 41
245885.17242432 3357416.70361328 17.36777115 167 171 172
245884.14807129 3357413.87466431 17.00308037 185 216 210
245882.54895020 3357420.80990601 17.03999901 44 50 50
245885.09344482 3357417.86752319 17.17922783 128 138 140
245882.18603516 3357413.00189209 17.44906425 81 91 101
245884.10485840 3357413.78375244 17.01834488 174 207 200
245883.12072754 3357415.21392822 17.16281891 102 103 105
245883.83538818 3357414.68197632 17.12604904 24 29 32
245886.36120605 3357415.01922607 17.17444801 121 118 113
245881.87310791 3357420.68286133 16.90060616 91 91 91
245887.22491455 3357411.35876465 16.91315651 103 102 98
245882.15679932 3357421.18133545 16.95147514 72 76 77
245882.51446533 3357412.11642456 17.30339241 63 73 75
245884.29528809 3357416.64038086 16.87771416 71 72 74
245881.82226563 3357418.64447021 17.26597404 197 197 195
245885.63952637 3357415.48562622 17.23440552 28 29 31
245885.95092773 3357416.37902832 16.78392982 119 113 101
245885.49414063 3357414.59652710 17.26720810 55 54 50
245882.75317383 3357414.19058228 17.06406403 91 95 94
245883.72625732 3357420.86773682 16.74645233 106 106 106
245884.53765869 3357417.22351074 16.94935417 100 102 101
245882.69976807 3357419.95632935 17.13150406 66 62 61
245881.82922363 3357417.34851074 16.99438667 131 131 133
245883.17291260 3357418.48535156 16.83009148 152 150 137
245884.92456055 3357417.25292969 17.08299637 88 92 93
245883.72015381 3357414.54373169 17.10886955 41 52 56
245882.24285889 3357416.79565430 16.99303246 115 114 109
245883.09356689 3357421.75592041 16.78170204 81 81 81
245887.12231445 3357415.91909790 16.92833138 78 77 75
245882.51782227 3357421.94058228 16.71713257 94 94 92
245884.23590088 3357414.10012817 17.06099319 35 43 45
245882.27941895 3357416.68273926 16.99054527 118 118 110
245883.64697266 3357412.63223267 16.94306946 105 105 105
245882.03802490 3357413.02212524 17.37082100 143 148 152
245884.60095215 3357417.66766357 17.24317360 231 231 231
245884.04113770 3357420.70233154 16.75178337 113 115 112
245885.77111816 3357416.61926270 16.81628799 133 133 125
245886.63177490 3357415.73193359 16.84662628 52 54 53
245884.62072754 3357416.05569458 16.91021919 50 54 55
245886.60717773 3357415.73773193 16.86188889 50 52 49
245882.76000977 3357414.36883545 17.02222633 97 101 100
245884.01336670 3357420.17556763 16.84877205 56 66 68
245882.20477295 3357420.73193359 17.00704002 60 61 63
245882.73767090 3357413.10617065 17.42796707 88 92 95
245884.68048096 3357413.70581055 17.14895248 48 47 53
245884.05554199 3357417.54742432 17.02219009 92 98 98
245884.26184082 3357419.44061279 16.73084450 102 103 105
245884.64276123 3357417.25946045 16.97904968 94 96 95
245885.30908203 3357417.82473755 17.00809288 36 38 37
245882.41143799 3357417.11648560 17.01550293 123 119 118
245885.49609375 3357415.50799561 17.21066475 50 48 49
245883.51031494 3357411.91552734 17.08565712 71 74 81
245884.28985596 3357414.08975220 17.13672447 34 42 44
245883.22869873 3357417.73608398 17.05952454 49 53 54
245885.22546387 3357414.73245239 17.33025932 84 85 80
245882.98034668 3357417.67337036 17.34334564 215 220 223
245884.87103271 3357413.41973877 17.07221603 38 43 47
245883.23205566 3357417.02905273 16.87296486 115 117 116
245883.56304932 3357412.42971802 16.83807945 98 99 101
245884.15557861 3357420.38919067 16.79689980 85 93 96
245884.81506348 3357411.81518555 17.20378113 39 39 41
245888.02178955 3357414.30053711 17.10002708 99 101 100
245885.58215332 3357416.71853638 16.89319992 98 99 94
245887.78057861 3357413.04632568 17.13775635 23 35 47
245884.96850586 3357412.27932739 16.91923523 51 55 56
245888.55590820 3357412.93161011 17.20087814 69 68 73
245882.55725098 3357419.22213745 17.16955948 109 110 112
245882.60083008 3357416.21954346 17.19174576 109 109 111
245882.66967773 3357421.96182251 16.72881699 96 96 96
245882.18316650 3357414.37298584 17.01718712 129 130 134
245885.54016113 3357416.40057373 16.88776016 116 115 110
245886.58966064 3357415.23297119 17.30278778 128 123 119
245884.88098145 3357415.40243530 17.02842903 90 90 88
245882.92474365 3357422.02923584 16.76476097 101 101 99
245883.31103516 3357418.69973755 16.86541367 101 103 102
245888.46429443 3357412.19256592 17.10196304 73 74 76
245883.98394775 3357412.29888916 17.07325172 72 81 86
245882.57916260 3357418.08837891 17.38140106 56 63 69
245888.66705322 3357412.75140381 17.15529060 71 72 74
245886.35107422 3357415.07330322 17.16999435 123 120 115
245882.09613037 3357414.91714478 17.18514824 122 123 125
245884.19720459 3357414.31628418 17.09884644 90 90 88
245882.59735107 3357412.21292114 17.32292938 58 59 54
245882.76788330 3357422.35052490 16.71800232 106 108 105
245888.05511475 3357412.24240112 17.35481262 68 66 69
245882.69494629 3357417.89172363 17.43186760 151 161 171
245881.95153809 3357417.50778198 17.05343819 125 125 127
245887.60693359 3357410.86932373 16.93202972 104 100 91
245881.78601074 3357420.26156616 16.94792747 85 81 78
245881.97741699 3357417.57519531 17.06840897 116 116 118
245881.49432373 3357418.60653687 16.97172928 165 160 156
245884.21362305 3357415.39505005 16.92699623 89 89 87
245884.17541504 3357420.25036621 16.82148552 151 164 170
245884.67108154 3357412.02230835 17.09788513 29 33 36
245883.12188721 3357418.09445190 16.91545296 59 58 54
245883.38055420 3357416.41638184 16.81898499 109 110 104
245882.44067383 3357413.15011597 17.33151627 55 63 66
245882.52178955 3357417.72030640 17.58730507 205 223 227
245885.96673584 3357415.86883545 16.77394485 160 158 143
245883.95544434 3357414.43646240 17.07507324 49 53 56
245888.28875732 3357412.88378906 17.25245667 76 74 75
245883.24975586 3357413.11282349 17.23411942 216 216 216
245888.01708984 3357414.14685059 17.14283371 92 96 97
245881.59814453 3357417.40179443 16.93366432 129 130 132
245883.18048096 3357412.91421509 17.35910606 225 230 233
245883.61407471 3357416.66891479 16.79882050 104 106 105
245883.09777832 3357416.28668213 16.81586456 90 91 86
245882.61602783 3357417.23635864 16.98198318 115 116 111
245881.70031738 3357419.51168823 17.02103615 118 112 112
245884.55731201 3357417.98306274 16.92471123 50 50 50
245882.31390381 3357412.93395996 17.48479271 83 93 102
245881.64422607 3357418.84851074 17.09552765 22 23 18
245884.72363281 3357418.15740967 16.81580544 67 65 66
245885.24822998 3357416.64144897 17.34374237 94 94 94
245883.70367432 3357416.38055420 16.84486961 94 96 93
245882.67840576 3357420.26327515 17.22814369 63 63 63
245887.89489746 3357411.63937378 17.24582100 170 165 172
245883.76324463 3357420.48712158 16.75243759 98 99 101
245886.60504150 3357415.22186279 17.30264473 129 124 120
245883.02453613 3357415.34802246 17.16097641 93 97 100
245888.65979004 3357412.92468262 17.19827652 76 77 81
245883.64190674 3357413.66592407 17.17312622 79 93 94
245884.27954102 3357417.28759766 16.99312782 110 112 111
245885.13391113 3357415.88546753 16.90092850 61 63 62
245883.35058594 3357416.70419312 16.79917526 108 110 107
245886.01257324 3357416.47528076 16.77777481 162 154 141
245883.19549561 3357419.31362915 16.83565903 84 87 92
245881.57623291 3357416.95104980 16.88270950 121 123 122
245888.53808594 3357412.11892700 17.08461952 77 78 80
245884.99981689 3357417.40457153 17.31174850 190 203 212
245884.71453857 3357416.30953979 16.93726921 47 51 54
245884.38989258 3357414.94845581 16.97709465 66 70 69
245888.20367432 3357413.53198242 17.38940048 54 58 59
245883.70532227 3357417.91424561 16.90504456 47 47 49
245885.77001953 3357417.23806763 16.90981102 132 130 118
245883.38293457 3357413.32730103 16.91699791 93 92 88
245883.19708252 3357412.34683228 16.86856842 69 69 67
245884.20050049 3357413.73919678 17.02684593 181 193 189
245887.92779541 3357413.05996704 17.23208046 185 194 203
245884.51464844 3357415.20123291 16.93006706 78 82 81
245883.11083984 3357412.40011597 16.94208717 27 28 30
245888.88549805 3357411.96731567 17.08588982 91 91 91
245884.86334229 3357415.77975464 16.99460983 40 41 43
245887.56121826 3357411.21130371 17.24546051 221 219 224
245886.45227051 3357415.47784424 17.21310043 116 114 115
245887.80603027 3357412.98431396 17.13791084 30 37 47
245882.64471436 3357420.17929077 17.19745445 73 75 72
245884.22491455 3357417.06698608 16.85212326 101 103 102
245884.67828369 3357418.15789795 16.81431007 71 67 64
245885.25939941 3357416.60809326 17.28556442 106 106 106
245888.76757813 3357413.63583374 17.33205605 91 92 94
245882.89764404 3357421.14059448 17.04880905 149 154 158
245883.94824219 3357417.55789185 17.09793663 78 87 86
245884.33026123 3357417.77566528 17.11982155 28 32 44
245887.83715820 3357411.56933594 17.24054718 184 181 192
245883.89404297 3357412.91607666 17.32683372 73 79 93
245883.97149658 3357416.52578735 16.91075897 81 81 73
245887.96075439 3357412.92822266 17.23812485 105 112 118
245882.99499512 3357419.43096924 16.93895531 104 105 107
245882.40142822 3357417.59448242 17.05964851 54 58 59
245886.49353027 3357416.44824219 16.79184341 162 156 144
245881.84912109 3357417.72213745 17.09834290 116 116 118
245884.13922119 3357416.71978760 16.82242393 85 87 86
245888.51715088 3357414.17980957 17.22452354 101 101 101
245884.38153076 3357417.10751343 16.86427879 101 102 104
245885.51135254 3357417.51773071 17.04676056 73 68 62
245882.71203613 3357417.52603149 17.10608292 193 214 215
245885.92236328 3357417.46697998 16.87017250 138 137 132
245886.21563721 3357415.32525635 17.10074425 141 140 136
245884.28118896 3357415.51226807 16.98309898 85 85 85
245883.16320801 3357417.50619507 17.25436974 126 128 125
