245966.09936523 3357723.49761963 14.27685356 201 201 201
245972.58044434 3357715.70831299 13.67848492 82 84 83
245967.20123291 3357722.76458740 13.75102234 174 157 139
245967.56457520 3357720.79675293 13.85153294 22 23 7
245967.84234619 3357721.87402344 13.60544968 119 114 95
245969.54937744 3357717.84893799 14.08027935 93 75 61
245970.26770020 3357716.12670898 13.87244129 39 38 36
245970.60119629 3357714.62677002 13.75688839 140 128 114
245970.90728760 3357719.39172363 13.79446030 29 28 24
245970.46966553 3357718.93420410 14.09369850 38 37 32
245972.32458496 3357714.42376709 13.67583752 109 100 91
245968.85803223 3357716.36236572 14.01156139 119 104 101
245971.07751465 3357715.11499023 13.85435486 48 47 42
245968.73150635 3357718.18603516 13.95633984 62 61 57
245968.50054932 3357718.29595947 13.99322319 32 41 36
245968.56896973 3357718.39788818 14.07485771 83 95 93
245970.26538086 3357717.69146729 14.40207672 104 82 71
245968.02856445 3357717.92663574 13.84846687 95 92 83
245971.57373047 3357719.28906250 13.71198463 84 81 76
245968.29486084 3357720.88104248 13.72638321 119 113 91
245968.35449219 3357721.61376953 13.54882908 74 74 64
245966.69219971 3357721.95611572 13.81373596 127 113 102
245972.75610352 3357713.89489746 13.47006130 132 123 108
245967.76721191 3357721.14978027 13.65084553 182 164 142
245968.32330322 3357723.76245117 13.46146965 82 91 48
245970.11749268 3357719.12091064 14.22480679 108 95 89
245971.89996338 3357714.12030029 13.60195255 78 69 60
245969.05560303 3357720.54913330 13.87022877 60 47 39
245969.25653076 3357718.09967041 14.07131577 52 45 37
245969.82568359 3357715.97186279 13.73658943 117 104 95
245972.05999756 3357715.19964600 13.84150028 125 117 114
245969.05279541 3357716.36560059 14.04422379 28 19 20
245968.36065674 3357720.62268066 13.76180935 131 125 111
245968.48754883 3357718.16387939 13.94408894 79 85 75
245967.50036621 3357719.59259033 13.66047192 136 121 102
245970.74780273 3357715.68737793 13.89770222 94 91 86
245968.43933105 3357718.76702881 14.01560402 200 199 195
245970.06030273 3357717.52087402 14.24222183 55 44 40
245967.82812500 3357720.95245361 13.76588058 132 125 106
245970.35522461 3357717.24035645 14.12439919 90 77 69
245972.90014648 3357715.72918701 13.69914818 47 43 40
245972.17413330 3357714.11730957 13.52650642 148 134 125
245969.31335449 3357719.28057861 13.97893333 63 59 56
245969.25793457 3357717.31872559 14.02412224 22 21 17
245967.53894043 3357720.27868652 13.95790100 205 195 193
245967.62200928 3357721.19812012 13.62819004 184 163 134
245970.61218262 3357714.58459473 13.75263786 139 127 113
245967.11907959 3357720.24249268 13.92779922 51 61 53
245970.54156494 3357716.69067383 13.99710274 41 42 37
245971.21795654 3357714.97430420 13.83365631 45 43 44
245968.01306152 3357721.37139893 13.52840137 108 91 73
245972.63732910 3357715.12854004 13.57953262 89 82 74
245965.87884521 3357723.61822510 14.46951962 212 213 218
245968.88635254 3357718.10479736 13.94469452 27 28 23
245972.43280029 3357715.31304932 13.67472839 40 39 35
245968.75231934 3357719.24468994 13.99006653 30 31 25
245968.10296631 3357719.80291748 13.77513599 120 108 92
245971.54321289 3357714.95904541 13.74849415 33 26 20
245972.13720703 3357714.11444092 13.52612019 148 134 125
245968.17028809 3357717.91278076 13.88718319 180 180 172
245966.89324951 3357722.00854492 13.89635277 134 121 112
245970.48095703 3357718.57055664 14.14515305 43 44 38
245970.30560303 3357715.97845459 14.24094963 36 26 14
245965.99877930 3357723.34729004 13.78305626 154 139 120
245969.94488525 3357715.24713135 13.62104321 148 134 123
245969.98260498 3357718.25543213 14.12201691 19 18 16
245966.11944580 3357723.10437012 14.22969913 210 200 199
245968.38433838 3357721.79284668 13.59070683 74 77 70
245968.89117432 3357720.14349365 13.80486107 107 101 85
245970.29522705 3357718.22338867 14.21763992 32 32 30
245971.77728271 3357715.33862305 14.01748085 115 101 98
245967.56597900 3357720.16174316 13.87119770 233 232 230
245971.03350830 3357716.20953369 14.34206390 32 35 26
245968.26208496 3357718.71081543 13.96213341 102 98 95
245969.29071045 3357719.13610840 14.09053421 45 47 44
245966.59545898 3357722.70727539 13.93449306 138 120 108
245966.04028320 3357723.45635986 13.88126469 150 136 123
245968.15161133 3357720.07916260 13.92865372 58 55 50
245966.36102295 3357722.83752441 13.72825623 52 42 41
245966.75994873 3357723.79620361 13.98804474 147 146 144
245969.73077393 3357717.14575195 14.21354198 87 76 72
245972.21295166 3357714.09033203 13.51685619 142 128 117
245967.75384521 3357722.71087646 13.60276222 165 150 129
245971.47680664 3357719.29174805 13.72562695 48 45 40
245969.26733398 3357719.80163574 13.97292900 118 113 109
245966.51110840 3357722.45727539 13.72895908 158 141 125
245965.95202637 3357723.82025146 14.56280708 249 251 250
245967.77502441 3357720.08752441 13.86498737 61 56 50
245967.72082520 3357720.28094482 13.95489311 55 50 46
245967.84570313 3357721.35540771 13.53225803 156 138 114
245972.54730225 3357714.33465576 13.60907459 109 97 85
245971.72100830 3357719.23944092 13.71359062 157 153 150
245971.84301758 3357715.30053711 13.94829655 90 78 78
245972.66894531 3357715.49414063 13.61578751 52 51 46
245968.84484863 3357718.22357178 13.94149303 50 49 45
245967.92901611 3357719.72399902 13.77100468 127 114 97
245971.25946045 3357715.58367920 14.22410202 96 91 85
245968.06762695 3357723.85015869 13.46937466 168 166 145
245972.02172852 3357714.22088623 13.60529041 32 23 16
245968.79772949 3357720.55749512 13.95430470 98 94 83
245968.35565186 3357722.39270020 13.42955112 130 124 110
245966.26898193 3357723.63977051 14.40269947 121 121 119
245971.49456787 3357719.45593262 13.67303753 153 149 146
245970.42816162 3357718.22436523 14.29559612 31 34 27
245971.47503662 3357714.83294678 13.71781254 39 36 27
245969.18725586 3357717.87365723 14.09654999 71 63 60
245966.80157471 3357723.93939209 14.08935165 95 97 96
245969.84436035 3357717.06005859 14.18896389 104 95 90
245969.56121826 3357718.51440430 14.14493275 65 56 47
245970.94616699 3357716.17425537 14.04586983 44 35 26
245972.83172607 3357715.08520508 13.59928894 123 113 103
245969.14251709 3357719.25653076 14.01021767 48 50 47
245966.72033691 3357722.55920410 13.87626839 190 172 152
245967.99682617 3357721.82519531 13.54213142 125 121 109
245968.42895508 3357720.38879395 14.01730728 57 61 46
245968.40447998 3357720.35809326 14.02172184 55 59 44
245969.05816650 3357716.11096191 13.87631512 76 62 53
245971.54479980 3357719.09606934 13.80256748 48 45 38
245971.74420166 3357715.07086182 13.77479076 84 71 62
245967.49481201 3357721.35278320 13.53812122 187 167 142
245966.46606445 3357722.42663574 13.67629528 156 140 125
245968.77947998 3357718.24310303 13.98168564 37 38 33
245968.30712891 3357719.72082520 13.74248695 77 67 55
245969.85504150 3357715.30487061 13.58662796 150 134 119
245969.25256348 3357717.65728760 14.02742577 57 54 49
245968.86743164 3357716.95117188 13.84126377 33 25 23
245968.52465820 3357718.59979248 14.09069633 137 141 142
245968.26202393 3357719.94793701 13.85166454 116 106 94
245968.33605957 3357719.73834229 13.73383236 85 75 63
245967.70605469 3357720.09094238 13.85624695 41 37 28
245967.06750488 3357723.79840088 14.00301170 151 153 148
245970.26397705 3357719.21075439 14.17728233 133 122 116
245968.49798584 3357721.32128906 13.61853409 191 185 173
245967.19970703 3357720.47045898 14.07306385 190 186 185
245967.74487305 3357720.73461914 13.81719494 19 22 13
245970.24298096 3357715.98858643 13.98756790 169 155 152
245970.46606445 3357718.20703125 14.34219551 28 30 19
245967.08819580 3357720.42993164 14.10270882 196 196 196
245969.08721924 3357720.20397949 13.76339817 139 123 107
245967.24468994 3357721.23913574 13.53197765 177 161 138
245970.99066162 3357715.21697998 13.81776810 84 81 74
245971.79406738 3357714.94158936 13.73539352 171 171 163
245967.82214355 3357721.31079102 13.54822063 171 153 129
245970.48132324 3357715.29052734 13.87454605 29 25 14
245971.38006592 3357715.00134277 13.80381298 85 86 81
245970.65844727 3357715.44519043 13.83693600 61 58 51
245967.04638672 3357721.63348389 13.86457253 220 213 205
245970.49664307 3357714.92218018 13.80184269 150 136 123
245969.22064209 3357715.85089111 13.70745564 82 72 63
245971.92236328 3357714.93127441 13.73187637 73 70 65
245970.05206299 3357718.76202393 14.18875885 64 54 52
245972.40960693 3357715.28918457 13.70880795 48 47 43
245967.49133301 3357721.91430664 13.68676853 107 101 89
245967.61706543 3357720.40020752 13.95323849 17 7 0
245972.95135498 3357713.75012207 13.52080250 145 131 118
245971.52575684 3357714.40051270 13.74060917 166 159 153
245966.49151611 3357722.90252686 14.09194565 151 140 136
245966.65734863 3357720.95477295 13.53251171 137 124 108
245967.64147949 3357721.73516846 13.56437302 125 113 97
245968.88134766 3357719.67974854 13.67912769 63 60 51
245970.26837158 3357719.01928711 14.17836857 56 55 50
245970.28546143 3357715.08197021 13.87045002 79 74 71
245967.00219727 3357723.65441895 14.04562759 196 199 192
245967.76342773 3357721.99639893 13.63152313 121 118 99
245970.59564209 3357716.72930908 14.02160168 49 48 44
245966.85852051 3357719.96295166 13.60113811 143 130 113
245968.46374512 3357718.85589600 14.03771400 239 238 234
245970.88525391 3357716.75445557 14.29575539 49 46 41
245966.39770508 3357721.95733643 13.57313347 136 119 109
245968.63433838 3357717.56909180 13.89042759 63 63 61
245970.72680664 3357719.19274902 13.92987633 37 33 30
245967.56054688 3357724.00683594 13.92423439 73 72 67
245971.99261475 3357715.26849365 13.88266087 83 75 73
245972.41369629 3357715.44567871 13.68352604 57 56 54
245969.73260498 3357715.24969482 13.57326221 142 129 112
245966.63409424 3357724.01031494 14.11582851 18 19 11
245970.25366211 3357718.66644287 14.15958309 26 27 21
245967.79107666 3357722.19732666 13.65287495 117 116 95
245968.75445557 3357719.39489746 13.84051800 40 43 34
245970.07110596 3357715.19287109 13.76877022 162 154 151
245966.54241943 3357720.46832275 13.55859661 144 132 116
245970.01055908 3357716.01074219 13.65292263 114 107 91
245968.44775391 3357721.66674805 13.59848309 92 95 88
245968.41680908 3357720.21270752 14.04367542 124 125 119
245969.77618408 3357718.82604980 14.26365471 109 102 96
245969.98675537 3357718.54504395 14.08477116 20 12 10
245967.38635254 3357722.53686523 13.61234283 147 130 112
245966.76330566 3357721.04376221 13.56132030 146 132 119
245966.00354004 3357723.51690674 13.83989143 132 119 110
245969.14355469 3357719.57318115 13.88211918 52 53 48
245966.29931641 3357721.75390625 13.48945999 159 140 125
245967.87896729 3357719.73498535 13.75734711 130 115 96
245968.48986816 3357720.18341064 14.04527569 72 69 60
245967.40216064 3357720.44763184 14.00536156 137 132 126
245972.10174561 3357715.00750732 13.76696682 116 111 107
245970.99407959 3357716.07214355 14.03486824 79 71 60
245970.55151367 3357716.98260498 14.05979156 65 57 54
245969.25054932 3357717.78717041 14.07031727 58 49 44
245970.54913330 3357715.75988770 14.01355076 46 45 43
245970.24249268 3357715.78021240 13.88030052 220 215 211
245966.57006836 3357721.07073975 13.48809814 142 131 113
245965.92132568 3357723.89862061 14.48969841 229 228 226
245966.73907471 3357721.55511475 13.85121059 105 96 89
245966.90063477 3357723.99462891 14.05724812 112 124 86
245970.29663086 3357719.38421631 14.16392326 147 134 128
245966.99121094 3357724.03424072 14.18594074 59 62 55
245969.28906250 3357719.70172119 13.93590450 92 83 76
245966.85168457 3357722.06250000 13.87260342 137 123 112
245966.32116699 3357723.60778809 14.20776558 185 183 184
245970.24639893 3357715.77276611 14.02842140 245 238 232
245967.84674072 3357721.35559082 13.53213787 156 138 114
245970.85003662 3357715.59313965 13.84415340 91 91 81
245972.72088623 3357715.37213135 13.60118103 107 102 96
245970.25793457 3357716.34729004 13.94535065 15 13 14
245968.71374512 3357717.91760254 13.88183784 22 22 22
245968.07867432 3357723.09503174 13.48282146 138 134 123
245967.88854980 3357722.11627197 13.63372326 102 104 82
245969.71679688 3357718.42938232 14.09601688 69 55 46
245967.20678711 3357719.54235840 13.59921837 146 131 112
245969.97326660 3357718.79595947 14.21156788 81 70 66
245969.95434570 3357716.39514160 13.79635906 92 91 89
245967.84106445 3357721.67932129 13.52254963 144 127 107
245968.24737549 3357722.85662842 13.44327736 166 159 149
245968.89733887 3357718.73657227 14.41079140 216 209 201
245968.57415771 3357721.05908203 13.79898643 125 119 105
245970.30963135 3357718.01501465 14.44410610 44 44 34
245967.91320801 3357721.89807129 13.59705639 130 123 107
245970.19439697 3357717.64843750 14.36097050 89 69 60
245967.37908936 3357720.14526367 13.80102158 205 204 200
245969.26080322 3357720.57373047 13.94001865 89 80 73
245971.58624268 3357715.05993652 13.78645611 56 52 43
245967.06646729 3357720.54833984 14.10906315 170 161 156
245966.49249268 3357723.99511719 14.26989651 56 53 48
245966.70593262 3357721.89202881 13.82586861 116 103 94
245968.10589600 3357721.68017578 13.52379227 90 90 78
245967.50207520 3357721.59204102 13.51602554 151 133 119
245969.05871582 3357716.23553467 13.99022007 26 15 13
245970.06329346 3357716.94964600 14.15380096 27 22 16
245971.08020020 3357719.18615723 13.83193493 38 37 32
245969.09606934 3357717.09387207 13.95663738 27 26 24
245969.25122070 3357717.05633545 14.09281158 35 36 31
245969.04833984 3357719.77148438 13.77038002 63 58 55
245970.57281494 3357715.36614990 13.86238194 62 57 51
245967.32312012 3357720.62390137 13.99457836 191 188 183
245966.79406738 3357723.95013428 13.96662712 136 146 121
245966.75988770 3357723.82556152 14.01121330 94 92 93
245966.46923828 3357721.03808594 13.46197987 142 130 114
245967.74658203 3357720.73260498 13.81713676 20 23 16
245970.10626221 3357715.30395508 13.87017441 240 231 226
245966.77978516 3357721.49237061 13.64551353 87 74 66
245968.85504150 3357717.53533936 13.90377998 56 56 58
245969.68695068 3357719.25201416 14.04465103 51 50 48
245971.43511963 3357715.10650635 13.82750130 48 47 45
245970.29199219 3357715.56445313 13.98443890 43 42 40
245966.06427002 3357723.36535645 13.99328709 150 132 120
245967.36230469 3357721.56146240 13.50606346 141 127 116
245966.89208984 3357721.52996826 13.67626095 78 71 63
245968.19342041 3357720.81988525 13.74155045 126 121 101
245968.45581055 3357721.20294189 13.62701225 204 195 178
245965.86804199 3357723.73681641 14.28012657 165 160 157
245966.03021240 3357723.64514160 14.05793858 188 187 185
245967.13964844 3357722.43536377 13.65130138 142 126 111
245969.23132324 3357718.25299072 14.00653362 33 26 20
245969.19158936 3357720.59375000 13.90718079 49 42 32
245969.29370117 3357720.34094238 13.89765072 95 88 78
245971.03234863 3357714.52435303 13.69559097 66 61 58
245968.75421143 3357720.17254639 13.86850643 100 96 84
245967.71478271 3357722.24591064 13.63186741 126 124 103
245966.51647949 3357723.54400635 13.98719025 132 114 102
245967.63812256 3357722.83160400 13.65913010 188 167 148
245970.41943359 3357715.04260254 13.84854126 68 57 51
245969.57904053 3357716.01446533 13.86966801 55 51 48
245969.66943359 3357715.43743896 13.60762310 145 129 113
245969.02178955 3357717.59478760 13.95651150 33 33 33
245967.78228760 3357721.34045410 13.54313755 185 165 141
245968.05609131 3357718.49884033 13.91085911 138 131 112
245968.60888672 3357720.11779785 13.91586494 123 114 99
245970.23400879 3357716.15545654 13.72219849 202 197 193
245966.44476318 3357722.73968506 13.74992275 153 139 130
245966.11456299 3357722.89459229 14.07198715 170 172 171
245966.35168457 3357721.34997559 13.47523880 188 172 157
245969.39562988 3357718.58190918 14.23460293 131 131 123
245968.56176758 3357720.68859863 13.80836487 116 110 94
245968.44128418 3357722.41809082 13.42663097 119 115 104
245968.22125244 3357723.10791016 13.37887764 142 138 127
245971.66802979 3357715.34759521 14.14293385 97 87 77
245967.00219727 3357721.95880127 13.93485260 127 117 108
245968.90515137 3357716.33642578 14.03883171 65 53 53
245968.97113037 3357717.82672119 14.01627350 56 56 54
245968.80389404 3357718.10577393 13.92759514 23 22 20
245967.28826904 3357720.94464111 13.77667522 131 116 95
245970.24346924 3357718.03094482 14.37888622 35 36 28
245968.44635010 3357719.78973389 13.73257637 139 130 113
245969.99554443 3357718.86584473 14.22442150 93 78 73
245967.27008057 3357721.51446533 13.50307655 162 148 135
245969.20745850 3357718.40753174 14.06970501 40 35 29
245970.02270508 3357718.82928467 14.21255016 91 77 74
245970.12335205 3357717.76525879 14.41987896 86 72 61
245970.69976807 3357715.77246094 13.95300865 43 36 30
245967.44122314 3357719.86352539 13.62870312 140 123 105
245969.67236328 3357719.75360107 13.96554756 96 93 84
245968.38885498 3357719.43041992 13.73954296 123 117 103
245966.85827637 3357722.85229492 13.96177769 68 57 51
245969.56860352 3357716.31866455 13.95105934 65 62 55
245966.78332520 3357723.61224365 14.03128147 83 74 67
245966.47418213 3357722.62231445 13.73242378 186 168 154
245970.98828125 3357714.52777100 13.72214031 79 76 71
245966.75714111 3357715.79052734 15.99428749 138 111 92
245970.87249756 3357719.80908203 13.72604752 18 19 13
245969.59179688 3357718.85784912 14.33583355 47 46 41
245971.98858643 3357714.63171387 13.63186932 56 46 45
245969.57092285 3357716.02600098 13.87498474 55 51 48
245970.11883545 3357718.58447266 14.10858154 34 31 26
245969.29656982 3357717.20251465 14.10131550 22 17 13
245966.07989502 3357723.00933838 14.24688244 250 248 251
245970.63800049 3357714.87988281 13.83429337 151 138 121
245969.32666016 3357719.11920166 14.10297394 48 47 45
245972.20135498 3357714.80255127 13.73628330 112 104 101
245966.85266113 3357720.70288086 13.74004650 142 124 104
245967.89776611 3357719.76873779 13.75908184 133 117 101
245967.32409668 3357721.64318848 13.59687519 109 98 92
245970.12408447 3357715.74719238 13.69594383 135 119 104
245969.00512695 3357716.36529541 14.05973434 23 17 17
245972.58099365 3357714.22497559 13.55224800 115 105 93
245971.45037842 3357715.35516357 14.16790485 66 66 56
245966.27667236 3357721.49505615 13.49291039 190 171 156
245972.86187744 3357715.52111816 13.67282295 45 41 30
245967.54071045 3357719.26501465 13.71156883 134 121 105
245969.73724365 3357715.60064697 13.68337250 144 128 112
245968.25079346 3357724.04772949 13.54599380 89 99 46
245971.10247803 3357715.26953125 13.81914616 83 82 77
245966.71948242 3357723.33294678 14.00042725 103 96 88
245968.61804199 3357720.04730225 13.83774662 123 117 101
245968.05822754 3357719.57281494 13.77671623 139 127 113
245968.45758057 3357723.85668945 13.51977730 80 87 43
245968.22003174 3357722.95025635 13.42457104 159 152 142
245971.92907715 3357714.57067871 13.61685085 51 41 39
245967.63439941 3357720.22546387 13.95372963 201 195 195
245971.04547119 3357714.68292236 13.83139229 42 41 39
245967.65612793 3357720.68377686 13.86282253 13 16 7
245968.17474365 3357720.39184570 13.81248474 104 105 97
245968.61981201 3357718.96728516 14.42097569 154 142 126
245969.80163574 3357716.63562012 13.97029877 65 62 57
245966.51153564 3357720.89001465 13.48374081 154 143 125
245971.50585938 3357715.32019043 14.16386986 81 77 66
245971.85778809 3357714.26593018 13.67658901 56 47 42
245965.87561035 3357723.82916260 14.55228138 236 236 236
245968.99005127 3357719.41973877 13.88699245 63 65 60
245969.31286621 3357718.95513916 14.31076336 49 50 45
245967.65191650 3357721.13513184 13.66437817 174 154 129
245968.00714111 3357719.04687500 13.80639076 130 113 103
245967.90179443 3357721.82958984 13.57517147 135 129 115
245969.61676025 3357718.71240234 14.27599335 107 104 99
245968.49707031 3357722.09741211 13.57667542 97 97 95
245967.21044922 3357720.26654053 13.99115944 114 120 116
245971.81506348 3357715.31573486 13.98094177 96 84 84
245970.87219238 3357715.38458252 13.79458809 55 51 40
245969.33782959 3357717.76898193 14.06411266 67 57 48
245967.23980713 3357720.14831543 13.76473713 61 49 37
245971.06463623 3357716.02508545 14.14076042 89 85 73
245969.90869141 3357719.13543701 14.23149014 102 87 82
245969.64984131 3357719.77624512 13.97581577 81 78 69
245968.03088379 3357722.59771729 13.53007317 105 104 86
245969.81311035 3357718.78637695 14.23945332 101 94 88
245966.55102539 3357720.90936279 13.49659729 148 137 119
245970.83618164 3357716.69683838 14.20035839 39 38 34
245972.85626221 3357714.29888916 13.54313850 138 125 116
245967.17718506 3357721.39117432 13.47926140 180 163 145
245971.65295410 3357714.20898438 13.84086514 79 66 60
245969.28936768 3357720.06921387 14.00990772 180 179 177
245966.54278564 3357722.50384521 13.79289913 180 163 147
245972.87512207 3357714.23205566 13.54432964 136 123 114
245970.33563232 3357715.91455078 14.25984859 30 25 19
245967.99401855 3357719.89971924 13.80917358 120 107 98
245970.16766357 3357718.80798340 14.19750690 107 103 100
245970.30957031 3357715.37670898 13.94509125 56 55 51
245966.72613525 3357721.92700195 13.84518719 116 104 92
245968.39587402 3357723.81726074 13.49271488 80 89 44
245970.82904053 3357719.83551025 13.75440788 18 19 13
245971.21307373 3357715.42565918 14.01290417 139 136 131
245970.50842285 3357716.84124756 14.04598618 55 45 44
245969.41296387 3357716.98107910 14.15300655 73 68 64
245968.54229736 3357724.28338623 13.56221008 103 115 51
245968.15014648 3357720.90374756 13.74619484 126 121 101
245970.54870605 3357716.28820801 14.09117031 24 23 21
245968.42974854 3357718.44476318 13.95944500 64 66 63
245969.59893799 3357718.71655273 14.29186440 107 104 99
245968.57421875 3357721.63128662 13.69228458 72 74 69
245968.46423340 3357719.43121338 13.72109985 97 89 78
245966.76092529 3357723.83709717 14.02015686 94 92 93
245970.10754395 3357718.01666260 14.29785824 32 30 31
245966.23657227 3357722.86309814 13.99931908 49 51 46
245971.30957031 3357715.00952148 13.82763577 14 13 11
245972.80419922 3357715.32434082 13.62216949 83 76 68
245967.71734619 3357720.01025391 13.77566051 102 92 80
245967.35632324 3357721.03924561 13.69023418 148 130 108
245969.69421387 3357719.94982910 14.07696342 73 70 63
245969.30755615 3357717.50781250 14.01542187 34 30 27
245966.97882080 3357723.98797607 14.11711311 47 48 43
245969.90765381 3357716.94348145 14.11344337 81 76 72
245971.11462402 3357714.54608154 13.68817329 47 43 40
245968.38311768 3357718.03216553 13.91762447 165 165 155
245969.19476318 3357717.04150391 14.05925655 32 31 26
245967.30297852 3357720.04895020 13.63897514 146 129 111
245969.49127197 3357718.55706787 14.16831493 69 64 58
245969.96368408 3357719.34307861 14.22575474 105 92 86
245970.26995850 3357716.02600098 14.13009834 165 152 143
245968.85443115 3357716.75366211 13.94693947 57 42 47
245968.57342529 3357718.77648926 14.23587799 255 254 251
245970.72106934 3357715.34960938 13.81770229 121 114 104
245971.00042725 3357715.06066895 13.86463642 69 66 61
245970.20281982 3357715.74682617 13.84374905 132 123 118
245967.65332031 3357719.19494629 13.75445271 121 109 93
245967.95068359 3357722.32586670 13.55764580 95 99 74
245968.27154541 3357721.09503174 13.64888096 160 151 134
245970.41766357 3357714.79968262 13.70789528 157 146 140
245966.28955078 3357722.84027100 13.99160385 34 34 32
245972.99285889 3357713.94409180 13.56109047 168 156 144
245970.01696777 3357717.11505127 14.21648598 62 53 46
245970.80383301 3357719.13159180 13.94384098 39 38 33
245969.65246582 3357717.92590332 14.09656429 80 62 52
245968.43884277 3357721.22924805 13.61648846 204 195 178
245968.19860840 3357721.51721191 13.52823925 129 120 105
245969.26654053 3357719.73638916 13.94168377 103 96 90
245967.37677002 3357720.65820313 13.96886539 170 172 161
245969.16070557 3357718.09692383 14.05489445 55 51 42
245973.00244141 3357715.16906738 13.67240429 126 116 106
245969.04797363 3357718.78906250 14.44178391 132 125 115
245967.32501221 3357722.88891602 13.83410835 111 99 85
245972.05194092 3357714.80297852 13.70052147 48 38 37
245967.42443848 3357721.45349121 13.50938511 167 149 129
245970.64416504 3357718.41546631 14.25492001 47 48 40
245967.70379639 3357718.93774414 13.83530807 110 103 85
245965.84484863 3357723.82403564 14.40343380 152 151 147
245968.87243652 3357717.60693359 13.92881203 28 28 30
245968.35125732 3357721.58117676 13.54623795 105 103 91
245967.42211914 3357720.56567383 13.97615814 115 115 105
245968.40228271 3357722.21447754 13.46653652 85 82 75
245967.22393799 3357719.64746094 13.60478210 146 131 112
245968.04064941 3357718.60668945 13.97677040 85 69 54
245972.41717529 3357714.92950439 13.72569942 107 102 98
245968.58520508 3357719.17425537 13.97789669 21 22 14
245970.44311523 3357714.85040283 13.74363613 153 143 134
245970.58630371 3357714.90252686 13.82427120 151 135 120
245966.25134277 3357723.44659424 14.13724232 125 112 104
245966.70776367 3357723.74267578 13.97901344 115 112 105
245971.27062988 3357715.06652832 13.83047962 20 16 15
245969.42572021 3357718.24810791 14.06133652 95 84 80
245966.59973145 3357721.54168701 13.89543533 115 105 96
245969.83807373 3357716.79608154 13.99599361 40 39 35
245967.33441162 3357721.00299072 13.71803474 139 124 101
245970.83282471 3357715.68579102 13.89688683 108 105 96
245972.31829834 3357714.77905273 13.76092529 95 90 84
245969.20800781 3357716.78869629 14.09990883 29 26 19
245967.55755615 3357721.42407227 13.52396488 191 171 144
245967.71569824 3357720.11688232 13.88316059 37 34 27
245970.90209961 3357716.38128662 14.24063778 31 33 28
245968.15179443 3357718.00885010 13.84953976 70 70 62
245970.16473389 3357718.74700928 14.18423462 97 93 92
245971.89471436 3357715.26702881 13.88403702 88 78 76
245968.13909912 3357723.21868896 13.41230774 109 103 91
245970.41265869 3357716.83557129 14.03241634 52 47 44
245966.04992676 3357723.11474609 14.23350143 252 243 246
245969.15509033 3357718.55706787 14.28458023 141 139 127
245969.94030762 3357718.02935791 14.20131397 25 22 17
245967.45874023 3357722.13836670 13.68192768 139 126 110
245970.31719971 3357715.56488037 14.00291252 79 79 79
245970.22875977 3357717.00109863 14.10634422 137 132 129
245969.41137695 3357720.02496338 14.12076664 70 70 62
245970.98809814 3357719.18914795 13.85329056 24 23 18
245966.78015137 3357720.52990723 13.64614487 142 125 107
245970.41174316 3357719.21911621 14.08159924 136 131 127
245968.92626953 3357718.44653320 14.14894867 202 198 195
245967.34991455 3357720.18048096 13.86261559 178 183 179
245968.55718994 3357717.95751953 13.90862846 12 12 12
245970.68450928 3357716.13610840 14.10559750 56 45 43
245966.17895508 3357722.94793701 13.79405117 93 90 85
245970.96569824 3357718.86151123 14.10334206 45 46 41
245968.28088379 3357719.99749756 13.89237404 151 142 133
245969.44647217 3357719.20922852 14.01337051 65 64 60
245968.59063721 3357719.29626465 13.84435272 32 34 21
245971.56134033 3357714.88348389 13.71817875 93 89 80
245972.87872314 3357714.80938721 13.59990788 117 107 97
245969.03729248 3357719.06268311 14.18353939 31 31 21
245969.85089111 3357717.82922363 14.19003010 52 42 33
245970.52288818 3357715.68078613 13.93870449 41 37 34
245970.53198242 3357714.78851318 13.75657272 153 137 122
245970.62255859 3357719.08367920 13.99785995 35 34 29
245968.76348877 3357720.89031982 13.91186237 53 48 42
245972.77795410 3357715.46832275 13.63185406 52 45 39
245966.89477539 3357722.99603271 13.97982979 86 87 92
245967.16613770 3357723.84661865 14.09199238 84 83 81
245970.54449463 3357719.55578613 13.99856758 43 37 37
245967.33111572 3357722.86639404 13.79481411 168 155 138
245968.06585693 3357721.71704102 13.52729607 85 85 73
245968.34136963 3357717.92932129 13.91594887 88 87 82
245972.64794922 3357715.47241211 13.60180092 57 56 52
245968.17749023 3357723.31072998 13.41869354 130 124 112
245967.74523926 3357721.28564453 13.56353855 195 173 149
245971.04351807 3357715.53411865 13.89517212 48 45 36
245966.71398926 3357720.08300781 13.58710480 143 130 113
245968.98742676 3357716.37426758 14.10159016 28 22 22
245968.80212402 3357718.95642090 14.42736530 139 121 99
245966.01745605 3357723.45385742 13.82946014 150 137 121
245969.25390625 3357718.46105957 14.12576580 60 56 47
245970.47882080 3357718.76312256 14.12252331 46 48 43
245970.25024414 3357717.56658936 14.30273819 82 63 56
245969.52008057 3357718.87188721 14.34718895 70 69 64
245966.51086426 3357722.74749756 13.90224552 81 64 56
245970.44482422 3357715.73504639 14.04579258 73 75 74
245970.16357422 3357716.96264648 14.12570572 93 85 83
245970.89514160 3357714.58227539 13.83982372 101 100 96
245969.90814209 3357715.56805420 13.66500378 140 124 108
245967.28955078 3357720.42071533 14.03965092 208 204 205
245971.20941162 3357715.38696289 13.96857262 147 148 143
245972.35961914 3357714.52636719 13.71995735 70 61 52
245966.90295410 3357720.52081299 14.03185558 124 117 101
245968.83001709 3357718.46234131 14.17669106 223 224 226
245966.74645996 3357723.95239258 14.18237782 78 79 74
245967.06591797 3357723.99279785 14.22038746 87 87 85
245966.89941406 3357720.84069824 13.69659519 143 130 111
245968.93585205 3357716.76916504 14.02900124 42 30 34
245965.97204590 3357723.57629395 14.47502708 233 237 238
245966.77026367 3357721.92907715 13.87656879 119 109 99
245966.71228027 3357720.34838867 13.60636425 137 121 105
245967.10620117 3357719.64086914 13.59805489 148 133 112
245968.16113281 3357722.88024902 13.48219490 150 146 137
245967.04785156 3357724.00585938 13.93491650 130 134 107
245967.80529785 3357718.92657471 13.86025524 118 109 94
245972.18579102 3357714.39630127 13.62205791 30 25 19
245969.35736084 3357718.13952637 14.06954670 65 58 50
245966.16094971 3357722.93218994 13.92870045 77 79 76
245970.51458740 3357716.30218506 14.09140778 28 26 29
245966.90185547 3357721.54565430 13.70065784 75 66 57
245968.60717773 3357718.86737061 14.35467815 234 229 223
245967.42187500 3357724.09375000 14.12428188 60 60 58
245968.05261230 3357719.20062256 13.77802944 140 128 116
245968.38439941 3357721.51464844 13.55953598 161 157 146
245973.03692627 3357714.72528076 13.60860348 121 111 99
245969.27026367 3357720.51074219 13.92074108 102 93 86
245969.71948242 3357719.11865234 14.17272282 80 73 67
245972.65600586 3357715.01055908 13.59334278 97 90 82
245966.94262695 3357721.31420898 13.52546215 185 169 153
245968.95166016 3357716.31011963 14.03448105 21 11 12
245970.54321289 3357717.34674072 14.29804420 50 40 38
245971.52514648 3357714.91119385 13.73527718 44 40 31
245968.78747559 3357718.06610107 13.92609406 23 22 20
245968.01898193 3357720.31341553 13.85136223 54 56 51
245970.23419189 3357715.86535645 14.09942055 245 240 234
245969.87213135 3357715.62341309 13.69126415 139 123 107
245970.78094482 3357718.50189209 14.26630020 44 45 39
245969.80212402 3357718.17248535 14.10397530 31 22 15
245969.35180664 3357715.64855957 13.65751839 128 114 101
245968.09454346 3357723.46240234 13.49361706 99 99 87
245970.87579346 3357718.64941406 14.19127846 39 41 36
245967.19451904 3357722.07226563 13.84209538 106 93 84
245969.52978516 3357718.31781006 14.07284451 76 63 54
245967.47827148 3357720.20642090 13.92758751 235 231 228
245970.30700684 3357716.49737549 13.98505497 14 12 15
245968.02471924 3357719.47650146 13.78130150 137 125 109
245967.03735352 3357720.24151611 13.86089134 123 120 105
245968.46002197 3357722.41400146 13.43256569 108 104 95
245965.97991943 3357723.66998291 13.91728497 145 141 142
245966.17724609 3357723.21997070 14.18017197 208 193 186
245970.34246826 3357718.11645508 14.35431385 29 30 22
245971.85894775 3357714.41455078 13.64027882 38 27 25
245971.08862305 3357715.85498047 14.20362759 95 93 80
245969.15893555 3357716.26434326 14.00392437 42 31 27
245971.72149658 3357714.17834473 13.77906418 67 58 51
245969.15618896 3357718.01910400 14.08506107 38 33 27
245972.55169678 3357715.05426025 13.62965965 55 50 46
245971.82946777 3357715.42474365 14.08991623 69 62 54
245967.83551025 3357719.37683105 13.77368164 133 120 104
245971.11480713 3357715.50268555 13.93027592 55 52 45
245970.46490479 3357716.91192627 14.03323936 49 41 39
245967.23236084 3357722.89434814 13.83886719 68 56 44
245970.34796143 3357715.18444824 13.90500546 70 67 62
245970.24859619 3357717.10913086 14.11808586 124 113 111
245970.21405029 3357715.77062988 13.80640221 160 151 144
245969.44763184 3357717.26525879 14.14220810 19 14 10
245967.83984375 3357720.19665527 13.92226791 36 37 31
245972.74176025 3357715.03479004 13.58050823 120 113 103
245967.51385498 3357720.83477783 13.84750843 110 104 88
245968.70983887 3357717.62762451 13.91045666 51 51 51
245968.49719238 3357720.86578369 13.74971771 112 101 81
245968.82690430 3357719.86395264 13.67560101 112 105 87
245970.17938232 3357716.76287842 14.09557343 28 27 22
245968.97802734 3357720.57330322 13.90440750 57 47 38
245967.97186279 3357720.50231934 13.79240513 29 26 21
245966.12280273 3357722.98168945 13.80457497 123 114 107
245970.14862061 3357719.19665527 14.22499943 119 102 95
245966.96838379 3357720.62286377 14.05637074 140 127 111
245967.48297119 3357722.00488281 13.70775509 134 122 108
245969.41339111 3357720.01007080 14.11312962 58 58 48
245971.20367432 3357715.54516602 14.10646057 103 99 90
245972.80877686 3357715.11242676 13.59663200 121 111 101
245968.46368408 3357720.35595703 14.13576221 54 55 47
245966.94390869 3357721.54180908 13.68447304 74 67 59
245967.22399902 3357720.09448242 13.68410110 126 110 94
245967.86676025 3357718.53063965 13.91064644 233 221 199
245967.09771729 3357720.26843262 13.99246120 76 89 82
245971.29888916 3357719.56097412 13.64351654 150 146 143
245972.44165039 3357715.06481934 13.69562149 92 89 82
245971.23571777 3357714.42816162 13.58910751 111 107 96
245969.66461182 3357719.83746338 14.01002502 73 73 63
245970.58386230 3357714.71429443 13.76921940 145 131 118
245972.93225098 3357713.95135498 13.53664494 145 132 123
245970.46228027 3357718.87994385 14.10549736 30 31 25
245970.81195068 3357715.02703857 13.85689640 132 123 108
245970.63171387 3357716.14147949 14.13167953 33 25 22
245969.72106934 3357718.46685791 14.11440372 62 49 41
245966.77075195 3357723.76800537 13.97381306 143 139 136
245971.14556885 3357715.13629150 13.84406281 58 59 54
245968.24108887 3357718.48992920 13.91262245 70 63 53
245968.92205811 3357716.34570313 14.05525875 20 10 11
245969.84179688 3357719.05609131 14.24498463 123 110 104
245968.54809570 3357717.26104736 13.78614330 46 41 47
245966.29547119 3357723.61077881 14.27167225 174 174 174
245968.07806396 3357724.20123291 13.56381989 96 97 66
245966.80786133 3357723.56829834 14.03773499 115 105 95
245967.51971436 3357723.97717285 13.97070313 74 75 70
245969.00036621 3357717.98663330 14.01878738 24 23 19
245971.56494141 3357719.07104492 13.82117176 47 44 35
245966.43902588 3357721.04907227 13.45789623 144 131 114
245970.67687988 3357716.30200195 14.08151722 23 24 19
245970.18713379 3357718.29479980 14.13588524 24 24 22
245969.44970703 3357717.73968506 14.05123043 80 67 61
245970.69305420 3357716.14343262 14.10095596 41 31 29
245968.44641113 3357719.97802734 13.85354233 126 114 98
245967.24261475 3357720.96124268 13.75720882 133 118 97
245968.41986084 3357720.09497070 13.98142433 111 109 97
245965.83209229 3357723.76226807 14.37203217 153 149 146
245969.28277588 3357718.09796143 14.07438946 49 42 34
245969.57525635 3357717.62915039 14.05174637 63 52 46
245970.01269531 3357717.58404541 14.25717831 59 48 44
245970.74707031 3357714.78338623 13.89201546 120 112 99
245966.38391113 3357723.67651367 14.25552654 79 79 81
245966.38842773 3357721.40283203 13.50873661 183 167 152
245970.29730225 3357715.25653076 13.93990707 21 20 16
245968.48028564 3357721.86962891 13.67173004 67 72 65
245971.43878174 3357719.04852295 13.84368229 43 42 37
245970.36517334 3357716.68280029 13.99805546 20 20 20
245966.40466309 3357722.77844238 13.70800495 55 42 36
245969.98675537 3357718.78265381 14.19802856 67 58 53
245968.37255859 3357718.83703613 13.94640923 198 197 192
245969.30505371 3357717.21752930 14.10437393 23 18 14
245966.39270020 3357723.04010010 14.08855152 26 18 15
245968.72265625 3357719.69635010 13.64698029 111 101 89
245966.53820801 3357722.53381348 13.80297184 193 174 157
245969.06866455 3357719.22296143 14.04174232 43 45 42
245966.72351074 3357723.59777832 14.00311279 97 80 72
245969.33752441 3357718.26477051 14.04192352 73 62 58
245970.64337158 3357715.51910400 13.85027504 41 41 33
245969.40399170 3357718.93859863 14.31830311 48 50 45
245966.29992676 3357722.82788086 14.17293262 41 34 28
245972.85729980 3357713.74798584 13.48188114 127 113 100
245970.68359375 3357716.01489258 14.10830402 103 85 81
245969.85241699 3357717.98822021 14.15175915 39 30 23
245966.50201416 3357722.66192627 13.80386734 179 157 144
245968.31610107 3357722.97064209 13.38092041 164 157 147
245967.09490967 3357720.31701660 14.08372688 215 221 219
245967.88500977 3357719.14215088 13.80186272 102 88 77
245967.41784668 3357721.72949219 13.62523651 100 91 82
245971.74523926 3357715.44195557 14.20726013 84 84 74
245966.57183838 3357721.43792725 13.61341095 116 99 89
245965.92718506 3357723.70367432 14.17714500 165 160 156
245966.94226074 3357722.92810059 13.95023918 57 53 52
245968.05474854 3357719.17425537 13.77753735 140 128 116
245970.59259033 3357715.70812988 13.91765118 19 14 10
245965.98272705 3357723.16925049 14.00619507 204 194 184
245968.21435547 3357722.79016113 13.47838688 129 125 114
245967.37860107 3357722.33514404 13.64015484 139 122 104
245969.18933105 3357716.52221680 14.03880692 27 22 19
245970.96875000 3357715.37127686 13.80240822 81 77 68
245972.64953613 3357715.20501709 13.56471062 140 131 122
245967.68969727 3357722.24914551 13.63131714 131 129 108
245966.94891357 3357721.41015625 13.53381729 175 159 144
245968.96838379 3357719.74835205 13.72267818 69 62 54
245968.67639160 3357720.43115234 13.99715137 50 48 35
245968.55798340 3357719.09307861 14.02164078 94 95 89
245967.85076904 3357720.87341309 13.77263546 43 41 26
245967.95220947 3357718.40905762 13.84363174 166 161 139
245968.28039551 3357718.91961670 13.81344891 139 132 122
245971.23645020 3357715.66436768 14.30125523 50 50 42
245968.08306885 3357722.98120117 13.49985027 150 143 135
245967.93109131 3357722.44055176 13.53711128 102 104 80
245966.57037354 3357723.57733154 13.97107983 129 113 100
245971.39324951 3357719.08868408 13.82798481 52 49 44
245967.54870605 3357719.30572510 13.70922279 134 121 105
245966.57659912 3357720.56555176 13.56622219 143 130 114
245967.69799805 3357723.91766357 13.76198673 78 74 63
245968.83496094 3357718.05242920 13.94086456 28 27 25
245968.38903809 3357720.99713135 13.72645092 105 99 77
245969.10772705 3357718.64959717 14.40636349 197 193 182
245968.22436523 3357721.67120361 13.52404022 61 63 50
245968.58166504 3357720.17504883 13.98786163 100 94 82
245970.27038574 3357718.68231201 14.16180134 20 23 16
245970.65344238 3357717.06884766 14.14491463 84 74 72
245968.30670166 3357723.44073486 13.41802502 133 130 115
245966.82525635 3357720.54864502 13.70706081 149 128 107
245970.12615967 3357717.73803711 14.40319824 86 69 59
245972.43243408 3357714.72625732 13.75357056 93 88 82
245967.93908691 3357719.64678955 13.77556229 132 119 103
245969.61468506 3357716.62176514 13.98198318 70 65 61
245967.88604736 3357722.28167725 13.60643291 111 115 90
245967.71820068 3357722.71124268 13.60443783 165 150 129
245972.58831787 3357715.08544922 13.60401058 79 74 68
245972.54028320 3357713.96777344 13.46989059 140 126 113
245970.22277832 3357718.92053223 14.19887352 25 24 19
245969.41644287 3357718.17907715 14.06376171 86 77 70
245966.87213135 3357720.65405273 13.78611565 143 128 107
245967.31378174 3357721.73480225 13.67902946 73 66 60
245968.65216064 3357718.26800537 14.01515675 34 46 44
245967.69268799 3357720.97778320 13.75612545 134 127 109
245972.45800781 3357713.96984863 13.47143841 143 127 112
245972.42944336 3357715.51086426 13.67512131 42 42 42
245969.84832764 3357717.65435791 14.16144562 47 42 38
245967.72674561 3357724.00238037 13.74628162 84 80 69
245966.20086670 3357723.48065186 14.21328545 133 128 124
245969.87512207 3357719.85363770 14.12594318 56 53 48
245968.67712402 3357719.04858398 14.31562519 83 79 68
245969.31958008 3357719.98083496 14.09475136 65 62 55
245970.79473877 3357716.56488037 14.18868637 34 33 29
245969.88568115 3357716.54547119 13.89184475 35 34 30
245969.29058838 3357720.36712646 13.88359356 106 100 88
245970.15075684 3357715.55895996 13.84973240 234 225 218
245969.18493652 3357715.82312012 13.67650032 61 49 37
245969.83874512 3357719.55957031 14.06768608 62 52 51
245966.80712891 3357721.76556396 13.95206928 122 111 105
245966.54071045 3357723.98541260 14.28035164 65 64 59
245971.62677002 3357719.36419678 13.69240093 152 151 147
245971.74169922 3357715.15899658 13.85548019 92 82 73
245968.66723633 3357720.20538330 13.96352100 98 92 78
245968.45593262 3357724.19976807 13.55699921 103 118 53
245966.83758545 3357720.78143311 13.67007256 131 118 101
245967.91009521 3357719.25677490 13.79238129 138 124 111
245969.60717773 3357716.39190674 13.95848656 60 57 52
245965.90380859 3357723.67407227 14.56639004 193 193 193
245966.82629395 3357723.95623779 13.91207981 156 164 143
245970.07037354 3357717.63714600 14.32206345 57 46 40
245967.75201416 3357722.06909180 13.63381481 118 115 96
245966.14160156 3357723.22015381 14.18430042 208 193 186
245973.04931641 3357713.84478760 13.57282448 177 165 151
245969.93524170 3357717.15093994 14.21717072 63 52 46
245966.46496582 3357721.54235840 13.66220951 172 148 136
245966.50756836 3357722.56756592 13.76970482 195 173 159
245968.32452393 3357719.96014404 13.86315536 130 118 104
245968.74322510 3357719.25543213 13.97491169 28 28 20
245967.74035645 3357723.92761230 13.71792126 82 78 67
245968.46057129 3357722.07653809 13.57387733 106 108 103
245968.27893066 3357723.89733887 13.49671268 67 79 31
245969.61535645 3357715.73773193 13.77519989 134 118 103
245971.12066650 3357715.87725830 14.35352135 66 68 55
245969.61206055 3357719.69714355 13.94790459 107 104 95
245969.59716797 3357718.55267334 14.17061615 67 58 49
245968.34051514 3357721.11230469 13.64894295 157 148 131
245970.61926270 3357718.65795898 14.12739563 50 51 45
245969.90966797 3357716.66253662 14.01405621 33 32 30
245967.00689697 3357723.64593506 14.04943657 196 199 192
245972.48828125 3357715.64831543 13.74640369 32 34 31
245968.52014160 3357722.22515869 13.50444889 51 50 45
245967.56719971 3357720.27661133 13.96090984 178 167 165
245967.21466064 3357720.65594482 14.02835178 165 159 147
245972.07110596 3357714.31475830 13.59772682 34 27 21
245970.35418701 3357715.15618896 13.89723492 90 85 81
245969.74133301 3357719.07165527 14.22481346 85 78 72
245968.54620361 3357717.77679443 13.89888000 32 32 32
245969.44628906 3357717.64892578 14.03675270 64 55 48
245968.12243652 3357721.50103760 13.52976704 112 103 88
245970.41680908 3357719.55316162 14.08751297 174 163 157
245970.02008057 3357717.66125488 14.31501293 52 43 36
245971.07818604 3357715.15222168 13.84602737 49 48 43
245969.61920166 3357715.52435303 13.65285873 143 128 109
245968.56353760 3357718.97808838 14.25150108 216 217 211
245969.04296875 3357716.17840576 13.95084000 27 13 10
245970.70764160 3357716.24328613 14.08880901 26 23 18
245968.77655029 3357720.61730957 13.98899364 57 54 39
245966.96051025 3357723.92102051 14.01711369 82 81 77
245966.25921631 3357723.55242920 14.22912502 179 175 174
245969.54101563 3357717.50567627 14.06947994 58 49 44
245969.85815430 3357715.53125000 13.64933872 147 131 116
245968.87731934 3357716.81494141 13.95094204 41 29 33
245967.12762451 3357720.51959229 14.09852600 175 170 167
245972.69995117 3357713.93249512 13.46844673 133 121 107
245968.13067627 3357721.22204590 13.56513882 177 164 147
245967.39074707 3357720.68200684 13.95877552 168 168 156
245968.02679443 3357724.00354004 13.52878284 163 161 140
245968.86450195 3357716.82464600 13.93389797 43 31 33
245970.47277832 3357715.39154053 13.89325905 47 47 39
245969.73175049 3357718.27423096 14.08643627 70 55 50
245966.65887451 3357721.27807617 13.51825237 176 160 147
245972.71978760 3357714.80523682 13.62216663 110 103 95
245968.17150879 3357717.61010742 13.87309265 101 102 97
245969.31671143 3357715.97290039 13.88450718 71 62 57
245966.01074219 3357723.72747803 14.56189156 254 254 254
245970.43438721 3357716.37866211 14.04340649 33 28 34
245972.28448486 3357714.63562012 13.73367786 14 9 5
245966.98699951 3357721.57794189 13.73557472 88 83 77
245968.31610107 3357721.61254883 13.53462315 69 70 56
245970.72357178 3357716.85241699 14.11791420 49 44 41
245970.15728760 3357716.39392090 13.83022308 91 90 88
245968.15240479 3357720.20629883 13.93523216 37 38 32
245971.14477539 3357715.25250244 13.83690357 88 87 82
245967.86529541 3357721.05816650 13.70171452 158 146 122
245967.48266602 3357722.44732666 13.59141827 148 131 113
245968.95458984 3357717.60491943 13.94412231 29 29 31
245967.24255371 3357721.60839844 13.62048531 85 76 69
245971.29364014 3357714.98449707 13.82573795 19 18 16
245968.77001953 3357718.17352295 13.93535614 57 53 50
245970.39910889 3357714.73339844 13.67449665 166 157 152
245966.95043945 3357720.64312744 13.97636127 127 114 98
245967.40509033 3357721.50061035 13.50440979 162 145 129
245968.81738281 3357718.00970459 13.93482399 23 22 20
245967.79302979 3357720.01873779 13.80129147 58 49 40
245967.06512451 3357722.39849854 13.67726707 146 130 115
245967.01916504 3357719.69110107 13.59910393 148 133 114
245968.21887207 3357721.12207031 13.62679482 157 148 131
245970.77581787 3357715.16485596 13.80763149 128 119 104
245969.30468750 3357716.27020264 13.98283577 91 83 72
245966.73486328 3357721.42279053 13.58905125 90 76 67
245968.43365479 3357721.83398438 13.61905384 80 85 79
245968.59893799 3357722.52893066 13.46624851 107 103 91
245967.71899414 3357718.75787354 13.89998817 130 121 104
245969.71643066 3357717.04534912 14.16761971 140 131 126
245970.00683594 3357718.46362305 14.07439899 24 19 15
245968.85095215 3357717.96520996 13.94620514 20 19 17
245968.48352051 3357718.62048340 14.06246281 99 101 98
245968.41754150 3357722.94909668 13.38127327 161 158 143
245968.93261719 3357716.82318115 13.98695850 39 27 31
245966.40679932 3357723.00927734 14.09752655 21 11 9
245970.12872314 3357719.14581299 14.22490501 108 95 89
245968.72137451 3357716.43945313 13.93071270 189 156 137
245968.61682129 3357718.58990479 14.16763210 230 234 233
245969.22534180 3357716.88824463 14.08175659 50 50 42
245972.55297852 3357715.12213135 13.61982822 41 36 32
245968.97406006 3357716.96710205 13.91855526 33 27 29
245970.34844971 3357719.01879883 14.14322853 24 23 18
245973.04284668 3357715.01177979 13.65245724 131 117 106
245971.38403320 3357719.38024902 13.69348240 71 68 63
245969.74493408 3357716.61212158 13.96965599 56 53 48
245970.04144287 3357717.05957031 14.19558620 53 44 37
245966.05914307 3357723.54547119 14.15425968 214 213 209
245968.90063477 3357717.92858887 13.96983719 23 22 20
245970.65057373 3357716.67852783 14.05591774 48 44 41
245971.49884033 3357719.29473877 13.72092438 45 42 37
245965.88220215 3357723.87994385 14.38309669 106 105 100
245969.77117920 3357719.59674072 13.94974327 96 91 87
245967.07855225 3357721.27239990 13.52326298 182 165 147
245969.96649170 3357715.32043457 13.63115311 150 134 121
245968.30017090 3357718.19610596 13.83752346 37 37 29
245966.71563721 3357723.18780518 14.01194096 33 33 31
245970.07080078 3357715.38769531 13.73184013 139 122 114
245968.73565674 3357716.98229980 13.71689034 35 31 28
245968.38012695 3357722.93420410 13.38545990 170 164 152
245969.05694580 3357716.15771484 13.93770695 41 26 19
245970.13146973 3357716.11462402 13.62165070 110 106 94
245968.25390625 3357722.89892578 13.42353725 169 162 152
245970.39611816 3357718.44940186 14.15371418 31 32 27
245966.27246094 3357723.68811035 14.44816113 81 81 79
245970.36370850 3357716.88806152 14.03892136 52 47 44
245969.19146729 3357715.96636963 13.77990723 107 94 85
245966.48254395 3357722.31475830 13.65882874 153 135 123
245972.16094971 3357715.33422852 13.94682789 58 54 53
245967.55664063 3357724.14709473 13.92779827 88 85 78
245970.31420898 3357716.51879883 13.98344421 21 19 22
245968.36480713 3357719.34606934 13.74168301 122 116 104
245969.01855469 3357720.49426270 13.83060360 70 56 45
245971.01605225 3357714.66174316 13.83213520 24 23 21
