245724.22381592 3357597.05731201 16.99590874 166 167 162
245725.67004395 3357598.04260254 17.10143661 145 139 127
245724.13793945 3357597.81781006 16.85156441 55 68 74
245724.70025635 3357597.33020020 17.03661346 126 135 132
245725.00299072 3357596.75433350 16.98839188 202 203 198
245723.57788086 3357597.81951904 17.17493820 58 66 68
245723.74310303 3357599.00555420 16.91394615 148 140 129
245724.36206055 3357597.18786621 17.50693321 161 165 164
245723.71520996 3357597.59667969 16.99982452 25 33 36
245723.42968750 3357598.41766357 17.31091499 116 112 111
245725.34356689 3357596.15130615 17.11386299 57 54 49
245724.75115967 3357597.89715576 16.89108849 166 166 158
245725.26104736 3357598.19628906 16.85002708 171 165 153
245725.12683105 3357596.63958740 17.54097939 92 101 100
245723.48620605 3357598.55749512 17.16446877 35 35 33
245724.29040527 3357597.08953857 17.05062294 169 168 163
245724.75488281 3357597.04394531 17.11248589 158 160 159
245723.80670166 3357597.05206299 16.95685959 153 155 150
245724.22863770 3357596.98907471 16.94026566 149 150 145
245725.37365723 3357596.46337891 16.95213509 159 154 150
245724.81475830 3357598.69061279 16.87619209 143 135 122
245724.58111572 3357597.99645996 16.88226700 181 178 169
245724.90747070 3357598.20672607 16.88026619 181 181 169
245725.55804443 3357596.16693115 16.86676598 114 116 115
245725.23547363 3357596.71289063 17.54506493 81 85 88
245725.15429688 3357596.47021484 17.46614647 131 133 132
245724.80889893 3357597.62713623 16.89815331 111 113 108
245723.98394775 3357597.62713623 16.89602852 53 62 71
245724.50659180 3357597.47381592 17.14447975 159 161 160
245723.93524170 3357598.65527344 16.86578941 44 46 43
245725.51800537 3357597.64599609 16.84178925 114 118 117
245725.36450195 3357596.67834473 17.31827164 27 27 29
245724.29833984 3357597.30010986 17.08078575 168 171 164
245724.01635742 3357597.00927734 16.92661476 155 156 151
245725.28985596 3357596.53094482 17.44363213 38 29 30
245724.22802734 3357596.86602783 16.89556313 247 248 243
245725.36468506 3357596.27032471 17.11610222 94 89 85
245725.43206787 3357597.54370117 16.83370018 89 93 92
245724.88110352 3357597.50726318 16.90703201 177 179 176
245725.11090088 3357596.09600830 17.67267609 69 47 49
245724.66790771 3357598.83520508 16.85949516 102 95 85
245725.23669434 3357596.24206543 17.80935669 123 92 90
245724.87487793 3357598.79248047 16.87901878 141 135 123
245725.20642090 3357596.32543945 17.43015289 120 116 113
245725.34368896 3357596.87261963 17.06727600 55 55 55
245724.27813721 3357597.46160889 16.99412155 163 164 158
245724.37561035 3357597.67266846 16.90522003 166 167 161
245725.14587402 3357598.43121338 16.86431122 234 232 220
245725.23522949 3357597.15405273 17.42111969 21 19 20
245725.25415039 3357597.17199707 17.01553535 8 12 15
245723.49865723 3357598.51013184 17.06587601 18 18 18
245724.89154053 3357596.82464600 16.91259003 132 132 130
245723.56256104 3357597.34252930 17.20721436 244 249 253
245724.33355713 3357597.85772705 16.85822678 137 136 132
245725.60937500 3357598.18658447 17.03081322 143 137 125
245725.57702637 3357597.39166260 16.83460999 89 97 99
245725.72106934 3357598.00402832 17.08601189 149 141 130
245723.89953613 3357597.21051025 16.97980309 163 165 162
245725.22113037 3357597.18731689 17.66741753 79 73 73
245725.05621338 3357597.73980713 16.88151169 101 103 100
245723.43878174 3357598.47460938 17.00944328 134 134 132
245725.11859131 3357598.04284668 16.88836479 176 174 162
245723.53588867 3357597.41027832 17.24131775 204 211 219
245725.30969238 3357596.29992676 17.35952568 126 118 115
245724.34106445 3357597.20086670 17.36617661 153 159 157
245725.20782471 3357596.60162354 17.52293396 73 74 78
245725.20794678 3357596.57745361 17.52161026 62 63 67
245724.32647705 3357596.45788574 17.29940033 206 206 206
245725.57214355 3357596.39709473 16.85755539 74 77 84
245725.22912598 3357598.39245605 16.84725380 201 199 186
245725.33544922 3357595.95123291 17.47508812 26 25 21
245723.44927979 3357598.45397949 17.19232941 172 170 171
245724.82897949 3357597.20819092 17.13606644 112 118 118
245725.23498535 3357596.32684326 17.55260658 98 93 90
245724.38378906 3357596.69482422 17.01941490 167 169 164
245723.73846436 3357597.20977783 17.04308891 149 153 152
245725.03149414 3357596.69824219 17.08307838 155 156 150
245725.50036621 3357598.36175537 16.92286110 159 155 143
245725.34606934 3357596.02569580 17.58874130 55 50 47
245723.52026367 3357598.34552002 17.02087784 148 149 151
245725.69641113 3357597.96514893 16.99173164 159 155 143
245725.33575439 3357595.99768066 17.40924454 22 22 20
245724.53546143 3357598.64501953 16.86744690 161 148 140
245724.40148926 3357596.77575684 17.13644600 220 222 221
245723.63995361 3357597.65362549 17.11822701 24 29 33
245723.61267090 3357597.56286621 17.24654198 39 48 53
245725.54638672 3357596.57794189 16.84469032 76 81 85
245724.72271729 3357596.98382568 17.02201843 169 168 166
245725.55596924 3357597.72332764 16.85854340 138 140 135
245724.11126709 3357597.06286621 16.95526505 154 156 151
245723.54058838 3357597.72979736 17.26542854 72 79 85
245724.62451172 3357597.01507568 17.29529572 194 196 193
245725.13433838 3357596.98608398 17.64596939 52 54 53
245725.48553467 3357597.98413086 16.96538544 169 161 150
245725.64367676 3357598.20153809 17.14694977 124 121 104
245724.57189941 3357597.30108643 17.27779579 134 136 133
245724.56250000 3357597.78790283 16.90874100 168 167 163
245724.72454834 3357596.69891357 16.86656761 132 133 128
245725.34332275 3357596.06457520 17.38498688 78 80 77
245725.18383789 3357596.22576904 17.72097015 132 98 97
245724.36157227 3357596.63201904 17.31746674 109 109 107
245724.37274170 3357596.56921387 17.28275681 148 148 146
245724.82769775 3357598.05114746 16.88569069 180 178 166
245725.42102051 3357597.73016357 16.85745049 158 160 157
245725.06048584 3357597.23016357 17.39914131 46 45 43
245724.26824951 3357596.48498535 17.11549950 151 154 145
245724.82702637 3357598.54046631 16.86910248 235 227 216
245725.33178711 3357596.08563232 17.09101868 64 63 58
245724.39691162 3357596.83392334 17.17513275 229 231 228
245723.66314697 3357597.16906738 17.01434708 150 154 155
245724.99639893 3357597.02734375 17.36569405 66 60 60
245725.07019043 3357596.14385986 17.14930534 84 81 74
245724.68127441 3357598.07153320 16.88324547 181 177 166
245724.31903076 3357597.50537109 17.00485802 168 169 164
245724.91473389 3357596.38977051 16.92829704 200 195 189
245724.95642090 3357597.17517090 17.39329910 77 77 79
245725.51892090 3357597.24719238 16.83090019 37 45 48
245724.48822021 3357598.43194580 16.85972404 245 242 235
245724.29681396 3357597.10784912 17.46346283 163 165 162
245725.19665527 3357597.77264404 16.88761330 166 169 162
245725.25360107 3357596.21423340 17.81733513 98 62 62
245725.64361572 3357598.14428711 17.13146782 141 135 121
245724.35546875 3357596.42663574 17.19988632 158 158 156
245724.56652832 3357596.86157227 17.11622047 226 222 219
245725.37371826 3357596.39508057 17.03178787 120 113 107
245724.87500000 3357597.09368896 17.15286636 103 105 104
245724.95977783 3357596.88494873 16.95430374 148 148 148
245725.06982422 3357597.18847656 17.55532455 65 52 43
245723.97344971 3357597.79254150 16.86108208 46 55 62
245724.34655762 3357596.54699707 17.08695030 158 163 156
245724.16906738 3357597.34484863 16.97992516 156 159 152
245723.44689941 3357598.09649658 17.19636726 48 49 51
245725.40216064 3357596.16876221 16.91213989 188 183 177
245725.35296631 3357598.24645996 16.85282135 162 159 144
245725.15930176 3357598.06158447 16.87992859 175 168 158
245725.05090332 3357596.93249512 17.54835510 66 62 61
245724.35754395 3357597.26434326 17.23367119 167 172 168
245724.85375977 3357597.18768311 17.27892494 91 93 92
245724.61627197 3357598.03857422 16.88386154 184 180 171
245725.02130127 3357598.79345703 16.89530373 145 137 126
245725.23358154 3357597.18627930 17.55439949 64 62 63
245723.56341553 3357598.89971924 16.96865273 143 140 123
245724.98498535 3357598.76220703 16.88959885 155 146 137
245725.23760986 3357597.13977051 17.26224899 37 37 37
245723.43493652 3357598.16564941 17.23872185 199 205 201
245724.75811768 3357597.57214355 16.92174721 115 117 114
245723.88342285 3357597.52093506 16.92216301 46 56 58
245725.57202148 3357597.37927246 16.83429146 89 97 99
245724.73663330 3357596.68115234 16.86588860 132 133 128
245725.05834961 3357598.25659180 16.85807610 179 177 164
245724.80883789 3357596.97735596 16.95976639 145 144 142
245724.45770264 3357597.66717529 16.95196915 166 171 165
245724.37054443 3357596.97509766 17.16393089 156 161 155
245724.07818604 3357598.88665771 16.86661911 88 90 85
245725.46136475 3357597.43969727 16.83269119 146 152 150
245725.18298340 3357595.78057861 17.42303467 89 84 81
245724.79980469 3357597.90856934 16.89116287 162 162 154
245725.18292236 3357597.21966553 17.53178596 39 33 35
245725.35131836 3357596.90521240 17.35044861 27 28 32
245725.30725098 3357595.81494141 17.26497841 60 56 53
245723.53009033 3357597.77899170 17.25060081 83 90 96
245725.22180176 3357596.29949951 17.55688858 107 101 101
245724.30224609 3357597.82049561 16.86183167 107 106 104
245725.09143066 3357596.53802490 17.37622070 89 90 85
245724.93841553 3357596.88391113 16.94395065 148 148 148
245723.71447754 3357597.61407471 16.99152756 25 33 36
245725.56829834 3357597.51422119 16.83752060 108 112 113
245725.04559326 3357596.64465332 17.31159973 98 100 99
245724.65075684 3357597.43682861 16.99985123 150 160 161
245725.23913574 3357598.61456299 16.91631508 140 130 120
245725.29693604 3357596.73425293 17.53817558 47 47 49
245724.78161621 3357597.13757324 17.32767868 130 136 136
245724.39251709 3357597.20874023 17.51886368 152 154 153
245724.04199219 3357597.52862549 16.91576767 97 102 105
245725.33874512 3357597.20684814 16.88453293 45 51 51
245724.38653564 3357597.51702881 17.05073929 170 172 167
245725.22406006 3357597.18041992 17.08524132 16 17 19
245723.94042969 3357597.46191406 16.94027138 66 71 74
245724.81817627 3357596.90527344 16.90217972 131 131 131
245724.09515381 3357596.83489990 16.88526535 255 254 250
245723.62615967 3357598.40808105 16.88158798 96 97 99
245725.23553467 3357597.14715576 17.21034050 27 29 28
245725.34521484 3357596.01873779 17.57123947 55 50 47
245725.72503662 3357598.01129150 17.11548615 148 140 129
245724.07556152 3357599.00970459 16.87520218 122 123 115
245725.16906738 3357596.25891113 17.37743950 134 131 126
245725.36004639 3357596.44659424 17.15921593 111 103 100
245725.55432129 3357598.12731934 16.99280739 153 147 135
245724.75579834 3357597.40368652 16.95394135 56 60 59
245725.04748535 3357598.42736816 16.85740662 235 233 221
245724.29101563 3357597.18817139 17.03555679 165 168 161
245723.64923096 3357597.78387451 17.06188583 32 33 38
245723.41448975 3357598.33062744 17.28712273 200 196 193
245725.34082031 3357596.96508789 17.47572136 28 29 33
245723.75225830 3357597.96716309 16.89248848 25 35 37
245725.61944580 3357597.90948486 16.92004967 163 159 148
245725.53546143 3357597.54711914 16.83754921 95 99 100
245723.49664307 3357597.90594482 17.21948433 64 72 75
245725.15478516 3357596.32409668 17.31634140 133 132 127
245725.28002930 3357597.11010742 17.54545593 23 21 24
245724.06164551 3357598.96899414 16.86662865 129 130 122
245725.25323486 3357596.73870850 17.55213928 79 83 86
245723.49981689 3357597.41687012 17.19831085 233 234 236
245725.66662598 3357598.01000977 17.07206345 151 142 133
245724.50927734 3357597.57714844 17.04568672 131 136 132
245724.35656738 3357596.95532227 17.36771202 127 129 128
245724.62255859 3357596.95281982 17.10134888 199 198 194
245724.32080078 3357598.66479492 16.86563110 87 73 72
245723.54797363 3357597.97564697 17.12017059 79 87 89
245725.25091553 3357595.78234863 17.42570305 51 46 43
245723.59808350 3357597.21386719 17.07253075 155 161 161
245723.89276123 3357598.26776123 16.85922432 74 79 82
245725.19458008 3357596.38403320 17.41873932 129 128 124
245724.40325928 3357597.77307129 16.88431931 165 166 160
245724.38299561 3357596.94738770 17.11178398 141 143 138
245725.06207275 3357596.11578369 17.13504410 99 94 88
245724.48260498 3357596.90808105 17.34519958 222 224 223
245725.36297607 3357596.76611328 17.28300285 15 16 20
245725.30541992 3357597.07708740 17.42930984 25 25 25
245723.99932861 3357597.36322021 16.97233772 141 146 142
245725.37469482 3357596.18414307 17.00760841 171 168 163
245724.68756104 3357596.79870605 16.86382294 213 214 209
245725.31512451 3357596.23913574 17.61795807 70 60 61
245724.94067383 3357597.65155029 16.88533020 169 171 166
245725.12823486 3357598.12872314 16.87195206 183 179 167
245724.22595215 3357598.84960938 16.87260628 77 77 77
245723.44586182 3357598.67114258 17.11389351 50 49 44
245725.34216309 3357596.24639893 17.27304077 130 125 121
245725.53735352 3357596.36920166 16.85905266 69 70 75
245725.02404785 3357596.88531494 17.11771202 79 79 79
245725.06311035 3357597.74066162 16.88167763 101 103 100
245723.53826904 3357598.17663574 17.00330925 75 79 82
245723.47222900 3357597.70489502 17.14995003 220 224 225
245725.06695557 3357598.33551025 16.84304428 177 177 165
245723.70202637 3357597.47186279 17.07466507 9 16 22
245723.83886719 3357597.09429932 16.96396446 159 161 158
245724.34008789 3357596.97589111 17.40496063 161 165 166
245725.05645752 3357597.90625000 16.89895058 164 165 157
245724.96722412 3357597.46044922 16.90716553 154 156 153
245725.24237061 3357597.93280029 16.90215492 165 165 157
245724.46960449 3357596.90728760 17.35792160 245 249 248
245724.05804443 3357596.99981689 16.92654800 156 157 152
245724.03338623 3357598.58111572 16.86223602 136 132 131
245725.14044189 3357597.36181641 16.93549156 162 164 163
245725.35913086 3357598.14190674 16.89097214 162 156 142
245724.53210449 3357597.26556396 17.39845657 62 64 63
245725.50048828 3357596.19287109 16.87227440 133 132 130
245725.65753174 3357597.98468018 17.00290489 162 156 144
245725.75134277 3357597.75323486 16.85660172 125 127 124
245724.31018066 3357597.69683838 16.89222336 150 151 145
245724.42205811 3357597.84960938 16.86952209 166 165 161
245723.99023438 3357598.79266357 16.86867905 41 42 37
245724.28820801 3357598.01800537 16.84675789 91 93 90
245724.68688965 3357597.13476563 17.34148026 96 100 99
245724.93780518 3357597.25610352 17.02853775 114 110 107
245723.46032715 3357597.92108154 17.11388206 79 84 87
245725.71655273 3357597.34478760 16.83914566 55 65 67
245725.37078857 3357596.73724365 16.91185188 148 144 141
245725.33032227 3357596.24365234 17.30754089 128 123 119
245723.42675781 3357598.25646973 17.23309708 129 129 127
245724.38659668 3357596.85272217 17.33850861 221 223 222
245723.97070313 3357598.28088379 16.85705948 68 70 67
245724.87402344 3357597.63781738 16.89196777 141 143 138
245723.65917969 3357597.30303955 17.11324883 226 231 235
245723.92492676 3357597.10144043 16.95693398 155 155 153
245724.08752441 3357597.50701904 16.92160988 152 156 157
245724.58038330 3357597.36193848 17.19113159 125 130 126
245724.35900879 3357596.41192627 17.16929436 153 153 151
245724.38568115 3357596.91235352 17.18431473 136 138 133
245724.59149170 3357597.40649414 17.11767769 153 159 155
245725.33160400 3357596.16339111 17.67480850 70 56 56
245724.06939697 3357598.06701660 16.85149765 112 118 118
245725.43127441 3357597.14971924 16.84255791 30 40 41
245724.16894531 3357597.35174561 16.97758293 153 156 149
245725.46044922 3357596.36755371 16.87821198 45 45 45
245723.59667969 3357597.70263672 17.20135117 89 92 99
245724.34637451 3357597.07031250 17.24985886 147 153 149
245723.76788330 3357597.73919678 16.89613533 61 66 70
245725.22082520 3357597.18316650 17.09220505 16 17 19
245724.34796143 3357597.64221191 16.90943718 165 166 158
245724.44409180 3357596.56616211 17.10735703 138 140 135
245724.87670898 3357596.72662354 16.89160347 135 135 133
245724.85797119 3357598.81854248 16.87686539 123 119 108
245725.20989990 3357597.70050049 16.86226273 105 110 104
245724.32781982 3357597.74926758 16.88165665 119 120 114
245725.23974609 3357597.13616943 17.26516342 37 37 37
245723.63787842 3357597.68762207 17.11251450 28 31 36
245725.41345215 3357596.17498779 16.91021729 157 154 149
245725.03808594 3357597.23016357 17.42341423 109 105 102
245723.81298828 3357599.05419922 16.90514183 129 123 111
245724.81072998 3357596.58374023 16.86531448 137 133 132
245725.67956543 3357598.04583740 17.11883163 147 139 128
245725.08905029 3357596.02337646 17.43471718 59 54 50
245724.01452637 3357598.39495850 16.85395241 116 115 111
245724.21380615 3357597.21630859 16.99939156 156 159 152
245724.36486816 3357596.95269775 17.07026100 151 154 147
245724.55438232 3357598.72198486 16.86514473 148 135 127
245725.06750488 3357596.73406982 17.45578384 104 105 107
245724.35968018 3357596.62835693 17.31846619 109 109 107
245724.84912109 3357597.34405518 16.93748665 47 49 46
245725.02899170 3357596.79724121 17.07915306 195 197 192
245725.59100342 3357597.97619629 16.99279404 160 154 140
245723.61950684 3357597.63031006 17.18418312 65 73 76
245724.60705566 3357596.83349609 16.99767685 230 227 222
245725.15417480 3357597.05200195 17.64204979 72 72 72
245724.35516357 3357596.58489990 16.98683357 164 167 158
245723.97473145 3357597.53161621 16.91581154 54 62 65
245724.18591309 3357597.28735352 17.00134659 155 158 151
245724.00775146 3357597.04351807 16.93901825 153 154 149
245725.18475342 3357596.07189941 17.82998657 111 83 80
245724.12097168 3357597.21209717 16.98355865 153 154 148
245723.50543213 3357597.85845947 17.23524284 21 26 29
245725.07958984 3357596.82086182 17.51033020 171 172 176
245723.79870605 3357597.84942627 16.88038635 30 38 41
245724.66351318 3357598.80786133 16.85978508 102 95 85
245724.27355957 3357597.56878662 16.92817879 158 159 151
245725.08544922 3357596.84838867 17.53157425 120 121 123
245723.99603271 3357598.62561035 16.86427307 93 91 92
245723.57781982 3357597.14044189 17.00197983 161 163 162
