245895.28295898 3357408.49932861 17.21886063 51 51 51
245892.85076904 3357408.88821411 17.31024551 19 23 26
245894.47210693 3357408.97601318 17.01994133 94 80 80
245890.95330811 3357408.76028442 17.05401611 57 61 62
245892.41833496 3357408.15585327 17.58992577 30 35 38
245892.40997314 3357408.84796143 17.36968422 131 134 139
245890.34558105 3357408.82595825 17.06885529 52 53 55
245890.75659180 3357409.13220215 16.94064713 99 99 97
245888.16558838 3357407.97354126 17.38984680 39 43 44
245891.21820068 3357407.85330200 17.19368172 60 61 63
245894.57696533 3357408.26046753 17.19205284 88 86 87
245891.32427979 3357408.47946167 17.27284813 56 56 56
245888.35467529 3357409.51657104 17.01429176 78 79 83
245894.45306396 3357408.66687012 16.99924660 83 75 73
245891.75976563 3357408.34268188 17.06456566 64 70 70
245888.33044434 3357408.07720947 17.28074074 79 79 77
245890.90222168 3357407.91690063 17.24097633 36 39 32
245894.39715576 3357408.27749634 17.18130493 84 86 81
245893.48138428 3357408.07958984 17.54905319 63 63 71
245893.59564209 3357408.93115234 17.14097977 46 46 44
245889.36016846 3357408.05535889 17.11860847 216 186 188
245888.46447754 3357410.15954590 16.92063141 99 99 99
245890.14758301 3357408.61773682 17.14658356 90 90 92
245893.29663086 3357408.14184570 17.71018982 138 144 156
245888.09436035 3357408.51922607 17.31079483 53 58 61
245892.52331543 3357407.59600830 16.86988258 78 84 74
245888.43078613 3357410.16387939 16.92067909 98 98 98
245890.71398926 3357407.77752686 16.96400642 80 82 81
245892.94232178 3357407.85501099 17.35775566 146 145 150
245893.98297119 3357409.01480103 16.91664505 88 89 84
245891.99206543 3357408.65942383 17.20794487 62 62 62
245890.91076660 3357408.78176880 17.02715111 67 68 70
245892.27221680 3357407.71777344 17.08260727 49 53 54
245894.68688965 3357408.40045166 17.20897102 140 129 127
245888.09692383 3357407.91995239 17.22520256 37 46 43
245893.81018066 3357408.97833252 17.03511238 80 78 81
245892.89495850 3357408.80780029 17.31089020 24 26 25
245890.01849365 3357408.94854736 17.10573959 181 189 191
245894.23364258 3357408.97604370 16.81033134 99 99 97
245892.44519043 3357407.61090088 16.87371254 69 76 69
245890.95520020 3357409.30609131 16.95306587 117 117 115
245889.32379150 3357409.81085205 17.00823021 96 101 97
245895.28271484 3357408.44427490 17.21903992 57 55 56
245894.40954590 3357409.00103760 16.87791061 72 67 64
245888.73944092 3357408.87847900 17.11909294 50 46 47
245890.97698975 3357407.95989990 17.27648926 54 59 55
245891.11157227 3357409.15722656 17.03274918 100 100 98
245894.35137939 3357408.06719971 17.23819160 87 86 82
245890.26153564 3357409.13006592 17.01592636 65 63 64
245890.76971436 3357407.72708130 16.89293861 81 85 84
245890.53594971 3357407.69009399 16.86033440 67 71 57
245891.94512939 3357407.78787231 17.09910393 79 79 77
245891.16680908 3357407.95944214 17.36346245 57 63 63
245890.69927979 3357408.82839966 17.14263535 54 54 54
245892.51959229 3357407.89627075 17.47431946 105 109 110
245892.60455322 3357408.72793579 17.51761818 110 108 109
245889.44494629 3357408.47851563 17.16703796 187 182 186
245891.36724854 3357407.71652222 16.92695427 70 72 69
245888.32556152 3357409.06216431 17.09867287 48 53 56
245895.08929443 3357408.93310547 16.97691727 109 105 102
245889.83984375 3357408.36291504 17.15597534 118 112 112
245894.57623291 3357408.40988159 17.11385918 92 88 87
245891.07501221 3357408.11596680 17.29084969 60 64 63
245894.42901611 3357408.95343018 16.87793922 84 70 69
245892.19647217 3357408.04049683 17.22212029 42 45 50
245893.30419922 3357408.23770142 17.32767105 63 67 78
245888.38323975 3357408.46603394 17.15572929 72 76 79
245892.87652588 3357408.75442505 17.36579704 43 44 46
245888.66534424 3357410.29354858 16.84310532 98 98 98
245889.73168945 3357407.86221313 17.06281281 45 50 53
245892.26501465 3357407.87951660 17.39495087 74 80 80
245893.87719727 3357408.09744263 17.33895302 31 30 35
245888.87347412 3357410.21212769 16.84702873 94 94 94
245889.73388672 3357409.72512817 16.93512154 110 110 108
245888.92340088 3357410.20474243 16.85771179 90 90 90
245890.69671631 3357409.10498047 16.98945045 86 85 83
245890.69085693 3357407.82644653 17.04562187 112 117 113
245894.77966309 3357408.42294312 17.28345299 137 108 110
245891.50592041 3357408.70571899 17.09198952 44 44 46
245890.20831299 3357407.86904907 17.22918320 60 62 61
245895.19195557 3357408.91146851 16.97547913 102 99 94
245889.45593262 3357409.08361816 16.86436653 101 99 100
245889.32714844 3357408.09375000 17.08289146 216 190 193
245892.00500488 3357408.21289063 17.10324287 129 143 144
245892.66143799 3357408.19976807 17.59833145 24 30 42
245891.90142822 3357408.27420044 17.07018852 87 98 100
245893.64971924 3357407.92227173 17.27054024 49 50 52
245892.73437500 3357407.76403809 17.18638992 105 105 103
245893.92700195 3357409.04089355 16.94738388 87 87 85
245891.83520508 3357407.98712158 17.27398300 59 57 58
245888.09448242 3357408.63717651 17.29878044 34 39 42
245892.64404297 3357408.78634644 17.50599670 148 146 147
245888.36132813 3357410.03189087 16.96438980 90 92 91
245892.22149658 3357408.86059570 17.13102913 60 64 65
245895.18762207 3357408.78878784 17.13088799 49 50 45
245892.47967529 3357408.33166504 17.46125603 98 108 110
245894.24267578 3357408.04397583 17.27152061 78 80 77
245891.07354736 3357407.65325928 16.77821350 81 83 72
245889.23516846 3357409.91537476 17.09125519 181 203 182
245890.94647217 3357407.85052490 17.08198547 94 93 89
245891.57537842 3357408.90832520 16.99333382 70 72 71
245889.32476807 3357408.50958252 17.07281876 76 77 81
245889.71942139 3357408.33825684 17.22382545 112 112 112
245888.19628906 3357407.95172119 17.28947067 41 47 45
245893.98980713 3357408.74172974 17.01519585 88 88 88
245892.36743164 3357407.96389771 17.54913712 38 46 48
245891.20794678 3357407.98577881 17.38542175 146 148 147
245888.30682373 3357408.68035889 17.16102219 51 56 59
245894.23669434 3357408.30358887 17.20775986 86 88 87
245892.97369385 3357408.77853394 17.23967552 35 37 36
245890.93170166 3357408.55010986 17.12013817 63 67 70
245893.54211426 3357408.30499268 17.06897354 73 78 81
245892.16778564 3357408.72970581 17.23280334 56 57 59
245891.84161377 3357407.87481689 17.23548317 59 59 59
245890.35620117 3357408.57055664 17.03654099 54 57 62
245892.85211182 3357407.72463989 17.04170990 102 103 105
245892.49652100 3357408.81878662 17.47756958 81 81 81
245889.93316650 3357408.70037842 17.14188576 123 128 132
245889.60070801 3357408.10598755 17.12678146 68 59 60
245890.41418457 3357407.65280151 16.85019493 67 74 58
245892.85717773 3357408.00378418 17.61474228 126 130 139
245888.32696533 3357408.02178955 17.21453285 77 77 77
245893.57452393 3357407.99438477 17.47271347 56 57 59
245890.66412354 3357408.28768921 17.04302216 51 55 54
245894.46014404 3357408.99270630 16.99735069 94 80 80
245891.12243652 3357407.82104492 16.99830818 58 58 56
245891.04388428 3357408.95266724 16.99693680 56 58 57
245889.05908203 3357410.07089233 17.02056503 57 63 63
245893.70074463 3357408.52008057 17.06822014 53 54 56
245891.74041748 3357407.92550659 17.28563309 48 49 51
245892.78601074 3357408.85128784 17.40473938 49 49 51
245892.63946533 3357407.74627686 17.12452507 55 60 56
245889.82409668 3357409.52581787 16.91244125 106 106 104
245888.11157227 3357408.79147339 17.27247429 69 70 74
245893.03033447 3357408.23077393 17.52248573 52 55 62
245888.82641602 3357409.58535767 17.03858566 77 77 77
245893.45214844 3357408.32522583 17.12500954 120 123 128
245890.57232666 3357408.68817139 17.15634155 158 157 155
245893.29956055 3357408.39141846 17.14513397 55 56 60
245888.92687988 3357408.23367310 17.16510963 109 108 113
245891.21856689 3357407.75256348 16.83477783 90 92 89
245894.84472656 3357408.94796753 16.95238113 153 149 146
245893.13696289 3357407.70141602 17.10289383 153 149 148
245890.70953369 3357407.90844727 17.21334648 53 58 51
245893.10968018 3357407.93231201 17.61015511 129 130 132
245891.89904785 3357408.05123901 17.17848206 146 147 149
245889.07000732 3357409.12738037 17.05532074 83 75 72
245892.26232910 3357407.88604736 17.41085243 74 80 80
245888.09552002 3357408.96154785 17.25155830 48 52 55
245895.14843750 3357408.51205444 17.24249458 41 42 44
245893.31921387 3357408.51809692 17.06418228 56 56 58
245892.31335449 3357408.12960815 17.43785858 82 86 89
245893.36437988 3357408.70904541 17.04575348 58 63 67
245888.11267090 3357408.90200806 17.25572205 53 57 60
245890.96539307 3357408.52365112 17.14262581 71 75 76
245889.62261963 3357409.06683350 16.84414291 100 100 100
245891.28887939 3357408.55838013 17.25437737 60 62 59
245889.68218994 3357409.06790161 16.84162521 93 93 93
245888.45672607 3357409.90078735 17.06627083 83 84 79
245889.10363770 3357408.49731445 17.01827431 65 67 66
245892.20886230 3357407.73141479 17.11509323 62 66 65
245888.79949951 3357407.91476440 16.83514786 113 113 113
245890.91076660 3357407.62420654 16.77448463 84 87 76
245891.30767822 3357408.35437012 17.34020805 45 45 45
245889.09295654 3357407.91168213 16.89752388 99 101 98
245889.43884277 3357409.46704102 16.90916824 100 100 102
245890.37658691 3357408.06790161 17.15555382 58 62 61
245892.26440430 3357408.84802246 17.18827057 61 65 66
245891.40002441 3357407.83538818 17.23325729 52 52 50
245888.64221191 3357408.24481201 17.04394341 47 48 50
245891.84924316 3357408.05908203 17.20409775 97 97 97
245891.59344482 3357407.89575195 17.28903580 56 56 54
245893.21826172 3357408.11123657 17.72575188 151 163 179
245891.33416748 3357408.55004883 17.23432922 60 62 61
245891.35266113 3357408.28619385 17.33738327 56 56 56
245888.49725342 3357407.75430298 16.85705185 49 55 43
245891.15002441 3357407.85009766 17.11179924 48 50 49
245892.90460205 3357407.92172241 17.48451424 81 75 79
245894.45831299 3357408.19793701 17.22068024 87 87 85
245890.01043701 3357408.78634644 17.15584946 187 190 195
245891.67437744 3357408.17440796 17.22564888 73 73 73
245890.09295654 3357408.11407471 17.27446556 190 191 186
245894.10565186 3357408.23446655 17.29557800 85 85 83
245888.25549316 3357409.80599976 17.00658989 79 85 85
245889.66455078 3357408.03546143 17.08467484 63 71 74
245888.80914307 3357408.93887329 17.30296326 126 103 97
245889.82446289 3357408.56716919 17.19033051 60 58 61
245891.86236572 3357408.98706055 16.94568443 79 81 80
245888.85980225 3357408.07800293 16.87283897 41 40 45
245888.35247803 3357408.97268677 17.10248375 58 63 66
245889.98431396 3357407.71774292 16.95364952 66 77 61
245891.97100830 3357408.90093994 17.03305435 73 72 70
245890.00482178 3357409.09771729 16.91971016 121 125 128
245888.93090820 3357408.66818237 17.08593178 65 63 68
245888.73443604 3357408.64935303 17.05841064 61 62 64
245888.86871338 3357409.22055054 17.21079826 121 83 74
245891.15612793 3357408.64285278 17.18992424 90 92 91
245888.77398682 3357408.59301758 17.09316063 52 52 54
245890.87542725 3357407.77374268 16.90072632 119 124 120
245889.03143311 3357409.04235840 17.09159279 90 71 64
245890.58422852 3357408.10592651 17.04160118 62 64 63
245890.02337646 3357408.92251587 17.14142418 207 213 213
245895.19879150 3357408.46997070 17.23374557 54 55 57
245892.49127197 3357408.69982910 17.48635292 150 148 153
245893.77752686 3357408.45175171 17.09522247 51 52 54
245894.58477783 3357408.77780151 17.08592415 98 62 64
245889.67272949 3357409.19714355 16.85329628 100 100 100
245890.11291504 3357409.13040161 16.97933578 148 146 147
245895.06335449 3357408.76864624 17.19303131 53 54 49
245891.51275635 3357408.63137817 17.11343956 40 41 43
245890.32641602 3357407.79858398 16.92837715 17 19 14
245888.42358398 3357408.67636108 17.09564400 68 69 73
245889.59197998 3357408.80917358 16.94958115 66 62 63
245890.30322266 3357409.38214111 16.88765526 100 100 98
245888.20251465 3357409.69833374 17.00910759 72 76 79
245889.40478516 3357409.82922363 17.00735092 95 100 96
245890.67980957 3357407.87606812 17.14575386 111 118 111
245889.71759033 3357409.54623413 16.93229675 103 103 101
245890.04064941 3357408.01565552 17.12938499 155 155 157
245888.94384766 3357409.11996460 17.18311119 108 75 66
245892.73559570 3357407.77078247 17.21512794 123 123 121
245890.06701660 3357409.36001587 16.86094856 104 104 102
245892.34381104 3357408.83981323 17.28368950 70 74 77
245891.49316406 3357409.07308960 16.96709251 61 61 63
245894.33477783 3357408.91174316 16.80821037 89 88 86
245888.17572021 3357408.81713867 17.22959328 38 42 45
245888.87536621 3357409.71704102 17.04854393 72 72 74
245893.28643799 3357408.21105957 17.38874245 65 69 80
245889.20764160 3357407.81546021 16.94218063 167 157 158
245891.44427490 3357408.22174072 17.33551216 69 69 69
245894.11907959 3357408.30688477 17.23387337 32 32 34
245889.12902832 3357409.49322510 16.99852371 85 85 83
245890.99993896 3357407.69293213 16.79155350 79 80 72
245888.80053711 3357409.43634033 17.08210182 93 79 76
245888.51013184 3357407.92398071 16.87736130 82 84 81
245890.41900635 3357409.05990601 17.06402397 71 73 72
245890.87457275 3357409.17382813 16.90954590 112 112 110
245888.27429199 3357407.78491211 16.96148491 47 58 44
245893.25848389 3357408.56912231 17.08102226 53 54 56
245893.51416016 3357408.73434448 17.11498260 99 103 106
245889.61871338 3357409.39544678 16.89072418 109 109 109
245888.55761719 3357408.75003052 17.02335548 59 62 67
245890.00250244 3357409.53134155 16.87976837 105 105 103
245888.62658691 3357409.07623291 17.00975037 79 83 84
245888.89855957 3357408.24398804 17.18475533 117 116 121
245888.97222900 3357408.84588623 17.12207413 70 61 62
245894.76495361 3357408.27404785 17.29544258 106 98 96
245893.39886475 3357408.55642700 17.01545143 46 52 52
245890.51910400 3357408.43777466 17.01601219 125 125 127
245889.67633057 3357408.78402710 17.02790642 110 104 106
245890.47515869 3357409.15985107 17.01588058 83 85 82
245893.34680176 3357408.86245728 17.10634232 81 86 90
245894.72784424 3357409.18539429 16.89327812 109 108 104
245891.16668701 3357408.77365112 17.12229347 86 88 87
245892.15576172 3357408.46752930 17.31176376 59 58 63
245891.15875244 3357409.06399536 17.07003975 89 91 90
245890.11730957 3357409.34515381 16.85467529 104 104 102
245888.46875000 3357409.89562988 17.07330132 83 84 79
245890.43713379 3357408.23522949 17.01223564 81 85 86
245889.51934814 3357408.80645752 16.93275833 63 63 65
245891.70697021 3357408.33578491 17.09504509 46 50 51
245893.04516602 3357407.73388672 17.12190628 216 218 217
245890.69067383 3357408.29714966 17.06263542 49 53 52
245890.29400635 3357407.79306030 16.93774796 28 30 25
245888.43743896 3357409.98406982 17.00115585 81 83 82
245890.08355713 3357408.31573486 17.14450455 70 71 73
245893.60156250 3357407.96182251 17.38504982 54 56 55
245889.63677979 3357408.86944580 16.93309021 184 175 178
245894.95861816 3357408.90426636 16.99779320 88 87 83
245891.64611816 3357408.07897949 17.32428169 63 61 62
245892.65936279 3357407.78793335 17.29960251 213 215 210
245888.99371338 3357407.99826050 16.88231468 95 95 95
245893.10955811 3357408.80172729 17.13105583 45 48 53
245888.39117432 3357408.10421753 17.15771103 77 77 77
245895.26190186 3357408.64215088 17.15026665 37 37 35
245888.32000732 3357407.87390137 17.00951958 54 59 52
245894.41247559 3357408.28771973 17.17352486 88 90 87
245889.35144043 3357408.74731445 16.92938614 80 84 85
245891.81549072 3357408.13433838 17.16694450 119 118 116
245888.48120117 3357410.23022461 16.88466644 102 101 99
245888.77795410 3357408.93798828 17.22889709 149 126 120
245890.89929199 3357408.85739136 16.99604225 65 69 70
245888.11029053 3357408.12994385 17.55650330 14 18 19
245888.30584717 3357408.90338135 17.13343811 53 57 60
245890.90155029 3357407.91329956 17.23788261 36 39 32
245891.94976807 3357408.18487549 17.09991264 100 110 111
245890.65484619 3357408.33953857 17.05924225 50 54 53
245890.85150146 3357408.45175171 17.12969398 58 59 61
245894.06109619 3357408.01669312 17.35438728 42 44 43
245892.61370850 3357408.25814819 17.58444595 52 51 57
245890.30572510 3357407.71585083 16.88640022 38 41 34
245894.20593262 3357408.33218384 17.19970131 79 81 80
245891.51489258 3357408.01522827 17.47114372 101 97 96
245889.69531250 3357408.84661865 16.96106720 135 126 129
245888.84204102 3357408.12374878 16.94306946 59 58 64
245892.17236328 3357408.82226563 17.13140678 61 62 64
245889.31054688 3357407.99230957 17.03170395 229 213 214
245890.71734619 3357408.37081909 17.10919380 46 50 49
245889.59808350 3357409.28649902 16.86483955 103 103 103
245893.00164795 3357408.33102417 17.43763351 24 27 34
245888.86120605 3357408.45187378 17.15073776 77 78 80
245888.39959717 3357409.20211792 17.03080940 68 69 74
245888.17828369 3357409.16549683 17.20811462 51 55 58
245890.64221191 3357407.99771118 17.16808128 104 110 100
245889.04608154 3357409.12683105 17.07171059 88 73 66
245891.27679443 3357407.83306885 17.16090584 45 46 48
245888.94586182 3357409.09606934 17.18530273 128 91 82
245895.19683838 3357409.00195313 16.90142250 83 80 75
245888.37536621 3357409.92773438 17.01819801 79 81 80
245891.25122070 3357408.92770386 17.05748367 84 86 85
245892.59240723 3357407.78543091 17.29876137 172 174 169
245894.55401611 3357409.16183472 17.07650757 66 66 64
245892.37286377 3357408.10379028 17.59374809 49 52 57
245889.60876465 3357408.02770996 17.11340332 76 72 73
245893.29107666 3357407.72500610 17.33427429 175 171 170
245894.69171143 3357408.18115234 17.25679779 97 97 95
245893.23382568 3357407.72692871 17.30670738 166 162 161
245892.10382080 3357408.07095337 17.15246773 137 147 149
245888.24652100 3357408.47171021 17.23025513 40 44 47
245893.47229004 3357408.18331909 17.26099396 64 64 74
245891.70593262 3357408.74536133 17.04708862 55 59 62
245891.87799072 3357408.07598877 17.17259789 104 106 105
245892.64562988 3357407.66427612 16.88734055 65 70 66
245891.93353271 3357408.46365356 17.16379929 117 124 130
245893.93841553 3357407.99688721 17.35086250 35 36 38
245890.98699951 3357408.24462891 17.16048622 55 56 58
245888.35595703 3357408.03057861 17.15019989 75 75 75
245894.47216797 3357408.98187256 17.02448654 94 80 80
245890.20654297 3357408.16845703 17.23460007 143 141 142
245894.50457764 3357408.79830933 17.03670883 98 69 71
245892.48468018 3357408.65036011 17.46436691 176 175 181
245890.06176758 3357409.02017212 17.07542038 208 206 207
245889.80670166 3357409.35485840 16.90245819 99 99 97
245895.19610596 3357409.02395630 16.87949371 83 80 75
245892.14892578 3357408.89376831 17.07191277 69 70 72
245891.27807617 3357408.63055420 17.20644569 58 60 57
245889.08886719 3357409.54974365 17.00740814 84 84 82
245889.31921387 3357407.82235718 17.07060242 149 130 136
245894.55157471 3357408.11080933 17.21790504 89 87 88
245891.41058350 3357409.06484985 16.99613571 49 49 49
245889.56317139 3357407.73214722 17.18141937 27 31 34
245891.29364014 3357407.98309326 17.51519203 150 150 150
245894.63330078 3357408.81753540 17.08516884 98 63 67
245888.40173340 3357409.95971680 17.01291084 82 84 83
245890.23187256 3357408.51412964 17.06379509 48 49 51
245891.47869873 3357407.65689087 16.93752098 93 94 89
245888.77795410 3357408.15802002 16.98487663 46 45 51
245890.95184326 3357408.58859253 17.11967468 80 86 86
245892.03912354 3357408.26947021 17.14203072 146 160 163
245889.61962891 3357407.91766357 17.14453888 39 46 52
245894.24749756 3357408.56600952 17.01149750 65 67 66
245892.78564453 3357408.60086060 17.47455215 49 47 48
245890.62988281 3357407.97293091 17.18412399 39 45 31
245893.83557129 3357408.87475586 17.06332970 73 73 75
245888.64489746 3357408.12640381 16.88570786 95 93 96
245892.32318115 3357408.86676025 17.24004745 70 74 77
245888.26495361 3357408.50253296 17.21456337 44 47 52
245890.69201660 3357408.47625732 17.13640785 51 53 52
245888.84118652 3357408.98376465 17.32262993 147 106 100
245892.79925537 3357407.77029419 17.20359802 64 62 63
245888.55932617 3357408.02270508 16.87437630 95 97 94
245893.35241699 3357408.19198608 17.39212418 67 70 79
245890.65655518 3357409.37847900 16.92458725 109 109 107
245891.40985107 3357407.92721558 17.42865753 154 148 150
245888.54473877 3357407.68112183 16.88398552 73 84 67
245893.03454590 3357408.60122681 17.25020790 46 47 49
245889.12799072 3357408.17169189 17.09507370 72 73 77
245891.89672852 3357408.89968872 17.00821686 74 72 73
245892.22607422 3357408.85565186 17.13977242 60 64 65
245889.59271240 3357407.80947876 17.18680191 29 34 38
245890.34460449 3357407.98498535 17.24869347 63 63 61
245891.84063721 3357408.30917358 17.06230164 63 71 73
245891.53387451 3357408.59289551 17.11550903 45 46 48
245888.86108398 3357408.07980347 16.87623405 41 40 45
245889.29022217 3357407.87796021 17.03558731 167 148 150
245891.25964355 3357409.10159302 17.04688644 91 91 89
245890.96923828 3357408.97470093 16.94115639 52 54 53
245892.55218506 3357408.55657959 17.49862289 136 137 142
245893.66369629 3357408.50079346 17.03814888 49 53 54
245892.06256104 3357408.27471924 17.15621567 139 150 154
245889.33142090 3357408.39028931 17.10234070 174 163 169
245892.37023926 3357408.17681885 17.51716995 123 124 128
245892.52246094 3357407.56756592 16.84810257 84 92 77
245888.76202393 3357408.86886597 17.17472839 55 46 47
245895.05163574 3357408.82473755 17.13763618 58 55 50
245888.50628662 3357408.66662598 17.05202866 71 75 78
245894.44604492 3357408.79183960 16.95972633 69 49 50
245891.18707275 3357407.67443848 16.76379967 57 63 53
245893.48284912 3357408.33010864 17.09869957 149 154 158
245889.48876953 3357408.19409180 17.11694145 185 146 147
245892.48773193 3357407.74612427 17.14609146 165 169 172
245890.72143555 3357408.85791016 17.11231041 58 58 58
245892.19152832 3357407.68133545 16.93848419 56 58 57
245893.09405518 3357407.87622070 17.46738243 70 64 64
245890.22735596 3357409.43884277 16.85978127 108 108 106
245890.31860352 3357408.30892944 17.02117920 52 54 53
245894.87957764 3357408.63497925 17.22643089 64 48 49
245889.86035156 3357408.00009155 17.02142715 44 49 53
245889.34729004 3357407.74829102 17.12252045 163 142 147
245889.96984863 3357408.23568726 17.05856895 82 82 82
245891.69952393 3357408.79959106 17.02397156 61 62 64
245888.99456787 3357408.59680176 17.02928352 66 64 67
245892.16760254 3357407.72470093 17.05784798 77 81 80
245893.22338867 3357408.17996216 17.61680984 99 106 122
245888.42999268 3357408.47790527 17.12797165 69 73 76
245893.60498047 3357408.74557495 17.13452530 57 57 57
245891.32165527 3357408.92425537 17.05719757 78 79 81
245892.53912354 3357407.80941772 17.34708786 102 104 101
245893.14788818 3357408.47805786 17.20751762 52 52 52
245894.81042480 3357408.50265503 17.28139496 115 74 78
245890.71154785 3357409.06283569 17.00428772 78 77 75
245890.11401367 3357408.86410522 17.16938782 73 67 69
245888.49249268 3357408.97280884 16.99730873 69 73 76
245890.59460449 3357408.51361084 17.09657288 105 104 102
245888.79376221 3357409.96371460 17.12980461 53 57 58
245891.59204102 3357408.87329102 17.00347137 58 60 59
245893.23120117 3357408.56344604 17.09671783 55 56 58
245888.85095215 3357409.26312256 17.19336319 131 92 85
245892.14099121 3357407.58920288 16.85140228 71 73 68
245888.73364258 3357408.92385864 17.11323547 103 94 95
245893.30200195 3357408.14169312 17.70401955 138 142 151
245892.23724365 3357408.07467651 17.25456810 38 41 46
245893.47625732 3357407.79714966 17.28050804 68 68 66
245890.67822266 3357407.85607910 17.10050201 73 80 73
245894.24786377 3357408.87380981 16.81517792 93 94 89
245889.34667969 3357408.38894653 17.11305618 174 163 169
245893.65490723 3357408.63336182 17.10441780 45 46 48
245895.03417969 3357408.33053589 17.28482628 54 52 53
245890.34942627 3357408.39599609 17.01469612 28 32 33
245889.73291016 3357408.71328735 17.09962082 53 47 49
245888.96423340 3357410.18304443 16.88019562 79 80 82
245893.33837891 3357408.11587524 17.78420830 117 120 127
245894.47644043 3357408.95739746 17.01863098 91 71 72
245892.94158936 3357407.73114014 17.01737595 226 230 231
245894.98999023 3357408.38430786 17.30841637 57 55 56
245890.13952637 3357408.52832031 17.14168930 49 50 54
245893.34216309 3357408.38986206 17.11851883 56 59 64
245893.29394531 3357408.16717529 17.58901787 109 111 123
245888.79620361 3357408.54031372 17.08264542 77 78 80
245891.92614746 3357408.36398315 17.10264969 105 116 120
245894.12780762 3357408.91360474 16.85116005 96 96 96
245892.27941895 3357408.05221558 17.39129448 45 49 52
245889.30389404 3357408.38537598 17.08331490 146 141 145
245889.32580566 3357408.04660034 17.06635094 215 190 193
245890.02618408 3357408.02774048 17.11365891 154 154 156
245892.19836426 3357408.79052734 17.18373299 59 60 62
245894.38311768 3357409.11022949 16.90308380 62 63 58
245889.58239746 3357409.04379272 16.84316444 96 96 96
245890.82897949 3357407.80023193 16.97884941 155 157 156
245893.14392090 3357407.95022583 17.66137314 107 116 121
245893.38610840 3357408.04333496 17.79163361 88 88 90
245888.83508301 3357408.43032837 17.14398575 112 113 115
245891.43225098 3357408.36059570 17.23940277 40 40 40
245892.99310303 3357407.93417358 17.52771187 110 101 104
245889.41912842 3357407.79904175 17.28515053 31 20 24
245891.11816406 3357407.83340454 17.02990913 51 51 49
245893.61621094 3357408.77340698 17.15102768 52 52 52
245889.82391357 3357409.81170654 16.93913078 113 113 111
245892.04309082 3357408.92840576 17.02285004 77 76 74
245891.37860107 3357408.33343506 17.29345322 47 47 47
245892.05078125 3357408.28210449 17.15149689 139 150 154
245890.96746826 3357408.80932617 17.01694107 52 56 57
245888.46374512 3357409.58190918 16.98235512 82 83 87
245888.96142578 3357408.27154541 17.19544411 68 67 72
245889.62518311 3357408.01992798 17.10418892 70 74 77
245894.45086670 3357408.97024536 16.95054817 73 59 58
245894.67102051 3357408.18408203 17.24538994 97 97 95
245888.36285400 3357409.95178223 17.00237465 83 85 84
245888.76293945 3357410.12512207 16.93182945 89 89 89
245893.21374512 3357408.42715454 17.17903519 55 53 54
245889.73022461 3357408.17413330 17.08723450 65 66 68
245888.74523926 3357408.81375122 17.10392570 42 40 43
245892.07049561 3357408.48400879 17.27351952 74 73 78
245888.66156006 3357409.00369263 17.03597450 55 55 55
245890.96264648 3357408.63302612 17.11332703 79 85 85
245889.97796631 3357407.75814819 16.98385429 64 72 61
245888.74023438 3357408.46813965 17.05220985 111 112 114
245893.15631104 3357407.78631592 17.32728577 153 148 145
245892.69183350 3357407.74304199 17.11056137 61 66 62
245890.27508545 3357408.00958252 17.30570221 150 151 153
245893.79992676 3357408.54394531 17.10660362 57 57 59
245891.35284424 3357408.53204346 17.23292923 60 62 61
245894.18975830 3357408.41210938 17.14051819 96 96 96
245889.78875732 3357407.97708130 17.02312469 53 63 65
245889.72088623 3357409.86343384 16.96965790 112 112 110
245889.09320068 3357407.86703491 16.89234924 88 88 86
245891.51568604 3357407.76947021 17.04336548 50 52 47
245893.41442871 3357408.15447998 17.39564896 31 31 39
245890.37182617 3357407.95257568 17.07103539 63 63 61
245894.55279541 3357408.74871826 17.07029533 96 64 65
245890.48797607 3357407.82192993 16.95630074 62 62 60
245889.91174316 3357408.59680176 17.18590164 48 52 55
245893.65118408 3357408.74636841 17.13573074 55 55 55
245893.18035889 3357408.34555054 17.27744484 48 48 50
245892.79614258 3357408.69317627 17.47080040 78 78 78
245888.14318848 3357407.94561768 17.30611420 42 51 48
245892.83764648 3357407.69659424 16.91897392 103 108 104
245895.18487549 3357408.60714722 17.20465279 36 36 36
245893.08404541 3357407.77990723 17.20172310 209 208 206
245889.91461182 3357409.16452026 16.88660049 83 85 84
245895.22534180 3357408.71057129 17.13348007 40 42 39
245893.13330078 3357408.39328003 17.28112030 50 48 49
245888.54602051 3357409.84051514 17.11751938 131 128 121
245891.10217285 3357407.75646973 16.83485603 59 61 56
245890.29522705 3357407.90582275 17.06373024 24 26 23
245888.38238525 3357409.70874023 17.00043678 75 79 80
245889.26922607 3357408.52288818 17.04087448 70 74 77
245888.44787598 3357409.35720825 17.01095581 70 74 75
245889.86535645 3357408.82870483 17.02099419 46 50 51
245892.88244629 3357408.88107300 17.27867699 23 27 30
245890.24432373 3357408.57040405 17.08073997 56 57 59
245894.46289063 3357408.97912598 16.99494362 84 70 69
245889.95526123 3357409.56277466 16.88942909 107 107 105
245891.41156006 3357408.30700684 17.27855492 54 52 53
245893.06750488 3357408.85385132 17.15948677 40 44 47
245888.44641113 3357410.13677979 16.93194199 96 96 98
245893.17126465 3357408.49972534 17.17231941 50 51 53
245892.93530273 3357407.73635864 17.04460335 220 221 225
245889.47290039 3357408.54049683 17.17840004 182 182 184
245890.06591797 3357408.22927856 17.14608765 101 99 100
245892.62457275 3357407.88024902 17.45462227 221 218 213
245888.33697510 3357409.87731934 17.02345467 81 83 82
245891.11486816 3357408.48013306 17.24324226 88 90 89
245888.82324219 3357409.28323364 17.17754173 133 103 95
245888.23034668 3357407.93710327 17.21084213 37 46 41
245888.27423096 3357408.29864502 17.28045654 53 57 58
245888.86560059 3357408.57519531 17.10570717 54 54 56
245888.36499023 3357410.25701904 16.89935875 101 101 101
245888.17333984 3357409.54049683 17.05446053 72 73 77
245891.16204834 3357408.15905762 17.33194542 147 147 147
245894.08544922 3357408.13653564 17.37332344 66 66 66
245888.83178711 3357409.22021484 17.21733284 132 93 86
245888.42523193 3357409.86843872 17.04592323 72 72 70
245891.58129883 3357408.39984131 17.14174271 36 40 41
245889.23950195 3357407.77798462 16.96364784 158 146 148
245895.15679932 3357408.51596069 17.24101257 41 42 44
245888.36376953 3357408.53677368 17.15369415 65 66 70
245888.92346191 3357408.53619385 17.08864403 55 55 55
245891.44079590 3357408.30642700 17.25450706 53 53 53
245891.20196533 3357409.05941772 17.06437111 89 91 90
245890.26916504 3357408.16967773 17.07543564 59 59 61
245891.15679932 3357408.26950073 17.30945396 112 113 115
245892.68750000 3357408.34609985 17.54544640 36 37 41
245890.86492920 3357407.71218872 16.83802795 53 58 54
245889.51721191 3357409.68441772 16.95323181 102 104 99
245893.00476074 3357408.53298950 17.31441116 43 45 44
245894.82513428 3357408.94934082 16.96099663 153 149 146
245892.68176270 3357407.86123657 17.43239212 218 208 206
245889.95159912 3357407.72076416 16.96522141 67 78 61
245891.73089600 3357407.70294189 16.92179489 88 90 85
245889.02947998 3357408.46755981 17.06499672 126 128 127
245888.41015625 3357408.14260864 17.15996552 73 73 73
245890.47607422 3357409.13092041 17.03278160 78 80 77
245891.55627441 3357408.18179321 17.31461525 81 79 82
245891.36224365 3357409.25198364 16.99853706 109 109 107
245894.13562012 3357409.07495117 16.81563568 94 94 92
245888.92102051 3357409.83139038 17.10832596 123 123 123
245890.32135010 3357407.93508911 17.14434814 53 53 53
245891.42138672 3357407.75848389 17.04257774 102 103 98
245889.40258789 3357408.83480835 16.90879822 91 92 94
245893.16644287 3357408.52197266 17.16603088 50 51 53
245892.43280029 3357408.64895630 17.39437485 127 128 133
245890.18402100 3357407.98086548 17.33832741 189 193 192
245890.36358643 3357408.83215332 17.06164169 52 53 55
245894.50659180 3357409.01510620 17.07641602 77 63 63
245892.25823975 3357408.83309937 17.19255447 55 60 63
245890.31195068 3357408.78677368 17.07667351 66 66 68
245890.85803223 3357409.12051392 16.91420174 99 99 97
245892.05920410 3357408.65625000 17.25442314 43 41 42
245894.51910400 3357408.13824463 17.22239876 91 90 88
245893.78741455 3357408.14257813 17.22362328 54 55 57
245895.10699463 3357408.99807739 16.91515541 88 85 80
245894.51977539 3357408.18789673 17.21366882 87 86 84
245888.79022217 3357407.95703125 16.83929825 108 108 108
245889.82916260 3357409.86334229 16.95093727 115 115 113
245888.66827393 3357410.31198120 16.83933258 98 98 98
245888.40106201 3357408.01132202 17.03724861 88 90 87
245890.47705078 3357408.51562500 17.02073288 208 207 212
245892.29980469 3357407.71722412 17.05570602 66 72 72
245893.02630615 3357409.33587646 17.39121819 49 50 55
245892.29394531 3357410.26818848 17.29273605 98 97 95
245894.27734375 3357409.40850830 16.82129669 116 115 111
245893.46325684 3357409.53506470 16.92433929 90 91 86
245892.05334473 3357409.98852539 17.56222343 173 168 172
245891.93743896 3357409.53668213 16.80105782 112 111 109
245888.98876953 3357410.44790649 16.78564835 106 106 106
245891.51855469 3357409.88830566 16.83124924 122 124 119
245893.46044922 3357409.03677368 17.12574768 45 43 44
245892.39819336 3357409.06179810 17.15756989 74 75 77
245892.60321045 3357409.20251465 17.24326515 68 69 71
245889.54681396 3357410.15585327 17.23578644 157 162 158
245894.99609375 3357407.80459595 17.11148453 119 101 99
245892.64862061 3357409.37072754 17.23005104 27 30 35
245892.41638184 3357409.85455322 17.39459991 111 74 65
245892.31927490 3357410.31329346 17.15751839 88 87 85
245892.33801270 3357410.20193481 17.31883430 86 85 81
245892.04724121 3357409.45361328 16.86075211 111 111 109
245892.36694336 3357409.62005615 17.32392883 128 107 106
245895.34045410 3357407.87811279 17.16304970 55 54 62
245892.59832764 3357409.33728027 17.23218155 64 68 71
245892.18511963 3357410.08621216 17.57528305 65 54 58
245891.42309570 3357410.27639771 16.85513496 125 126 120
245891.30828857 3357410.25726318 16.85938072 123 125 120
245888.60986328 3357410.44586182 16.82382202 109 109 109
245894.87017822 3357409.29681396 16.78342819 109 108 104
245892.91986084 3357409.32891846 17.58351326 82 81 87
245891.48126221 3357410.10955811 16.84466553 122 125 118
245894.15472412 3357407.84848022 17.15349579 57 56 54
245893.30877686 3357407.65893555 16.98313522 152 149 144
245893.26806641 3357409.36767578 17.04851341 63 62 58
245895.04785156 3357409.25158691 16.77762604 106 105 101
245894.54406738 3357407.77597046 16.77397728 67 68 63
245892.50299072 3357409.89276123 17.28679466 73 58 55
245894.87579346 3357408.05258179 17.28733444 99 91 89
245892.78802490 3357409.20678711 17.44815445 107 110 117
245894.35308838 3357407.89581299 17.10379791 104 103 101
245892.69244385 3357409.33743286 17.23502350 33 37 40
245891.68975830 3357409.11791992 16.89720345 83 85 84
245894.24462891 3357409.42996216 16.81614304 117 116 112
245894.54028320 3357407.80603027 16.83312988 63 64 59
245892.70086670 3357409.06283569 17.41523552 74 81 87
245892.07012939 3357409.84683228 16.88565445 86 81 77
245895.23016357 3357407.94140625 17.11853218 103 97 97
245892.01245117 3357409.80905151 16.83056450 105 104 100
245892.95220947 3357409.30715942 17.53433800 113 112 117
245889.66363525 3357410.44937134 17.32091331 86 87 89
245893.74755859 3357409.22079468 16.92999840 86 85 83
245894.13830566 3357407.78784180 16.97525215 42 43 45
245893.15667725 3357407.65975952 16.91138458 89 88 84
245893.90551758 3357407.88772583 17.24353600 54 56 55
245889.56628418 3357410.08944702 17.08141518 187 193 189
245893.04028320 3357409.29953003 17.37801743 45 46 51
245894.87530518 3357407.98812866 17.22367096 116 108 106
245892.12493896 3357410.39254761 17.15734863 105 104 100
245892.62396240 3357409.63543701 17.28505325 70 56 55
245893.51458740 3357409.50686646 16.91152382 95 96 91
245894.75628662 3357409.35729980 16.78161430 111 107 104
245894.58526611 3357407.92449951 17.10340691 77 76 74
245895.15826416 3357407.78842163 17.09088326 88 80 77
245893.86047363 3357407.63919067 16.78095055 41 42 34
245889.05969238 3357410.45437622 16.79453850 106 108 105
245889.51422119 3357410.44985962 17.23803329 80 84 85
245894.18957520 3357407.74084473 16.81240273 78 80 75
245894.57452393 3357409.41571045 16.82442093 117 116 112
245895.17572021 3357407.83828735 17.09641647 91 87 84
245892.86022949 3357409.52987671 17.30096817 54 54 54
245894.39434814 3357407.89328003 17.09436035 102 101 99
245892.01165771 3357409.52471924 16.83032417 114 113 111
245892.15332031 3357409.35369873 16.92455292 100 100 98
245893.92407227 3357407.62554932 16.77007675 36 37 29
245892.49981689 3357409.31253052 17.23990440 72 73 75
245895.13281250 3357409.36145020 16.74883080 114 115 110
245893.73266602 3357409.08197021 17.00674057 78 76 77
245889.43945313 3357410.26477051 17.25574493 180 187 180
245893.68884277 3357409.51660156 16.88735580 98 98 98
245893.09033203 3357407.62118530 16.81293297 98 99 93
245894.79791260 3357407.92279053 17.09643936 121 120 118
245894.43951416 3357407.96252441 17.16654778 78 79 74
245892.53479004 3357409.30645752 17.23625946 73 74 76
245894.43194580 3357407.54772949 16.69679832 139 140 132
245892.39508057 3357409.13021851 17.15279961 82 82 82
245892.39196777 3357409.80459595 17.39418602 118 70 60
245892.19189453 3357409.03369141 17.02797318 82 82 84
245892.63122559 3357409.96984863 17.11685753 73 67 69
245892.58703613 3357409.17306519 17.24986076 51 55 58
245891.75567627 3357409.89706421 16.81272316 114 116 111
245894.60437012 3357409.34408569 16.86164856 104 100 99
245891.68048096 3357409.45599365 16.82907295 112 114 113
245891.20068359 3357410.23397827 16.86370659 122 124 121
245889.07025146 3357410.18579102 16.89832497 71 73 72
245892.86749268 3357407.56835938 16.73976326 90 92 79
245892.19110107 3357410.37368774 17.15507317 96 95 93
245892.24786377 3357410.26541138 17.37843323 88 86 87
245892.42395020 3357409.94210815 17.36386108 64 48 48
245891.41748047 3357409.87115479 16.84585190 119 121 116
245892.01281738 3357409.29739380 16.88927460 101 103 100
245892.28527832 3357410.13183594 17.50203896 59 54 58
245892.45312500 3357410.14285278 17.19869614 67 66 64
245894.69732666 3357407.74758911 16.76926041 89 90 85
245894.67797852 3357409.25656128 16.87399864 103 102 98
245893.38824463 3357409.12835693 17.09403229 107 107 105
245894.19946289 3357407.93554688 17.21527672 67 67 65
245892.05712891 3357409.85537720 16.87748718 86 81 77
245894.19146729 3357407.68609619 16.75707436 62 64 59
245892.81262207 3357407.55810547 16.74716377 94 96 83
245894.07958984 3357407.88693237 17.23594284 71 73 70
245888.95526123 3357410.25476074 16.83643341 92 94 93
245892.75238037 3357409.30813599 17.29026413 46 47 51
245893.52459717 3357407.60644531 16.81683922 100 102 91
245893.23406982 3357409.45349121 17.04371643 65 64 62
245892.39447021 3357409.53610229 17.29303741 81 69 69
245889.67700195 3357410.40704346 17.33953667 86 86 86
245892.96453857 3357409.28808594 17.51225281 128 126 131
245894.11578369 3357407.93728638 17.28086662 70 70 68
245895.07647705 3357409.31414795 16.75843239 109 108 104
245892.76977539 3357409.11236572 17.40380478 93 98 102
245891.73553467 3357410.04803467 16.82965279 119 121 116
245894.98901367 3357408.11560059 17.33560371 71 61 60
245895.04180908 3357407.96798706 17.23917389 112 106 106
245892.82476807 3357409.67001343 17.15272903 68 68 68
245892.82818604 3357409.42147827 17.40331268 132 131 136
245892.52239990 3357410.13720703 17.14086723 67 66 64
245892.83728027 3357407.57168579 16.74244118 88 90 79
245892.07501221 3357409.15173340 16.95255470 92 92 92
245893.95196533 3357407.72427368 16.91455269 48 48 48
245893.12695313 3357409.55902100 17.05258369 64 63 61
245891.98162842 3357409.26083374 16.88815880 99 100 95
245894.84472656 3357409.47039795 16.74569511 117 116 112
245891.70788574 3357410.01614380 16.82713127 118 120 115
245889.36535645 3357410.39074707 16.98860359 96 101 97
245891.96612549 3357410.22857666 17.04513168 97 93 90
245894.31787109 3357407.81057739 16.90297508 64 65 60
245894.44995117 3357407.79943848 16.82938385 105 106 101
245894.86523438 3357408.02563477 17.25205040 126 121 118
245892.25622559 3357410.31494141 17.25001144 87 86 84
245892.95654297 3357409.34759521 17.52825165 94 92 97
245894.31384277 3357409.48773193 16.81807518 121 117 114
245891.99359131 3357410.20285034 17.09092331 160 156 147
245892.89105225 3357409.34387207 17.62539864 47 48 53
245892.28991699 3357410.19430542 17.46593666 81 79 80
245894.10253906 3357407.51190186 16.71016693 119 121 110
245895.24835205 3357407.96978760 17.09809113 104 98 100
245891.32366943 3357410.16934204 16.85629845 124 126 121
245892.84381104 3357409.49423218 17.40465355 70 68 69
245889.27545166 3357410.14898682 17.01412964 183 199 186
245888.61749268 3357410.50967407 16.81370544 105 105 105
245894.13201904 3357409.19906616 16.82396317 102 103 98
245891.96270752 3357409.15908813 16.91246605 96 96 94
245893.24859619 3357407.67004395 17.10957146 170 166 165
245889.36383057 3357410.48095703 16.93268394 102 107 103
245894.54724121 3357407.49877930 16.69612503 164 162 150
245892.68200684 3357409.14514160 17.31626320 43 48 52
245894.27880859 3357409.25430298 16.84058189 93 93 91
245891.68939209 3357409.98205566 16.82406235 118 120 115
245893.31250000 3357409.01547241 17.11889267 113 114 118
245892.26177979 3357410.29434204 17.28792000 94 93 91
245893.63787842 3357409.07669067 17.04302406 68 66 67
245894.11389160 3357407.63037109 16.72877121 79 82 75
245891.25726318 3357409.33706665 17.05837250 109 109 107
245893.66247559 3357407.68911743 16.84311104 96 99 92
245892.43402100 3357410.24954224 17.12578583 82 81 79
245893.99847412 3357407.78393555 17.03744507 68 68 68
245893.16430664 3357407.57015991 16.76474762 121 118 111
245894.97406006 3357407.81063843 17.11543274 138 123 120
245893.28198242 3357407.65246582 16.96847725 148 145 140
245891.65460205 3357409.19531250 16.88550758 110 112 109
245892.01843262 3357410.13702393 17.29540825 84 79 73
245893.90521240 3357407.71139526 16.88565445 40 42 39
245892.13665771 3357409.78704834 17.00372887 86 86 84
245889.00579834 3357410.33078003 16.82189751 98 100 99
245893.22961426 3357407.67822266 17.11477089 133 129 128
245892.89337158 3357407.53997803 16.74143410 94 96 83
245891.64086914 3357409.41452026 16.83778954 111 113 112
245889.19433594 3357410.30422974 16.88291168 98 103 99
245892.39178467 3357409.33200073 17.17052650 86 84 85
245895.11285400 3357409.31884766 16.75374413 110 109 105
245891.85998535 3357409.36199951 16.82101822 108 108 106
245894.45117188 3357407.79370117 16.80714989 66 69 62
245892.17761230 3357409.92803955 17.52019691 119 82 76
245893.10766602 3357407.62377930 16.80845070 90 90 82
245894.46984863 3357407.56729126 16.69048882 139 140 132
245892.03436279 3357409.95507813 16.91326523 84 83 79
245892.80566406 3357409.21899414 17.48934937 97 100 107
245895.00585938 3357407.55642700 16.91471481 105 107 96
245892.45263672 3357409.91625977 17.33980370 71 50 45
245889.46551514 3357410.46508789 17.15107155 62 66 65
245892.42224121 3357409.89166260 17.39101410 84 55 49
245893.27337646 3357407.65545654 16.98433304 148 145 140
245892.01800537 3357410.16070557 17.34430695 83 79 76
245893.23059082 3357409.51284790 17.03240776 71 70 68
245888.62982178 3357410.58395386 16.80845070 111 111 111
245893.87518311 3357407.52005005 16.72253990 78 81 64
245892.44158936 3357410.10299683 17.24211121 63 59 58
245893.89178467 3357409.17236328 16.89209747 89 89 89
245888.90826416 3357410.31210327 16.81303978 95 97 96
245889.25354004 3357410.41897583 16.88108253 98 100 99
245891.94830322 3357409.38146973 16.84379387 107 107 105
245894.51763916 3357409.41668701 16.83877945 116 112 109
245894.02734375 3357409.51544189 16.83157921 112 111 107
245894.33392334 3357407.66122437 16.70472336 63 65 62
245893.89575195 3357407.75003052 16.96929741 43 42 40
245894.41809082 3357409.15600586 16.99766731 83 82 80
245894.35375977 3357407.51733398 16.70109367 154 156 143
245891.58843994 3357410.01913452 16.83138657 121 124 117
245893.82000732 3357407.60305786 16.75024796 83 85 72
245892.24902344 3357409.79263306 17.41948318 126 97 91
245893.97076416 3357407.80545044 17.08502769 104 104 106
245895.30029297 3357407.90469360 17.14283180 59 54 58
245894.43090820 3357409.34640503 16.91111374 116 112 111
245891.31774902 3357410.38946533 16.85054970 128 129 124
245892.81860352 3357409.04693604 17.33908081 74 81 91
245894.48217773 3357407.86911011 17.02055931 128 127 123
245893.42663574 3357409.09283447 17.10371590 32 31 29
245892.46301270 3357409.06497192 17.20108223 110 111 113
245894.91772461 3357408.04086304 17.29740906 90 82 79
245888.49560547 3357410.41598511 16.85518456 109 109 107
245895.12048340 3357407.66430664 17.11893654 49 46 39
245894.22595215 3357407.81115723 16.96043205 75 75 73
245889.34381104 3357410.30438232 17.00956917 91 91 89
245892.33508301 3357409.79180908 17.40198135 127 80 70
245892.00781250 3357410.10693359 17.36863518 169 169 161
245895.15283203 3357408.06454468 17.18799400 81 75 79
245889.70697021 3357410.20877075 17.20923042 63 67 70
245892.52935791 3357410.20413208 17.08179474 76 75 73
245895.32080078 3357407.63644409 17.19493866 68 70 69
245895.26934814 3357407.71615601 17.13243484 69 68 64
245895.37133789 3357407.70898438 17.23489571 83 87 96
