245953.87481689 3357375.18121338 16.73973274 92 94 91
245953.71484375 3357373.70471191 16.71318817 27 28 32
245950.68896484 3357369.58114624 16.64768600 38 37 33
245953.86865234 3357375.34887695 16.66735077 105 107 104
245954.70526123 3357377.74630737 16.49756241 63 65 64
245953.58343506 3357372.85836792 16.71263695 84 84 82
245954.14636230 3357372.08880615 16.62787056 82 86 85
245953.35186768 3357374.60437012 16.46847343 25 42 24
245953.85919189 3357374.12673950 16.62088394 67 69 68
245953.60992432 3357374.38854980 16.33155632 64 66 65
245954.87304688 3357375.84548950 16.76051712 72 74 73
245953.86975098 3357371.11029053 16.78101158 84 88 89
245951.36035156 3357369.89859009 16.46917915 62 63 58
245953.03594971 3357370.41406250 16.50810242 28 30 27
245952.49334717 3357372.68466187 16.45962524 81 81 81
245954.05651855 3357371.01147461 17.02935028 171 170 166
245954.23065186 3357376.95315552 16.53704262 84 89 85
245952.75445557 3357373.19345093 16.40388870 68 79 65
245953.93035889 3357374.84054565 16.61480713 28 32 35
245949.90332031 3357369.53018188 16.62132454 48 47 42
245949.17523193 3357368.94485474 16.30171204 101 102 96
245951.42498779 3357370.59420776 16.64875031 54 55 49
245951.55023193 3357369.73410034 19.58496666 46 62 33
245950.20593262 3357370.50039673 16.57726669 65 66 61
245954.71527100 3357374.84350586 16.68424034 33 34 38
245955.04901123 3357376.51431274 16.71415710 92 94 93
245948.89831543 3357370.36007690 16.36646652 137 139 134
245950.78967285 3357371.26614380 16.49486732 37 38 32
245953.70239258 3357371.52172852 16.69747162 77 77 75
245949.73236084 3357370.47875977 16.86779785 20 20 20
245948.98712158 3357370.56475830 16.82299232 27 27 25
245954.37927246 3357372.95443726 16.74611855 37 41 40
245951.13500977 3357370.67416382 16.54581451 70 69 65
245952.22613525 3357370.66732788 16.28450394 94 95 87
245949.96325684 3357369.95068359 16.52069855 53 55 50
245953.95501709 3357376.46984863 16.44615746 82 84 81
245949.79992676 3357370.54324341 16.85881615 47 47 45
245951.41186523 3357371.48660278 16.42787170 85 82 75
245954.47875977 3357374.35198975 16.67142487 73 75 74
245952.04168701 3357370.74545288 16.30279160 94 95 90
245954.37707520 3357371.97821045 16.76702499 200 197 190
245951.70062256 3357370.74563599 16.65439224 31 30 26
245954.81939697 3357377.66616821 16.50703621 54 56 55
245954.06738281 3357376.94464111 16.42173958 86 93 85
245955.52679443 3357377.13192749 16.62158012 130 132 129
245949.50219727 3357369.43344116 16.52858925 69 71 66
245953.83172607 3357371.13644409 16.69657326 106 110 111
245954.16656494 3357375.13565063 16.58863640 37 37 39
245954.33142090 3357377.39486694 16.63557434 1 4 0
245954.31958008 3357373.36111450 16.76916695 62 63 65
245949.68963623 3357370.47985840 16.91547012 19 19 19
245952.01269531 3357371.18713379 16.30995369 47 47 47
245954.66815186 3357375.57186890 16.48670769 40 44 45
245953.91998291 3357374.86636353 16.67529297 26 30 33
245953.48413086 3357374.21249390 16.37294197 62 67 63
245954.66418457 3357374.87103271 16.68271446 32 36 39
245949.52410889 3357369.59680176 16.64513206 51 51 51
245952.65521240 3357371.19619751 16.53313065 25 25 23
245954.36907959 3357376.30618286 16.87367249 73 77 76
245954.33850098 3357377.00195313 16.61890030 85 90 86
245953.78717041 3357371.60607910 16.57400894 104 106 103
245954.85162354 3357377.74612427 16.45121574 82 83 85
245952.82800293 3357370.85440063 16.71154213 39 44 47
245955.46722412 3357377.89956665 16.51870346 112 112 110
245953.12451172 3357371.26473999 16.42765999 79 80 75
245951.20672607 3357369.63809204 19.59860992 61 78 46
245955.26312256 3357377.95642090 16.49333763 100 102 99
245951.71051025 3357370.18408203 16.66454506 21 23 22
245951.12292480 3357371.06787109 16.45153999 78 82 68
245952.10205078 3357369.79727173 19.81396484 64 80 43
245953.94409180 3357372.33920288 16.68473244 42 46 49
245953.24444580 3357373.30746460 16.38790703 46 53 45
245953.42901611 3357371.07742310 16.34382439 98 97 93
245950.07196045 3357369.67611694 16.50324059 80 83 76
245955.38439941 3357377.04693604 16.56692886 122 126 125
245954.64587402 3357376.40820313 16.71716499 96 97 91
245953.94342041 3357372.94918823 17.06453323 70 51 57
245955.26995850 3357376.70550537 16.72970390 118 117 122
245951.25689697 3357369.66918945 19.54792404 57 74 42
245951.83837891 3357370.52841187 16.42230415 23 23 23
245953.55987549 3357371.39718628 16.76132202 44 48 47
245953.35339355 3357372.19573975 16.35038185 108 108 106
245953.88452148 3357375.24142456 16.75918007 80 80 80
245950.23309326 3357370.63568115 16.98154831 80 79 74
245954.07794189 3357373.01037598 16.95511818 85 70 73
245954.98767090 3357375.52291870 16.44739342 54 58 57
245954.05981445 3357375.40127563 16.69626808 69 69 67
245955.53924561 3357377.90225220 16.55102539 106 108 105
245953.92645264 3357374.49905396 16.48106575 60 62 61
245953.51086426 3357371.02719116 16.33853531 110 109 104
245953.52746582 3357374.64880371 16.50092697 37 47 39
245953.22625732 3357372.48397827 16.33486366 88 88 88
245952.71032715 3357372.05749512 16.39961052 88 89 83
245950.98193359 3357370.85098267 16.52009773 78 82 68
245953.55541992 3357372.27703857 16.42816162 70 72 67
245952.38757324 3357369.87875366 19.89200974 92 107 74
245954.49768066 3357374.76858521 16.61873055 22 23 27
245953.02124023 3357373.52810669 16.41966248 23 42 22
245953.91363525 3357376.20767212 16.53950119 65 71 69
245951.36157227 3357371.41162109 16.43151665 61 60 55
245952.66076660 3357372.31246948 16.42926788 71 70 66
245950.91918945 3357369.67025757 16.54074097 76 76 74
245952.96215820 3357371.09173584 16.49194908 114 113 109
245954.42370605 3357373.86111450 16.72576904 46 45 50
245955.02569580 3357378.19964600 16.48290443 87 89 88
245953.86853027 3357371.12210083 16.71177101 73 77 78
245953.47283936 3357370.90344238 16.30394936 105 106 100
245955.02612305 3357375.55709839 16.57818413 29 31 28
245951.43615723 3357369.58288574 16.39248848 93 93 91
245952.45275879 3357372.68225098 16.45448685 79 81 78
245951.57727051 3357369.63641357 16.51862144 92 94 91
245949.66815186 3357370.23904419 16.69028473 47 49 46
245954.55859375 3357377.59887695 16.85154915 70 76 76
245950.83111572 3357369.38784790 16.45521164 76 77 71
245953.83691406 3357375.58859253 16.42765617 70 75 71
245954.84436035 3357374.90637207 16.71551323 43 44 46
245954.20428467 3357371.02255249 17.04124641 189 190 182
245949.36328125 3357369.85638428 16.63354301 21 26 20
245953.21563721 3357374.39263916 16.45832253 24 44 19
245953.73529053 3357372.53256226 17.04706001 76 75 73
245954.10034180 3357375.63256836 16.60815239 68 69 71
245953.94738770 3357376.51123047 16.41783905 74 79 75
245953.21594238 3357373.73486328 16.41126442 27 44 26
245952.92980957 3357370.08502197 16.26487160 122 123 117
245952.80291748 3357370.55233765 16.41537476 67 72 68
245952.34112549 3357369.89294434 19.81339645 64 78 45
245953.67541504 3357372.79766846 16.90162849 74 62 64
245954.71032715 3357377.95391846 16.49368095 65 67 64
245950.34375000 3357370.26019287 16.63147926 69 70 65
245952.68054199 3357373.29446411 16.40615463 52 65 45
245952.15661621 3357372.07849121 16.43128395 66 69 62
245951.39666748 3357369.64849854 16.41128922 73 73 73
245950.42218018 3357369.34613037 16.51315689 86 87 81
245949.08703613 3357369.77536011 16.59912491 43 44 38
245950.13348389 3357370.83468628 16.87861824 70 70 62
245950.16894531 3357370.36434937 16.52061462 61 62 56
245953.21588135 3357370.21441650 16.42427826 98 99 94
245950.71459961 3357370.68609619 16.62238121 68 70 59
245954.24414063 3357374.88619995 16.49441338 53 54 58
245954.56353760 3357375.78945923 16.58559418 79 81 78
245954.87585449 3357376.02084351 16.70982361 233 235 234
245955.60229492 3357378.52114868 16.22686768 103 105 104
245954.57104492 3357376.07562256 16.76460457 40 40 42
245948.76745605 3357370.61346436 16.50844765 38 40 35
245955.09576416 3357376.39370728 16.61892700 92 93 88
245954.16058350 3357372.78134155 16.63278580 58 58 58
245952.70300293 3357373.44296265 16.41897392 29 48 28
245951.85504150 3357369.51336670 16.59274483 107 96 92
245952.58325195 3357372.58242798 16.46396065 73 73 71
245953.33471680 3357372.99511719 16.41561890 15 24 21
245948.58111572 3357370.16470337 16.28215408 52 53 48
245952.73406982 3357372.66793823 16.43374062 79 80 75
245954.03082275 3357371.35699463 16.67591286 91 93 90
245953.28350830 3357373.13174438 16.36071968 34 36 35
245952.50506592 3357372.38442993 16.46254730 72 73 68
245954.26568604 3357375.84039307 16.63443565 59 60 65
245953.78131104 3357373.03259277 17.06438637 35 40 43
245949.41693115 3357369.09924316 16.33171844 95 95 93
245950.66601563 3357369.29562378 16.44442558 84 79 75
245950.93505859 3357371.22622681 16.51123428 33 33 25
245954.05590820 3357375.14459229 16.78335953 53 55 54
245954.06176758 3357375.98675537 16.77460480 77 92 97
245951.63104248 3357370.80157471 16.76090050 60 59 55
245953.99371338 3357376.32705688 16.57418633 77 83 79
245952.78582764 3357371.46029663 16.41697311 78 80 77
245951.70233154 3357370.68621826 16.69226456 28 24 23
245955.15972900 3357376.22241211 16.50369644 43 43 43
245953.09918213 3357371.34179688 16.42677879 66 68 65
245953.85906982 3357373.36691284 17.05149078 114 108 110
245954.31091309 3357375.54705811 16.47671318 64 68 67
245954.22314453 3357372.05313110 16.78868484 165 167 164
245948.91455078 3357370.44122314 16.43793106 56 58 53
245954.45166016 3357372.91696167 16.70374680 33 37 38
245953.24084473 3357373.85171509 16.40469170 33 50 32
245952.13372803 3357370.33874512 16.37001228 108 109 101
245953.74829102 3357373.56536865 16.86857414 29 37 50
245954.92596436 3357375.83438110 16.73373604 76 78 77
245951.49688721 3357369.99926758 16.58521461 94 95 90
245949.44537354 3357370.54464722 16.91661644 40 40 38
245953.93145752 3357373.15979004 17.09371185 80 54 57
245953.06683350 3357370.38867188 16.76702309 45 49 50
245953.45965576 3357373.12380981 16.63946533 84 90 90
245949.84454346 3357369.68341064 16.72105598 66 68 67
245954.08020020 3357375.57803345 16.71798897 43 49 49
245954.29986572 3357375.95223999 16.77587700 50 62 74
245951.56372070 3357370.87316895 16.75740433 55 54 50
245953.63720703 3357372.61795044 16.89802170 92 91 89
245954.19873047 3357374.93185425 16.47753525 56 57 61
245953.93005371 3357375.50436401 16.57368660 67 69 66
245950.97845459 3357370.95388794 16.50219536 78 81 70
245954.07470703 3357375.66656494 16.58273315 58 60 57
245953.62182617 3357372.95938110 16.81376266 46 46 46
245954.08026123 3357376.86416626 16.46803665 93 100 92
245954.62780762 3357375.88223267 16.70929909 77 81 82
245954.16931152 3357376.74005127 16.75975990 119 121 116
245952.29351807 3357369.67916870 16.34615326 123 124 119
245955.18304443 3357377.20983887 16.80578232 94 95 97
245954.29663086 3357373.22247314 16.84726906 65 65 65
245953.93835449 3357372.68841553 16.99875450 78 66 70
245953.99194336 3357375.03295898 16.99548912 124 128 127
245954.80371094 3357377.41156006 16.82957458 32 37 41
245954.28887939 3357372.01513672 16.64571571 130 128 116
245953.46490479 3357372.53991699 16.64266014 103 112 111
245955.31384277 3357378.32736206 16.37768364 104 104 106
245951.11981201 3357371.28845215 16.48487473 51 52 46
245949.14300537 3357370.22500610 16.51816940 39 41 38
245954.05822754 3357375.32745361 16.76676178 70 70 68
245950.30621338 3357370.31359863 16.66321182 62 63 57
245954.43304443 3357377.48684692 16.93488503 155 160 156
245954.94750977 3357377.65173340 16.51842690 61 63 62
245954.39697266 3357375.02590942 16.59274292 51 52 54
245953.84442139 3357375.32797241 16.58730698 61 63 62
245953.87072754 3357375.81161499 16.42986488 72 77 73
245951.44604492 3357370.54022217 16.61977577 54 56 51
245951.84277344 3357369.59848022 16.68043900 108 103 100
245949.56860352 3357369.41461182 16.58122253 70 73 66
245950.93438721 3357371.31246948 16.52085876 45 46 40
245954.13891602 3357377.30447388 16.35794640 68 78 67
245952.59954834 3357370.33810425 16.26612473 120 119 115
245953.73339844 3357373.86077881 16.50660706 84 88 89
245953.81311035 3357371.95684814 16.33068085 110 111 106
245951.17071533 3357370.74072266 16.51511002 74 75 69
245954.49249268 3357376.17395020 16.88079071 42 42 44
245950.86370850 3357371.15222168 16.50462532 17 16 11
245953.98541260 3357376.26068115 16.60589218 69 78 73
245953.40881348 3357370.05316162 16.38055420 128 129 121
245953.01556396 3357371.96395874 16.41642380 66 68 65
245950.74053955 3357369.29980469 16.43999100 89 88 83
245953.06518555 3357370.39395142 16.74006271 40 44 45
245952.90289307 3357371.98611450 16.38696480 34 33 31
245954.73480225 3357375.09875488 16.70659637 117 118 120
245954.79833984 3357374.57897949 16.51180840 71 68 61
245949.54693604 3357370.11404419 16.68650246 50 52 49
245954.65936279 3357377.52746582 16.80135155 33 38 42
245954.25164795 3357372.03021240 16.62322235 140 140 132
245953.10571289 3357370.11029053 16.30712700 121 122 114
245954.50500488 3357375.07217407 16.67756844 69 70 72
245954.22656250 3357376.45031738 16.89315796 110 115 111
245950.42376709 3357370.71017456 16.88718224 60 61 55
245951.89709473 3357371.53103638 16.41736221 90 89 84
245953.56829834 3357371.81045532 16.45805550 95 97 92
245954.46423340 3357373.25057983 16.69587517 76 78 77
245954.67425537 3357377.30853271 16.98499298 49 54 58
245949.32421875 3357370.25772095 16.61543083 28 32 31
245952.75024414 3357373.11480713 16.40796089 66 72 62
245949.27709961 3357370.63278198 16.90804672 34 34 32
245948.96362305 3357369.71661377 16.46428108 136 137 132
245953.78112793 3357372.54043579 17.05076027 75 71 70
245953.21154785 3357373.23364258 16.37009430 59 64 60
245955.28167725 3357376.47393799 16.66216278 98 98 96
245950.25598145 3357369.83206177 16.61202431 75 76 71
245949.10900879 3357370.32980347 16.62755585 31 33 28
245950.40460205 3357369.45462036 16.58926773 77 78 72
245952.42547607 3357372.12387085 16.42578697 69 70 65
245955.23992920 3357378.16809082 16.52107811 97 99 98
245954.06872559 3357373.71051025 16.72521210 42 46 47
245954.55426025 3357373.91650391 16.72772980 46 46 46
245954.78009033 3357377.33895874 16.91187668 44 52 54
245952.44622803 3357372.43383789 16.47556305 82 82 80
245952.03631592 3357371.22402954 16.31558037 38 38 38
245954.19659424 3357374.81542969 16.49365044 40 41 45
245954.00946045 3357371.00997925 16.99891853 151 150 146
245951.46588135 3357371.14846802 16.46249008 63 64 58
245954.17687988 3357372.43844604 16.70595551 96 96 96
245951.60723877 3357369.69717407 16.58283806 89 91 86
245954.17486572 3357377.71697998 16.63043594 35 44 27
245954.44146729 3357376.13351440 16.88934898 48 47 52
245953.37396240 3357371.86819458 16.45755577 99 100 94
245955.13391113 3357377.68032837 16.46557426 78 78 76
245955.44744873 3357378.28692627 16.40760040 118 116 121
245954.71185303 3357378.00729370 16.60225677 62 62 62
245952.15753174 3357370.45272827 16.34074402 114 113 108
245954.03930664 3357371.15835571 17.06664085 104 104 102
245954.17608643 3357372.82003784 16.64682579 50 50 50
245954.31341553 3357374.71957397 16.55261612 61 62 66
245954.36853027 3357376.03140259 16.81375122 51 55 64
245955.03442383 3357377.18704224 16.83211327 92 96 99
245951.72900391 3357369.44537354 16.48752022 104 103 99
245954.58734131 3357377.58694458 16.83273315 69 75 75
245953.41339111 3357373.94537354 16.36975098 52 58 54
245955.51635742 3357377.40267944 16.60984612 92 92 92
245953.97003174 3357375.01409912 16.75752449 31 32 34
245954.25207520 3357375.08749390 16.55711937 43 42 47
245952.82073975 3357373.24368286 16.39071846 46 59 41
245953.81091309 3357371.14251709 16.68521690 126 128 127
245953.35546875 3357369.98754883 16.31986427 140 141 135
245953.45318604 3357372.46765137 16.56069374 130 136 136
245953.92547607 3357371.10186768 16.64824677 97 97 97
245949.54650879 3357370.63970947 16.99720192 41 40 36
245954.40393066 3357372.48593140 16.55480385 103 103 101
245950.45306396 3357369.66406250 16.74603653 46 47 41
245948.77581787 3357370.49298096 16.33750534 48 49 44
245951.26550293 3357371.23391724 16.44047165 62 63 57
245954.36846924 3357373.42037964 16.70520210 66 67 69
245952.05865479 3357369.75317383 16.50153732 41 37 34
245952.24804688 3357371.46035767 16.49260712 106 106 98
245954.57458496 3357375.94506836 16.70993423 59 63 64
245955.38049316 3357377.49111938 16.60280991 101 99 100
245949.11181641 3357369.01409912 16.30822754 93 94 89
245949.33264160 3357369.05511475 16.32551765 88 89 84
245950.03869629 3357369.47167969 16.43692017 93 94 88
245952.95275879 3357371.50350952 16.44855309 41 43 42
245953.91870117 3357374.82507324 16.67579842 18 22 23
245953.48431396 3357370.45758057 16.39743233 110 108 95
245955.17675781 3357376.40191650 16.61428833 95 96 91
245952.95581055 3357370.49951172 16.81369972 34 38 41
245951.89062500 3357369.85900879 19.60981369 55 69 46
245948.78521729 3357370.37036133 16.33416367 52 53 48
245953.94543457 3357371.68722534 16.40991020 104 104 104
245954.95654297 3357376.00628662 16.65439796 224 228 229
245953.40344238 3357370.29769897 16.47570801 146 140 124
245954.52923584 3357374.86077881 16.63879776 24 25 29
245952.99853516 3357369.92520142 16.26203728 136 136 128
245954.53649902 3357374.31216431 16.64865112 80 85 81
245954.01898193 3357375.77334595 16.52524948 73 75 72
245949.25756836 3357368.99023438 16.31429100 96 97 91
245949.04846191 3357369.54025269 16.45280838 58 61 54
245951.60333252 3357369.75622559 19.59021759 41 55 29
245953.08746338 3357374.24670410 16.47604370 26 43 24
245954.08697510 3357373.38626099 16.98726273 63 52 56
245954.24133301 3357375.78918457 16.57806969 58 59 61
245954.97082520 3357374.92422485 16.62109184 114 106 103
245953.94769287 3357372.72116089 17.00211716 95 78 84
245955.57025146 3357377.91168213 16.55525589 106 106 104
245953.25701904 3357372.47204590 16.34267426 92 92 90
245954.30480957 3357372.01553345 16.86400223 109 109 107
245954.28515625 3357376.29757690 16.91374397 70 76 74
245954.29974365 3357373.21496582 16.84693146 65 65 65
245950.10455322 3357370.38272095 16.49882698 64 67 60
245954.04583740 3357374.28228760 16.80512619 52 56 57
245954.08862305 3357377.07424927 16.35577393 83 93 85
245954.11523438 3357373.09649658 16.93704224 96 84 84
245952.77288818 3357370.72158813 16.57086945 35 36 38
245951.40112305 3357370.60339355 16.61757278 55 56 51
245954.74774170 3357377.53262329 16.70814896 45 49 52
245951.97229004 3357369.61517334 16.57325363 128 113 108
245955.39593506 3357376.77020264 16.53453255 98 99 101
245952.66839600 3357370.81579590 16.39550781 34 40 36
245951.82055664 3357371.05130005 16.35011673 51 52 47
245954.88079834 3357377.88049316 16.44801903 68 68 68
245954.13336182 3357377.67959595 16.55661774 52 59 43
245951.08996582 3357370.12680054 16.62948418 72 71 69
245950.58105469 3357370.74862671 16.65386200 74 76 65
245953.36193848 3357370.09329224 16.40206337 121 121 113
245952.93286133 3357370.50189209 16.74581528 64 68 71
245953.80627441 3357375.11587524 16.66373253 92 94 91
245953.75531006 3357374.71813965 16.76463509 103 107 108
245954.33697510 3357371.99761963 16.87670708 134 135 130
245953.19580078 3357370.34158325 16.64605904 19 25 25
245953.78070068 3357375.47225952 16.42526436 56 58 55
245953.32128906 3357374.41473389 16.43521881 21 35 18
245953.95416260 3357375.49493408 16.63724899 93 95 92
245954.92883301 3357375.94079590 16.70132637 144 148 149
245954.11541748 3357370.95031738 16.99798203 176 175 170
245950.23583984 3357370.83367920 16.86794662 66 67 61
245952.51422119 3357370.21615601 16.27033424 121 120 116
245949.22851563 3357370.50012207 16.85539436 22 22 20
245949.72088623 3357370.13201904 16.71493340 38 44 42
245953.28350830 3357374.23828125 16.42559814 27 44 26
245953.65185547 3357372.35934448 16.93601227 206 215 214
245950.39031982 3357369.27899170 16.40334129 107 109 104
245953.61022949 3357370.64306641 16.26440048 133 133 125
245954.07720947 3357375.90536499 16.74461174 37 48 50
245954.44128418 3357377.59204102 16.89004898 49 53 54
245953.28015137 3357374.41381836 16.44507980 23 40 21
245954.35491943 3357372.34109497 16.65480423 95 95 95
245952.71929932 3357370.65509033 16.35660553 79 81 76
245951.34661865 3357370.53106689 16.60954666 66 68 65
245953.87829590 3357371.72293091 16.42034149 106 107 102
245949.17956543 3357370.65945435 16.88893509 62 62 60
245953.66644287 3357372.68130493 16.93234634 93 89 86
245952.62896729 3357371.73724365 16.40117073 35 34 32
245953.45416260 3357373.12725830 16.61915016 84 90 90
245954.20941162 3357373.45608521 16.86995125 66 64 65
245954.69299316 3357374.59375000 16.65944099 40 40 40
245955.01568604 3357375.59082031 16.65928650 56 57 59
245952.54864502 3357370.19940186 16.26838684 124 123 119
245950.65722656 3357370.14566040 16.60826111 34 34 32
245951.09594727 3357369.99905396 16.62427711 15 16 11
245952.68267822 3357372.64105225 16.44539833 75 75 73
245950.69427490 3357370.25613403 16.57792473 51 50 48
245949.45190430 3357369.62399292 16.61638832 42 42 40
245953.00683594 3357370.82458496 16.65836716 75 75 73
245953.34356689 3357370.59774780 16.46007538 65 64 60
245952.88159180 3357369.95117188 16.26239395 129 130 124
245954.35449219 3357377.23489380 16.45784950 84 90 90
245950.75042725 3357371.17025757 16.47813988 16 16 8
245949.81500244 3357370.45956421 16.73628998 12 12 10
245950.19555664 3357369.30749512 16.35135078 98 99 93
245954.05072021 3357373.70028687 16.75370216 55 56 58
245955.01580811 3357378.14059448 16.47827911 89 89 89
245953.76629639 3357372.76770020 17.06039810 107 88 94
245953.94000244 3357373.55905151 16.98861313 35 35 35
245950.78417969 3357369.56283569 16.54214859 38 39 34
245949.33679199 3357369.09844971 16.32763290 93 93 91
245953.19567871 3357370.78485107 16.53841782 108 105 100
245953.97869873 3357375.70364380 16.45498085 75 77 74
245952.21502686 3357371.36178589 16.43609810 64 64 62
245951.27154541 3357370.70455933 16.54320145 73 74 69
245954.12786865 3357373.62106323 16.80611420 54 55 57
245953.47656250 3357373.78781128 16.39039421 60 67 60
245953.82934570 3357372.86022949 17.10969734 141 124 134
245952.66076660 3357370.88882446 16.48699951 35 41 41
245952.59741211 3357370.61526489 16.30319405 94 95 89
245953.72564697 3357371.65487671 16.54759026 103 103 101
245954.71069336 3357375.66781616 16.56134605 59 63 64
245954.18859863 3357375.91638184 16.88394737 68 79 85
245954.89263916 3357376.66113281 16.78040123 130 132 131
245949.44818115 3357370.20748901 16.64243698 41 47 43
245949.23443604 3357370.12768555 16.57343292 40 40 40
245953.94488525 3357377.16503906 16.36079216 53 61 50
245953.64501953 3357371.06570435 16.36272049 93 92 87
245953.84899902 3357374.29598999 16.52566528 85 85 83
245954.33581543 3357373.92361450 16.75391579 50 49 54
245952.51843262 3357371.84448242 16.38353539 84 85 80
245949.92291260 3357370.62979126 16.78532600 47 49 44
245949.86352539 3357370.67257690 16.91933060 51 52 46
245954.01312256 3357372.73913574 16.91167831 76 66 67
245951.52984619 3357370.23193359 16.61342049 86 87 81
245953.87634277 3357373.77081299 16.67363358 105 106 108
245954.38922119 3357377.83084106 16.70421219 78 85 78
245953.84271240 3357376.66857910 16.36372185 55 66 52
245953.54852295 3357371.63916016 16.57424545 106 106 104
245952.22460938 3357372.22729492 16.43977165 80 83 76
245951.34631348 3357371.40109253 16.43264008 61 60 55
245954.08624268 3357372.79702759 16.79592323 32 23 24
245951.98211670 3357370.32760620 16.44894791 90 91 86
245953.97204590 3357376.07357788 16.68600845 121 136 141
245950.55108643 3357369.84844971 16.72406578 22 26 27
245953.71697998 3357373.24838257 16.98540115 76 78 75
245952.79388428 3357370.27606201 16.26934242 119 118 114
245952.96765137 3357372.87750244 16.37906837 82 84 79
245948.61584473 3357370.09552002 16.25869560 50 51 46
245954.14953613 3357371.18630981 16.98350143 153 155 150
245954.97814941 3357376.46420288 16.67268944 94 96 93
245953.93688965 3357374.48370361 16.50831223 35 37 36
245954.58319092 3357375.97506714 16.72692871 39 40 42
245954.76824951 3357374.84237671 16.69434166 28 32 35
245951.40093994 3357369.65686035 19.59978867 47 64 30
245953.79541016 3357372.17782593 16.35050201 79 85 85
245951.14685059 3357371.21325684 16.46474457 74 77 68
245955.00726318 3357376.32788086 16.61858177 78 80 75
245953.35540771 3357373.08245850 16.42245293 28 33 36
245952.24414063 3357370.43414307 16.30980492 108 109 101
245954.48382568 3357374.68804932 16.60979080 25 26 30
245953.36053467 3357372.51330566 16.46222878 73 77 78
245953.14624023 3357370.38641357 16.75093651 21 25 24
245954.64056396 3357376.19277954 16.79026794 48 48 48
245951.40783691 3357369.66381836 19.58253288 47 64 32
245953.38098145 3357373.90325928 16.37486649 47 54 47
245954.18371582 3357374.22714233 16.85153580 91 95 96
245954.73498535 3357375.23928833 16.62281609 80 80 78
245948.99249268 3357369.53152466 16.39604187 76 77 71
245950.78094482 3357369.50228882 16.52227402 41 40 35
245949.84777832 3357369.69839478 16.71289825 66 68 67
245954.73620605 3357377.98089600 16.50485611 65 65 65
245953.89465332 3357375.52581787 16.48917389 19 24 20
245951.14361572 3357371.43847656 16.49974442 64 63 58
245951.42022705 3357370.85104370 16.64475822 66 69 60
245955.47747803 3357377.22817993 16.72682953 113 114 116
245949.60394287 3357369.98056030 16.74193764 38 44 42
245953.00610352 3357370.31338501 16.35064888 87 88 83
245954.90362549 3357376.07138062 16.68495369 226 230 231
245952.08679199 3357369.55322266 16.44447327 84 79 75
245954.00518799 3357372.35821533 16.69691467 76 76 76
245953.99407959 3357376.21716309 16.65529442 62 73 69
245954.54724121 3357374.58554077 16.58359909 21 22 26
245953.53442383 3357371.64834595 16.56424713 106 106 104
245954.68872070 3357374.52343750 16.51949501 33 33 31
245953.59478760 3357370.59609985 16.26772499 132 132 124
245954.63726807 3357375.72979736 16.57487106 80 80 78
245954.18304443 3357372.84756470 16.66824722 36 36 36
245954.31219482 3357376.61856079 16.95327568 81 81 79
245954.04046631 3357372.81359863 16.90989494 96 79 85
245950.27191162 3357370.57006836 16.99192429 54 55 50
245954.30364990 3357373.66729736 16.66635513 57 56 61
245951.32684326 3357370.61666870 16.58331108 69 69 67
245949.14141846 3357369.81323242 16.62320328 44 45 39
245955.09149170 3357376.33209229 16.59472275 82 83 78
245954.25061035 3357374.57043457 16.62287712 54 55 57
245952.56097412 3357370.64602661 16.30313683 89 90 84
245954.30303955 3357372.02511597 16.90664482 79 81 78
245951.31103516 3357370.36087036 16.54982948 72 73 68
245955.25646973 3357377.34402466 16.75494957 60 60 62
245953.09918213 3357372.16177368 16.33076286 83 84 79
245951.31970215 3357370.68698120 16.56934547 71 70 68
245951.57275391 3357370.61373901 16.86081314 63 57 57
245953.20867920 3357370.11578369 16.35276604 118 117 112
245954.74206543 3357377.13259888 17.02218819 83 87 88
245954.97515869 3357377.89874268 16.44985580 74 74 74
245949.21282959 3357370.57083130 16.87204170 20 20 18
245950.32434082 3357369.32727051 16.42797089 101 104 97
245950.66070557 3357370.57571411 16.71624756 54 56 51
245949.80566406 3357369.45385742 16.66427612 90 90 80
245950.17578125 3357370.63714600 16.71444893 27 28 22
245951.72064209 3357370.27236938 16.60466385 29 31 30
245953.08776855 3357370.08157349 16.29927063 133 133 125
245954.52630615 3357374.77947998 16.63413811 24 25 29
245952.78839111 3357370.71743774 16.71968842 59 63 64
245954.62866211 3357377.95153809 16.57527733 59 59 59
245954.95721436 3357377.06033325 16.87331963 89 90 94
245952.28479004 3357370.63235474 16.28529167 99 98 93
245953.31817627 3357372.80654907 16.44908333 91 91 91
245955.38354492 3357377.02862549 16.54694366 113 117 116
245953.41973877 3357373.03387451 16.51545715 19 24 27
245954.04553223 3357376.49536133 16.61484337 55 60 56
245955.23266602 3357377.34869385 16.75936890 63 63 65
245953.68121338 3357374.10092163 16.39979744 79 79 79
245953.18695068 3357373.41305542 16.38554573 34 46 32
245953.36987305 3357374.19552612 16.39946938 37 49 37
245954.29138184 3357372.83258057 16.56408310 34 36 35
245954.16802979 3357377.66412354 16.59236145 60 66 52
245954.11279297 3357372.35229492 16.68115425 77 77 77
245949.33325195 3357370.18215942 16.60303497 29 31 30
245954.63629150 3357374.40963745 16.55213356 87 89 88
245952.25018311 3357372.33096313 16.44918823 82 83 78
245954.67639160 3357373.75289917 16.64282990 118 118 120
245952.70196533 3357372.64306641 16.43933678 75 75 73
245954.71807861 3357377.76635742 16.47566986 68 70 69
245953.02813721 3357371.38864136 16.43068695 66 68 67
245950.03436279 3357370.23712158 16.47004509 76 77 72
245954.47131348 3357371.94790649 17.00326729 84 86 83
245950.61407471 3357370.49902344 16.65684319 43 45 42
245950.23718262 3357369.62313843 16.51540756 78 79 74
245953.01007080 3357370.44195557 16.62527084 65 69 70
245949.75079346 3357369.94100952 16.73734474 52 60 63
245949.95281982 3357370.05743408 16.52036095 46 48 45
245954.34893799 3357377.44787598 16.79246140 10 13 4
245953.58050537 3357372.87283325 16.71476746 84 84 82
245953.29632568 3357370.95129395 16.38876152 110 109 105
245953.41845703 3357371.63696289 16.53735161 50 51 53
245952.32873535 3357372.38024902 16.46478271 78 78 78
245949.15637207 3357369.42697144 16.51354218 141 144 137
245951.54602051 3357370.37362671 16.56989288 85 86 81
245953.88641357 3357371.68814087 16.45429230 106 107 102
245952.21533203 3357370.87066650 16.27935600 94 95 90
245951.63269043 3357371.38320923 16.41139603 80 77 68
245954.22167969 3357375.74346924 16.51503754 39 40 42
245953.70666504 3357374.94689941 16.73428535 94 96 93
245955.00463867 3357378.32083130 16.43393135 91 92 94
245953.74261475 3357371.74847412 16.44569778 101 102 97
245954.79479980 3357376.75537109 16.77209282 112 114 113
245952.76794434 3357371.56228638 16.39960861 65 67 64
245952.54174805 3357370.96057129 16.41110802 32 36 35
245952.06408691 3357371.17541504 16.31410980 34 36 35
245953.38281250 3357370.68560791 16.38628387 88 87 83
245954.70172119 3357377.70938110 16.52724457 54 58 59
245954.14715576 3357375.84020996 16.81115341 65 75 77
245953.42102051 3357370.81085205 16.32761002 97 96 92
245952.72808838 3357370.65417480 16.36838722 79 81 76
245953.71392822 3357373.70373535 16.71363258 27 28 32
245954.65435791 3357374.22463989 16.59900665 96 98 95
245955.25897217 3357376.74206543 16.70752716 118 117 122
245953.56341553 3357373.66275024 16.60319138 69 73 72
245952.78039551 3357370.73187256 16.63959694 36 40 41
245954.11151123 3357375.37524414 16.65821457 84 86 83
245954.17388916 3357376.70687866 16.82901573 116 118 113
245951.73394775 3357369.80596924 19.60038185 46 60 35
245953.55731201 3357371.22836304 16.43044662 85 86 81
245954.19592285 3357374.78048706 16.51010513 33 34 38
245952.84503174 3357370.60287476 16.56571198 26 27 29
245953.14398193 3357371.19940186 16.40068626 90 91 85
245954.19061279 3357377.72988892 16.66122246 35 43 28
245954.71081543 3357375.89263916 16.75165176 70 72 69
245952.62487793 3357370.62515259 16.31411362 94 95 89
245952.15362549 3357371.36306763 16.39406776 57 58 53
245952.38427734 3357372.50354004 16.46122551 79 79 77
245954.57849121 3357375.84558105 16.64147758 77 79 78
245950.23864746 3357370.58798218 16.78030777 88 93 89
245954.17687988 3357371.00540161 17.06929016 196 195 190
245954.22186279 3357374.18041992 16.86350822 97 101 100
245954.61175537 3357375.94268799 16.72438240 61 65 66
245949.86035156 3357370.22479248 16.57336617 46 52 50
245953.64355469 3357373.59616089 16.77838135 81 86 80
245953.49377441 3357373.42349243 16.74705696 72 78 78
245953.64666748 3357372.78356934 16.84752846 74 66 63
245954.78930664 3357376.68618774 16.76017189 73 75 74
245955.20672607 3357377.71151733 16.43674088 89 89 87
245952.37451172 3357369.98880005 16.30623245 124 125 120
245954.08917236 3357372.85760498 16.83217049 30 20 21
245953.25067139 3357372.16400146 16.33978653 97 99 96
245953.45910645 3357371.33258057 16.58179665 36 38 37
245950.77044678 3357370.40887451 16.57200813 50 49 47
245954.76586914 3357376.96197510 16.92023849 78 79 81
245949.94598389 3357369.19247437 16.32190323 97 98 92
245951.75805664 3357371.87942505 16.40710449 77 78 72
245953.48754883 3357374.03936768 16.35816956 67 73 71
245953.87817383 3357371.75900269 16.38191032 105 106 101
245954.79364014 3357375.52969360 16.50415421 58 60 59
245951.51892090 3357371.55480957 16.42489243 78 75 66
245954.57543945 3357377.36236572 16.96044350 53 57 60
245953.95660400 3357374.87207031 16.55199623 49 53 56
245952.84143066 3357371.93780518 16.41063499 81 80 76
245950.70233154 3357370.09768677 16.60684013 49 49 47
245952.71789551 3357372.84796143 16.42038727 83 85 82
245954.08319092 3357374.57452393 16.57998466 54 54 56
245954.59234619 3357374.75244141 16.67099762 41 42 46
245954.98852539 3357376.43774414 16.65258789 93 95 94
245952.07275391 3357370.61706543 16.31441879 100 99 94
245954.41204834 3357377.82101440 16.70234299 77 82 78
245955.07525635 3357378.47766113 16.35931587 52 58 58
245954.99645996 3357375.82461548 16.69261742 68 69 71
245951.44659424 3357369.46234131 16.35537148 101 101 99
245953.69158936 3357371.90527344 16.38521194 103 104 98
245951.46502686 3357369.57910156 16.40956306 93 93 91
245955.39843750 3357376.93945313 16.49262047 102 102 102
245949.62213135 3357369.05856323 16.34031105 104 105 99
245949.09326172 3357370.09637451 16.49545670 29 30 25
245953.18908691 3357372.78427124 16.37233353 56 58 53
245954.59289551 3357377.25158691 16.99657440 68 72 73
245951.12957764 3357370.12564087 16.62645531 66 65 63
245950.60809326 3357370.69393921 16.67482185 66 67 59
245953.84637451 3357374.19552612 16.56964874 50 51 53
245954.23486328 3357373.62640381 16.73145676 63 64 68
245955.67059326 3357378.42782593 16.26546860 106 106 106
245949.58093262 3357370.17843628 16.69737625 54 59 53
245954.62670898 3357377.50778198 16.88540459 26 31 35
245948.65429688 3357369.87805176 16.26292229 70 71 65
245955.00897217 3357377.64703369 16.52569962 68 68 68
245951.77227783 3357369.47674561 16.53217316 107 102 99
245951.25555420 3357369.73147583 16.45399475 40 40 40
245952.50897217 3357371.97760010 16.39582062 73 74 69
245951.17425537 3357370.53613281 16.56066895 52 54 49
245953.36785889 3357370.05575562 16.37168312 127 128 120
245953.31048584 3357372.67037964 16.47612572 80 82 81
245953.62957764 3357372.65725708 16.86535454 92 93 88
245955.57879639 3357377.87408447 16.51943779 102 104 101
245953.36352539 3357370.01013184 16.33164406 134 135 129
245950.25469971 3357370.85498047 16.83337784 68 69 63
245952.70727539 3357372.93203735 16.42112923 71 75 74
245951.52600098 3357370.39129639 16.55847740 87 88 83
245954.87567139 3357377.46554565 16.70235252 34 38 41
245951.68652344 3357369.79928589 16.66151237 82 84 81
245954.39685059 3357372.32510376 16.64239311 98 98 96
245954.60498047 3357377.81500244 16.55624580 66 67 69
245951.48126221 3357371.46017456 16.42269707 86 81 77
245953.69989014 3357372.89630127 16.96839714 63 53 61
245954.94653320 3357375.33203125 16.39706421 92 96 97
245951.33203125 3357370.79284668 16.56063652 62 62 60
245950.95654297 3357369.42037964 16.41335297 99 101 96
245953.93121338 3357374.74710083 16.52012825 43 47 48
245949.93627930 3357370.63604736 16.77308464 46 48 43
245954.13848877 3357375.69665527 16.60101128 54 55 57
245953.55706787 3357372.26605225 16.41846848 70 72 67
245952.81323242 3357370.98751831 16.60540009 36 37 39
245954.04656982 3357376.62680054 16.51749992 110 115 109
245949.14215088 3357369.34552002 16.49352264 74 77 70
245955.11315918 3357375.55715942 16.56653214 23 21 22
245954.38427734 3357373.89526367 16.73570061 45 44 49
245951.44494629 3357369.53317261 16.37796021 94 94 92
245951.29583740 3357370.58212280 16.58273888 74 76 71
245954.52758789 3357374.36212158 16.62926674 81 85 84
245952.23663330 3357369.94470215 16.36797523 118 119 114
245953.36907959 3357371.62194824 16.54824829 46 46 46
245954.29602051 3357372.10171509 16.90002060 103 107 108
245952.22283936 3357371.17346191 16.37174988 23 24 26
245952.34747314 3357370.55151367 16.28702354 107 108 100
245954.19647217 3357372.05551147 16.54710197 50 51 45
245953.74884033 3357372.31353760 16.77197266 81 80 78
245954.09082031 3357373.64416504 16.80775452 84 88 89
245952.16082764 3357371.34512329 16.39204788 57 58 53
245954.53912354 3357373.24560547 16.64268494 86 88 87
245955.14709473 3357375.76821899 16.59439468 69 75 73
245952.22430420 3357371.42749023 16.46786499 113 112 107
245949.70672607 3357369.80020142 16.77681541 53 57 58
245954.13208008 3357377.22433472 16.35654068 82 90 79
245952.82214355 3357370.61026001 16.47481918 38 40 39
245953.48522949 3357372.94522095 16.60374641 68 72 73
245953.17327881 3357372.61898804 16.35421181 64 65 60
245952.12225342 3357370.03756714 16.40855026 109 110 104
245952.91888428 3357370.51498413 16.75104713 56 60 63
245950.42657471 3357370.68695068 16.91204262 60 61 55
245949.58288574 3357370.21807861 16.69244957 45 50 44
245952.84924316 3357371.98870850 16.39439964 45 46 41
245955.30169678 3357377.45364380 16.66401482 128 128 130
245954.91412354 3357375.57931519 16.60430336 24 24 26
245949.13195801 3357370.02429199 16.57317352 48 49 43
245952.53430176 3357369.98263550 16.27417564 121 122 117
245954.06597900 3357375.23889160 16.89001274 60 60 58
245949.25323486 3357369.27905273 16.43613815 89 91 86
245953.60595703 3357373.17718506 16.89269447 83 92 91
245952.69378662 3357371.28723145 16.49225616 99 100 94
245951.97784424 3357369.96667480 16.52324677 34 36 35
245953.15911865 3357370.36627197 16.70865250 29 35 33
245954.66796875 3357375.03790283 16.71180344 59 60 62
245954.09600830 3357373.91305542 16.68668175 76 80 83
245954.20794678 3357373.66967773 16.72673035 52 53 57
245952.12512207 3357369.84841919 19.75162888 46 61 30
245953.85589600 3357374.56277466 16.38682938 56 56 56
245953.90527344 3357371.55145264 16.54647064 101 103 98
245955.59014893 3357377.70932007 16.37183762 102 104 103
245955.07183838 3357378.51943970 16.33911705 50 54 53
245954.79156494 3357375.17700195 16.63579941 81 83 82
245952.49072266 3357370.95965576 16.37854767 69 71 68
245949.33575439 3357369.57955933 16.59331512 44 46 43
245953.92132568 3357375.56243896 16.48254967 51 56 52
245954.05468750 3357375.27529907 16.90652084 65 67 64
245952.53240967 3357371.19299316 16.56486511 19 23 24
245954.59960938 3357377.02249146 16.90885925 79 83 86
245948.64654541 3357370.09625244 16.25051498 54 55 50
245954.58587646 3357375.44729614 16.53907585 85 89 90
245953.74560547 3357372.29394531 16.59404182 25 25 23
245953.23590088 3357374.14239502 16.42803001 30 44 27
245954.79620361 3357375.95025635 16.75121689 143 143 143
245954.89263916 3357376.59939575 16.75404549 85 85 83
245953.91992188 3357376.81390381 16.37223434 72 82 71
245953.71313477 3357371.84902954 16.40253448 98 99 94
245949.23162842 3357370.08819580 16.58212471 43 43 41
245953.32525635 3357374.56246948 16.45414352 24 41 23
245953.78698730 3357373.12008667 17.07220078 60 58 63
245954.21282959 3357373.29730225 16.89042854 121 120 118
245954.70269775 3357374.54147339 16.52328491 29 29 27
245953.92864990 3357372.50482178 16.95678329 55 57 54
245953.65649414 3357372.89147949 16.87110901 43 37 37
245954.74096680 3357373.69583130 16.63162231 83 82 87
245949.82910156 3357370.29998779 16.59799194 54 58 57
245953.92028809 3357375.73773193 16.43505287 71 73 70
245954.37359619 3357373.74185181 16.66100121 58 56 59
245954.37078857 3357375.58169556 16.44100952 79 81 80
245949.99896240 3357370.67694092 16.80586052 55 56 50
245955.11083984 3357377.39062500 16.76523018 67 68 70
245948.64868164 3357369.92218018 16.24894714 72 73 65
245953.46502686 3357373.14270020 16.67690468 96 100 99
245954.58282471 3357377.64932251 16.73413849 47 53 53
245950.18353271 3357370.64263916 16.77706718 40 41 35
245952.87145996 3357373.32028198 16.38298798 37 55 33
245951.84802246 3357369.97250366 16.64505959 22 26 27
245950.88903809 3357369.62728882 16.52616501 75 75 73
245954.25006104 3357375.43655396 16.58372307 99 101 100
245954.95892334 3357374.96099854 16.62928200 122 114 112
245950.50860596 3357370.06527710 16.67710495 20 22 21
245953.72735596 3357371.08114624 16.39910507 86 86 78
245952.53198242 3357372.15112305 16.41898727 79 80 75
245950.79003906 3357370.27191162 16.57364464 72 71 69
245952.65264893 3357371.04864502 16.53133392 29 33 36
245949.02746582 3357369.80795288 16.55040932 23 24 18
245950.08868408 3357369.58062744 16.49443626 81 82 76
245951.27612305 3357371.34878540 16.44667816 59 60 52
245954.01928711 3357374.22753906 16.77679634 72 73 75
245955.13726807 3357377.46710205 16.69109535 39 39 41
245951.74395752 3357370.79092407 16.55652237 56 56 54
245950.82513428 3357370.31539917 16.58980179 52 52 54
245949.16058350 3357369.06335449 16.31854439 95 96 91
245949.01672363 3357369.45043945 16.40814781 65 68 59
245955.22937012 3357377.44277954 16.69500923 90 90 92
245949.32598877 3357369.84851074 16.63767624 34 39 33
245949.05419922 3357370.35525513 16.62674713 41 43 38
245952.00079346 3357371.66610718 16.45980453 68 65 60
245953.99084473 3357375.80621338 16.48820305 72 74 71
245954.19531250 3357376.41571045 16.86250877 83 88 84
245951.91589355 3357370.98632813 16.31827736 166 167 162
245953.04321289 3357370.73571777 16.71133614 76 78 75
245951.31506348 3357371.18698120 16.44498634 53 54 48
245950.96148682 3357370.55929565 16.61529541 38 38 38
245954.25109863 3357374.08062744 16.86457634 88 92 91
245952.63275146 3357371.81762695 16.39603996 71 70 68
245953.55279541 3357373.36062622 16.82097054 79 83 84
245953.84417725 3357372.54934692 17.03181648 54 50 49
245951.54071045 3357370.30789185 16.59591866 87 88 83
245953.20428467 3357370.52148438 16.73814774 37 41 40
245951.47393799 3357371.44494629 16.42322731 86 83 78
245953.26013184 3357373.56643677 16.39983749 52 62 51
245955.36926270 3357376.60028076 16.66192627 96 98 97
245952.61492920 3357373.11239624 16.42775536 70 75 68
245950.41046143 3357369.21514893 16.36138725 109 111 106
245951.46594238 3357370.51666260 16.61399651 54 56 51
245955.05560303 3357377.13729858 16.81995583 93 97 100
245954.86437988 3357375.35333252 16.44998932 78 80 79
245952.49029541 3357372.22396851 16.44018364 75 74 70
245953.77929688 3357374.49411011 16.34527588 58 58 56
245949.39947510 3357369.72442627 16.61662102 40 42 39
245950.19195557 3357370.35565186 16.52840805 64 65 59
245954.23278809 3357375.27008057 16.60116959 89 91 90
245954.28070068 3357374.82595825 16.51147842 59 60 64
245954.55389404 3357374.56112671 16.58828163 21 22 26
245953.80334473 3357374.77947998 16.83787918 83 85 84
245954.82122803 3357375.58895874 16.55946922 46 48 47
245954.04278564 3357376.34030151 16.65953064 80 86 82
245954.51184082 3357376.98696899 16.83070755 83 85 82
245951.88867188 3357370.23635864 16.52218437 26 30 29
245954.28369141 3357376.91903687 16.67161942 92 94 93
245950.05346680 3357370.00885010 16.51006699 82 81 76
245952.18469238 3357370.61984253 16.29612160 105 104 99
245954.05908203 3357375.38217163 16.70307922 69 69 69
245954.33050537 3357377.07476807 16.51893234 85 89 88
245953.99383545 3357376.60714722 16.44498253 101 106 100
245953.36029053 3357374.32110596 16.41520691 29 43 28
245950.30963135 3357370.46685791 16.76959801 49 54 50
245954.35150146 3357374.20614624 16.83447647 70 74 73
245953.09057617 3357371.86224365 16.47715759 46 48 45
245949.13031006 3357369.78256226 16.62597275 40 41 35
245954.39739990 3357374.77343750 16.56823921 55 56 60
245955.02270508 3357377.53424072 16.62192726 50 50 50
245952.11206055 3357369.86257935 16.42769432 91 92 87
245954.22406006 3357372.24664307 16.77507782 91 92 94
245950.92199707 3357369.78680420 16.58347893 73 72 70
245953.34613037 3357373.21459961 16.41425896 48 49 51
245949.39349365 3357370.34994507 16.74185944 49 51 50
245951.82720947 3357371.19595337 16.34441185 80 77 72
245954.63385010 3357377.61297607 16.71746445 66 72 72
245952.31268311 3357370.90274048 16.28344345 75 76 71
245953.50610352 3357370.64816284 16.29538918 104 104 96
245952.67791748 3357370.32345581 16.26149178 114 115 109
245953.26745605 3357371.82894897 16.48209763 74 79 75
245953.43078613 3357373.02770996 16.53633118 19 24 27
245955.75659180 3357378.05636597 16.46024895 119 121 120
245954.53564453 3357377.17276001 16.92675209 69 73 72
245950.94683838 3357371.09594727 16.49440765 41 41 31
245954.08013916 3357373.10995483 16.96718216 116 100 101
245951.24163818 3357369.66192627 19.55193138 57 74 42
245953.90515137 3357375.41848755 16.68898964 110 112 109
245953.82336426 3357373.64764404 16.85787582 30 38 51
245953.61120605 3357371.19369507 16.42604637 79 79 71
245954.03509521 3357375.50292969 16.73065186 63 64 66
245951.58099365 3357370.66421509 16.92061043 108 102 104
245953.78778076 3357374.62405396 16.40963936 70 72 71
245955.51147461 3357377.37408447 16.63508797 97 97 99
245954.83441162 3357377.70184326 16.47325706 65 67 66
245950.06457520 3357369.21716309 16.31463814 103 104 99
245949.06378174 3357369.21261597 16.38260651 95 97 92
245954.01599121 3357375.94772339 16.63868713 81 91 92
245951.22851563 3357369.60671997 19.66745567 58 78 41
245953.73400879 3357374.67990112 16.48399734 32 38 36
245951.79602051 3357370.95498657 16.39580727 55 58 51
245949.27563477 3357369.33789063 16.47652626 109 111 106
245953.81549072 3357373.66018677 16.83795738 18 25 35
245954.74993896 3357374.32958984 16.44909096 96 98 97
245955.53472900 3357377.17700195 16.64733696 121 121 123
245954.06146240 3357372.88418579 16.91586876 73 57 60
245952.29382324 3357371.75936890 16.43048859 70 70 68
245952.78399658 3357370.00729370 16.26058388 120 121 115
245953.38836670 3357371.80612183 16.48309708 96 95 91
245953.13256836 3357370.90530396 16.52681160 118 115 110
245954.62249756 3357376.54821777 16.75669861 100 102 97
245953.98913574 3357375.05349731 16.62089920 37 41 42
245950.48455811 3357369.24758911 16.40467834 105 108 101
245954.36358643 3357375.96054077 16.70953751 48 53 57
245951.66528320 3357369.94427490 16.68697166 83 83 81
245948.78393555 3357370.08151245 16.28202248 51 52 46
245954.69952393 3357374.07507324 16.66923714 89 89 89
245953.47369385 3357374.51568604 16.40152740 48 55 48
245952.37139893 3357372.14678955 16.43546295 75 74 72
245953.38812256 3357371.91003418 16.43301392 99 100 94
245954.14343262 3357375.94567871 16.88773918 94 107 113
245953.54833984 3357373.56082153 16.72681999 79 84 80
245953.42852783 3357374.34716797 16.40161133 52 62 54
245952.76531982 3357372.74194336 16.43093300 76 77 71
245952.70983887 3357373.08630371 16.41509438 68 73 66
245954.34686279 3357376.39004517 16.86181259 72 74 71
245955.26251221 3357376.66458130 16.76705742 108 109 111
245955.47552490 3357378.03097534 16.62507248 112 112 110
245952.81091309 3357370.95864868 16.62943840 39 43 44
245954.53833008 3357376.39709473 16.77120018 101 100 96
245954.42877197 3357377.13433838 16.68788147 88 93 87
245954.77276611 3357373.86782837 16.62133789 109 94 99
245953.55541992 3357374.56552124 16.39222908 44 46 43
245953.87884521 3357372.54183960 17.00896835 48 47 45
245952.27496338 3357370.34100342 16.31641579 119 120 112
245950.31384277 3357370.30407715 16.65803146 65 66 60
245955.44653320 3357377.54733276 16.50867653 90 90 88
245954.03436279 3357376.09777832 16.79545975 156 173 181
245951.55541992 3357371.44894409 16.41719437 83 80 71
245954.20019531 3357376.87515259 16.62855911 69 74 70
245954.22369385 3357374.54248047 16.64208984 42 43 45
245949.06280518 3357370.31137085 16.50669098 40 41 36
245948.90222168 3357370.57473755 16.72055435 24 25 20
245953.99841309 3357371.05596924 16.71318436 73 69 66
245951.50512695 3357370.58471680 16.75911140 41 40 38
245953.14288330 3357372.05850220 16.37110138 92 93 88
245954.19512939 3357374.53860474 16.63644791 42 43 45
245953.97662354 3357372.60992432 16.89781380 44 46 45
245950.65441895 3357370.50552368 16.61948204 57 59 56
245950.85687256 3357370.08441162 16.59322929 77 77 75
245950.05908203 3357370.52157593 16.57190514 69 70 65
245949.53033447 3357370.38162231 16.82249260 40 40 38
245953.64575195 3357373.62313843 16.75308800 76 78 75
245954.17272949 3357375.75363159 16.60092926 38 39 43
245954.21191406 3357375.81250000 16.65192604 66 70 73
245950.13604736 3357370.23208618 16.50768852 70 71 65
245951.31146240 3357370.91787720 16.50543594 60 66 52
