245857.68261719 3357371.42691040 17.54716492 134 135 130
245860.02111816 3357371.50793457 17.31038284 97 93 92
245868.31738281 3357372.23995972 17.75625420 76 75 71
245856.25305176 3357372.35726929 17.51445198 93 93 93
245858.93542480 3357373.01782227 17.52956390 61 61 59
245868.91223145 3357372.26528931 17.73037910 65 67 64
245856.16003418 3357371.66098022 17.70948410 54 55 57
245856.38519287 3357371.31576538 17.34303856 123 128 134
245855.61590576 3357372.61511230 17.90606880 42 42 44
245857.40069580 3357372.05709839 17.61972809 94 95 90
245855.18652344 3357372.51379395 18.02285385 108 104 103
245856.26885986 3357371.75582886 17.72316551 71 72 76
245865.61138916 3357371.41601563 17.24910545 102 102 92
245863.91149902 3357371.55780029 17.72592163 117 119 116
245865.42102051 3357371.95425415 17.48508072 37 37 39
245865.68920898 3357371.61389160 17.30643272 84 85 79
245867.15051270 3357371.42919922 17.71365738 79 77 78
245861.97174072 3357371.38400269 17.29312897 128 130 129
245858.78936768 3357371.80126953 17.32337761 123 120 115
245865.42657471 3357371.73464966 17.43654633 33 31 32
245860.75866699 3357371.31442261 17.34495544 118 119 121
245859.29125977 3357372.81643677 17.49312019 46 47 51
245867.82391357 3357371.94635010 17.64808273 77 84 92
245866.78381348 3357372.35186768 17.51450729 82 84 83
245870.90423584 3357371.68658447 17.28794098 58 62 65
245859.64038086 3357371.44506836 17.20598412 84 86 85
245864.31964111 3357371.31359863 17.38950157 98 99 93
245857.66650391 3357372.55606079 17.60408020 84 89 83
245856.56866455 3357372.34811401 17.59183884 44 46 43
245859.50964355 3357373.07089233 17.39918900 44 44 44
245863.93835449 3357371.62966919 17.73523712 214 216 215
245863.72528076 3357371.96398926 17.69055939 39 38 34
245855.11291504 3357372.48861694 17.99396324 110 106 105
245855.65380859 3357372.59115601 17.81838417 119 123 126
245868.79016113 3357372.17803955 17.66194916 70 70 70
245856.76544189 3357371.99603271 17.57825279 91 93 90
245867.06402588 3357371.99478149 17.58709145 69 69 71
245858.73193359 3357371.78979492 17.28484535 129 125 122
245867.29248047 3357372.10403442 17.46083260 98 100 99
245866.72009277 3357371.97039795 17.61098099 110 111 115
245865.82092285 3357371.61291504 17.38412857 104 101 92
245859.18243408 3357371.26416016 17.20349312 94 98 99
245864.29803467 3357371.12319946 17.25737953 164 169 162
245862.73974609 3357371.46069336 17.31944656 78 60 56
245869.63439941 3357372.05044556 17.42226601 48 43 39
245866.89599609 3357371.34613037 17.44945717 95 102 95
245861.86621094 3357371.71701050 17.58253288 123 124 118
245856.26165771 3357372.64422607 17.47870255 141 143 142
245870.12664795 3357371.88375854 17.33746147 40 46 36
245869.31866455 3357372.28906250 17.83502197 49 49 41
245865.13385010 3357371.67398071 17.51088524 49 48 46
245856.20074463 3357372.83251953 17.44521141 89 91 88
245868.37249756 3357372.27154541 17.92204094 74 70 67
245865.71588135 3357371.66427612 17.32514191 87 88 83
245856.06909180 3357372.43502808 17.49715996 97 97 95
245853.88049316 3357372.81658936 17.33834839 123 122 118
245858.63073730 3357371.74362183 17.24187660 118 117 113
245871.01025391 3357371.92156982 17.42388344 61 66 62
245859.26147461 3357372.62374878 17.42491722 49 50 52
245855.48577881 3357372.85098267 17.77926064 54 54 54
245859.02697754 3357371.27810669 17.20047188 93 97 96
245869.57379150 3357372.30557251 17.56599236 92 87 81
245860.36834717 3357371.74459839 17.37900734 103 103 103
245853.59222412 3357372.74786377 17.46536636 115 114 112
245868.45568848 3357372.23132324 17.78127670 30 28 31
245862.19879150 3357371.76541138 17.66336060 82 82 82
245860.93994141 3357372.07446289 17.76148033 94 93 88
245870.81958008 3357371.32052612 17.21641731 55 55 53
245860.70471191 3357371.70336914 17.43869591 104 104 102
245863.63415527 3357371.26345825 17.08020973 137 136 131
245853.12493896 3357372.81976318 17.53604317 109 108 103
245854.25219727 3357372.01470947 17.52115250 67 67 67
245858.35754395 3357371.55520630 17.26592255 130 129 127
245859.54333496 3357371.25372314 17.19439507 86 91 94
245862.41851807 3357371.95648193 17.43348122 141 140 136
245865.40411377 3357371.64321899 17.42120743 35 33 34
245867.87799072 3357372.25863647 17.65358162 22 26 25
245857.66241455 3357371.57000732 17.58936501 115 108 102
245856.34613037 3357371.52615356 17.48823929 72 73 75
245856.50939941 3357372.52874756 17.58573723 70 71 75
245866.73382568 3357372.51394653 17.43725777 73 75 72
245857.69158936 3357371.41546631 17.54675102 141 143 140
245862.34564209 3357371.96572876 17.47976494 125 124 120
245855.97656250 3357373.03140259 17.43599892 110 111 103
245866.28253174 3357371.60791016 17.56309891 121 112 107
245854.43267822 3357372.63891602 17.67707062 87 87 87
245869.35986328 3357372.12368774 17.50353050 186 175 157
245866.82275391 3357371.46160889 17.55871582 99 102 93
245865.80529785 3357371.78112793 17.37106705 88 87 83
245859.04058838 3357373.05825806 17.58300400 53 53 51
245860.36572266 3357371.56176758 17.38486481 116 117 121
245865.75402832 3357372.59750366 17.38795662 68 67 65
245858.23675537 3357371.84210205 17.34336662 72 72 72
245858.74658203 3357372.64718628 17.36916351 82 82 80
245864.62561035 3357372.43688965 17.44832611 83 85 80
245865.30432129 3357372.10894775 17.63290787 48 49 51
245855.67321777 3357372.58511353 17.78410149 138 152 155
245868.00408936 3357372.00753784 17.59550285 66 67 71
245856.02001953 3357372.69290161 17.45688248 99 98 93
245871.07751465 3357371.85687256 17.48285484 73 74 76
245857.27160645 3357371.44354248 17.47940445 136 137 131
245867.81738281 3357371.24493408 17.71688080 30 36 36
245854.78167725 3357372.69866943 17.69267845 102 102 100
245856.82568359 3357372.16091919 17.63114166 88 90 87
245859.58563232 3357371.43597412 17.20482445 88 90 89
245867.07806396 3357372.02258301 17.57433701 76 78 77
245855.42602539 3357372.71929932 17.99324036 121 120 125
245868.34704590 3357372.11383057 17.61135864 77 76 74
245856.89245605 3357372.74023438 17.69795990 69 70 65
245861.52935791 3357371.64105225 17.36012268 108 108 106
245856.07379150 3357371.75100708 17.75385857 62 67 71
245862.27984619 3357372.39324951 17.39292526 114 115 109
245862.20648193 3357372.07733154 17.60047150 61 62 56
245855.64709473 3357371.44104004 17.59559250 130 133 138
245865.94293213 3357372.71154785 17.52314949 40 44 43
245868.08306885 3357372.35671997 17.84590721 63 63 61
245862.10333252 3357371.60894775 17.46064758 60 60 60
245860.53662109 3357372.20797729 17.51016998 103 104 98
245862.37628174 3357371.63717651 17.42834663 154 154 152
245858.91253662 3357371.59805298 17.25198364 145 145 147
245857.21350098 3357372.62344360 17.51390839 106 110 109
245867.10876465 3357372.50875854 17.52223969 94 94 96
245858.86822510 3357371.48410034 17.23172379 105 107 104
245862.14318848 3357371.70318604 17.61064529 47 47 47
245869.72485352 3357371.56414795 17.33576012 22 24 23
245859.72015381 3357371.50051880 17.24844933 91 92 87
245860.75811768 3357372.19610596 17.75805664 117 118 112
245862.09558105 3357371.98403931 17.82822418 66 67 62
245861.76965332 3357371.87405396 17.75967026 105 106 100
245866.50976563 3357371.87866211 17.56051064 93 94 96
245859.13946533 3357373.32339478 17.48492241 63 64 59
245868.14562988 3357372.32568359 17.82898903 76 77 72
245864.03387451 3357371.16348267 17.19403267 98 97 93
245858.54052734 3357372.23855591 17.36723709 77 77 75
245856.12719727 3357372.68667603 17.44961929 72 73 68
245859.91607666 3357373.16552734 17.43760300 69 64 60
245864.67596436 3357371.70401001 17.44933891 12 16 15
245860.70770264 3357372.08517456 17.60091782 119 120 114
245864.35742188 3357371.22085571 17.32251358 119 120 115
245864.71197510 3357371.54446411 17.37363625 13 12 8
245859.73382568 3357373.07266235 17.42496872 45 45 45
245866.72045898 3357371.73352051 17.60832024 117 118 120
245863.89361572 3357371.94763184 17.71151733 73 77 78
245864.25604248 3357371.97952271 17.61041069 52 54 53
245867.97766113 3357372.04098511 17.58514595 66 67 71
245853.13275146 3357372.58462524 17.68595695 42 42 40
245853.33740234 3357372.37072754 17.73026657 66 66 68
245857.53961182 3357371.97155762 17.64694977 94 94 92
245866.55145264 3357372.36123657 17.47736168 73 73 73
245856.81658936 3357371.48175049 17.42117882 114 116 111
245869.17602539 3357371.62387085 17.52257347 71 74 63
245860.07952881 3357372.18228149 17.36566925 21 23 22
245860.91699219 3357372.38879395 17.85190010 37 36 32
245853.76458740 3357371.83703613 17.57024193 88 87 82
245856.71978760 3357372.69271851 17.68971252 75 75 73
245868.87451172 3357372.16323853 17.62209892 65 68 61
245863.84320068 3357371.28552246 17.38586807 120 120 110
245864.02593994 3357372.23590088 17.53784180 39 41 40
245854.57714844 3357372.07678223 17.58183289 84 86 85
245857.53143311 3357371.42385864 17.52097130 123 124 118
245853.00250244 3357372.58309937 17.58464432 108 108 108
245859.85302734 3357371.63955688 17.37915421 165 159 145
245860.12664795 3357372.03775024 17.38234520 45 49 50
245859.20770264 3357372.16107178 17.48758507 20 22 21
245864.71624756 3357371.66519165 17.41591263 61 65 66
245866.11370850 3357371.55239868 17.47928810 199 192 174
245864.47137451 3357371.87359619 17.65312767 51 57 57
245859.44348145 3357372.51727295 17.40373802 62 63 65
245863.91894531 3357372.18731689 17.60915565 56 57 59
245858.80383301 3357373.28662109 17.41931152 61 61 59
245858.30969238 3357372.48056030 17.35888863 89 90 92
245861.05139160 3357372.27450562 17.73962021 97 96 92
245865.96264648 3357372.43069458 17.46873856 84 85 80
245854.65863037 3357372.03814697 17.60666275 87 89 86
245862.46844482 3357371.31942749 17.31745720 102 107 103
245857.88922119 3357372.18649292 17.64268112 52 62 63
245866.93139648 3357372.63253784 17.46199417 113 114 109
245867.28179932 3357371.82644653 17.56990623 84 84 86
245858.77618408 3357371.97323608 17.37500572 125 124 120
245854.71710205 3357371.93206787 17.58242989 95 94 90
245861.49987793 3357372.09710693 17.74413681 85 86 80
245865.87512207 3357371.55404663 17.38947105 113 111 99
245854.48095703 3357371.98519897 17.50719643 75 75 77
245860.84106445 3357371.91500854 17.64504433 117 118 112
245858.09576416 3357371.84085083 17.45437431 55 57 56
245860.81829834 3357371.36035156 17.35688019 119 123 124
245871.20953369 3357371.44387817 17.29846191 113 110 103
245860.81817627 3357371.34408569 17.35028458 124 128 129
245858.14147949 3357372.37457275 17.44214058 70 72 71
245855.66265869 3357372.71936035 17.78185272 20 21 26
245854.46508789 3357372.38629150 17.64469147 78 82 85
245867.31781006 3357372.42877197 17.44686317 104 104 102
245860.99639893 3357371.96868896 17.68822670 33 33 33
245858.63220215 3357372.20919800 17.36916542 70 70 68
245857.00012207 3357372.23736572 17.71541786 53 53 55
245860.17639160 3357371.89739990 17.39626884 47 51 52
245859.80834961 3357372.25961304 17.34722137 58 59 63
245863.63092041 3357371.57479858 17.70963478 227 227 227
245856.37188721 3357371.37057495 17.37461090 112 115 120
245870.16925049 3357371.62139893 17.30350304 44 49 43
245862.53302002 3357372.05609131 17.36369133 108 107 103
245867.33599854 3357371.25863647 17.73666763 107 118 112
245855.92272949 3357372.12561035 17.67775154 43 45 44
245860.72241211 3357371.67547607 17.43634987 105 105 105
245855.68463135 3357372.36804199 17.83264351 121 121 123
245859.00573730 3357371.51654053 17.24674034 116 120 119
245854.27758789 3357372.23385620 17.78860283 81 88 96
245859.80993652 3357372.12756348 17.36492729 34 35 37
245854.13146973 3357372.01391602 17.75200653 72 67 73
245865.54992676 3357371.73812866 17.33989525 66 65 63
245855.40246582 3357371.51956177 17.54908752 132 134 133
245860.01922607 3357371.49719238 17.29669380 97 93 92
245859.19793701 3357372.10751343 17.48709869 27 27 27
245855.88342285 3357372.96295166 17.43022537 114 115 107
245859.61590576 3357371.45690918 17.20544434 97 99 96
245860.82177734 3357372.10043335 17.75611496 111 112 104
245864.19152832 3357371.85629272 17.66143227 45 47 46
245864.79205322 3357372.51968384 17.59425545 130 130 130
245857.58972168 3357371.97991943 17.64653969 91 91 89
245860.70672607 3357371.94680786 17.53177261 116 117 109
245855.47180176 3357371.47567749 17.54054832 131 132 136
245862.03558350 3357371.66394043 17.51416779 94 92 93
245854.50213623 3357371.92907715 17.49245262 84 82 87
245858.28027344 3357373.23645020 17.38511658 86 87 89
245867.12481689 3357372.08532715 17.53514099 100 102 101
245853.66345215 3357371.76324463 17.43941498 114 113 109
245867.59924316 3357372.48583984 17.70849800 212 221 220
245856.40307617 3357372.34078979 17.56595993 47 48 50
245854.63397217 3357371.82409668 17.49757195 97 98 93
245856.05364990 3357371.47775269 17.46889687 81 76 82
245865.24438477 3357372.34561157 17.60177040 68 67 65
245864.33660889 3357372.04660034 17.59991074 62 66 65
245863.33441162 3357371.87594604 17.50792122 66 68 65
245867.16778564 3357371.42321777 17.72070885 78 77 75
245865.91467285 3357372.62750244 17.49539948 47 52 46
245864.79217529 3357371.86410522 17.33423615 52 54 53
245868.34185791 3357371.78536987 17.66289520 68 69 71
245859.30749512 3357372.90713501 17.57065773 32 32 32
245857.02038574 3357372.67443848 17.61592293 168 169 164
245857.84204102 3357371.52114868 17.60050201 81 71 69
245864.44775391 3357371.38253784 17.37211800 98 99 94
245857.49902344 3357371.95022583 17.63114738 95 95 93
245864.77111816 3357371.16210938 17.19773102 116 119 110
245856.78930664 3357372.60910034 17.64290428 93 94 89
245860.00714111 3357372.93295288 17.45595551 19 18 16
245865.57165527 3357371.92114258 17.34084892 55 55 55
245865.77868652 3357372.52487183 17.39128876 70 69 65
245858.83819580 3357373.55737305 17.39829063 64 65 59
245858.67858887 3357371.65277100 17.22383118 146 145 140
245855.94726563 3357373.10528564 17.44404793 109 110 102
245870.82867432 3357371.92727661 17.38596344 60 64 63
245870.63537598 3357371.37823486 17.38108253 118 120 109
245868.93078613 3357372.13519287 17.58753014 73 76 65
245860.36389160 3357372.93740845 17.48776245 53 54 49
245855.44390869 3357372.07946777 17.88172722 112 112 110
245855.16357422 3357372.15274048 17.78928757 105 104 99
245864.01214600 3357371.72195435 17.70198250 85 92 85
245868.50787354 3357372.03408813 17.63092422 23 28 32
245856.75994873 3357371.51507568 17.42851067 121 123 118
245861.46466064 3357371.72302246 17.40689468 102 103 98
245855.91552734 3357372.97857666 17.43082428 112 113 105
245858.18670654 3357371.76358032 17.36635017 62 64 63
245855.36730957 3357372.47448730 18.02387428 89 88 84
245856.85473633 3357372.24349976 17.65714264 88 90 89
245870.87658691 3357371.75491333 17.34606171 18 23 26
245861.05938721 3357372.17654419 17.72479248 61 61 59
245870.25793457 3357371.56472778 17.32009697 54 56 53
245856.76062012 3357371.87905884 17.53274155 95 97 94
245860.74700928 3357371.58789063 17.41420174 113 114 116
245864.49450684 3357372.15771484 17.57880592 45 49 48
245859.36334229 3357372.67285156 17.40230942 59 60 62
245853.60186768 3357372.05453491 17.60771561 99 97 98
245854.55541992 3357372.61322021 17.65570641 87 87 87
245866.07281494 3357371.46569824 17.31912613 121 122 108
245855.72595215 3357371.36041260 17.44124603 137 140 147
245867.53698730 3357371.33352661 17.90016365 88 105 112
245867.68310547 3357372.01815796 17.62546730 189 192 197
245863.62982178 3357371.47119141 17.39069939 108 110 105
245858.86242676 3357371.47894287 17.23069382 105 107 104
245863.51214600 3357371.57403564 17.38373947 144 143 139
245853.61676025 3357372.39941406 17.54460526 107 109 108
245863.70605469 3357371.81210327 17.72252464 43 43 31
245863.49670410 3357371.50152588 17.28271866 101 98 91
245854.75244141 3357372.75762939 17.67284584 102 102 100
245867.90179443 3357371.27127075 17.67779160 64 68 69
245853.20031738 3357372.38497925 17.82609558 53 54 58
245858.22302246 3357371.48501587 17.34538841 133 133 133
245858.82763672 3357371.39440918 17.21603012 109 111 108
245871.30108643 3357371.65679932 17.37233543 112 112 112
245864.91009521 3357371.81820679 17.38166428 64 66 65
245859.96704102 3357372.45510864 17.39868546 19 20 22
245857.73767090 3357372.59039307 17.65605164 99 104 98
245858.51263428 3357371.51770020 17.21036148 136 136 136
245860.44628906 3357372.34695435 17.48512268 93 95 92
245863.38818359 3357371.32196045 17.16498375 92 93 87
245864.54742432 3357371.84899902 17.64011192 41 45 46
245866.78375244 3357372.65020752 17.39510155 70 72 69
245866.30487061 3357371.51873779 17.32116127 108 107 87
245857.96527100 3357372.14181519 17.62268257 39 47 50
245867.13751221 3357372.53955078 17.51305771 108 108 110
245854.89910889 3357372.27935791 17.76074600 49 51 50
245854.22265625 3357372.56964111 17.65419006 74 74 76
245857.95031738 3357371.35458374 17.49847412 122 121 119
245866.83026123 3357371.61682129 17.62516403 121 123 122
245864.79565430 3357371.34869385 17.27943420 122 123 115
245867.21173096 3357371.77334595 17.58772850 101 101 103
245856.74511719 3357371.73468018 17.49405670 101 102 96
245869.45062256 3357371.67034912 17.56283379 59 61 56
245859.17065430 3357373.04183960 17.66725349 57 57 55
245868.29467773 3357371.47076416 17.75325584 132 136 137
245857.37445068 3357372.63577271 17.45630646 100 97 108
245855.47906494 3357372.82467651 17.83369637 99 98 103
245860.41577148 3357372.13742065 17.45056915 73 75 74
245857.49530029 3357371.79452515 17.60299683 91 96 90
245855.64636230 3357372.58157349 17.83530617 119 123 126
245855.57733154 3357372.91580200 17.56414032 109 110 104
245856.96966553 3357372.62182617 17.63422394 69 69 67
245866.39385986 3357372.69320679 17.51092911 37 39 38
245867.93133545 3357372.11013794 17.59666443 53 61 63
245855.22357178 3357371.69619751 17.59315681 119 120 114
245869.58624268 3357372.32598877 17.59404564 55 51 48
245855.31817627 3357371.50546265 17.50781059 128 130 127
245860.04260254 3357372.91430664 17.44762802 41 41 41
245867.51025391 3357372.46343994 17.51795006 122 119 114
245869.43218994 3357371.62716675 17.57288361 60 65 59
245868.16076660 3357371.59869385 17.72662163 68 70 67
245870.84295654 3357371.89385986 17.38942337 55 59 62
245858.74670410 3357373.31231689 17.40803146 66 68 63
245869.04559326 3357372.04248047 17.48204803 137 149 101
245856.65649414 3357371.24908447 17.42697906 121 125 124
245865.64007568 3357372.37786865 17.33477592 71 70 68
245862.06823730 3357371.71853638 17.65778160 58 58 56
245856.58374023 3357372.83489990 17.64058113 48 48 50
245853.05554199 3357372.11453247 17.67434120 68 72 73
245861.26727295 3357371.46478271 17.35041618 86 87 89
245855.71490479 3357371.42877197 17.54554749 120 123 128
245858.13671875 3357371.32928467 17.38774300 134 134 134
245856.29162598 3357371.87689209 17.70167160 74 79 82
245869.85504150 3357371.59808350 17.26206779 24 24 22
245854.26831055 3357371.78375244 17.37320328 54 54 56
245855.80334473 3357372.44732666 17.61630821 57 71 72
245870.22241211 3357371.45861816 17.25874901 68 69 63
245862.42016602 3357371.47204590 17.36856651 85 87 86
245857.00677490 3357371.71887207 17.54682541 87 88 82
245863.91802979 3357372.05154419 17.66010666 52 53 55
245865.23931885 3357371.50012207 17.37726402 144 131 123
245856.75152588 3357372.70379639 17.69632721 92 92 90
245859.92803955 3357372.72943115 17.46758652 12 12 12
245867.97045898 3357371.80233765 17.67433739 40 44 45
245866.38818359 3357372.49557495 17.52801704 62 63 65
245866.77490234 3357371.39706421 17.44838715 103 115 93
245855.05072021 3357372.39035034 17.89809608 94 93 91
245868.99279785 3357371.32220459 17.61015701 54 56 53
245859.38562012 3357373.12536621 17.52214432 82 82 82
245866.72833252 3357371.81597900 17.62883186 114 115 117
245854.50933838 3357372.41217041 17.64360428 77 78 82
245866.72607422 3357372.41473389 17.47503471 80 82 81
245870.19738770 3357371.63845825 17.31525230 47 52 48
245866.60882568 3357372.02722168 17.58161545 109 110 112
245865.44781494 3357371.35113525 17.20447922 110 107 98
245853.98242188 3357372.26834106 17.61970711 43 44 48
245866.58062744 3357372.70385742 17.43336487 57 59 56
245858.54846191 3357372.99627686 17.34194374 47 48 43
245870.20001221 3357371.67150879 17.32143211 45 50 46
245861.17346191 3357372.19488525 17.68820572 81 82 77
245868.10009766 3357371.47067261 17.74994278 71 71 69
245858.60705566 3357371.30734253 17.18916321 81 86 82
245858.66796875 3357371.46368408 17.20689583 96 98 97
245862.02435303 3357371.69631958 17.60173416 111 111 109
245863.15808105 3357371.79638672 17.55952072 93 97 98
245869.81976318 3357371.37091064 17.17498970 45 45 45
245857.42749023 3357372.40411377 17.55274391 100 100 98
245854.11749268 3357372.61892700 17.46076202 83 82 80
245869.87084961 3357372.16452026 17.41804314 53 53 51
245857.38977051 3357372.73516846 17.39841843 106 103 112
245864.05822754 3357371.17544556 17.22106171 93 92 88
245867.36761475 3357372.58605957 17.46434212 117 118 112
245862.78747559 3357371.21011353 17.23868561 123 124 128
245864.80999756 3357372.18612671 17.33575821 98 100 99
245854.40496826 3357372.53271484 17.67315865 46 48 47
245870.73181152 3357371.93942261 17.54055786 91 96 89
245857.98309326 3357372.23959351 17.59824181 33 43 44
245867.14141846 3357372.20532227 17.51140594 93 95 94
245859.93627930 3357373.06677246 17.45291710 73 68 65
245863.17443848 3357371.33847046 17.30330849 125 125 125
245864.23565674 3357371.51290894 17.54358673 78 78 76
245869.75231934 3357371.37353516 17.20097160 42 47 43
245854.21331787 3357372.52621460 17.68034363 68 69 73
245856.36755371 3357371.74517822 17.65057182 73 74 76
245857.64648438 3357372.60275269 17.54784012 68 70 67
245857.90728760 3357372.57565308 17.65745163 115 121 121
245865.31378174 3357371.73046875 17.54250336 85 83 86
245870.37054443 3357372.08367920 17.63785934 49 55 45
245868.44360352 3357371.26123047 17.71628571 134 144 143
245855.38269043 3357372.42175293 18.00100517 121 120 115
245857.07037354 3357372.34103394 17.68457222 58 59 61
245861.69897461 3357371.56500244 17.34143639 123 125 122
245865.59118652 3357371.84805298 17.36389160 65 65 65
245866.72393799 3357371.59225464 17.60243797 110 110 108
245859.76568604 3357371.26147461 17.20025444 88 91 96
245866.73016357 3357371.41302490 17.44396400 102 114 92
245858.18481445 3357371.37896729 17.37575150 147 147 147
245866.06341553 3357372.35119629 17.52750969 94 93 89
245859.88140869 3357372.65652466 17.46935844 50 50 50
245861.93591309 3357372.04925537 17.95921135 108 109 104
245862.33020020 3357372.33090210 17.36231804 119 119 109
245853.50360107 3357372.00509644 17.56579018 81 83 82
245857.23693848 3357372.56716919 17.53371048 107 109 106
245858.58734131 3357371.86288452 17.28192902 110 110 108
245867.50744629 3357372.62533569 17.53034401 115 118 111
245867.61560059 3357372.32183838 17.61032867 49 48 44
245868.91271973 3357371.51440430 17.59402466 56 56 54
245860.12213135 3357371.42489624 17.33058929 87 90 95
245869.10998535 3357371.59756470 17.50983429 63 69 57
245867.44256592 3357371.96963501 17.57167625 111 112 116
245868.47235107 3357372.20962524 17.71787262 20 19 24
245857.28790283 3357372.64450073 17.47663116 82 82 82
245866.79577637 3357372.76223755 17.36302567 78 80 75
245861.34667969 3357371.85278320 17.48419380 81 83 78
245853.07354736 3357372.28274536 17.72044945 86 87 89
245869.85729980 3357371.46224976 17.20783615 31 31 31
245859.45385742 3357371.80770874 17.37879753 65 65 65
245855.32189941 3357372.24661255 17.89589691 118 117 112
245868.42138672 3357371.33169556 17.77200890 17 26 25
245856.10369873 3357372.99252319 17.43391609 94 95 87
245864.51037598 3357371.24005127 17.29568100 114 116 111
245856.18475342 3357371.64535522 17.68080902 55 55 55
245870.99084473 3357371.79330444 17.37750053 52 51 56
245860.03472900 3357373.00906372 17.45095634 37 36 34
245860.48156738 3357372.26885986 17.48790359 90 92 89
245864.21679688 3357371.42767334 17.50331688 79 80 75
245860.46301270 3357371.92852783 17.40732574 78 78 76
245869.31848145 3357371.76867676 17.53684235 77 78 70
245855.63055420 3357372.58352661 17.86405373 113 114 116
245868.87469482 3357371.52935791 17.61105537 55 56 51
245858.46093750 3357372.72778320 17.34836388 96 94 95
245855.66992188 3357371.46408081 17.62022972 118 122 125
245860.74816895 3357372.27255249 17.77731323 116 115 110
245869.59997559 3357372.02319336 17.43239403 41 36 33
245859.88433838 3357371.58831787 17.34380150 158 149 134
245854.43743896 3357372.67556763 17.67243958 116 116 118
245857.18572998 3357372.24896240 17.68894196 31 33 32
245866.42205811 3357371.79501343 17.61620331 91 92 96
245863.58282471 3357371.95071411 17.50633430 140 138 139
245864.70849609 3357371.22686768 17.23543167 118 121 112
245853.15814209 3357372.74328613 17.59943962 106 106 98
245860.03222656 3357371.77676392 17.42013168 25 27 26
245861.39727783 3357372.27218628 17.85743713 57 58 53
245864.78814697 3357372.22491455 17.35276413 65 67 66
245868.44158936 3357372.18667603 17.67803192 17 15 20
245861.29119873 3357371.78771973 17.48550224 75 77 74
245868.08068848 3357372.35263062 17.93038177 51 52 47
245867.31585693 3357372.00265503 17.48991966 114 112 113
245867.70513916 3357371.71994019 17.82816887 41 49 51
245858.26684570 3357371.83203125 17.32938194 75 75 75
245862.10046387 3357372.11190796 17.80459213 134 133 129
245860.63238525 3357372.48391724 17.76929092 96 97 92
245870.55517578 3357371.56964111 17.42304802 61 66 62
245854.71575928 3357372.80133057 17.65585327 99 99 97
245869.62750244 3357371.85675049 17.42802429 30 30 30
245854.47918701 3357372.59265137 17.66599846 66 68 67
245856.39556885 3357371.49890137 17.47097397 94 95 99
245863.34948730 3357372.36566162 17.53258514 60 62 57
245869.39288330 3357372.28152466 17.56043243 121 117 106
245855.18341064 3357372.07678223 17.76838303 102 103 97
245858.77380371 3357371.85897827 17.34238243 129 126 121
245865.53222656 3357371.73400879 17.34650230 54 54 52
245853.95025635 3357371.87930298 17.71121025 57 54 49
245861.80352783 3357371.73519897 17.57766533 113 116 109
245853.82342529 3357372.69967651 17.35789871 114 113 109
245862.88342285 3357371.51971436 17.40318680 187 160 149
245865.91558838 3357371.46487427 17.31916237 123 124 108
245853.47802734 3357371.97503662 17.55413437 73 75 74
245866.54559326 3357371.38232422 17.25849152 111 119 95
245869.30310059 3357371.96606445 17.50972176 115 111 100
245868.76593018 3357372.18157959 17.67555428 63 63 63
245866.74932861 3357371.45581055 17.51455498 97 105 90
245870.93414307 3357372.03094482 17.39168549 63 65 64
245861.88513184 3357371.74151611 17.64277267 117 118 112
245852.96325684 3357372.74902344 17.45401955 132 131 127
245853.36688232 3357372.73120117 17.60008049 46 48 37
245862.33520508 3357371.87673950 17.53895187 134 133 131
245860.69689941 3357371.87567139 17.48729515 113 114 106
245863.61291504 3357372.00933838 17.52550888 148 144 145
245869.49566650 3357372.01690674 17.48060417 160 153 143
245858.19732666 3357371.74716187 17.35543251 62 64 63
245865.94219971 3357371.68881226 17.46853065 106 103 94
245857.44165039 3357371.73483276 17.55923653 95 96 90
245866.91619873 3357372.17196655 17.61810303 92 93 97
245867.19451904 3357372.05453491 17.50183868 100 102 101
245870.52716064 3357371.82159424 17.50690842 36 42 38
245867.30883789 3357371.89349365 17.52832603 109 109 109
245866.19000244 3357371.44769287 17.27854347 113 114 98
245858.60687256 3357372.40203857 17.34665680 85 85 83
245858.06237793 3357371.66864014 17.46907616 48 50 47
245862.25488281 3357372.20999146 17.46771049 118 118 110
245854.52319336 3357371.75915527 17.42147636 102 102 100
245860.17834473 3357371.49475098 17.35423660 98 99 103
245869.71948242 3357372.17404175 17.43421745 33 32 30
245859.68695068 3357372.19934082 17.34262276 54 55 59
245854.21868896 3357372.65209961 17.57379913 71 71 71
245865.50946045 3357371.65728760 17.31893539 51 50 48
245863.41217041 3357372.09655762 17.47069550 96 98 95
245866.43829346 3357372.93624878 17.40327644 78 80 75
245869.01593018 3357371.35107422 17.59375381 58 60 57
245864.84057617 3357372.40682983 17.42729568 62 66 67
245854.85681152 3357371.84152222 17.58435631 96 95 91
245866.43206787 3357372.66210938 17.49365997 41 43 42
245862.75238037 3357371.47079468 17.32658958 78 60 56
245859.64038086 3357372.52398682 17.41110039 70 69 74
245860.78863525 3357371.89590454 17.58367920 115 116 110
245854.17706299 3357372.36010742 17.78175545 86 92 104
245855.96087646 3357372.74298096 17.45819283 84 85 79
245869.37670898 3357371.52798462 17.58889008 60 62 57
245856.76678467 3357371.65447998 17.47309113 108 111 104
245866.32568359 3357372.90899658 17.45947456 53 55 50
245868.74670410 3357372.28558350 17.85144234 57 58 53
245860.57165527 3357372.06069946 17.48053551 102 103 95
245862.47088623 3357371.37796021 17.33386230 94 99 95
245853.14770508 3357371.88265991 17.66488647 127 140 146
245867.33483887 3357371.42303467 17.81824303 70 71 75
245863.91961670 3357371.79974365 17.74287987 199 203 204
245857.25469971 3357372.67071533 17.47762489 87 89 86
245866.44396973 3357372.75860596 17.47045135 42 44 41
245859.91723633 3357371.27960205 17.22490883 97 101 104
245853.98022461 3357371.75634766 17.50803375 98 97 95
245858.65661621 3357372.80813599 17.40977669 88 88 88
245866.51409912 3357371.93829346 17.54780960 99 100 102
245864.16546631 3357371.20632935 17.30672455 103 104 98
245854.76916504 3357372.30426025 17.67481995 58 60 59
245866.78778076 3357372.24026489 17.55311394 103 104 106
245862.79003906 3357372.33517456 17.50119400 130 135 105
245857.99401855 3357373.02456665 17.40098190 14 15 9
245866.87219238 3357371.70562744 17.64976692 78 80 77
245865.01043701 3357371.17599487 17.14104652 126 136 111
245865.18981934 3357371.55126953 17.44132805 164 146 142
245860.98895264 3357371.39373779 17.36095047 113 114 116
245858.07305908 3357372.24548340 17.49095726 47 56 53
245863.80004883 3357371.37219238 17.65610695 193 194 189
245860.71539307 3357371.53152466 17.40655899 102 103 107
245864.12945557 3357371.88638306 17.66047287 40 42 41
245860.83789063 3357372.33663940 17.85094643 27 26 22
245855.34051514 3357372.71911621 18.01125908 125 125 127
245861.55725098 3357371.96713257 17.65722466 90 91 86
245861.52526855 3357372.00344849 17.65919685 86 87 81
245869.10137939 3357371.76467896 17.49025917 71 79 64
245862.37188721 3357371.57098389 17.40704155 155 155 155
245866.46282959 3357372.56365967 17.48586082 68 70 69
245855.10003662 3357372.09201050 17.74099159 86 87 81
245864.96362305 3357372.30343628 17.41446495 55 59 60
245859.23187256 3357371.64871216 17.32821083 58 58 58
245869.33081055 3357371.24490356 17.47522545 67 69 68
245865.21539307 3357371.57720947 17.45560265 142 128 125
245868.36083984 3357371.81246948 17.65338326 50 51 55
245857.72259521 3357372.91296387 17.34793282 92 90 93
245869.06652832 3357371.59216309 17.49991608 63 69 57
245866.00469971 3357371.95706177 17.42194176 67 68 62
245861.29974365 3357371.92782593 17.52107430 58 60 57
245856.03302002 3357371.83224487 17.75744057 73 76 81
245857.76763916 3357372.95230103 17.35070038 87 87 89
245852.98345947 3357372.47747803 17.61462021 115 114 119
245867.60266113 3357372.19216919 17.49731636 98 101 106
245857.99462891 3357371.46786499 17.50737000 105 105 103
245858.73999023 3357371.99182129 17.36367226 123 119 118
245858.18060303 3357373.08596802 17.37895203 97 96 101
245870.83508301 3357371.47875977 17.29386902 16 15 11
245866.06115723 3357371.37472534 17.22466278 118 118 106
245858.75439453 3357372.12823486 17.37770462 130 129 127
245862.54840088 3357372.44436646 17.33090401 107 107 99
245868.86859131 3357371.26275635 17.67338753 24 26 23
245866.36315918 3357371.41970825 17.22339249 128 140 104
245857.09338379 3357371.86572266 17.67857933 73 73 71
245863.68603516 3357371.41189575 17.51644135 189 191 190
245856.64538574 3357371.42773438 17.44668007 110 112 107
245861.31378174 3357372.17938232 17.60028648 55 55 53
245856.03417969 3357372.23788452 17.59511375 76 78 77
245860.38299561 3357372.94546509 17.50343323 52 53 48
245863.86395264 3357371.24075317 17.23019981 146 139 131
245859.23144531 3357371.23995972 17.20053291 111 116 119
245860.01391602 3357372.66418457 17.43429947 9 11 10
245855.89959717 3357372.87136841 17.43923378 115 118 109
245861.55511475 3357372.09713745 17.89259911 89 90 84
245860.28692627 3357372.56884766 17.43038559 72 74 73
245867.23577881 3357371.70010376 17.65257835 89 87 90
245853.68334961 3357372.50570679 17.47765350 100 100 100
245858.81982422 3357373.07232666 17.45465279 77 77 75
245853.33111572 3357372.56274414 17.66250610 41 42 37
245858.47363281 3357372.63385010 17.34482956 107 105 106
245860.67395020 3357371.78826904 17.45207977 108 110 105
245859.27270508 3357371.80004883 17.41237450 45 46 41
245855.44689941 3357371.78665161 17.82836533 120 121 116
245855.69854736 3357372.29025269 17.81840706 118 119 121
245857.05938721 3357372.33035278 17.69167709 57 58 60
245858.71032715 3357371.50180054 17.21443367 101 103 102
245866.92193604 3357371.74667358 17.66004944 57 59 56
245860.45452881 3357372.79577637 17.60093307 47 47 45
245859.38787842 3357372.83526611 17.44584465 36 36 38
245864.05767822 3357371.30694580 17.49800110 81 82 76
245868.87994385 3357371.65707397 17.57571030 54 56 53
245864.82299805 3357372.36087036 17.38516235 54 55 57
245865.95629883 3357371.80941772 17.43774223 101 100 95
245871.06591797 3357371.81100464 17.43346405 64 64 66
245858.43859863 3357372.91207886 17.32979202 81 81 81
245854.35278320 3357372.06079102 17.49751854 46 47 49
245856.96527100 3357372.13229370 17.69215202 93 97 98
245856.99322510 3357372.35769653 17.68599129 56 56 58
245856.14599609 3357371.34268188 17.28736305 120 120 128
245856.96710205 3357371.97888184 17.67001915 90 92 89
245861.72314453 3357371.88070679 17.73773384 100 102 97
245855.89416504 3357371.98699951 17.73993301 45 53 56
245855.64379883 3357371.58276367 17.73641205 106 107 109
245856.50903320 3357372.47058105 17.58266449 122 123 127
245869.77343750 3357372.25134277 17.50333977 37 37 35
245858.65338135 3357371.32812500 17.19599915 88 93 89
245856.62048340 3357372.69229126 17.64723015 39 39 41
245868.21209717 3357372.20812988 17.64389992 78 79 74
245865.39093018 3357371.80728149 17.51207161 59 60 62
245867.36260986 3357372.17770386 17.42651367 107 109 108
245854.41125488 3357371.84167480 17.41552162 77 75 80
245869.01251221 3357371.42529297 17.56765366 58 60 55
245860.39630127 3357372.11322021 17.44075203 75 77 76
245858.55792236 3357372.76135254 17.38018036 91 91 93
245855.41619873 3357371.94287109 17.86880112 118 120 115
245864.01635742 3357371.15939331 17.18284607 115 114 109
245864.66168213 3357371.92153931 17.49606895 100 104 107
245854.13269043 3357372.43753052 17.65475655 74 74 82
245869.20166016 3357372.28231812 17.72461891 63 64 56
245860.43792725 3357371.77593994 17.37477303 95 95 95
245863.40527344 3357371.65167236 17.49037933 101 100 98
245865.84460449 3357371.33572388 17.20415878 115 116 102
245854.80383301 3357372.62564087 17.73714638 97 97 97
245855.24987793 3357372.72094727 18.01367760 123 123 125
245865.06518555 3357372.11154175 17.49411392 54 56 55
245866.57690430 3357371.38580322 17.28616524 110 118 95
245866.61114502 3357372.46658325 17.43511772 80 82 79
245863.68640137 3357371.71850586 17.74854088 64 58 44
245858.10571289 3357372.16046143 17.46323586 49 55 55
245857.89337158 3357372.79531860 17.74476433 109 110 114
245868.32067871 3357371.52444458 17.76655006 115 119 120
245854.81109619 3357371.91271973 17.60552216 91 92 86
245866.42669678 3357371.97302246 17.58997154 71 75 78
245855.90826416 3357372.62435913 17.49319458 72 77 73
245865.15417480 3357371.80621338 17.57373428 52 54 53
245864.27301025 3357371.31100464 17.38895035 93 96 89
245857.28021240 3357372.51678467 17.55405426 102 104 101
245854.37152100 3357371.75759888 17.37151146 88 89 91
245862.76379395 3357371.66876221 17.34668159 122 119 114
245855.24951172 3357371.80493164 17.67019844 118 119 114
245864.64355469 3357371.14724731 17.22830582 128 133 126
245860.52709961 3357371.72140503 17.37378502 103 103 103
245865.78308105 3357371.97100830 17.30597687 88 90 89
245861.23925781 3357372.11926270 17.59676170 144 144 142
245870.82104492 3357371.78012085 17.37393761 38 43 47
245863.92730713 3357371.88571167 17.72277260 199 201 200
245863.73828125 3357371.36761475 17.46281433 135 136 130
245866.91802979 3357372.26321411 17.57743263 70 72 71
245865.50500488 3357371.38800049 17.22531128 104 101 92
245855.87591553 3357371.46276855 17.50897408 107 108 113
245868.87866211 3357371.97079468 17.53901291 58 66 51
245859.51153564 3357371.55807495 17.24380112 97 97 95
245863.92077637 3357372.33743286 17.63404655 62 64 63
245856.88909912 3357372.14056396 17.65775490 95 97 96
245858.23504639 3357371.96316528 17.38088036 71 73 72
245869.81945801 3357371.90890503 17.35482788 21 25 26
245860.73614502 3357371.47448730 17.40364075 108 112 115
245864.75543213 3357371.69067383 17.40524864 64 68 69
245864.10900879 3357372.38119507 17.55060577 52 52 52
245858.29376221 3357373.16751099 17.37871361 78 79 81
245862.45227051 3357371.60391235 17.40660095 142 143 138
245867.07019043 3357371.83023071 17.61450577 34 32 35
245871.12805176 3357371.65927124 17.38236618 34 34 34
245857.99060059 3357372.04571533 17.58869553 90 95 99
245858.27069092 3357372.63000488 17.36398125 95 95 93
245864.21484375 3357372.03131104 17.59028625 48 50 49
245854.97998047 3357372.69726563 17.98682022 155 153 156
245870.30889893 3357371.85214233 17.38570023 60 66 56
245871.06060791 3357371.72613525 17.38183022 56 56 56
245862.25500488 3357372.17782593 17.47709274 109 108 103
245861.13214111 3357371.74679565 17.53795242 18 22 23
245866.70117188 3357371.93264771 17.60403061 109 110 114
245857.73541260 3357371.64169312 17.64438057 121 117 108
245869.24945068 3357371.25045776 17.51376534 68 70 67
245863.68542480 3357371.32327271 17.12240028 143 140 133
245862.07275391 3357371.90554810 17.82115364 79 81 76
245856.61798096 3357372.81170654 17.65652275 56 56 58
245858.42822266 3357372.98449707 17.33116913 51 53 52
245857.21307373 3357371.28930664 17.39006996 129 131 126
245869.68048096 3357372.14706421 17.42494392 37 30 24
245864.22961426 3357372.15542603 17.54696465 51 53 52
245865.78961182 3357372.22079468 17.29773331 81 81 79
245854.83557129 3357371.98916626 17.65316772 91 92 87
245865.20092773 3357371.92614746 17.59948921 50 52 51
245856.27911377 3357371.32455444 17.31384659 119 124 130
245856.05212402 3357372.61184692 17.46402359 110 111 106
245853.15185547 3357371.87295532 17.63409233 123 136 142
245859.50250244 3357371.89868164 17.36563110 63 65 64
245857.73120117 3357372.64022827 17.64451027 59 64 60
245867.93310547 3357372.05508423 17.58487511 64 69 73
245855.75616455 3357371.48529053 17.59759712 136 139 144
245866.44384766 3357372.86471558 17.43452263 67 69 64
245855.14581299 3357372.76473999 17.96446609 122 121 119
245868.07733154 3357372.28237915 17.68917084 79 79 77
245861.83142090 3357371.91174316 17.85754204 109 111 100
245866.80511475 3357372.69012451 17.38443756 72 74 69
245869.88061523 3357371.82409668 17.31861687 30 35 31
245865.21331787 3357372.55990601 17.77202415 11 11 9
245859.81524658 3357371.98950195 17.40371132 52 56 59
245853.76251221 3357371.97201538 17.62314415 97 97 95
245859.05926514 3357373.26770020 17.48959160 79 79 77
245863.61236572 3357371.62030029 17.68526459 217 216 212
245860.71563721 3357372.05822754 17.59892464 121 122 116
245857.91607666 3357373.02832031 17.39253616 18 19 13
245867.08532715 3357372.80041504 17.43412590 140 142 139
245855.51489258 3357372.39483643 17.96925163 122 125 118
245865.50347900 3357371.40728760 17.23228836 104 101 92
245869.53723145 3357372.07373047 17.46738052 141 132 117
245865.31103516 3357372.10086060 17.62430763 57 58 60
245867.09820557 3357372.11499023 17.55033302 90 92 91
245855.12609863 3357372.49609375 18.00542259 120 116 115
245859.62847900 3357372.05950928 17.37709427 62 63 67
245855.10644531 3357372.17687988 17.79042625 92 91 86
245867.95959473 3357371.93359375 17.62844658 48 52 53
245861.04437256 3357372.27044678 17.74252701 97 96 92
245855.61743164 3357372.62896729 17.90650558 42 42 44
245856.27575684 3357371.96878052 17.69347191 33 36 41
245860.39373779 3357372.83261108 17.54181099 40 42 39
245854.47839355 3357371.83621216 17.43912697 92 92 94
245854.89501953 3357372.18362427 17.71619797 59 59 57
245857.48730469 3357371.46139526 17.51987076 139 140 134
245863.61065674 3357371.49728394 17.57816505 168 169 173
245858.21722412 3357373.18234253 17.38417435 84 84 84
245867.00366211 3357371.68756104 17.66580772 49 48 53
245856.07458496 3357371.97073364 17.70492363 75 76 80
245859.48504639 3357372.81097412 17.39024544 67 67 69
245860.16174316 3357372.81304932 17.45263863 45 47 46
245867.01727295 3357371.31835938 17.48262024 93 95 94
245869.60687256 3357371.66610718 17.48846817 24 26 23
245854.05041504 3357372.44436646 17.53218651 78 78 80
245859.41156006 3357371.58926392 17.27865028 92 92 92
245853.79608154 3357372.14004517 17.62304115 123 123 125
245855.59979248 3357372.58129883 17.94978333 85 87 86
245864.69476318 3357371.66140747 17.42527962 61 65 66
245853.35705566 3357371.98846436 17.57807159 57 63 63
245870.99053955 3357371.40228271 17.20129776 44 42 43
245856.08190918 3357373.07678223 17.44331932 114 115 107
245855.66802979 3357371.84786987 17.90508652 89 94 97
245867.28967285 3357371.58364868 17.74357986 87 85 86
245855.68853760 3357372.93618774 17.46991730 120 121 115
245855.78088379 3357371.38409424 17.44620132 124 127 132
245870.79956055 3357372.10769653 17.37667465 48 54 42
245861.15655518 3357371.53317261 17.43856812 36 37 39
245853.01477051 3357372.38677979 17.64012718 89 90 92
245870.63006592 3357371.39328003 17.39338303 124 124 114
245867.52380371 3357372.20526123 17.44121742 115 116 118
245856.30761719 3357372.75711060 17.53019524 88 88 88
245858.72857666 3357371.56237793 17.22067642 106 106 104
245861.94311523 3357371.67901611 17.54647827 125 125 123
245865.13861084 3357371.94030762 17.57557487 73 75 74
245871.00885010 3357371.58135986 17.26384354 55 54 50
245860.00939941 3357372.67608643 17.43745422 9 11 10
245864.30139160 3357371.21310425 17.32143784 108 109 104
245867.74481201 3357372.13861084 17.57441711 67 71 74
245856.26049805 3357372.84930420 17.46561241 76 77 72
245853.95953369 3357371.86068726 17.69219208 52 47 43
245863.66278076 3357372.07015991 17.56820679 74 70 69
245867.27917480 3357372.66162109 17.46788788 93 95 92
245866.68334961 3357371.54348755 17.55757523 106 109 102
245866.41491699 3357372.51663208 17.51235580 55 59 60
245861.26068115 3357371.65805054 17.44399643 54 56 55
245857.28564453 3357371.40039063 17.47046852 134 135 129
245863.02941895 3357372.27886963 17.56042290 187 186 182
245856.91180420 3357372.40353394 17.64532089 83 83 83
245860.10510254 3357372.47570801 17.37893295 28 33 29
245865.51654053 3357372.49087524 17.48774529 102 94 92
245855.68444824 3357372.56738281 17.76635170 138 152 155
245861.00830078 3357371.60513306 17.49436951 64 64 64
245867.10540771 3357371.43328857 17.68753242 64 64 64
245856.66754150 3357372.21502686 17.58539009 72 72 70
245862.12176514 3357371.45578003 17.33285522 85 85 87
245866.39172363 3357372.54968262 17.52185249 48 52 53
245861.72552490 3357371.45922852 17.29740334 124 126 123
245865.71563721 3357371.30914307 17.17455101 118 119 105
245863.43731689 3357371.46105957 17.26764107 86 83 76
245856.20428467 3357372.09225464 17.65382385 60 60 62
245856.87072754 3357372.35385132 17.64031410 83 85 84
245871.14147949 3357371.47805786 17.28989601 118 115 108
245865.88574219 3357372.55307007 17.44779015 78 79 74
245861.23059082 3357372.06692505 17.57209778 159 159 157
245857.54608154 3357372.34899902 17.56257820 106 111 105
245864.02947998 3357372.37808228 17.56466293 58 60 59
245868.02795410 3357372.27294922 17.66815567 75 75 73
245868.79742432 3357371.81674194 17.58794403 47 57 49
245853.91174316 3357372.43515015 17.45253754 103 102 100
245868.16638184 3357371.24008179 17.62843513 82 86 85
245861.29974365 3357371.59909058 17.40224457 69 73 74
245864.82141113 3357371.26074219 17.21807289 134 135 129
245871.01849365 3357371.66363525 17.31358337 49 48 44
245856.96844482 3357372.49572754 17.62241554 73 73 73
245866.32916260 3357371.39852905 17.20340347 124 135 103
245857.86840820 3357372.97296143 17.39435005 62 62 60
245863.86724854 3357372.24288940 17.60062981 49 53 52
245870.90057373 3357371.55615234 17.25571442 54 52 53
245870.26348877 3357372.11221313 17.49252892 47 53 43
245855.13916016 3357372.43023682 17.97227097 104 99 96
245864.23236084 3357371.14907837 17.27054596 106 111 104
245863.25988770 3357371.95974731 17.51996231 48 52 55
245866.56329346 3357372.15014648 17.54341698 95 96 98
245856.68762207 3357371.48483276 17.43835068 109 110 105
245858.95965576 3357372.94943237 17.52793503 40 41 36
245857.89056396 3357371.28097534 17.49687386 125 125 123
245859.07690430 3357373.06875610 17.60398674 58 58 56
245863.10736084 3357372.00848389 17.55152321 26 30 31
245863.79846191 3357371.29223633 17.23488235 148 145 136
245858.94787598 3357371.44467163 17.23040771 98 100 97
245870.10601807 3357372.12026978 17.40135193 58 61 52
245860.47143555 3357372.12881470 17.46547890 87 87 85
245859.16137695 3357371.66784668 17.36152267 78 77 75
245869.73010254 3357371.47537231 17.29346275 30 30 30
245866.09912109 3357372.12493896 17.51357269 70 74 75
245858.74609375 3357373.46734619 17.40437317 59 61 56
245866.78240967 3357372.34069824 17.51786613 82 84 83
245855.16461182 3357371.70910645 17.59771729 120 120 118
245859.75054932 3357372.13674927 17.36099243 41 42 46
245868.71075439 3357371.21594238 17.69876099 36 42 42
245855.16333008 3357371.82406616 17.64567757 117 118 113
245861.84130859 3357371.97781372 17.92105484 108 108 98
245860.42724609 3357372.14892578 17.45614624 73 75 74
245854.58538818 3357371.80856323 17.47026062 97 97 95
245857.10021973 3357372.71105957 17.57187462 101 102 97
245865.13055420 3357372.37225342 17.54195213 71 70 68
245858.87677002 3357373.26181030 17.43512917 63 65 64
245866.62628174 3357371.51852417 17.52991676 109 108 103
245866.62701416 3357372.05352783 17.58383942 115 116 118
245862.44720459 3357372.04913330 17.38796616 122 121 117
245858.40655518 3357372.70114136 17.34925842 94 94 94
245856.86499023 3357372.25018311 17.66064835 88 90 89
245866.34582520 3357372.03399658 17.61416626 36 42 42
245859.52038574 3357371.58627319 17.26168060 96 96 94
245860.59234619 3357371.89129639 17.44277191 97 97 95
245862.84973145 3357371.67160034 17.40368843 121 114 106
245870.14172363 3357372.15927124 17.44699287 129 130 122
245867.88812256 3357372.28222656 17.66415405 22 26 25
245868.95007324 3357371.40698242 17.60086632 57 58 53
245854.48486328 3357371.68121338 17.36912727 117 117 115
245858.39007568 3357371.60116577 17.25478363 123 123 121
245857.16174316 3357371.60086060 17.52216530 89 90 85
245853.63085938 3357372.31127930 17.56913948 111 113 112
245857.83618164 3357371.28454590 17.51143646 115 115 113
245857.87927246 3357372.67208862 17.78635597 70 71 75
245854.59802246 3357371.92202759 17.52864456 91 89 92
245862.83294678 3357371.51495361 17.37275124 162 135 124
245865.77325439 3357372.44827271 17.36466026 75 74 69
245858.94665527 3357371.86016846 17.43519974 71 68 61
245855.26379395 3357372.19787598 17.84701920 112 111 106
245865.87744141 3357372.47262573 17.40604782 74 74 66
245867.18865967 3357371.92819214 17.54238510 89 89 87
245857.46844482 3357371.91275024 17.61749458 100 102 99
245868.07281494 3357372.00744629 17.59230995 82 83 85
245862.54150391 3357371.84539795 17.40262604 182 181 179
245865.62573242 3357372.65570068 17.42943954 57 56 52
245868.92529297 3357371.96096802 17.48920822 63 76 46
245868.84844971 3357371.76010132 17.56533432 48 56 45
245857.42144775 3357371.18984985 17.42837334 137 142 138
245867.33233643 3357372.46868896 17.44995308 110 111 106
245853.44781494 3357372.61947632 17.57845879 98 98 96
245854.27069092 3357372.25164795 17.80334663 76 83 93
245865.25885010 3357371.74487305 17.55121231 75 75 75
245860.25622559 3357372.35681152 17.39244461 59 63 64
245858.07745361 3357372.36004639 17.48236656 53 57 58
245860.61364746 3357371.25317383 17.34717560 101 105 108
245858.71386719 3357372.81668091 17.42490196 96 96 96
245863.11145020 3357372.26669312 17.54683495 49 50 44
