245680.61413574 3357452.02639771 18.50447845 65 73 76
245681.56231689 3357450.47012329 18.64942360 117 125 128
245680.63006592 3357451.33404541 18.73498726 55 63 66
245679.60760498 3357450.83380127 18.45336723 43 50 56
245680.45410156 3357451.40567017 18.48482323 66 72 72
245676.28302002 3357451.08963013 18.60902786 24 32 35
245681.74200439 3357450.60354614 18.73130035 15 20 26
245682.95416260 3357451.01919556 18.44152641 36 44 46
245677.44885254 3357451.71710205 18.41380692 64 71 77
245681.16754150 3357451.84143066 18.48140907 59 69 71
245681.79467773 3357450.56961060 18.67586899 14 19 23
245681.83441162 3357451.87771606 18.51061249 55 60 63
245679.20776367 3357451.40487671 19.07570457 18 26 29
245682.17193604 3357450.79629517 18.44895172 30 40 41
245676.44726563 3357450.31686401 18.48237419 50 58 61
245683.03112793 3357451.25851440 21.86554718 22 39 29
245679.47900391 3357451.39962769 18.56977654 32 36 37
245680.31335449 3357450.54571533 18.41754723 46 56 58
245683.20318604 3357451.53952026 18.77483177 19 27 30
245679.58624268 3357451.13742065 18.49237061 41 49 52
245682.86987305 3357450.62023926 18.42155075 36 45 42
245683.13195801 3357451.50897217 18.49980545 39 45 45
245682.71405029 3357451.51885986 21.03214264 32 45 36
245676.37518311 3357451.11422729 18.55522728 30 38 41
245680.24078369 3357450.69952393 18.41145897 47 57 59
245678.87219238 3357450.80987549 18.71931648 26 31 34
245678.87561035 3357450.75833130 18.66035461 24 29 33
245682.99157715 3357451.67404175 18.44889832 36 45 42
245680.01672363 3357451.85656738 18.38267899 81 88 94
245680.68847656 3357451.71188354 19.03318787 28 34 32
245680.31909180 3357451.67904663 18.42475128 54 59 63
245676.27337646 3357451.82034302 18.58300591 33 38 44
245682.89837646 3357451.53097534 18.44753075 35 45 44
245676.32861328 3357451.86795044 18.48713875 38 43 47
245681.64300537 3357450.67749023 18.79579163 27 34 40
245681.43743896 3357451.16766357 18.57914543 40 49 54
245682.44042969 3357451.70791626 20.97102356 5 16 12
245683.20184326 3357451.55395508 18.74263000 16 24 27
245681.67523193 3357451.73168945 18.63197136 27 31 34
245679.02294922 3357451.50195313 18.72629738 45 50 54
245682.29034424 3357451.64181519 18.53794479 28 36 38
245681.49835205 3357451.39675903 18.64275360 39 49 51
245680.31494141 3357451.46591187 18.42513084 52 59 65
245681.95306396 3357451.88247681 18.51139069 60 65 71
245679.94744873 3357450.68444824 18.43219376 47 55 58
245679.18804932 3357451.38018799 18.98010635 13 20 26
245682.87646484 3357450.64517212 18.42556953 37 46 43
245682.77941895 3357451.51690674 20.93748474 23 34 28
245675.93017578 3357451.83346558 18.92231750 35 28 35
245682.95166016 3357451.20156860 21.68121338 17 32 25
245682.71606445 3357451.35922241 22.84819412 8 25 15
245676.07647705 3357450.17315674 18.45347023 95 104 113
245681.82672119 3357451.83563232 18.53712273 55 63 65
245679.75451660 3357451.18692017 18.44412422 43 48 52
245681.40667725 3357451.52941895 18.66214561 42 51 50
245679.04547119 3357452.08456421 18.43383980 58 68 70
245680.65234375 3357451.81588745 18.60971260 47 52 55
245680.45172119 3357451.53475952 18.46734238 58 66 68
245680.75476074 3357451.48837280 19.16790009 26 31 34
245679.20397949 3357450.91046143 18.56192207 33 36 41
245678.43975830 3357451.04003906 18.53486633 58 63 67
245678.44622803 3357451.10736084 18.50542259 68 71 76
245680.16619873 3357451.61505127 18.39826012 30 40 42
245676.08923340 3357451.72381592 18.94769859 40 41 45
245679.85894775 3357451.73941040 18.38446808 18 26 28
245678.48382568 3357451.84976196 18.36855125 50 60 62
245682.01275635 3357451.51034546 18.61182976 18 26 29
245683.25494385 3357450.53509521 18.75948334 19 23 22
245683.15264893 3357450.94906616 18.85200691 14 15 17
245680.67474365 3357451.70748901 18.73151588 40 50 51
245676.14025879 3357450.37881470 18.49932098 48 55 61
245676.45220947 3357451.58541870 18.56902504 39 43 46
245681.65295410 3357451.44671631 18.91616440 28 38 47
245678.85467529 3357451.39590454 18.54388046 51 56 59
245680.89459229 3357451.71270752 18.97436905 61 73 61
245683.18835449 3357450.69638062 18.57669258 14 20 20
245680.20971680 3357450.43322754 18.43177032 47 57 59
245679.23559570 3357451.87979126 18.43227577 76 83 89
245683.02447510 3357451.56585693 18.44065857 29 39 38
245683.46252441 3357451.27508545 19.10082436 12 20 23
245683.14837646 3357450.88656616 18.99397659 17 18 22
245679.29431152 3357452.07666016 18.45394707 59 68 75
245676.39514160 3357450.58700562 18.57145500 43 50 56
245682.30413818 3357451.76889038 21.02236366 5 17 15
245683.18621826 3357450.85574341 19.07627678 89 90 95
245678.57238770 3357450.80697632 18.90651321 92 96 99
245678.83013916 3357450.95971680 19.03406715 84 89 93
245680.26348877 3357450.43334961 18.43014717 51 61 63
245676.25250244 3357450.99526978 18.66332054 22 27 33
245680.78991699 3357451.81210327 19.11520958 15 24 19
245676.49346924 3357452.10220337 18.40591049 90 95 101
245676.49755859 3357450.62170410 18.56724358 36 43 49
245679.70941162 3357451.80099487 18.38304329 62 67 73
245683.23559570 3357450.71569824 19.12122154 61 65 68
245678.96051025 3357451.12573242 19.03246498 40 45 51
245682.97418213 3357451.38070679 21.03417206 18 31 24
245677.49865723 3357452.16183472 18.43464661 50 61 67
245679.17419434 3357451.73776245 19.04017639 19 23 26
245675.82415771 3357452.07089233 18.42201042 87 96 105
245681.77929688 3357450.86990356 18.73111343 36 44 47
245675.92144775 3357451.62451172 18.94274330 43 32 40
245680.43457031 3357450.93014526 18.41107941 53 60 66
245681.62731934 3357450.57012939 18.75321770 38 45 51
245678.71313477 3357451.43688965 18.44581795 48 56 58
245680.49932861 3357452.02935791 18.48544693 85 92 98
245681.61633301 3357451.38830566 19.07721519 20 30 39
245681.74426270 3357451.07232666 18.78801155 27 34 40
245679.52502441 3357451.08508301 18.50172234 33 40 46
245681.61968994 3357451.70242310 18.72154999 39 42 47
245679.32641602 3357451.48583984 18.82374573 30 34 35
245678.63470459 3357451.72894287 18.39027023 54 61 67
245679.11212158 3357451.70989990 18.81024551 66 70 73
245681.03369141 3357451.41659546 18.83238411 45 54 53
245681.74884033 3357451.73785400 18.60826302 13 18 22
245679.05755615 3357451.68148804 18.89791679 59 64 67
245681.71124268 3357451.24798584 18.91905975 38 53 60
245678.85485840 3357451.96917725 18.40391159 85 92 100
245679.56610107 3357451.25061035 18.50257683 32 40 42
245676.25000000 3357451.56042480 18.75566292 22 25 30
245682.88232422 3357451.41098022 21.04724693 16 29 22
245675.90417480 3357451.67114258 18.74672318 38 31 39
245678.53491211 3357450.96267700 18.63235283 47 52 56
245681.68096924 3357451.28945923 19.14303970 14 29 34
245682.41528320 3357451.24380493 18.45954132 42 52 53
245676.16290283 3357452.10891724 18.43816566 95 99 108
245680.88604736 3357451.78970337 18.60468674 54 57 62
245683.23406982 3357450.60577393 18.79362869 89 95 95
245675.88403320 3357450.71646118 18.57247543 84 94 106
245681.93725586 3357450.67108154 18.58839417 24 32 35
245676.87426758 3357452.00491333 18.36978722 95 102 112
245681.84576416 3357451.74145508 18.60919571 24 32 35
245680.43914795 3357450.59939575 18.40356064 49 56 62
245676.21954346 3357452.11968994 18.44162750 71 78 84
245676.37860107 3357450.16561890 18.47123146 61 69 72
245680.89453125 3357451.93170166 18.49527931 55 59 62
245677.32415771 3357452.00497437 18.38800812 88 96 99
245679.11749268 3357451.87518311 18.43360901 80 85 91
245679.22351074 3357451.72317505 18.71668053 45 46 50
245678.87939453 3357451.16445923 19.04888344 54 55 60
245682.37976074 3357450.96752930 18.42271805 39 49 51
245681.39819336 3357451.29455566 18.63184166 36 46 48
245676.69970703 3357451.88189697 18.40545845 29 32 37
245682.37469482 3357451.84939575 18.51784706 53 62 61
245681.29046631 3357451.57992554 18.64506531 37 42 45
245676.13421631 3357451.05471802 18.76803589 21 24 33
245681.45318604 3357451.63528442 18.62616158 43 48 51
245683.12823486 3357451.25543213 18.50629234 28 33 36
245681.80877686 3357451.53076172 18.75789833 7 12 16
245679.86608887 3357451.81857300 18.37978172 64 72 75
245680.76934814 3357450.59121704 18.54375839 43 48 51
245676.49963379 3357451.48080444 18.54543877 39 44 48
245678.94183350 3357451.04309082 18.94910622 32 40 42
245681.38983154 3357450.83056641 18.51384926 48 53 56
245678.37261963 3357451.37771606 18.44128609 54 57 62
245681.09362793 3357451.90283203 18.44083977 50 55 59
245682.75030518 3357450.76644897 18.43102264 44 49 52
245676.40045166 3357451.71301270 18.63604927 37 41 44
245676.40002441 3357451.01052856 18.58698654 31 41 42
245678.80181885 3357451.20742798 18.53378868 46 51 55
245678.71075439 3357452.04336548 18.43286514 94 103 108
245679.07745361 3357451.99798584 18.40601730 78 86 89
245678.66833496 3357451.70974731 18.39392853 53 60 66
245678.64776611 3357451.36242676 18.45396614 56 61 65
245681.96136475 3357450.86294556 18.56411362 22 32 33
245678.99768066 3357451.68597412 19.14393997 69 73 76
245683.64605713 3357450.97027588 18.96044731 15 20 23
245682.54730225 3357451.59689331 21.15694046 22 38 27
245679.47467041 3357450.95355225 18.48841858 40 45 51
245681.35498047 3357450.68133545 18.48244858 42 47 50
245681.68896484 3357450.66690063 18.79894447 11 18 24
245682.39147949 3357451.64187622 18.51092148 40 49 48
245679.71868896 3357451.03906250 18.45563507 41 51 53
245677.48260498 3357451.79342651 18.37962723 62 69 75
245676.69604492 3357452.16378784 18.43780899 49 58 63
245682.35015869 3357451.24362183 18.47127724 33 43 44
245683.15185547 3357450.96807861 19.03297234 16 19 24
245679.44366455 3357450.79959106 18.47344971 34 39 43
245682.30523682 3357451.78326416 20.99543953 4 16 12
245681.91186523 3357451.43295288 18.60616302 26 29 34
245682.65112305 3357451.44427490 21.43672943 14 30 19
245676.02587891 3357451.68707275 19.09471130 33 32 38
245679.14483643 3357451.71649170 18.72381210 68 72 75
245679.59497070 3357451.32397461 18.49409103 36 41 44
245678.65924072 3357450.92642212 18.90723419 127 132 138
245679.00512695 3357451.64916992 19.01139832 45 50 54
245679.11743164 3357451.32675171 19.07222366 29 38 43
245677.01452637 3357451.80416870 18.41101646 68 73 77
245678.38604736 3357452.05252075 18.40318680 59 64 70
245682.31750488 3357451.19699097 18.47426796 35 45 47
245682.29675293 3357451.94158936 18.51475716 45 55 56
245675.97637939 3357450.26193237 18.46139908 96 104 117
245676.27142334 3357450.05181885 18.46178055 45 53 56
245680.18096924 3357451.27142334 18.39293671 58 61 66
245678.33471680 3357451.49194336 18.42371368 51 54 59
245681.65716553 3357451.28857422 18.72000504 17 28 32
245682.96209717 3357451.35488892 21.08826828 17 30 23
245678.68450928 3357450.82934570 18.97252274 122 126 129
245683.15899658 3357451.10574341 18.49386978 32 37 40
245682.61999512 3357450.51983643 18.39578629 63 68 72
245676.35070801 3357452.04824829 18.39484787 80 84 93
245678.90942383 3357450.58135986 18.53221130 35 44 49
245682.09814453 3357451.56735229 18.59059906 24 34 36
245680.67077637 3357451.44366455 18.94819260 65 68 73
245678.08831787 3357451.71298218 18.40978241 54 61 67
245681.86669922 3357451.92947388 18.48565483 60 63 68
245679.26086426 3357450.97601318 18.55506897 30 35 39
245675.71093750 3357451.74987793 18.40688133 49 52 59
245681.86499023 3357451.25082397 18.55562973 20 27 33
245683.17895508 3357451.19165039 19.07710648 14 22 25
245678.37103271 3357451.60192871 18.40671158 48 51 56
245683.13690186 3357451.21484375 21.21875191 5 16 10
245683.19860840 3357451.18069458 18.68906784 18 23 26
245678.93768311 3357451.41513062 18.60520554 95 99 100
245683.18951416 3357450.79415894 18.78291321 88 89 91
245679.00885010 3357451.75823975 18.43723297 54 62 65
245680.14349365 3357452.05462646 18.45745277 73 82 87
245683.43731689 3357450.89788818 19.13356400 13 21 23
245676.26763916 3357450.61331177 18.58529663 32 41 46
245682.62658691 3357451.34628296 23.30877495 16 40 16
245681.70288086 3357451.04336548 18.89841652 27 36 41
245675.91308594 3357451.63882446 18.73530960 41 31 40
245675.96038818 3357451.10113525 18.87863159 90 104 117
245675.78564453 3357451.81649780 18.43830872 54 62 65
245683.71514893 3357450.82330322 18.91775322 11 16 19
245679.33929443 3357451.36407471 18.69549751 26 30 31
245681.54980469 3357451.46112061 18.68675613 44 52 54
245681.71905518 3357451.36950684 18.94170570 38 52 61
245680.75860596 3357451.25234985 18.89656067 20 26 40
245675.83142090 3357451.24359131 18.54109001 48 56 59
245676.03735352 3357450.18667603 18.45287704 98 107 116
245681.96405029 3357451.82574463 18.52675438 56 64 67
245681.72949219 3357451.18389893 18.73687553 43 53 63
245679.64422607 3357452.00015259 18.41910172 102 110 113
245675.86804199 3357451.97772217 18.43844604 86 91 95
245682.80224609 3357451.33267212 22.78488731 7 25 13
245679.16912842 3357451.74163818 18.93516731 47 48 50
245681.58154297 3357451.64187622 18.79261208 7 12 16
245679.13159180 3357450.58343506 18.46524429 36 41 45
245676.39440918 3357450.48876953 18.53250313 43 50 56
245682.24169922 3357451.14636230 18.47001457 32 42 44
245678.64251709 3357451.83068848 18.37923813 46 53 59
245681.68914795 3357451.33038330 18.82236862 57 68 72
245679.73358154 3357451.13809204 18.45732307 44 54 56
245682.66717529 3357451.39703369 22.84122086 7 25 13
245676.11407471 3357451.20248413 18.88601303 48 51 66
245682.37225342 3357451.29537964 18.47183800 35 47 47
245681.43090820 3357450.88629150 18.53470612 35 43 45
245681.65606689 3357451.16387939 18.70573425 12 25 31
245676.22412109 3357450.57363892 18.56427193 38 45 51
245682.78875732 3357451.15725708 18.44725609 31 41 42
245683.18151855 3357451.06842041 19.06372261 24 29 33
245683.77581787 3357450.78295898 18.88117599 11 17 17
245680.18505859 3357450.59539795 18.42668724 46 54 57
245679.46435547 3357451.41372681 18.57971954 32 36 37
245676.18078613 3357451.68737793 18.78761673 74 75 77
245679.96740723 3357451.39251709 18.40950012 27 32 36
245683.16021729 3357450.99038696 18.83403206 5 9 10
245676.06518555 3357450.89086914 18.88057709 17 26 35
245681.56396484 3357451.67456055 18.71672058 44 49 52
245683.45819092 3357450.78479004 19.13080406 15 20 23
245680.56323242 3357450.85366821 18.44935417 51 58 64
245680.93518066 3357451.61096191 18.93990326 27 38 32
245678.71594238 3357452.08755493 18.44229698 64 73 78
245676.23431396 3357451.64395142 18.77634621 38 37 42
245680.89874268 3357450.89559937 18.61224174 20 25 29
245678.73498535 3357450.86764526 18.98867989 92 93 95
245676.21136475 3357450.55941772 18.55790901 42 47 51
245676.27191162 3357450.72637939 18.66690254 23 32 37
245679.84155273 3357451.64474487 18.39222908 29 33 36
245676.48150635 3357450.73330688 18.58253288 35 44 49
245682.79193115 3357451.39678955 21.79502487 11 29 17
245679.32806396 3357451.63891602 18.71900177 16 20 21
245676.02557373 3357451.33999634 18.89129257 58 68 78
245675.89447021 3357451.77761841 18.87358093 72 62 71
245683.16674805 3357450.83258057 18.89328384 34 35 37
245678.95556641 3357451.37982178 18.71938515 26 31 35
245679.15606689 3357451.55557251 19.23827744 0 0 4
245682.68762207 3357451.00411987 18.44484138 36 42 42
245682.27227783 3357451.50057983 18.52552605 27 37 38
245681.53350830 3357451.80654907 18.53043365 36 46 48
245675.89868164 3357451.13226318 18.65814972 82 91 106
245683.18408203 3357451.54251099 18.57122231 27 32 36
245683.18164063 3357450.95803833 19.08892441 38 43 47
245676.10784912 3357451.66027832 18.97391510 60 58 63
245678.92126465 3357451.07736206 19.05364418 56 59 64
245679.60040283 3357452.01324463 18.42508888 83 90 96
245680.23980713 3357451.20092773 18.38915825 62 67 73
245680.45922852 3357450.43386841 18.43334389 51 58 64
245679.05023193 3357451.61193848 18.71994591 35 39 42
245678.66333008 3357450.69210815 18.91533661 40 40 42
245683.10968018 3357451.12161255 18.47981071 29 35 35
245676.02832031 3357451.86541748 18.91549110 30 30 32
245681.27014160 3357451.49884033 18.66986084 36 46 47
245680.90606689 3357451.87487793 18.48313141 67 70 75
245676.22558594 3357451.28109741 18.62624168 17 24 32
245682.66778564 3357451.53604126 21.05873108 34 46 36
245676.06787109 3357451.79580688 18.77883720 71 72 76
245682.30657959 3357451.74243164 21.34177399 8 26 14
245679.43725586 3357451.67294312 18.48287773 22 26 29
245681.38873291 3357451.08486938 18.56743431 39 49 50
245679.45544434 3357450.94512939 18.49069595 41 44 51
245682.74487305 3357451.33755493 18.44514656 33 43 44
245676.29797363 3357451.76129150 18.66640663 38 43 47
245683.50207520 3357451.31283569 19.08051300 12 20 23
245683.20043945 3357451.42410278 18.77723503 22 30 33
245675.84136963 3357451.26556396 18.54863548 59 67 70
245682.67596436 3357451.40475464 21.63090897 14 30 19
245678.43585205 3357451.88058472 18.36367226 80 85 89
245680.16253662 3357451.18847656 18.38925362 50 55 61
245679.29254150 3357450.99172974 18.54718018 34 39 43
245676.14215088 3357450.18487549 18.45640755 53 62 67
245675.96704102 3357451.53103638 19.04592705 6 11 17
245679.86242676 3357450.66668701 18.43528366 47 55 58
245682.68585205 3357451.07763672 18.44686699 35 40 43
245683.19146729 3357451.13143921 18.71604919 34 40 40
245676.12780762 3357451.90991211 18.44960785 34 39 43
245682.69445801 3357451.58572388 20.90639496 10 21 17
245676.13085938 3357450.92520142 18.84193993 6 11 15
245675.88635254 3357451.50384521 18.52903748 56 59 64
245676.15490723 3357449.70101929 18.45093536 40 47 53
245679.26446533 3357451.71469116 18.83249092 25 29 30
245682.19390869 3357451.10107422 18.47273827 26 34 37
245682.40618896 3357451.56134033 18.49716187 37 46 43
245682.29125977 3357450.94549561 18.42967987 24 34 35
245681.60821533 3357451.52322388 18.82161713 28 38 40
245677.97601318 3357451.75231934 18.41154671 53 61 64
245682.13305664 3357450.97039795 18.46559715 20 28 31
245678.72692871 3357451.97613525 18.41643906 92 99 105
245678.07476807 3357452.02859497 18.40839577 67 75 78
245680.73205566 3357450.35946655 18.51361847 53 57 58
245681.61016846 3357451.26742554 18.67046928 38 47 54
245682.55596924 3357451.61224365 21.03502464 15 28 19
245683.15966797 3357451.33831787 20.97481918 9 21 17
245683.11523438 3357451.14370728 21.75688934 18 34 24
245681.35369873 3357450.79489136 18.49880028 47 55 57
245676.55456543 3357450.62811279 18.55361176 40 48 51
245683.15234375 3357450.95794678 18.61411285 18 22 25
245675.95117188 3357451.10952759 18.81665230 94 107 123
245680.96051025 3357451.50271606 18.91748810 34 43 40
245682.50524902 3357451.05636597 18.44641876 55 63 66
245683.72930908 3357450.78161621 18.91446877 11 15 16
245676.10540771 3357451.12902832 18.79240036 41 43 56
245682.95056152 3357450.85925293 18.43865395 43 48 51
245681.62322998 3357451.40060425 19.03065109 35 48 57
245680.56066895 3357451.27600098 18.57969856 61 66 69
245676.08142090 3357451.46600342 19.01307487 2 12 14
245682.37097168 3357451.71765137 21.69968796 22 40 26
245682.68615723 3357451.42224121 21.36951828 21 34 24
245681.22235107 3357450.93334961 18.54905891 35 43 45
245675.97363281 3357450.47088623 18.51215553 96 103 111
245682.45526123 3357451.60455322 18.49544334 43 49 49
245676.10638428 3357451.23104858 18.89394379 49 55 69
245683.18872070 3357451.27935791 18.79069519 20 25 29
245683.54211426 3357450.74307251 19.08383369 14 18 21
245676.51593018 3357451.16806030 18.53733826 39 44 48
245682.42156982 3357451.76040649 20.89302635 6 17 13
245679.83984375 3357451.99026489 18.40666771 95 100 106
245681.91754150 3357451.07952881 18.52995300 17 22 26
245681.64086914 3357451.44897461 18.72730255 35 45 47
245682.10662842 3357451.80810547 21.23822212 23 34 26
245679.06958008 3357451.63378906 19.18402290 30 33 38
245677.72650146 3357452.13183594 18.41169739 67 76 81
245676.21563721 3357450.50976563 18.53605843 48 53 57
245681.56140137 3357451.60952759 18.82567406 22 27 31
245682.64825439 3357450.52862549 18.39831543 48 56 59
245682.32061768 3357451.37570190 18.49628448 32 42 43
245682.09863281 3357451.49273682 18.57931900 20 30 31
245682.58081055 3357451.38150024 23.10048294 19 43 19
245675.93969727 3357450.96734619 18.77164078 64 79 98
245680.75561523 3357451.91525269 18.65488243 48 53 56
245682.80999756 3357451.26522827 22.88501167 8 26 14
245681.65460205 3357451.40158081 19.28568268 24 39 46
245683.11242676 3357451.32836914 21.02641678 10 23 16
245680.09741211 3357450.59741211 18.43026543 52 57 63
245681.74371338 3357451.20703125 18.68466377 43 53 63
245679.15631104 3357450.73730469 18.51114464 32 37 41
245683.64062500 3357450.73348999 18.99471474 16 20 21
245682.59814453 3357451.52374268 21.39085007 12 28 17
245681.55889893 3357450.70626831 18.69299507 51 64 72
245680.42443848 3357450.80169678 18.38439178 63 70 76
245682.41577148 3357451.67086792 21.50821114 13 29 16
245680.93426514 3357451.39572144 18.95180702 58 68 67
245679.03979492 3357451.59228516 18.65539169 21 26 30
245679.46746826 3357450.50863647 18.45619392 38 48 50
245679.74310303 3357450.69244385 18.43811417 54 59 63
245680.59387207 3357451.69451904 18.59155655 45 53 55
245682.92596436 3357451.47775269 18.44305229 34 44 45
245675.83911133 3357451.72570801 18.53051949 65 70 74
245683.28100586 3357450.57192993 19.00705719 89 95 93
245679.00622559 3357451.50942993 18.87854004 12 17 23
245680.85681152 3357450.90106201 18.62620926 19 24 28
245679.37268066 3357451.57272339 18.63817978 20 20 22
245682.81848145 3357451.36871338 21.78282356 12 30 18
245682.84320068 3357451.46823120 18.44701576 33 43 44
245680.61090088 3357451.15753174 18.61623383 43 52 57
245679.07800293 3357451.18750000 18.85431671 44 54 56
245675.90692139 3357451.35659790 18.56279564 88 91 98
245683.13214111 3357450.88854980 18.50858307 28 32 35
245682.57574463 3357451.43994141 23.28066254 48 70 49
245681.01837158 3357451.50726318 18.82405090 22 31 28
245676.68518066 3357451.66592407 18.50057030 38 41 46
245680.60913086 3357451.60504150 18.73126030 39 49 50
245680.30419922 3357451.41897583 18.42038345 51 59 62
245680.21002197 3357451.86712646 18.40349770 84 89 95
245676.59289551 3357451.00354004 18.54643440 43 46 51
245681.55163574 3357451.99441528 18.49701500 64 74 76
245678.93713379 3357451.88247681 18.37739944 83 90 96
245676.51641846 3357451.50784302 18.54592514 38 43 47
245682.37933350 3357451.55676270 18.50334740 33 42 39
245676.72900391 3357451.63546753 18.50058556 38 41 46
245682.97900391 3357451.55441284 18.44334602 31 41 40
245680.04602051 3357450.59204102 18.43197441 51 58 64
245681.64581299 3357450.95230103 18.83296776 31 38 44
245682.46911621 3357450.51159668 18.39190674 58 66 69
245678.78662109 3357451.45751953 18.46282578 48 53 56
245678.68627930 3357451.60095215 18.41098595 48 56 58
245681.70007324 3357451.50802612 19.00912476 24 31 39
245678.91436768 3357450.99987793 18.94922066 34 39 42
245682.85083008 3357451.16235352 18.44652176 33 43 45
245676.58276367 3357451.24224854 18.53020477 41 46 50
245678.86254883 3357451.11840820 19.04340744 100 103 108
245680.62988281 3357451.63519287 18.79886627 36 44 46
245682.46044922 3357451.74563599 18.51090813 40 49 48
245680.01147461 3357450.74267578 18.42852974 54 63 68
245680.68304443 3357451.68893433 18.87907982 36 45 44
245680.88781738 3357451.93618774 18.50251198 72 77 80
245678.80065918 3357452.01550293 18.41889191 80 89 94
245682.91436768 3357450.73510742 18.44067383 37 42 45
245680.63220215 3357450.58782959 18.51397896 48 53 57
245681.89447021 3357451.64346313 18.69379425 24 27 32
245680.60742188 3357451.41531372 18.74544144 57 65 67
245679.20220947 3357451.37097168 18.92830086 14 19 25
245683.22998047 3357450.54000854 18.56515694 35 41 41
245682.29162598 3357450.72061157 18.40645599 28 38 40
245676.72650146 3357452.13867188 18.42302895 71 80 85
245682.39099121 3357451.70211792 21.21532249 4 20 9
245675.91070557 3357451.64990234 18.77000809 38 28 37
245681.99633789 3357451.43249512 18.58180618 23 28 31
245676.52001953 3357451.56381226 18.55032349 39 44 48
245676.01916504 3357451.11743164 18.91751862 86 98 112
245681.68524170 3357451.52050781 19.02007103 14 21 29
245678.53698730 3357451.91561890 18.36165619 96 103 111
245682.18823242 3357450.64068604 18.45259666 31 39 41
245681.77191162 3357450.71606445 18.73010826 8 16 19
245676.32885742 3357449.53720093 18.45454216 48 55 61
245679.11383057 3357450.90811157 18.59565163 31 35 38
245676.38439941 3357449.54403687 18.45797539 55 62 68
245683.05297852 3357451.20349121 18.47329712 30 38 40
245680.11492920 3357451.85729980 18.38870239 80 87 93
245682.97302246 3357450.91720581 18.43848801 39 47 50
245680.69927979 3357451.18035889 18.75823975 35 44 59
245681.65069580 3357451.45040894 19.21635437 17 28 34
245682.14776611 3357451.79904175 21.27090073 21 34 24
245681.73779297 3357451.54769897 18.94054985 9 13 22
245680.66864014 3357451.69342041 19.04717636 28 34 32
245679.82153320 3357450.79406738 18.43272400 53 60 66
245682.41284180 3357451.69003296 21.13791275 13 29 19
245683.16473389 3357450.80249023 18.55241013 31 39 41
245681.21099854 3357451.40188599 18.72450638 38 48 49
245678.99554443 3357451.49645996 18.65061760 62 65 70
245682.05828857 3357451.87792969 21.33722115 24 38 25
245680.52862549 3357450.99063110 18.45614815 59 66 72
245679.88250732 3357450.88430786 18.42819977 44 49 53
245681.09625244 3357451.81680298 18.47779274 25 33 36
245682.67816162 3357451.40884399 21.68193626 14 30 19
245679.04364014 3357451.13293457 18.84729576 40 47 53
245682.42419434 3357451.70831299 20.99251747 6 17 13
245680.46575928 3357451.84982300 18.46637535 83 88 94
245676.03350830 3357450.33102417 18.49116325 92 100 111
245678.22143555 3357451.52166748 18.41925240 57 62 68
245679.43865967 3357451.92926025 18.41101074 90 99 104
245681.84204102 3357450.43597412 18.55598259 29 34 37
245680.96630859 3357451.47702026 18.91211319 46 55 52
245681.63586426 3357451.50509644 18.89231682 19 30 36
245683.18475342 3357450.90588379 19.08395195 88 89 94
245682.77716064 3357451.57934570 20.82698631 9 18 17
245682.83483887 3357451.22189331 22.99533844 12 32 20
245680.92248535 3357451.73455811 18.88310051 33 43 34
245682.31225586 3357450.59790039 18.40587234 32 42 44
245680.10723877 3357451.42361450 18.40470314 39 44 47
245680.66754150 3357450.79333496 18.53240585 46 49 54
245679.54650879 3357452.07257080 18.44512367 71 78 86
245682.46423340 3357451.68099976 21.00107574 10 21 15
245682.55450439 3357451.88046265 18.51341438 50 59 58
245682.69732666 3357451.26904297 23.12763405 26 47 28
245675.94323730 3357450.93411255 18.77446175 75 92 112
245683.01489258 3357450.67480469 18.45504189 33 38 41
245681.79663086 3357451.36007690 18.63204765 52 62 71
245681.46734619 3357451.31790161 18.61932182 38 48 50
245681.07055664 3357451.02471924 18.61770058 28 35 41
245681.73297119 3357450.70797729 18.76479912 19 24 28
245679.99060059 3357450.89010620 18.42088699 41 51 53
245678.42730713 3357451.27239990 18.45746803 51 54 59
245676.11724854 3357451.67459106 18.93889809 72 70 75
245681.71343994 3357451.10256958 18.88160324 28 35 41
245681.77215576 3357451.42446899 18.72326469 63 72 81
245676.17816162 3357450.00927734 18.45477295 46 54 57
245676.35449219 3357451.44958496 18.60157967 25 30 33
245680.76483154 3357451.78662109 19.02442741 35 41 39
245678.91271973 3357451.30685425 18.84569931 12 15 20
245682.56793213 3357451.51687622 21.72440529 12 28 17
245675.75561523 3357451.38601685 18.48030853 48 53 57
245677.09228516 3357452.03427124 18.37626457 89 94 98
245683.18347168 3357451.39196777 18.65184021 15 18 23
245681.58923340 3357450.52023315 18.70649338 22 29 35
245680.02655029 3357450.52865601 18.43445015 51 59 62
245682.68975830 3357450.94842529 18.43271828 34 43 42
245679.43853760 3357451.73733521 18.43618965 33 36 41
245681.71557617 3357451.24789429 18.89049339 39 54 61
245675.89587402 3357451.72152710 18.76480103 41 38 45
245678.71319580 3357451.33236694 18.47498131 52 57 61
245679.45336914 3357451.53964233 18.53613853 24 28 29
245681.02386475 3357450.45001221 18.45001984 59 65 65
245682.39538574 3357451.21429443 18.45886803 43 53 54
245681.15667725 3357451.81054688 18.49386406 51 61 62
245681.65502930 3357451.42770386 18.77792740 48 62 63
245675.93170166 3357450.78555298 18.69165230 87 100 119
245676.06152344 3357451.75897217 19.03286934 29 28 33
245680.67358398 3357451.45397949 18.97408676 57 60 65
245676.28088379 3357450.17120361 18.46497154 49 56 62
245679.16076660 3357451.32019043 18.91649437 45 52 60
245679.87011719 3357451.11437988 18.41924858 50 58 61
245677.65270996 3357452.15658569 18.41905212 62 67 71
245681.14471436 3357451.44296265 18.75061417 40 50 51
245675.73095703 3357451.16976929 18.50049210 49 57 59
245683.19165039 3357451.37127686 19.11863136 47 57 59
245681.74261475 3357451.58139038 18.92297363 4 11 17
245679.72991943 3357450.70465088 18.43814659 53 58 64
245682.85711670 3357451.58151245 18.45205879 34 44 43
245681.60766602 3357451.38076782 19.09600258 12 20 31
245676.40875244 3357449.45715332 18.45198250 46 51 55
245681.98846436 3357451.23394775 18.51060295 21 24 29
245680.67114258 3357451.16229248 18.69915009 42 52 62
245677.35614014 3357451.74041748 18.43761063 49 56 62
245682.82684326 3357451.36398315 21.21340370 17 30 21
245680.41253662 3357450.43096924 18.41732216 46 55 60
245676.18731689 3357450.94805908 18.76132584 24 27 32
245683.16394043 3357451.26260376 21.10493279 9 20 14
245677.98315430 3357451.83230591 18.40009308 48 56 58
245681.52526855 3357450.40283203 18.55788231 32 40 43
245682.84655762 3357451.27136230 21.45937347 6 19 10
245680.51153564 3357451.78015137 18.48373985 49 54 58
245682.37316895 3357451.19393921 18.45955086 37 47 48
245682.03240967 3357450.73693848 18.50883102 24 32 34
245679.13555908 3357451.72689819 18.63269997 28 32 35
245679.02734375 3357451.20535278 18.99525452 57 64 70
245677.63366699 3357452.11953735 18.41347885 68 76 79
245680.11279297 3357450.47103882 18.43356705 52 60 63
245680.59082031 3357451.60452271 18.66361046 52 60 62
245682.56347656 3357451.51550293 21.70918846 15 31 20
245675.96105957 3357450.70956421 18.64989471 88 96 107
245680.77929688 3357451.75924683 19.27158928 91 96 99
245680.68151855 3357451.89016724 18.59879112 63 68 71
245680.76849365 3357451.66067505 19.20726585 42 45 50
245679.63885498 3357451.87506104 18.39321518 88 95 101
245682.58160400 3357451.55767822 21.34728622 13 31 19
245676.16693115 3357450.77545166 18.74438477 16 24 27
245682.58538818 3357451.55819702 21.33071899 13 31 19
245680.82110596 3357451.63360596 19.09361839 22 28 24
245681.15264893 3357451.28790283 18.72979355 34 42 45
245683.17901611 3357451.25344849 18.84542084 22 25 30
245681.36175537 3357451.91003418 18.48321915 60 68 71
245681.66387939 3357451.27459717 18.98295212 12 25 33
245679.83374023 3357450.69882202 18.43519211 53 60 66
245679.59332275 3357450.79910278 18.45478058 43 50 56
245682.41204834 3357451.50054932 18.48939705 36 45 42
245680.02105713 3357451.37460327 18.40602684 26 34 36
245679.35363770 3357451.17700195 18.58505630 28 33 36
245680.02514648 3357450.38385010 18.43880463 50 57 63
245680.91534424 3357451.75488281 18.78491020 54 60 58
245675.98132324 3357451.84762573 18.88945389 19 17 20
245682.32690430 3357451.52996826 18.51430321 26 35 34
245678.82373047 3357451.38278198 18.52234268 51 55 58
245682.51251221 3357451.63842773 18.49153709 39 45 45
245683.19403076 3357451.46087646 19.01256180 13 23 25
245679.30181885 3357451.09164429 18.57691574 26 31 34
245680.47180176 3357450.79727173 18.40109253 68 75 81
245681.67016602 3357451.35220337 18.92649460 52 65 74
245676.34838867 3357451.82424927 18.56605911 36 39 44
245683.25128174 3357451.10180664 19.13490105 17 27 28
245675.66809082 3357445.89898682 18.74028397 32 37 41
245673.47027588 3357445.08471680 19.05775452 17 30 36
245673.00732422 3357445.18869019 19.06553459 8 11 16
245676.36834717 3357445.89215088 19.11849785 14 15 20
245675.52624512 3357445.29403687 18.96414375 19 24 28
245675.07806396 3357445.40841675 19.15404892 92 104 120
245673.13885498 3357445.56802368 18.70004845 49 54 58
245672.71759033 3357444.40490723 18.99783325 16 21 27
245673.22320557 3357445.71963501 18.64323616 42 47 50
245673.63568115 3357445.55273438 18.72420502 33 37 40
245673.64648438 3357445.79794312 18.62958145 53 58 62
245676.67620850 3357448.07873535 18.49984932 39 42 47
245673.24169922 3357445.40130615 19.01184273 138 145 153
245673.97625732 3357444.42761230 18.72307014 31 35 38
245673.57159424 3357445.82473755 18.62020874 53 58 61
245675.20751953 3357445.09899902 19.11437035 26 38 52
245673.71191406 3357445.48010254 18.73594666 27 32 35
245675.30621338 3357445.10556030 18.96147156 42 55 64
245675.49713135 3357445.69061279 18.90415192 20 23 28
245674.26794434 3357444.65435791 18.65276337 25 30 33
245673.54864502 3357445.20477295 19.01513481 19 28 35
245673.86920166 3357445.79452515 18.71056747 48 54 54
245673.29876709 3357445.62216187 18.69974327 43 47 50
245675.37896729 3357446.13540649 18.83459282 32 37 40
245675.59301758 3357445.37130737 18.83193398 27 32 36
245674.51831055 3357445.21652222 18.65886879 25 28 33
245672.41479492 3357444.82632446 18.99835396 14 22 25
245674.04022217 3357445.31484985 18.70398712 25 35 37
245676.52416992 3357448.63677979 18.48324013 41 46 50
245672.51116943 3357445.10046387 19.03547859 30 35 41
245672.95312500 3357445.43545532 18.83095360 28 32 35
245676.22119141 3357445.97183228 18.86211777 29 33 36
245675.26251221 3357445.07327271 19.15550995 12 24 36
245675.72961426 3357445.56167603 18.65180779 30 37 43
245672.88830566 3357445.28442383 19.04132652 94 101 111
245676.43731689 3357448.81802368 18.47279930 73 76 81
245676.73602295 3357447.41873169 18.52004242 43 50 56
245673.85913086 3357444.93719482 18.76958275 23 26 33
245673.07757568 3357444.96878052 19.09221268 8 18 17
245676.68212891 3357447.63131714 18.51472282 37 44 50
245675.10437012 3357444.98962402 19.33548546 76 84 95
245675.25610352 3357445.07214355 19.11181259 15 27 39
245675.37426758 3357446.00335693 18.95925522 21 29 32
245676.36608887 3357446.30010986 18.75782585 38 39 43
245675.08093262 3357446.06887817 19.30643082 162 171 180
245673.86791992 3357444.90765381 18.76683235 25 30 34
245674.03253174 3357445.51535034 18.70559311 29 34 38
245675.52514648 3357445.44567871 18.91708183 22 25 30
245673.56683350 3357444.54788208 18.90162659 13 18 22
245673.38293457 3357445.82556152 18.61126518 54 59 62
245676.46124268 3357449.00469971 18.45124435 54 55 60
245673.91125488 3357445.44918823 18.72058487 29 37 39
245674.51855469 3357445.91738892 18.70785904 31 39 41
245673.35278320 3357445.66900635 18.65898514 45 50 53
245673.68505859 3357445.17968750 18.89068985 27 36 41
245675.27343750 3357446.04336548 19.05134583 27 36 41
245672.76605225 3357444.39501953 19.11360550 12 16 19
245676.30688477 3357445.88150024 18.95193672 23 26 31
245674.46337891 3357445.96463013 18.66806602 35 43 45
245673.92401123 3357445.59307861 18.70232773 42 48 48
245675.68762207 3357446.17709351 18.58614731 56 61 65
245673.55450439 3357445.68676758 18.62592316 49 54 57
245673.41735840 3357445.87802124 18.61041069 52 57 60
245675.76898193 3357445.48870850 18.62342072 40 47 53
245675.19036865 3357445.72607422 19.21646118 55 65 74
245675.17340088 3357445.25079346 19.04539490 53 70 80
245676.60552979 3357446.28897095 18.85758209 44 48 51
245673.60394287 3357444.50765991 18.88015747 15 20 24
245672.34643555 3357444.59661865 18.90371704 17 18 22
245676.76660156 3357447.61331177 18.51302528 46 51 57
245676.59619141 3357448.44595337 18.48635101 45 48 53
245674.61022949 3357444.93240356 18.59176254 23 31 34
245672.73278809 3357445.52536011 18.73713112 43 48 54
245674.90887451 3357445.95529175 18.82989693 27 32 36
245675.09405518 3357445.33212280 19.10590172 55 67 83
245676.43023682 3357448.83593750 18.47037888 73 76 81
245672.65484619 3357445.52883911 18.72999954 43 48 52
245675.03900146 3357446.03710938 19.06457138 12 19 27
245673.98992920 3357444.63442993 18.73011589 27 35 37
245673.81542969 3357445.15902710 18.77874374 19 29 31
245675.30090332 3357445.85977173 19.11569786 22 30 32
245674.03991699 3357445.95031738 18.77199364 79 84 88
245676.67309570 3357446.15063477 19.15824699 18 23 29
245676.69738770 3357446.02197266 19.12440109 14 19 23
245674.93255615 3357445.27111816 18.90689278 95 110 117
245674.28729248 3357446.02752686 18.70889664 7 11 12
245676.39489746 3357445.92980957 19.24896812 29 30 34
245672.71636963 3357445.15701294 19.08670235 166 173 189
245674.72540283 3357445.04986572 18.59750175 33 38 42
245673.02246094 3357445.24844360 19.02501106 16 16 24
245674.00152588 3357445.50851440 18.70303345 35 40 44
245673.72192383 3357444.91537476 18.85363007 18 23 27
245676.40368652 3357448.79003906 18.47763634 57 60 65
245672.44982910 3357444.98678589 19.03585243 9 12 17
245674.62298584 3357446.11184692 18.57881355 39 47 50
245674.99749756 3357445.33361816 19.07311249 50 64 75
245673.78527832 3357445.48974609 18.71874809 32 38 38
245674.84161377 3357446.00900269 19.32044029 113 124 128
245674.94934082 3357446.16812134 18.62228966 59 66 74
245673.86907959 3357444.58242798 18.79109192 27 32 35
245672.84753418 3357444.45462036 18.92560577 14 19 22
245672.84979248 3357445.21734619 19.08117867 204 210 226
245676.17510986 3357446.25732422 18.60697556 40 46 46
245673.81848145 3357445.07257080 18.78077507 20 30 32
245674.50933838 3357445.69183350 18.73577690 27 35 37
245674.33795166 3357445.78601074 18.75642204 18 21 26
245674.33367920 3357444.84982300 18.63618660 22 27 31
245676.33435059 3357446.23916626 19.39274979 139 160 181
245673.99291992 3357445.83953857 18.74939919 34 39 43
245675.60363770 3357445.79006958 18.77888680 23 28 32
245672.46545410 3357444.75784302 18.97296906 133 138 144
245673.88073730 3357444.55487061 18.78390503 28 33 36
245673.18548584 3357445.84701538 18.61689758 51 57 57
245674.60168457 3357445.93307495 18.67400742 35 43 45
245674.99914551 3357445.68481445 19.32936859 103 116 135
245672.83154297 3357445.29287720 19.01835060 113 117 129
245674.31335449 3357444.87158203 18.64094734 22 27 31
245675.19567871 3357445.66253662 19.18865204 61 71 81
245673.68627930 3357444.40362549 18.82725525 17 22 26
245673.64904785 3357444.51422119 18.86415291 20 25 29
245673.15173340 3357445.44824219 18.83567619 32 37 41
245675.18280029 3357445.16726685 19.03416443 59 72 88
245675.35522461 3357445.11535645 18.96789742 27 37 46
245673.19537354 3357445.44754028 18.86291313 44 49 53
245675.51208496 3357445.63204956 18.88936043 25 28 33
245674.85961914 3357445.93832397 19.16192627 13 24 28
245674.65588379 3357444.96371460 18.58538055 27 35 38
245675.34844971 3357445.97640991 19.00829315 27 35 38
245676.35852051 3357445.70736694 19.09928513 119 123 132
245674.02508545 3357444.81332397 18.72206306 31 39 41
245676.36193848 3357445.96643066 19.28069687 16 17 21
245673.45635986 3357444.73876953 18.97953415 13 18 22
245672.87567139 3357445.55737305 18.73062134 38 43 47
245675.25158691 3357445.90316772 19.17381859 19 24 30
245674.99060059 3357444.98257446 18.89615440 73 88 95
245672.75872803 3357444.40246582 19.18536186 20 24 27
245673.20715332 3357445.06610107 19.10967827 204 213 222
245674.58502197 3357445.13949585 18.63111115 35 35 43
245673.59161377 3357445.38320923 18.88992882 7 17 19
245674.90618896 3357445.92993164 19.04998970 18 27 32
245673.59716797 3357444.72033691 18.92316818 14 19 23
245672.87634277 3357444.55844116 18.92118645 13 21 23
245672.56219482 3357445.32586670 18.92048645 48 52 55
245676.29840088 3357446.25036621 18.69092560 40 44 47
245674.56719971 3357445.43115234 18.67080688 28 32 35
245676.47442627 3357448.62164307 18.48591614 43 46 51
245672.87713623 3357444.40985107 18.99297905 17 20 25
245675.52032471 3357445.58218384 18.88197327 27 27 35
245674.11688232 3357444.61691284 18.69453239 30 35 39
245673.06140137 3357445.06912231 19.09596825 12 17 21
245674.98718262 3357444.87893677 18.84729767 37 48 54
245675.21954346 3357445.22741699 18.97635078 53 67 78
245676.59777832 3357446.02139282 19.25127029 14 21 27
245674.14147949 3357445.31173706 18.70339394 21 26 30
245676.22705078 3357445.78036499 18.90591621 13 17 20
245674.84918213 3357445.42675781 18.72592545 38 47 52
245673.71289063 3357444.63027954 18.86181068 18 23 27
245674.86120605 3357445.12274170 18.66738129 56 63 69
245675.75549316 3357446.02447510 18.64470100 52 57 61
245675.13403320 3357445.00512695 19.38861084 54 63 72
245674.73052979 3357445.76321411 18.81344986 32 42 44
245676.32147217 3357446.00396729 19.23128128 14 19 25
245674.02624512 3357444.83370972 18.72193909 27 35 37
245672.81622314 3357444.42144775 18.97047043 17 22 26
245672.62042236 3357445.43051147 18.81585312 18 23 27
245673.78247070 3357445.11486816 18.80710983 16 26 28
245676.26586914 3357445.99395752 18.91556931 19 22 27
245674.40704346 3357445.15112305 18.66734886 23 28 32
245672.94732666 3357445.09536743 19.09481812 35 38 43
245672.54138184 3357444.82949829 19.00165558 112 116 125
245672.31585693 3357444.32507324 18.89323235 13 21 24
245676.25805664 3357446.24780273 19.25563049 34 39 45
245673.29650879 3357445.59225464 18.73932076 28 33 37
245673.06457520 3357444.76342773 19.01375580 15 20 23
245675.13531494 3357445.16885376 19.09729385 58 67 82
245676.30230713 3357446.28726196 18.67648888 39 43 46
245673.89257813 3357445.52572632 18.69524193 45 49 50
245674.93182373 3357445.35766602 18.97764397 41 55 64
245676.27313232 3357449.41183472 18.45379448 44 51 59
245675.02709961 3357446.04437256 19.35223007 136 143 153
245673.08612061 3357444.58694458 18.96193504 10 15 18
245672.97344971 3357445.43527222 18.82672501 30 33 38
245675.62255859 3357445.34368896 18.83847427 21 26 30
245675.17565918 3357445.41369629 19.11995506 42 55 71
245676.46899414 3357446.10171509 19.35813904 58 67 82
245675.03985596 3357446.03384399 19.05495453 12 19 27
245672.81408691 3357444.88333130 19.03925133 9 14 20
245674.17944336 3357445.70797729 18.73908806 13 22 27
245675.97833252 3357446.18121338 18.58105659 61 66 69
245673.87713623 3357445.04779053 18.76284409 29 37 40
245675.05578613 3357445.19451904 19.01180267 84 93 108
245674.17053223 3357444.51699829 18.67926788 25 30 34
245676.44085693 3357446.28002930 19.32431030 124 149 169
245675.89123535 3357445.47561646 18.70806885 36 39 44
245673.55462646 3357444.43545532 18.88468552 1 6 9
245674.75042725 3357445.62973022 18.75662422 30 40 42
245675.02630615 3357445.40774536 19.15283394 87 100 116
245674.87860107 3357445.08969116 18.68986702 54 59 65
245674.53662109 3357445.85723877 18.76828575 36 44 46
245674.50866699 3357445.73928833 18.74540138 25 35 36
245675.42791748 3357445.34783936 18.96540642 12 20 23
245674.89392090 3357445.43173218 18.92218781 122 139 147
245674.35760498 3357445.32623291 18.70363045 12 17 21
245676.39141846 3357449.02661133 18.45219421 50 55 59
245674.23486328 3357444.69085693 18.66234779 31 36 40
245676.57531738 3357446.29989624 18.84199524 40 44 47
245673.23339844 3357444.46847534 18.93948364 96 107 113
245674.82586670 3357445.90219116 19.24755669 24 37 43
245672.60400391 3357444.41555786 18.91001320 31 35 38
245675.47753906 3357445.46231079 18.98636627 21 26 29
245673.23553467 3357445.49554443 18.84531784 28 33 37
245676.69122314 3357447.71725464 18.51174355 52 57 63
245676.38879395 3357446.23883057 18.96782684 24 29 32
245674.40100098 3357446.00070190 18.67390442 29 34 38
245675.66070557 3357445.46017456 18.71249962 16 24 26
245675.14703369 3357445.16583252 19.11771011 75 84 99
245676.46691895 3357445.86700439 19.22329903 42 43 48
245675.14495850 3357445.37680054 19.13094902 37 53 68
245674.91119385 3357444.90429688 18.71596718 56 61 65
245673.55334473 3357445.18685913 19.00991440 19 28 35
245675.96081543 3357445.83419800 18.79663849 65 72 78
245673.87377930 3357445.27035522 18.75548553 26 35 40
245675.02215576 3357446.02236938 19.40439606 182 186 197
245674.93774414 3357445.99261475 19.39087105 192 198 210
245676.26232910 3357446.20837402 19.22487068 63 67 76
245675.68859863 3357445.44015503 18.69673538 16 24 27
245674.57025146 3357446.06756592 18.59780312 41 49 52
245673.01452637 3357445.10440063 19.09357834 12 15 20
245676.45098877 3357446.25939941 19.33567810 127 154 171
245676.25604248 3357446.31286621 18.63495445 39 43 46
245676.44152832 3357448.79022217 18.47578621 62 65 70
245675.12921143 3357445.99862671 19.34028053 87 94 100
245672.81976318 3357445.65023804 18.69242096 47 52 56
245676.31494141 3357446.30096436 19.32524872 117 138 155
245673.68585205 3357445.43933105 18.78183365 19 27 29
245676.76116943 3357445.73730469 19.09271049 36 41 47
245675.00207520 3357445.98745728 18.96271706 19 28 35
245676.59533691 3357446.23147583 19.22935295 5 18 26
245673.63092041 3357445.67895508 18.62989998 53 58 62
245674.86602783 3357445.55764771 18.95274353 105 125 132
245676.29418945 3357446.08166504 19.15068245 5 5 13
245676.71228027 3357445.92517090 19.10279846 17 25 28
245673.93682861 3357444.55056763 18.75144386 25 30 33
245674.13085938 3357445.02392578 18.68358421 33 43 45
245672.93725586 3357445.51797485 18.73963928 40 45 49
245673.65368652 3357444.63366699 18.88462257 13 18 22
245675.68218994 3357445.88217163 18.74322128 38 43 47
245675.58038330 3357445.77734375 18.80585670 26 31 35
245675.89489746 3357445.62112427 18.71184540 46 51 57
245675.45526123 3357446.06497192 18.81657410 32 40 43
245676.68707275 3357445.87524414 19.13821793 20 28 31
245676.12487793 3357446.09100342 18.69594955 40 45 48
245674.90899658 3357445.91384888 18.98723221 17 25 27
245676.57513428 3357448.38238525 18.48668861 56 59 64
245674.47607422 3357445.39550781 18.68542671 26 29 34
245674.84338379 3357445.66699219 18.98277283 59 73 82
245673.17962646 3357444.33755493 18.98961258 71 81 83
245675.69348145 3357445.85687256 18.74551201 38 43 47
245674.05529785 3357444.83016968 18.71381187 28 36 38
245675.19854736 3357446.03625488 19.18666077 20 28 31
245675.42681885 3357446.18096924 18.75456619 39 44 48
245672.80792236 3357445.21771240 19.07482910 200 206 222
245676.26611328 3357446.03427124 18.85405540 41 44 49
245673.89599609 3357445.51556396 18.69808960 45 49 50
245673.22357178 3357444.33557129 18.98753166 89 98 103
245672.34118652 3357444.28192139 18.93057823 4 12 15
245672.26062012 3357444.75064087 18.95989990 15 18 23
245673.29681396 3357445.53756714 18.81968689 134 141 149
245673.23846436 3357445.38275146 19.02212334 138 145 153
245676.37353516 3357446.26379395 18.78772926 37 40 45
245673.23168945 3357444.75973511 19.02602005 158 169 175
245676.37384033 3357445.83883667 19.03283882 13 14 18
245676.00909424 3357446.07083130 18.67098236 46 51 54
245673.45269775 3357445.58743286 18.82651520 13 17 20
245672.46704102 3357445.10317993 19.02724648 16 21 25
245673.71801758 3357445.03775024 18.86019135 14 21 27
245676.33489990 3357445.95449829 19.14254379 12 15 20
245676.99340820 3357446.10888672 18.79648972 41 46 52
245674.84161377 3357445.85317993 18.86466980 30 39 44
245674.81335449 3357445.84365845 18.83480263 57 66 71
245672.51562500 3357444.79342651 18.98608780 161 166 172
245673.55627441 3357445.89877319 18.61598778 56 59 64
245674.89526367 3357445.42437744 18.87399864 114 131 138
245676.53387451 3357446.29766846 19.13644600 28 37 42
245676.84387207 3357445.82742310 19.00600052 18 25 31
245675.18408203 3357446.15078735 18.95082092 28 36 38
245672.90661621 3357444.62142944 18.94317818 18 24 24
245675.25982666 3357445.33001709 18.98975182 14 27 36
245673.84429932 3357444.77737427 18.78917885 24 29 33
245675.60839844 3357445.33529663 18.88517761 21 26 30
245675.23107910 3357445.12921143 18.98754311 49 63 76
245675.02038574 3357446.09262085 18.72870255 48 52 61
245674.72326660 3357445.31237793 18.63252831 34 39 43
245676.04418945 3357445.90679932 18.82686996 38 43 47
245672.58880615 3357445.02944946 19.06295586 152 160 173
245673.75958252 3357445.49414063 18.71947861 32 38 38
245676.22967529 3357445.64947510 18.98532104 0 2 11
245676.74902344 3357445.97323608 19.06227684 14 19 23
245673.83789063 3357445.84384155 18.70258713 49 55 55
245672.53186035 3357444.43661499 18.88359833 19 20 25
245673.96990967 3357445.39297485 18.70469093 26 34 37
245675.01995850 3357446.06671143 19.18919945 14 21 29
245673.60357666 3357444.43246460 18.86528969 8 13 17
245672.89129639 3357445.86938477 18.65314674 39 49 48
245675.25280762 3357445.07708740 19.16640282 12 24 36
245675.13159180 3357445.00488281 19.38718224 54 63 72
245674.99810791 3357445.06317139 18.89406013 80 92 104
