245996.20104980 3357460.70541382 15.67634201 32 36 37
245995.91796875 3357461.05062866 15.56096840 44 49 55
245996.70892334 3357467.77392578 15.11233711 109 111 100
245997.20745850 3357468.38806152 15.13936329 114 115 119
245997.54693604 3357470.99093628 15.03941727 107 108 110
245996.37438965 3357464.80584717 15.17968750 147 144 127
245996.66796875 3357468.00347900 15.10976791 110 114 113
245997.38470459 3357466.05819702 15.57147884 36 39 44
245996.04431152 3357461.60617065 15.63269234 48 56 59
245997.93939209 3357467.38925171 15.32292747 66 71 74
245996.36077881 3357460.99029541 15.62229824 47 52 55
245999.20446777 3357472.49703979 15.01599216 88 90 87
245996.30065918 3357463.64559937 15.29277706 76 81 84
245996.56878662 3357462.59997559 15.48266220 82 86 87
245997.34429932 3357470.90646362 14.98736000 165 162 127
245998.90136719 3357473.67559814 15.11352062 25 23 28
245997.28338623 3357469.12155151 15.23536968 85 90 84
245997.65112305 3357465.28851318 15.39218521 46 49 54
245997.82739258 3357470.37026978 15.20691395 100 105 108
245996.17864990 3357462.12127686 15.36117268 129 133 132
245997.19091797 3357469.91506958 15.02223873 162 162 136
245997.90380859 3357469.81628418 15.12598038 78 83 86
245995.93774414 3357460.52853394 15.34291077 51 55 58
245996.91479492 3357466.13659668 15.33361149 78 86 88
245995.93139648 3357461.33557129 15.75389290 73 78 82
245996.52142334 3357461.19268799 15.62445927 44 52 54
245998.20800781 3357471.28363037 15.58073711 122 127 133
245998.25976563 3357467.40774536 15.40331554 66 68 67
245997.12078857 3357470.97976685 15.01224995 112 118 116
245999.29241943 3357472.81390381 15.00509071 99 99 97
245997.13256836 3357462.38143921 15.80725384 44 49 52
245996.55438232 3357461.93893433 15.68157196 49 57 60
245997.25042725 3357471.80288696 14.97732067 97 106 105
245998.39123535 3357469.35552979 15.44782543 65 65 67
245997.83642578 3357471.35815430 15.23191833 43 47 48
245996.94934082 3357462.11697388 15.49786472 27 32 36
245997.38049316 3357473.18725586 14.94922543 123 129 129
245999.34075928 3357472.31750488 15.06389713 122 128 124
245996.30004883 3357464.34533691 15.25719643 72 73 67
245997.95043945 3357467.03656006 15.49530029 37 37 37
245996.16583252 3357461.13595581 15.71702194 46 54 56
245998.78405762 3357474.14782715 15.13526917 86 90 91
245997.49768066 3357473.00778198 14.94816208 119 124 118
245999.38873291 3357473.50283813 15.06636524 80 81 83
245997.82818604 3357467.87945557 15.44513607 14 22 25
245997.41479492 3357473.48806763 14.94384575 126 130 133
245997.62438965 3357470.89865112 15.08189583 103 107 110
245997.87170410 3357470.04397583 15.16133499 87 91 94
245999.01336670 3357470.77761841 15.14169788 47 48 40
245996.81878662 3357462.29928589 15.42812920 63 68 72
245997.96289063 3357465.55484009 15.70400524 25 29 30
245998.51538086 3357468.30438232 15.37471294 138 139 134
245996.27423096 3357461.77529907 15.54508209 78 83 87
245996.90777588 3357462.55541992 15.57611179 61 66 70
245997.08685303 3357466.53808594 15.41881180 95 100 103
245997.23883057 3357466.06024170 15.63529873 36 37 39
245998.22644043 3357468.19009399 15.51815510 86 89 94
245996.95788574 3357461.60971069 15.62833977 43 53 54
245997.29193115 3357463.48880005 15.58860111 60 69 66
245996.77087402 3357468.37615967 15.09722519 114 117 108
245996.37072754 3357463.68438721 15.65348721 83 89 89
245998.41558838 3357468.30502319 15.16242409 44 45 47
245997.02319336 3357462.40441895 15.58418846 52 55 60
245998.49694824 3357472.09048462 15.46570683 70 78 80
245998.43328857 3357472.29678345 15.31225014 98 106 108
245998.34350586 3357467.68933105 15.47543907 34 38 37
245997.89263916 3357469.94165039 15.14895439 81 85 88
245997.24298096 3357466.48114014 15.45847225 81 86 89
245997.13665771 3357462.37655640 15.83683109 46 50 53
245996.73474121 3357463.71310425 15.79405022 97 102 106
245997.12799072 3357463.19799805 15.52537537 61 71 72
245996.61132813 3357464.57290649 15.50481415 98 106 108
245999.11553955 3357470.66357422 15.18515396 100 103 94
245998.50000000 3357469.62374878 15.72186661 42 50 53
245996.98535156 3357470.04241943 15.01832294 109 115 113
245997.88165283 3357467.43029785 15.27809525 63 67 70
245995.85504150 3357461.09033203 15.32627392 40 41 36
245998.48120117 3357468.29577637 15.37358952 142 143 138
245997.71453857 3357470.43161011 15.13683510 90 91 93
245996.34179688 3357462.38961792 15.34491825 74 84 85
245996.51354980 3357465.45071411 15.15896702 157 152 130
245996.85247803 3357464.84442139 15.44302273 89 99 101
245997.34667969 3357471.08657837 14.98029804 182 179 144
245998.18713379 3357471.15563965 15.59681320 136 141 147
245996.91864014 3357464.56405640 15.57954788 83 88 94
245997.44183350 3357463.97195435 15.84821224 193 207 210
245995.85455322 3357460.32684326 15.21820927 64 66 61
245998.36285400 3357473.90185547 15.15835476 25 28 35
245997.16662598 3357470.21389771 14.99070072 152 150 129
245997.21160889 3357468.06414795 15.51614094 82 41 47
245996.41217041 3357464.20007324 15.70087528 142 152 154
245996.23614502 3357463.37570190 15.19114494 112 113 105
245997.75579834 3357469.20214844 15.47468185 92 91 96
245998.38836670 3357471.80981445 15.36753941 44 61 69
245997.78796387 3357468.32751465 15.26521111 47 52 56
245998.72668457 3357472.74206543 15.10411835 106 111 114
245997.92242432 3357468.78039551 15.22180843 76 80 81
245996.76104736 3357463.76379395 15.79159355 90 95 99
245996.48699951 3357462.11425781 15.56637955 38 41 46
245998.57324219 3357471.03729248 15.63689899 225 237 235
245997.39093018 3357466.29852295 15.50113487 64 69 73
245998.06640625 3357469.70684814 15.47994041 48 56 58
245998.44592285 3357466.77044678 15.15316677 71 70 68
245996.06372070 3357462.15408325 15.18912697 92 95 86
245996.35699463 3357463.84323120 15.50278378 66 78 76
245997.44030762 3357472.72650146 14.93286991 118 120 115
245997.90771484 3357470.09381104 15.18730450 84 88 91
245998.15374756 3357468.17764282 15.31616306 35 43 45
245996.48358154 3357463.45553589 15.61696720 92 98 98
245997.04907227 3357465.95867920 15.42164707 81 81 83
245996.88476563 3357464.89129639 15.42903042 90 98 101
245998.13269043 3357473.35882568 15.05659008 113 122 121
245997.23223877 3357470.40991211 15.00646114 152 150 127
245998.51739502 3357471.03356934 15.52305794 124 136 136
245997.58050537 3357464.96020508 15.75381374 50 58 60
245996.19091797 3357463.79660034 15.14636421 141 142 126
245999.32659912 3357473.51300049 15.06754589 153 154 156
245998.51910400 3357469.40966797 15.56121731 79 79 79
245997.53295898 3357469.26486206 15.35587120 64 66 65
245996.66619873 3357461.38088989 15.64955044 47 51 54
245997.12744141 3357468.11303711 15.36116123 64 50 49
245998.66992188 3357471.55502319 15.62168217 62 66 65
245996.31152344 3357464.21694946 15.62464809 105 114 113
245996.59136963 3357462.94622803 15.73642445 22 27 30
245997.90484619 3357467.30575562 15.37696362 56 61 65
245998.71917725 3357471.44757080 15.67768478 44 53 50
245998.90893555 3357470.84320068 15.21845627 62 65 58
245997.65405273 3357464.61343384 16.06766319 26 34 36
245997.82635498 3357465.59558105 15.58335972 18 22 21
245996.62005615 3357462.10400391 15.54771137 51 54 59
245997.04736328 3357465.96252441 15.52008533 81 81 81
245998.03521729 3357469.68063354 15.52767658 38 43 46
245998.23504639 3357471.51007080 15.24693203 80 86 86
245997.47613525 3357468.66384888 15.15710640 117 119 116
245996.96478271 3357466.11575317 15.64780712 201 201 201
245998.33996582 3357467.05957031 15.34961891 41 45 44
245997.20471191 3357467.98236084 15.54599190 82 47 54
245997.19427490 3357465.85021973 15.38587666 33 33 31
245996.44366455 3357461.78021240 15.60045433 59 64 68
245996.31500244 3357463.06469727 15.30136395 88 99 95
245996.76727295 3357467.37057495 15.06682301 127 129 108
245997.45660400 3357470.04470825 15.08641529 92 98 98
245997.85504150 3357474.18472290 14.93096542 192 188 153
245997.64947510 3357467.69146729 15.33681202 45 50 53
245998.83599854 3357470.86462402 15.31202507 53 61 48
245997.15991211 3357467.89221191 15.41807556 59 43 43
245999.04742432 3357470.15359497 15.26965046 62 73 57
245998.38061523 3357470.80078125 15.36938763 81 90 89
245998.13977051 3357471.88992310 15.46716690 13 23 32
245998.30993652 3357472.36404419 15.17645454 113 122 121
245996.50024414 3357461.16128540 15.61753082 49 54 57
245999.35876465 3357473.39846802 15.03557777 74 78 79
245997.01123047 3357470.29974365 15.01577568 117 123 123
245997.16510010 3357467.44659424 15.22447586 100 105 108
245996.60083008 3357466.91241455 15.11026478 119 119 107
245996.96179199 3357462.25625610 15.47552109 50 53 60
245997.69012451 3357466.85229492 15.32053757 58 66 68
245998.46728516 3357470.24404907 15.21606445 100 100 100
245996.31036377 3357464.24359131 15.15229225 120 120 118
245998.68273926 3357473.44781494 15.12688541 99 105 105
245998.01696777 3357471.75094604 15.41201401 80 84 87
245998.42303467 3357472.91732788 15.09586430 117 121 124
245998.63824463 3357469.79605103 15.31516361 77 83 83
245996.36157227 3357463.40838623 15.38588905 91 101 102
245998.98657227 3357472.28988647 15.28199387 90 94 95
245997.27978516 3357472.46099854 14.97390652 116 122 122
245998.21063232 3357467.90542603 15.81938648 42 47 53
245997.23138428 3357467.09686279 15.45653057 75 78 83
245998.69195557 3357471.58255005 15.67207813 56 62 62
245996.42773438 3357464.94570923 15.18401814 140 138 125
245997.24066162 3357463.06817627 15.73833561 31 36 40
245997.28454590 3357466.07040405 15.60836792 26 27 31
245997.23400879 3357466.50518799 15.45259953 84 89 92
245998.29931641 3357473.91925049 15.16913986 46 50 59
245996.58184814 3357460.97979736 15.54747200 48 54 54
245997.97589111 3357468.23947144 15.28593063 30 38 41
245997.52233887 3357464.57327271 15.96447182 136 139 146
245996.69396973 3357465.79629517 15.22507954 105 105 103
245996.27258301 3357464.30477905 15.53528786 115 115 103
245997.62695313 3357471.11093140 15.10046196 159 173 176
245999.09783936 3357473.33847046 15.05520725 98 100 99
245997.42071533 3357465.92434692 15.57468700 51 50 55
245997.26837158 3357467.23001099 15.43476582 46 51 55
245996.60198975 3357467.16217041 15.11182690 87 92 86
245998.07751465 3357466.79391479 15.32115173 50 50 50
245997.72552490 3357465.17745972 15.46883965 31 34 39
245996.42138672 3357462.23425293 15.40737057 37 42 45
245996.83581543 3357469.33563232 15.05806160 112 118 118
245998.60968018 3357471.15084839 15.69841385 123 131 133
245998.18920898 3357466.09466553 15.42688847 70 75 78
245997.39099121 3357468.92535400 15.26292515 100 102 99
245995.86431885 3357461.41827393 15.78708744 108 117 122
245996.35491943 3357463.68908691 15.61258411 85 88 93
245997.09783936 3357468.73602295 15.08430767 123 121 109
245997.73248291 3357469.73800659 15.31270599 68 74 74
245998.55230713 3357471.87655640 15.47062683 157 167 169
245998.16864014 3357467.35440063 15.42514038 56 57 59
245997.28167725 3357465.63287354 15.34414291 145 145 145
245997.56713867 3357471.35357666 15.01787949 119 116 107
245998.29937744 3357469.68170166 15.42352676 67 70 75
245997.90161133 3357470.82290649 15.23201370 99 105 105
245997.88964844 3357471.42733765 15.17243576 103 107 110
245996.64904785 3357465.31448364 15.20888424 101 109 111
245997.97741699 3357469.62207031 15.62443066 46 51 54
245997.63964844 3357464.43270874 16.05326843 70 74 83
245997.68719482 3357466.51562500 15.30488777 70 74 77
245997.92480469 3357468.07687378 15.51169872 20 29 34
245996.49194336 3357461.79141235 15.62740707 57 62 66
245996.58209229 3357466.27728271 15.13352776 163 158 138
245997.99328613 3357472.09234619 15.21019077 79 87 90
245996.77893066 3357466.19421387 15.19143486 103 107 108
245996.31494141 3357461.63656616 15.66318226 75 85 87
245996.72381592 3357461.75286865 15.59239578 48 58 59
245996.73425293 3357466.40591431 15.16139889 118 117 112
245997.16748047 3357462.56500244 15.89096451 35 45 47
245998.26782227 3357472.16741943 15.21112442 88 98 100
245996.71307373 3357461.85238647 15.59220219 43 48 52
245996.23229980 3357463.87551880 15.14023781 132 135 128
245997.38195801 3357463.84869385 15.72270870 54 70 70
245999.05920410 3357470.72180176 15.14549923 98 100 89
245997.82305908 3357469.36914063 15.56572056 28 32 35
245997.00622559 3357463.41394043 15.57897186 75 80 83
245996.28210449 3357460.44165039 15.60219383 44 48 49
245996.78680420 3357469.08691406 15.09761620 110 116 116
245996.91162109 3357468.02423096 15.13210487 149 144 122
245999.03210449 3357470.80450439 15.30182457 59 67 54
245998.26531982 3357470.34866333 15.25892544 95 99 100
245996.66796875 3357462.06118774 15.55752087 44 47 52
245997.64562988 3357471.37930298 15.07635212 109 111 110
245998.34735107 3357471.20101929 15.53042603 120 127 135
245996.45294189 3357464.32022095 15.64957428 195 203 206
245998.41998291 3357469.20251465 15.36968136 83 85 84
245997.01007080 3357462.48400879 15.61017895 53 56 61
245998.25708008 3357467.80816650 15.57668781 52 56 59
245996.23461914 3357462.13272095 15.39037037 160 160 158
245998.12438965 3357467.22738647 15.48739433 25 29 30
245997.00128174 3357461.90008545 15.67678165 29 37 39
245996.62481689 3357466.49301147 15.12893200 136 135 117
245997.39300537 3357466.79284668 15.40368652 71 75 78
245999.15582275 3357473.97958374 15.15738201 44 50 50
245996.00219727 3357461.58300781 15.86289501 30 37 43
245998.81903076 3357473.80902100 15.17366695 26 21 27
245998.57556152 3357471.89367676 15.49893951 79 87 89
245997.25811768 3357463.75006104 15.63563347 61 70 69
245997.07208252 3357468.04202271 15.33524132 131 123 121
245997.10742188 3357467.16381836 15.41832829 29 34 40
245997.72106934 3357468.49502563 15.17184448 85 94 91
245997.49176025 3357466.79959106 15.35082150 73 77 80
245997.70019531 3357465.55075073 15.46494961 64 67 72
245997.44372559 3357470.57684326 15.03453827 116 116 116
245997.76641846 3357470.10546875 15.15108681 86 90 93
245997.30596924 3357466.55825806 15.43387890 79 84 88
245998.06164551 3357471.37225342 15.25412369 68 72 75
245997.20764160 3357468.86883545 15.11905289 106 106 104
245997.46594238 3357469.61941528 15.47326660 39 43 46
245997.55432129 3357472.24087524 14.97032356 192 187 149
245998.12860107 3357470.90890503 15.29126072 89 95 95
245996.84722900 3357463.64459229 15.76181221 87 92 95
245997.29040527 3357466.40039063 15.48362064 78 82 85
245998.47515869 3357468.98648071 15.39186001 41 43 40
245997.97186279 3357471.53198242 15.09394455 113 117 120
245996.32391357 3357463.93612671 15.20092678 68 73 67
245997.55993652 3357473.03442383 14.94948196 136 139 118
245996.97906494 3357467.85183716 15.19844627 92 93 87
245997.62097168 3357471.43127441 15.03513718 113 112 107
245996.27777100 3357463.67047119 15.24774170 77 79 76
245997.51574707 3357464.87088013 15.86698723 42 47 51
245997.11102295 3357462.40493774 15.76098442 44 49 52
245997.59808350 3357470.80529785 15.07757759 102 103 105
245995.79882813 3357461.47479248 15.66035080 113 122 119
245996.64581299 3357463.15005493 15.61204338 69 74 77
245997.09808350 3357463.33264160 15.52163696 73 81 84
245997.62225342 3357466.70553589 15.29054356 67 71 74
245996.79785156 3357461.61181641 15.60424042 48 57 56
245998.06311035 3357470.21313477 15.29635334 89 98 97
245998.20635986 3357467.85250854 15.49730968 141 144 151
245997.38366699 3357463.43167114 15.61107349 56 65 64
245997.00506592 3357465.95721436 15.36665058 60 59 57
245996.99536133 3357465.58831787 15.37510300 102 105 112
245998.62792969 3357473.99807739 15.14660549 70 70 70
245998.22460938 3357471.58169556 15.13936329 80 84 85
245998.32745361 3357473.46395874 15.12228870 110 115 118
245997.17401123 3357465.20840454 15.46148205 30 35 41
245996.73468018 3357465.71990967 15.28962708 105 109 112
245996.48101807 3357466.50048828 15.13321304 97 100 91
245997.37762451 3357465.97036743 15.58537769 72 71 76
245998.96716309 3357470.18957520 15.07684040 94 93 89
245997.23779297 3357463.05032349 15.74847317 31 36 40
245998.71179199 3357470.44168091 15.09668350 86 91 87
245998.19921875 3357468.40957642 15.10381317 73 79 79
245997.10760498 3357469.67626953 15.02319145 157 157 129
245997.19604492 3357463.00372314 15.69476318 33 36 43
245997.91925049 3357467.58129883 15.26423550 63 68 71
245998.52734375 3357471.11676025 15.46557522 32 41 48
245997.68432617 3357468.07095337 15.53929424 10 19 26
245996.92126465 3357468.77200317 15.07780933 167 167 141
245997.60809326 3357473.42803955 14.94134521 128 128 116
245996.83398438 3357463.41806030 15.66773033 79 84 87
245999.15356445 3357472.20153809 15.26605225 81 83 82
245998.04321289 3357473.20745850 14.99583149 124 130 130
245997.53472900 3357468.76324463 15.19928360 120 125 121
245996.16107178 3357461.61318970 15.71428108 80 89 94
245997.71661377 3357474.14950562 14.92364216 105 108 101
245997.68865967 3357472.42376709 14.96497154 147 143 116
245997.80334473 3357465.62393188 15.52959633 31 35 36
245999.42230225 3357473.38729858 15.03462601 53 57 58
245997.85229492 3357467.34063721 15.33373260 60 65 68
245997.64837646 3357466.65533447 15.29349232 63 67 70
245998.26361084 3357473.18218994 14.98495293 105 110 113
245998.57965088 3357472.37948608 15.30815315 101 106 109
245997.36053467 3357470.49896240 15.02422810 121 118 109
245997.14935303 3357462.44555664 15.86471081 38 43 46
245997.35473633 3357468.64294434 15.11723614 124 126 125
245996.07867432 3357461.94757080 15.29879761 66 75 74
245998.43292236 3357471.99826050 15.44277287 50 58 61
245999.03344727 3357470.81906128 15.43580055 45 58 40
245996.96386719 3357467.96942139 15.17314148 77 76 71
245998.73602295 3357473.10992432 15.10769081 104 109 113
245996.31469727 3357462.95312500 15.59828186 130 142 142
245997.29400635 3357463.69400024 15.64634800 57 67 66
245998.40716553 3357471.32208252 15.37206268 42 50 53
245996.65875244 3357467.69345093 15.09391212 107 109 104
245996.23846436 3357462.07168579 15.45347881 162 161 157
245998.68011475 3357471.84735107 15.71809483 81 86 90
245997.39056396 3357464.08016968 15.78240108 207 225 229
245996.56573486 3357465.58377075 15.16912270 124 122 110
245997.71618652 3357470.89987183 15.12407017 96 100 101
245998.10345459 3357473.70547485 15.13493824 209 238 244
245996.44531250 3357461.07711792 15.60770512 53 57 58
245999.01416016 3357470.83151245 15.55107307 49 62 44
245996.42712402 3357464.82611084 15.20652771 130 128 115
245997.85876465 3357474.03396606 14.94369888 180 175 143
245996.92315674 3357467.56872559 15.13806629 103 104 98
245997.58734131 3357472.26882935 14.96868992 188 182 148
245996.51666260 3357462.11480713 15.56723595 45 48 53
245997.69836426 3357466.22036743 15.37832260 65 66 70
245997.33367920 3357469.71633911 15.18519497 103 105 104
245998.65545654 3357471.44335938 15.52872372 57 61 62
245998.06134033 3357467.61044312 15.29385281 50 55 58
245996.76385498 3357462.29635620 15.41961002 63 66 71
245997.33947754 3357467.87377930 15.55911541 34 28 28
245997.17700195 3357462.97122192 15.68076038 34 39 45
245996.28997803 3357464.60873413 15.14430237 151 148 129
245998.20672607 3357467.09179688 15.49258232 41 40 38
245997.84735107 3357472.77304077 15.02402306 120 122 119
245996.91033936 3357462.37081909 15.48240566 61 64 71
245997.47216797 3357472.42965698 14.95759869 120 118 103
245997.25262451 3357464.70135498 15.53298950 166 179 187
245997.41345215 3357464.57513428 15.87968636 219 222 231
245998.20642090 3357469.37902832 15.39976597 77 79 78
245997.60363770 3357466.76718140 15.29178619 82 86 89
245998.42614746 3357469.08468628 15.33998394 59 59 57
245997.47479248 3357463.56588745 15.86887646 28 47 41
245995.90991211 3357461.51797485 15.21128559 178 186 188
245997.95239258 3357471.70547485 15.17263317 87 92 88
245999.18090820 3357473.51705933 15.05951977 72 78 78
245997.43695068 3357471.27310181 14.98887444 178 174 139
245997.61462402 3357472.41491699 14.94447327 191 186 148
245996.62603760 3357464.71887207 15.36633873 101 104 109
245997.97656250 3357474.08544922 14.97727299 121 114 98
245997.33569336 3357471.79721069 14.97958755 98 102 88
245998.68249512 3357472.90225220 15.11061096 113 116 121
245996.76745605 3357460.76412964 15.65369892 29 37 39
245998.55047607 3357467.42013550 15.11087036 55 57 54
245996.32531738 3357463.30996704 15.27486992 98 103 106
245996.85302734 3357467.75100708 15.12972546 143 143 117
245998.72406006 3357470.28024292 15.10653305 94 96 95
245998.16528320 3357472.37628174 15.11394691 115 119 122
245997.13787842 3357465.17501831 15.40072346 72 75 80
245998.71173096 3357472.52148438 15.13877487 97 101 104
245997.81420898 3357472.24707031 15.00946903 121 130 127
245997.67718506 3357472.66488647 14.95905781 177 172 140
245997.52581787 3357473.41220093 14.94285011 120 125 128
245996.88037109 3357462.12203979 15.44643784 38 43 49
245996.23010254 3357461.65103149 15.59341812 94 101 107
245997.19183350 3357463.79522705 15.61130333 66 74 76
245997.47991943 3357465.47793579 15.38289833 52 56 59
245996.65991211 3357460.86697388 15.54635048 31 39 41
245998.60772705 3357472.34536743 15.35660934 99 105 105
245998.48590088 3357469.72381592 15.45695496 60 70 71
245998.42742920 3357470.85821533 15.41620255 65 71 69
245998.31481934 3357474.21350098 15.08994770 110 114 117
245998.27563477 3357472.13562012 15.25388813 79 89 91
245997.76934814 3357473.41348267 14.94967461 191 186 156
245997.32733154 3357463.42526245 15.59356213 61 70 69
245997.52929688 3357471.61538696 15.00851727 147 140 121
245998.05914307 3357472.53237915 15.07998657 115 120 123
245997.67919922 3357472.32290649 14.96931839 121 118 101
245996.04571533 3357461.64517212 15.26061153 69 70 65
245997.66113281 3357469.33279419 15.49330521 86 87 91
245997.33636475 3357466.76788330 15.40937424 79 83 86
245998.59442139 3357473.84796143 15.13659286 108 112 111
245998.13439941 3357471.91287231 15.47318077 11 21 30
245996.57971191 3357466.51705933 15.11806774 155 156 140
245998.15905762 3357468.07937622 15.77771091 41 46 50
245996.41247559 3357464.34149170 15.47919750 192 201 210
245999.40887451 3357472.80023193 15.01598740 95 97 92
245996.32043457 3357462.88415527 15.53507900 52 66 66
245997.06781006 3357465.45681763 15.40834713 34 39 42
245997.29644775 3357464.83721924 15.40655899 62 69 75
245998.39355469 3357466.57327271 15.13268661 65 67 66
245997.33386230 3357464.78363037 15.50025654 58 69 75
245997.93402100 3357470.97747803 15.22510815 71 77 77
245998.11737061 3357469.62561035 15.56768322 33 41 43
245997.08398438 3357467.39196777 15.23029041 85 88 93
245997.02593994 3357466.34664917 15.52412510 84 89 93
245997.11950684 3357463.61526489 15.62989140 81 86 90
245997.28454590 3357470.66372681 15.00231552 150 148 123
245998.39044189 3357470.76730347 15.34078979 82 91 88
245998.69775391 3357468.70471191 15.14699364 56 58 53
245997.98101807 3357473.97418213 15.01213932 108 108 96
245997.86633301 3357471.31436157 15.31148815 21 22 24
245996.37731934 3357463.04879761 15.72254276 73 79 79
245998.33251953 3357468.93832397 15.27862167 30 34 33
245998.21490479 3357471.64096069 15.23611259 96 101 104
245998.18243408 3357468.26397705 15.16136360 29 35 35
245998.10748291 3357469.46475220 15.51394749 141 141 143
245997.16815186 3357469.75903320 15.03129959 168 164 137
245997.85137939 3357467.74023438 15.34400940 30 38 41
245999.07788086 3357472.84988403 15.04868698 106 110 109
245996.34863281 3357463.72409058 15.60023689 79 84 88
245999.20263672 3357472.94528198 15.01956081 107 107 107
245997.10321045 3357465.38708496 15.44937134 26 31 34
245997.42187500 3357470.71697998 15.02221298 129 126 109
245996.77215576 3357461.15670776 15.54799461 38 38 38
245998.24145508 3357470.31344604 15.26623917 91 97 95
245995.96630859 3357460.99407959 15.61020279 52 55 62
245999.44042969 3357472.85006714 15.02649784 107 108 102
245998.69482422 3357473.32254028 15.11264038 102 107 110
245996.28173828 3357464.27664185 15.17789459 121 121 119
245998.46343994 3357471.98934937 15.44814396 41 49 52
245996.60314941 3357461.61306763 15.63308334 53 57 60
245996.39349365 3357463.69589233 15.73605728 95 101 101
245996.67706299 3357462.88558960 15.72583008 23 28 31
245998.19311523 3357469.12493896 15.31168842 66 68 65
245997.40087891 3357467.03948975 15.46696186 10 14 17
245997.62811279 3357468.12835693 15.53541470 4 15 19
245997.18499756 3357465.74597168 15.31115818 84 84 82
245997.74951172 3357469.96203613 15.13198090 90 96 96
245998.08312988 3357471.38528442 15.23670959 50 54 57
245997.11791992 3357470.17407227 14.99692345 116 117 101
245997.77087402 3357465.33343506 15.45344353 41 45 48
245997.46600342 3357472.77270508 14.93286705 117 120 111
245996.25750732 3357464.32250977 15.21633244 118 118 110
245997.30712891 3357465.83294678 15.55887794 67 68 70
245995.92205811 3357461.52920532 15.21262169 98 100 95
245998.59643555 3357472.74929810 15.10633850 112 116 117
245997.02038574 3357469.45596313 15.02652550 123 124 110
245997.58233643 3357469.66119385 15.42003155 74 80 80
245997.91357422 3357469.14416504 15.42514515 77 82 86
245997.70220947 3357464.81423950 16.03351784 54 62 65
245997.02203369 3357465.92315674 15.31505680 62 63 58
245997.67022705 3357474.20947266 14.92177868 116 120 119
245999.32812500 3357472.58187866 15.00376320 81 86 80
245999.31146240 3357473.07067871 15.00746346 99 101 96
245998.02429199 3357471.37014771 15.25152969 77 82 85
245998.56384277 3357471.09753418 15.60077858 177 191 192
245997.40838623 3357463.90957642 15.77375603 113 128 131
245997.22235107 3357467.60525513 15.27810860 91 94 99
245997.57800293 3357465.92633057 15.52245617 42 43 47
245996.65417480 3357462.96508789 15.70187950 26 32 32
245997.09460449 3357462.93304443 15.62242222 15 25 27
245996.12268066 3357460.88452148 15.68700600 42 46 47
245997.20214844 3357469.23626709 15.12882233 97 99 98
245998.16510010 3357468.00747681 15.61001110 15 21 21
245997.07879639 3357470.09164429 15.00294590 105 109 95
245996.76336670 3357468.26684570 15.10238838 113 116 107
245996.95031738 3357466.10336304 15.43347549 178 186 188
245998.97448730 3357474.03533936 15.18975067 65 64 69
245997.96569824 3357467.47933960 15.27713966 65 70 73
245996.53442383 3357463.23522949 15.57587337 89 95 95
245997.95184326 3357466.52877808 15.34182835 75 79 80
245997.36041260 3357471.34167480 14.97979355 174 174 138
245998.28662109 3357470.33316040 15.25913811 98 102 103
245998.07293701 3357468.09140015 15.51791191 47 55 57
245996.61358643 3357466.35501099 15.13601112 159 156 139
245996.75518799 3357466.46170044 15.17520905 112 112 110
245997.21929932 3357465.83111572 15.39485168 40 39 37
245996.14410400 3357461.80953979 15.42072105 75 79 82
245997.16967773 3357471.93182373 14.98111820 115 121 121
245997.12817383 3357471.61422729 14.98410320 125 130 133
245998.50213623 3357469.72052002 15.48524761 60 70 71
245999.01739502 3357473.92330933 15.19189358 28 27 32
245997.72406006 3357465.37411499 15.42650604 44 48 51
245998.20794678 3357471.34820557 15.47624397 29 34 40
245997.77026367 3357471.44805908 15.12216377 104 110 108
245996.62005615 3357466.87228394 15.10819626 142 143 129
245997.14630127 3357464.55981445 15.56138611 69 81 93
245998.47949219 3357472.93136597 15.09939957 114 119 122
245996.49658203 3357462.08160400 15.60506916 22 27 31
245998.37585449 3357467.48593140 15.25285625 69 73 72
245997.49298096 3357469.78689575 15.23135090 94 98 99
245997.25634766 3357466.79830933 15.40533543 86 87 91
245998.67864990 3357471.58294678 15.64737797 56 62 62
245997.87243652 3357467.39013672 15.30118942 64 69 72
245997.13134766 3357470.74282837 15.01182747 109 114 110
245997.35284424 3357463.19180298 15.89297867 27 38 34
245998.06945801 3357472.54153442 15.08274460 115 120 123
245998.06658936 3357468.63644409 15.14236832 101 102 104
245998.65209961 3357472.78176880 15.10695839 111 115 118
245996.99395752 3357469.35885620 15.01685905 133 131 116
245997.06854248 3357464.23767090 15.67518902 50 47 54
245996.81732178 3357467.41140747 15.07007122 131 130 112
245998.75677490 3357471.45944214 15.75587463 24 33 32
245999.09527588 3357473.77740479 15.14992809 41 40 45
245996.96166992 3357463.62701416 15.69047260 83 88 91
245996.43041992 3357464.43774414 15.31026745 89 91 90
245998.46801758 3357467.40261841 15.14447975 61 63 62
245998.00323486 3357467.65249634 15.27056217 46 52 52
245998.77978516 3357470.02670288 15.17989731 92 94 93
245998.02709961 3357465.78698730 15.53142929 37 41 42
245997.19665527 3357469.58071899 15.09243965 146 144 119
245996.74987793 3357463.61068726 15.78020000 91 96 99
245997.38122559 3357469.58782959 15.42743778 89 91 90
245996.85449219 3357465.94253540 15.27336216 100 103 108
245998.23828125 3357466.19323730 15.36073399 60 64 65
245997.27398682 3357468.15319824 15.46204948 41 8 15
245998.58868408 3357471.01242065 15.64982319 225 237 235
245997.29241943 3357470.73779297 14.99582291 148 148 120
245998.01110840 3357466.13156128 15.41870689 54 63 62
245997.39923096 3357473.16555786 14.94936085 125 131 131
245998.29785156 3357473.87020874 15.16440105 83 90 98
245998.31939697 3357468.23733521 15.50042725 121 122 124
245997.84124756 3357465.25823975 15.57374382 18 22 25
245996.58819580 3357467.06015015 15.11599636 88 94 90
245997.90246582 3357467.76901245 15.35478592 22 30 33
245995.94354248 3357461.40032959 15.81480503 82 91 96
245997.97174072 3357467.88815308 15.41555405 21 29 31
245998.31292725 3357468.19644165 15.36522961 203 204 208
245997.64886475 3357472.74011230 14.95351028 188 184 147
245996.72558594 3357460.81115723 15.59030056 24 33 32
245996.35925293 3357463.47888184 15.43886566 88 96 98
245997.83068848 3357468.19528198 15.44762135 39 47 50
245997.91552734 3357465.85751343 15.50118732 48 49 53
245998.35906982 3357471.93054199 15.41598606 57 68 74
245996.08392334 3357462.32397461 15.13180447 101 102 94
245997.79217529 3357468.58352661 15.13347435 107 109 106
245998.75543213 3357471.00512695 15.80117798 49 60 52
245998.16015625 3357468.87530518 15.26843452 26 31 35
245995.90277100 3357461.41030884 15.80561924 95 104 111
245998.13970947 3357467.84207153 15.39446068 49 54 58
245997.10699463 3357466.77038574 15.38973331 85 88 93
245997.66760254 3357467.75430298 15.41296959 23 28 31
245999.29229736 3357473.44329834 15.04467487 72 78 78
245997.48339844 3357469.81814575 15.20315552 95 99 100
245996.53259277 3357463.45959473 15.66006851 92 98 98
245997.70550537 3357464.45770264 16.14210129 21 30 29
245996.23419189 3357461.89050293 15.50747108 75 81 81
245998.26843262 3357473.14392090 15.00969887 100 105 108
245997.38012695 3357467.65615845 15.33668518 84 85 87
245997.29174805 3357470.40704346 15.02381992 153 151 128
245998.40832520 3357471.31289673 15.38149166 38 45 51
245998.71075439 3357469.84103394 15.47094822 91 93 90
245997.59545898 3357464.68801880 15.99922848 27 32 36
245998.25030518 3357469.37844849 15.41980934 79 81 80
245996.64923096 3357464.28973389 15.74972248 94 95 97
245997.71759033 3357473.35522461 14.94423866 189 184 154
245996.84417725 3357464.31631470 15.67457962 52 47 54
245996.55834961 3357463.02310181 15.69218159 45 50 53
245997.98321533 3357469.36206055 15.44603252 78 79 83
245997.14605713 3357466.07479858 15.68884087 24 22 23
245998.04077148 3357469.40084839 15.44040775 104 105 107
245998.82281494 3357473.51617432 15.10734463 95 96 98
245998.27740479 3357472.00836182 15.42539215 60 65 71
245997.68786621 3357464.71249390 16.08032417 50 56 56
245996.68060303 3357467.47229004 15.06638050 109 113 99
245997.44213867 3357467.28912354 15.38440990 59 64 68
245997.79547119 3357470.42547607 15.18596745 93 97 98
245998.56298828 3357471.23971558 15.42993355 48 53 59
245996.87182617 3357466.49777222 15.28753185 104 109 113
245997.46783447 3357466.65817261 15.36815071 78 83 86
245996.25903320 3357464.10494995 15.11823273 123 125 124
245998.05169678 3357469.73272705 15.39929676 59 69 70
245997.40222168 3357472.68630981 14.93831444 121 126 122
245997.11114502 3357465.11718750 15.33978367 117 118 123
245997.57324219 3357472.51358032 14.94010925 193 190 155
245998.10021973 3357468.24246216 15.22399044 30 36 36
245997.08172607 3357463.39813232 15.55535698 75 80 84
245998.42907715 3357471.37713623 15.31664467 46 50 53
245997.74963379 3357469.07019043 15.45980644 30 31 36
245998.23260498 3357471.99993896 15.43262100 100 105 111
245997.09002686 3357463.20202637 15.52417564 66 76 78
245997.06585693 3357462.05474854 15.79967403 168 172 175
245997.95526123 3357471.19921875 15.46557999 24 34 36
245997.35229492 3357465.19415283 15.43964863 20 29 38
245997.79534912 3357465.04287720 15.94280243 13 23 24
245997.16522217 3357463.55670166 15.59837532 69 77 79
245997.51110840 3357466.62994385 15.35140038 71 76 79
245997.87292480 3357467.59713745 15.26408100 69 74 77
245996.98974609 3357467.39410400 15.17284012 88 91 96
245996.91870117 3357464.70306396 15.52830029 78 85 91
245999.02136230 3357470.72036743 15.06310654 55 56 48
245997.99328613 3357472.68649292 15.07291317 119 123 126
245997.68243408 3357470.78747559 15.12715149 107 111 114
245997.91284180 3357470.20645142 15.23375797 92 96 99
245996.78869629 3357466.79187012 15.19587994 115 112 105
245997.25775146 3357467.62091064 15.28810024 87 92 96
245996.76361084 3357463.53857422 15.74345398 89 94 97
245996.39526367 3357460.89593506 15.63956356 37 42 45
245997.10430908 3357467.07440186 15.40141201 60 65 71
245997.98870850 3357471.50021362 15.09694862 111 112 116
245996.25677490 3357463.35958862 15.20956612 111 110 105
245998.14874268 3357472.04031372 15.37278938 41 49 52
245998.59936523 3357470.88656616 15.48847485 52 61 56
245997.18737793 3357469.07861328 15.13782215 105 102 95
245997.67828369 3357465.10906982 15.47241020 102 111 116
245996.82592773 3357464.32852173 15.67622948 34 29 36
245996.47479248 3357464.00512695 15.72268486 82 91 96
245997.74951172 3357472.53335571 14.98546028 126 124 109
245997.75512695 3357470.91546631 15.13913059 96 100 101
245998.81414795 3357472.79998779 15.10234833 101 105 106
245997.00360107 3357466.25305176 15.63534260 221 221 221
245996.90356445 3357469.31997681 15.03566742 117 122 118
245996.33288574 3357462.26770020 15.36734295 70 80 81
245996.56744385 3357461.58413696 15.66033554 58 61 66
245996.25952148 3357463.69424438 15.21856117 84 85 80
245997.08862305 3357469.36880493 15.05149364 163 162 132
245998.04394531 3357470.41409302 15.25683212 95 104 103
245997.64984131 3357467.52890015 15.23987865 70 76 76
245997.26660156 3357465.20004272 15.43428707 15 22 30
245998.77612305 3357470.37963867 15.06485653 87 89 88
245997.04858398 3357469.16574097 15.07324982 175 170 138
245998.56890869 3357473.89483643 15.13210773 123 125 124
245998.99078369 3357472.90783691 15.06249332 102 108 108
245996.20257568 3357463.19958496 15.16100216 133 133 121
245996.44085693 3357462.66809082 15.45846939 82 87 91
245996.77221680 3357465.20181274 15.28041172 93 103 104
245999.35729980 3357473.87838745 15.08264637 51 63 59
245996.80303955 3357466.92001343 15.20478439 103 102 100
245997.83673096 3357465.26330566 15.60529518 16 20 23
245997.20031738 3357472.32409668 14.98366070 138 144 144
245996.21789551 3357462.19580078 15.35822296 116 122 122
245997.67706299 3357471.17138672 15.18351173 157 178 183
245997.18902588 3357463.68765259 15.62565041 71 80 79
245996.39013672 3357463.39916992 15.43624210 87 95 97
245997.80993652 3357468.93524170 15.38732910 12 13 17
245996.95428467 3357466.13275146 15.59482384 200 200 202
245996.11688232 3357462.24047852 15.20759392 72 77 73
245997.17553711 3357466.58938599 15.43969059 97 102 106
245997.50286865 3357466.61572266 15.35694599 71 76 79
245997.48242188 3357468.49325562 15.17325115 110 114 115
245997.02954102 3357468.15200806 15.17976284 95 94 92
245996.73657227 3357468.64083862 15.10420322 113 122 119
245998.04968262 3357471.17532349 15.50263977 40 47 53
245997.45208740 3357470.44021606 15.04314232 109 111 110
245997.46289063 3357469.22381592 15.37023354 23 23 23
245998.07269287 3357466.90228271 15.38566494 38 30 28
245998.09393311 3357468.02639771 15.52956867 34 39 43
245998.71612549 3357472.03314209 15.64215755 43 51 53
245995.80804443 3357461.39587402 15.64847946 36 45 42
245996.96099854 3357463.49032593 15.63683319 77 82 86
245997.00817871 3357467.41116333 15.17740917 88 91 96
245998.40020752 3357469.68640137 15.41923428 69 72 77
245996.70098877 3357465.11077881 15.25523949 94 102 104
245997.77270508 3357472.23306274 15.00155258 121 126 122
245997.27459717 3357467.94210815 15.57000160 56 34 37
245997.41662598 3357470.32699585 15.06020641 102 101 96
245998.78741455 3357470.42843628 15.06291294 89 91 88
245998.36065674 3357468.23480225 15.40872002 66 66 66
245998.40612793 3357470.71072388 15.29265976 84 93 90
245996.34906006 3357463.75842285 15.65107727 82 87 91
245998.17559814 3357468.17208862 15.34914398 31 39 41
245997.48632813 3357473.93301392 14.93310547 110 115 118
245999.07513428 3357470.77835083 15.38181114 51 64 46
245997.43664551 3357473.54507446 14.94254494 123 128 131
245998.25372314 3357466.81427002 15.25815010 108 88 89
245996.87860107 3357467.17803955 15.26155472 34 37 42
245998.10388184 3357466.53918457 15.31835938 59 63 62
245996.77545166 3357465.12582397 15.28201866 88 96 98
245997.08996582 3357468.53652954 15.08714008 121 120 115
245999.11590576 3357470.65576172 15.17015457 83 89 79
245997.56335449 3357466.10601807 15.50875282 49 52 57
245999.10717773 3357472.18060303 15.33362007 72 76 77
245998.23663330 3357467.36938477 15.43695164 62 63 65
245997.01684570 3357466.35998535 15.49073410 86 91 95
245996.62170410 3357467.08062744 15.11444092 107 113 103
245998.40185547 3357472.45410156 15.17141533 108 113 116
245997.31140137 3357473.16583252 14.95038700 123 129 129
245997.94952393 3357466.63888550 15.32995319 69 75 73
245997.76477051 3357468.20660400 15.46888065 36 41 47
245997.23223877 3357466.15270996 15.63336372 43 49 49
245998.18762207 3357472.98693848 15.03813076 112 118 118
245998.12768555 3357467.36367798 15.40494442 66 67 69
245997.07696533 3357470.63073730 15.01753426 108 117 114
245997.24053955 3357466.40496826 15.49087143 78 82 85
245998.39202881 3357472.02062988 15.42093468 56 64 67
245999.33209229 3357473.57876587 15.12889385 126 128 127
245995.80340576 3357460.44793701 15.22688484 70 71 65
245997.72149658 3357467.65704346 15.27400589 63 68 72
245995.98638916 3357461.62295532 15.21093845 95 95 87
245999.08148193 3357473.32559204 15.05756474 98 100 99
245997.72045898 3357471.90747070 15.21293545 129 130 132
245998.08575439 3357467.46463013 15.31916714 63 69 69
245998.35693359 3357468.24816895 15.18608952 46 47 49
245997.62567139 3357470.29455566 15.10147190 96 102 102
245999.29382324 3357472.71386719 15.00239182 64 69 65
245997.30065918 3357465.02169800 15.33612156 62 69 77
245998.13220215 3357472.39620972 15.09716320 114 118 121
245997.88562012 3357468.84405518 15.28473186 3 7 8
245997.71887207 3357473.17858887 14.94853306 187 182 150
245997.35314941 3357468.34729004 15.20246124 101 106 109
245996.20190430 3357462.14718628 15.37132072 138 144 144
245996.46679688 3357463.74664307 15.78290367 95 101 101
245997.34954834 3357463.97415161 15.72255707 132 147 152
245998.58544922 3357473.47552490 15.13065624 99 104 107
245997.78436279 3357466.59457397 15.30500221 72 76 79
245997.67260742 3357469.89260864 15.17061996 87 91 92
245998.24609375 3357470.97183228 15.35737324 52 57 60
245998.14978027 3357465.93948364 15.48151779 60 66 64
245997.81427002 3357474.20169067 14.92690754 181 178 147
245998.24444580 3357466.41394043 15.26553535 51 53 50
245998.93725586 3357472.28747559 15.32935429 90 96 96
245997.98657227 3357468.74353027 15.18604279 90 94 97
245996.36608887 3357463.04519653 15.72243500 79 85 85
245998.03259277 3357472.47988892 15.07132339 117 122 125
245997.80212402 3357472.32293701 15.00503159 121 125 124
245998.37237549 3357473.85391235 15.15216827 41 44 49
245997.97747803 3357472.33239746 15.05187321 122 125 130
245997.71032715 3357472.10845947 15.05333138 84 89 85
245998.64434814 3357471.84741211 15.61826801 87 90 95
245997.67523193 3357473.58776855 14.93734646 163 161 140
245997.72369385 3357468.73641968 15.17927742 109 111 110
245995.99615479 3357462.00479126 15.18936348 122 124 113
245995.93139648 3357461.54190063 15.20877838 98 100 95
245998.11389160 3357473.64157104 15.11076832 201 226 231
245997.88250732 3357473.86981201 14.97169685 163 162 134
245998.21752930 3357467.28555298 15.47207165 45 49 52
245997.37762451 3357470.12078857 15.05249500 102 99 92
245996.49395752 3357463.55566406 15.68564796 89 95 95
245998.33160400 3357468.27761841 15.62065315 156 157 161
245998.14056396 3357471.34039307 15.44230556 29 36 44
245999.04528809 3357474.04757690 15.17311478 62 63 65
245996.69329834 3357462.23489380 15.41777611 42 43 47
245998.76171875 3357469.97515869 15.20940781 93 95 94
245996.72857666 3357464.84176636 15.40166569 98 103 106
245996.17596436 3357461.92858887 15.47373772 75 79 80
245996.88177490 3357466.46691895 15.30162144 105 110 114
245997.32220459 3357465.43099976 15.38455105 44 49 52
245998.07196045 3357466.04858398 15.44228458 51 61 60
245997.64111328 3357467.76745605 15.44073677 23 28 31
245997.83117676 3357467.16494751 15.47235203 55 60 63
245997.81604004 3357471.87939453 15.40451241 72 76 77
245997.98455811 3357469.88290405 15.17775631 77 82 85
245998.19250488 3357466.54403687 15.28296471 62 66 65
245997.31243896 3357463.29238892 15.62063694 56 67 63
245998.47790527 3357471.74743652 15.36733627 39 56 63
245999.25927734 3357473.31597900 15.02717590 88 92 95
245997.93273926 3357465.61993408 15.64656544 20 24 25
245996.85650635 3357465.78970337 15.30474091 101 105 106
245998.93005371 3357470.57659912 15.02162647 87 90 83
245996.53417969 3357463.41250610 15.63759804 94 103 102
245997.73162842 3357464.87567139 16.03074455 56 64 67
245996.26269531 3357463.57498169 15.23142147 94 95 90
245998.44927979 3357469.66452026 15.54383945 52 55 60
245997.84143066 3357470.85433960 15.19041443 101 102 106
245998.16131592 3357472.78759766 15.07232857 120 125 128
245997.75836182 3357471.06149292 15.21431923 149 150 152
245997.00445557 3357465.22720337 15.41429520 69 77 79
245996.19097900 3357461.85855103 15.46043396 78 82 85
245997.20062256 3357468.01678467 15.52257156 82 42 51
245997.68420410 3357471.26132202 15.15996361 83 100 108
245998.31372070 3357473.34832764 15.06302547 109 114 117
245997.16479492 3357465.54647827 15.35034657 86 87 89
245999.27191162 3357472.65371704 15.00316620 82 87 83
245998.52215576 3357468.74203491 15.11528778 51 53 50
245998.56054688 3357471.15289307 15.48302174 54 63 70
245997.93658447 3357466.28997803 15.37115479 67 72 75
245998.22125244 3357472.12310791 15.21468258 81 92 94
245997.36785889 3357471.85974121 14.98355675 125 126 108
245996.76013184 3357467.38781738 15.05273056 127 129 108
245997.34570313 3357464.74533081 15.57591343 93 106 114
245996.41186523 3357464.21969604 15.70490837 167 177 179
245998.41583252 3357470.96939087 15.44905472 63 69 69
245997.02764893 3357466.27273560 15.65937901 179 181 180
245997.25469971 3357467.30664063 15.31942272 49 54 58
245996.37976074 3357465.35656738 15.15887833 151 153 129
245996.48797607 3357461.43338013 15.72281742 49 54 57
245996.16198730 3357461.52035522 15.84510612 53 61 64
245998.31958008 3357469.84277344 15.24120808 90 95 98
245996.75097656 3357465.00613403 15.31672192 97 103 103
245999.29028320 3357472.29916382 15.07168198 107 113 109
245997.44635010 3357471.89932251 15.00147152 161 158 127
245996.02722168 3357461.75558472 15.23335171 79 82 75
245997.53143311 3357465.31674194 15.39137554 44 45 49
245996.09606934 3357462.24685669 15.17609501 92 93 87
245997.28698730 3357469.55963135 15.29844570 83 84 86
245996.19952393 3357463.17398071 15.16259003 133 133 121
245997.38574219 3357471.07003784 14.98340034 179 175 140
245997.90753174 3357473.76205444 14.99221230 133 129 117
245998.38995361 3357468.25296021 15.42336559 63 63 61
245997.64575195 3357464.83801270 15.98195553 22 30 33
245998.10552979 3357473.88571167 15.12091255 205 225 232
245996.94512939 3357466.83111572 15.30828953 104 107 112
245996.84631348 3357467.53076172 15.09503841 154 153 135
245997.87664795 3357473.32263184 14.97127628 124 125 119
245999.07336426 3357470.28952026 15.08149147 115 117 112
245996.35198975 3357461.13150024 15.65539074 52 58 58
245997.70654297 3357468.32138062 15.32346630 60 65 69
245997.76507568 3357465.96658325 15.47098064 56 60 63
245997.54980469 3357470.26113892 15.08419037 101 107 105
245998.71356201 3357470.53796387 15.10442066 88 93 87
245998.11596680 3357473.73489380 15.15368080 209 239 247
245997.28344727 3357468.75384521 15.11661053 111 115 114
245999.45214844 3357473.00579834 15.00824356 105 107 96
245997.70367432 3357467.68792725 15.31538773 47 52 55
245996.15222168 3357461.94497681 15.45221901 86 90 91
245996.67285156 3357463.59207153 15.76080799 86 91 94
245996.74560547 3357462.04705811 15.50923157 29 33 36
245997.45355225 3357464.82839966 15.73986244 42 50 52
245997.67541504 3357466.69610596 15.27967072 68 72 75
245997.28710938 3357469.59808350 15.24660778 98 98 98
245996.10516357 3357461.83560181 15.35544491 69 72 77
245997.30883789 3357464.35769653 15.71458721 174 193 207
245998.59661865 3357474.17428589 15.11978245 107 111 112
245997.89263916 3357473.57739258 15.00212002 129 126 119
245996.23986816 3357462.99179077 15.24539566 104 115 111
245997.79791260 3357469.51931763 15.64017677 74 75 79
245997.53240967 3357464.96527100 15.51332855 72 90 92
245997.42364502 3357463.41677856 15.82069588 35 52 44
245998.35241699 3357472.09039307 15.39300537 69 77 80
245996.85028076 3357466.64385986 15.24956322 102 103 105
245996.74591064 3357467.10812378 15.17003345 154 148 136
245996.15148926 3357460.93313599 15.69276047 43 47 48
245996.73590088 3357467.88116455 15.11883354 131 132 114
245997.58709717 3357473.89636230 14.93228817 102 108 108
245998.52502441 3357469.19293213 15.38971329 46 46 44
245996.62542725 3357462.60876465 15.52010250 82 88 88
245997.16418457 3357467.57269287 15.26000023 94 97 102
245997.02447510 3357464.40374756 15.61819363 52 51 57
245998.80181885 3357472.31353760 15.35736370 91 97 97
245997.17211914 3357465.78799438 15.32337475 95 95 93
245996.86260986 3357462.16662598 15.44190788 42 49 55
245997.88415527 3357467.85717773 15.41544724 23 28 32
245997.51739502 3357464.49218750 15.96378803 201 204 213
245998.41320801 3357469.78872681 15.26748371 84 89 92
245998.24652100 3357467.57669067 15.38027096 53 59 57
245997.47619629 3357471.00982666 15.01657295 124 120 109
245997.50842285 3357468.39532471 15.25806332 81 85 86
245996.27044678 3357464.32376099 15.45801067 117 118 104
245999.11822510 3357470.35290527 15.09863663 61 67 57
245996.88269043 3357468.79373169 15.07715607 128 133 113
245997.66973877 3357465.96865845 15.49130726 53 54 59
245997.82574463 3357471.74667358 15.17713165 87 91 90
245998.50122070 3357469.44284058 15.63407898 70 71 73
245997.15496826 3357467.37698364 15.22588921 74 77 82
245998.35638428 3357469.59494019 15.50955105 72 75 80
245998.71514893 3357469.87103271 15.27858829 88 92 93
245998.21356201 3357467.88269043 15.89563179 18 28 30
245996.89978027 3357469.36199951 15.02734661 130 134 133
245997.15563965 3357466.27194214 15.63244247 75 79 80
245996.99993896 3357469.20623779 15.06390667 152 147 125
245997.07366943 3357466.65747070 15.39311600 98 103 107
245998.10430908 3357468.09957886 15.58186531 49 54 58
245998.64569092 3357471.50540161 15.54525280 57 63 63
245999.16424561 3357470.46374512 15.22744179 47 58 44
245998.36340332 3357471.71203613 15.28466511 41 56 61
245997.27294922 3357472.23617554 14.98684692 132 137 140
245998.13934326 3357469.03219604 15.33522224 28 37 36
245998.97631836 3357472.87753296 15.07975769 100 106 106
245998.85485840 3357470.25421143 15.06010151 93 93 91
245996.27386475 3357461.70489502 15.55888939 84 89 92
245998.99737549 3357474.02630615 15.19236279 61 60 65
245996.65924072 3357466.81478882 15.11439991 155 154 133
245998.44433594 3357469.03460693 15.35912323 59 61 58
245998.52734375 3357469.80612183 15.26163101 84 90 90
245996.26361084 3357461.62606812 15.71357727 71 81 83
245997.68591309 3357467.27600098 15.35777187 53 61 63
245998.56848145 3357468.73330688 15.12469387 48 50 49
245998.11126709 3357468.46887207 15.10807037 89 94 97
245998.76190186 3357470.73620605 15.13550377 69 74 68
245998.91052246 3357472.88732910 15.09328365 112 116 117
