246131.03979492 3357325.73666382 14.49248981 126 124 99
246109.03759766 3357327.28341675 14.78101826 131 129 108
246136.00744629 3357324.55148315 14.89177036 118 87 93
246127.42028809 3357324.70227051 15.01617813 97 70 23
246113.32629395 3357325.21792603 14.86490822 113 117 120
246141.33129883 3357324.93661499 14.77657890 63 52 22
246112.83703613 3357325.53979492 15.00557804 65 67 79
246129.07788086 3357325.52453613 14.92025852 134 126 115
246124.78649902 3357325.04779053 15.08723640 240 213 168
246115.68249512 3357324.52944946 14.85754395 121 124 129
246141.70483398 3357326.32867432 14.61628532 138 135 126
246137.15478516 3357326.19741821 14.38844204 199 190 173
246139.75866699 3357324.74780273 14.40147018 88 82 84
246140.67443848 3357326.22344971 14.39662933 122 116 100
246143.63110352 3357325.22250366 14.70474911 47 45 33
246109.62463379 3357326.83181763 14.80369473 121 118 109
246125.47192383 3357324.62234497 15.17726040 58 39 7
246141.39758301 3357325.90744019 14.58185291 61 47 34
246135.40844727 3357326.39691162 14.45678139 188 177 157
246139.09826660 3357326.50106812 14.51810074 171 168 159
246131.54467773 3357325.29251099 14.66337872 94 92 95
246135.62255859 3357326.15359497 14.45453453 203 187 162
246139.36877441 3357326.22756958 14.41734791 139 125 114
246128.52185059 3357325.02780151 14.54176331 69 70 72
246139.35009766 3357325.59350586 14.68330383 43 46 39
246131.95190430 3357325.40307617 14.71970844 111 99 83
246127.52416992 3357325.03350830 15.17168903 123 101 104
246132.58435059 3357326.17364502 14.87556076 64 65 70
246114.97827148 3357326.25042725 14.93258095 50 57 65
246121.36926270 3357326.11730957 15.32347584 188 182 150
246135.58557129 3357325.36080933 14.46306705 121 122 124
246141.53369141 3357324.89578247 14.51997566 125 98 53
246126.03271484 3357325.20590210 14.98172283 92 98 84
246142.05346680 3357326.29812622 14.52087593 102 107 41
246126.80676270 3357326.31149292 15.06789875 64 93 89
246127.54504395 3357324.65454102 14.82428646 95 82 65
246134.26464844 3357325.28930664 14.44565296 71 71 73
246132.39965820 3357324.74591064 14.62224102 101 107 107
246127.87292480 3357325.85586548 14.53526974 38 38 38
246128.08898926 3357324.78482056 14.92150402 196 174 160
246134.09521484 3357326.16217041 14.59889984 168 164 152
246127.42053223 3357326.49426270 14.57380486 87 84 79
246109.83276367 3357326.03521729 15.18559742 236 218 198
246129.01208496 3357325.74227905 14.86631966 158 147 129
246143.69714355 3357325.34976196 14.62829113 52 52 54
246125.31530762 3357325.69335938 14.99539185 141 135 119
246121.64147949 3357326.37734985 14.83058834 88 91 96
246133.69006348 3357325.15454102 14.61432171 126 129 120
246124.46838379 3357325.12908936 15.06873131 44 42 21
246135.25939941 3357324.71704102 14.51940536 141 147 145
246135.95507813 3357324.63748169 15.11343861 125 102 108
246114.48742676 3357325.82818604 14.97472095 56 53 62
246142.40368652 3357325.89599609 14.97092724 156 150 128
246116.90454102 3357326.13006592 15.21933937 81 71 59
246137.79748535 3357325.90258789 14.57820702 88 86 87
246118.69055176 3357325.61785889 14.97970581 110 109 107
246129.70214844 3357325.74087524 14.92162228 58 58 56
246125.71826172 3357324.38360596 14.63564587 121 121 123
246142.28063965 3357324.65216064 14.64000034 183 165 127
246132.62170410 3357325.36672974 14.74215317 69 67 70
246111.49145508 3357326.37292480 15.40780354 145 137 124
246108.58801270 3357327.58752441 14.88754559 225 221 222
246111.06103516 3357326.99948120 14.92461872 165 167 154
246137.17333984 3357325.75930786 14.75921822 111 111 113
246108.90185547 3357326.30078125 15.15254879 187 214 231
246126.59631348 3357326.44308472 14.88751984 66 71 65
246130.18896484 3357326.17077637 14.65793800 56 55 50
246142.79980469 3357326.06518555 15.07822132 124 125 117
246124.39086914 3357325.60968018 15.12072468 134 143 138
246136.74316406 3357324.60580444 15.00493431 44 44 46
246123.63488770 3357326.14755249 15.22695541 69 69 69
246117.76318359 3357325.35043335 15.07014942 99 101 98
246123.25378418 3357326.02807617 14.77762413 82 78 79
246124.80505371 3357326.47528076 14.81363583 85 124 119
246132.58630371 3357326.16757202 14.73833179 221 220 234
246124.97509766 3357326.45922852 14.80717373 53 69 68
246113.47167969 3357325.24795532 14.88308239 117 121 122
246131.94628906 3357326.14077759 14.58251476 119 85 76
246135.04052734 3357325.19711304 14.48265839 121 123 122
246124.45141602 3357325.17752075 15.05235863 51 47 22
246111.81994629 3357326.62820435 14.82683182 64 80 80
246121.74340820 3357325.58392334 15.04286480 56 56 56
246130.75988770 3357325.12991333 14.61450386 101 97 96
246127.46801758 3357325.56161499 15.10849857 75 77 74
246112.36132813 3357326.91424561 14.79072666 140 140 128
246127.03845215 3357325.47302246 15.07840919 187 183 174
246131.83654785 3357325.43740845 14.63476086 132 124 101
246114.80175781 3357325.65744019 14.92310524 103 108 112
246124.69873047 3357324.64065552 15.10086632 61 42 2
246119.88000488 3357325.84097290 14.96806908 107 100 94
246137.43676758 3357325.56512451 14.91617107 81 79 82
246144.48034668 3357324.64495850 14.38373852 133 137 136
246128.94421387 3357325.98815918 14.80795860 143 130 121
246139.77062988 3357325.03521729 14.69580746 174 162 150
246131.82690430 3357324.59988403 15.01522541 0 8 13
246142.86938477 3357325.63037109 14.59772587 60 53 45
246136.45849609 3357326.49447632 14.55202675 162 163 165
246129.54296875 3357325.01885986 14.77390862 163 163 163
246142.76574707 3357324.95751953 14.55152130 56 56 56
246142.05102539 3357325.30227661 14.48518085 90 88 89
246132.93237305 3357325.18286133 14.94451714 155 154 136
246133.51000977 3357324.84259033 14.47671509 119 123 126
246119.15539551 3357324.95309448 14.65344524 106 105 110
246122.80456543 3357325.04263306 15.15879154 158 139 107
246129.27062988 3357325.25061035 15.13647175 239 185 201
246130.59997559 3357326.29653931 14.47240448 104 98 82
246139.72094727 3357325.70571899 14.69563484 191 189 177
246115.08398438 3357326.09353638 14.93150902 66 71 77
246115.34777832 3357325.13018799 15.09438324 124 123 119
246113.44543457 3357325.67800903 15.09576607 108 109 114
246113.25964355 3357326.31900024 14.94291210 89 76 68
246107.75537109 3357327.23681641 15.11762810 134 133 128
246142.78454590 3357324.63195801 14.44639397 209 195 166
246139.23449707 3357324.78747559 14.88188267 78 82 85
246111.07141113 3357327.13137817 14.87905025 197 197 189
246110.11938477 3357326.08660889 15.29013252 66 66 76
246140.66943359 3357324.72259521 14.46777058 112 111 107
246141.40173340 3357326.35549927 14.64165878 127 124 115
246116.06481934 3357325.89682007 15.04650879 118 127 132
246135.06933594 3357325.74069214 14.66051960 51 74 82
246129.23022461 3357325.47305298 15.15598392 129 108 107
246129.40368652 3357325.70727539 15.01144600 92 93 87
246142.09948730 3357325.26031494 14.49369431 64 64 64
246138.22949219 3357324.83337402 14.80166054 94 90 87
246125.67224121 3357325.23229980 15.10279369 58 39 9
246139.24304199 3357325.51016235 14.74313927 139 140 124
246137.85217285 3357326.28518677 14.44703197 140 134 120
246126.60009766 3357324.61437988 14.57744312 115 116 118
246140.35327148 3357324.82394409 14.49949169 129 112 105
246107.42517090 3357327.36309814 14.85037422 123 127 128
246116.74951172 3357324.80868530 15.02303600 111 112 107
246131.85205078 3357324.54635620 14.76794815 70 80 81
246111.94152832 3357326.63018799 14.83315945 76 86 88
246126.19287109 3357326.42260742 14.81992435 40 44 43
246112.44335938 3357325.66125488 15.24867439 56 60 63
246122.90673828 3357325.88775635 14.80817604 90 92 91
246137.68664551 3357325.18548584 15.01815701 54 60 48
246137.60754395 3357326.33483887 14.46834850 134 131 124
246132.56616211 3357324.49526978 14.50906658 129 113 113
246133.72900391 3357325.06097412 15.09181595 87 86 92
246112.97375488 3357325.18179321 14.85062122 115 116 118
246127.03015137 3357326.23693848 15.20880222 121 148 141
246111.08801270 3357325.90725708 15.21834564 79 87 98
246142.60485840 3357325.71652222 14.83267403 57 49 30
246125.63269043 3357324.57858276 14.98234463 38 21 0
246127.78198242 3357325.51199341 14.72714806 40 42 41
246115.85632324 3357326.43280029 14.76256561 70 74 83
246119.90832520 3357325.82757568 14.94093037 109 102 96
246127.68432617 3357326.43750000 14.49386215 110 104 92
246122.56579590 3357325.82315063 14.96753693 92 99 105
246137.96203613 3357325.00476074 14.69770622 110 94 78
246107.93408203 3357327.11141968 15.06627941 126 122 113
246125.13220215 3357324.80432129 15.13795280 158 139 99
246125.93579102 3357324.67187500 14.93765736 226 191 135
246131.51525879 3357324.48303223 15.13530445 109 103 107
246112.12500000 3357326.76126099 14.79672241 139 136 129
246135.20080566 3357325.99169922 14.48153114 67 65 66
246137.31323242 3357324.54135132 14.65415001 83 89 89
246120.20532227 3357324.93902588 15.21311569 243 232 226
246111.49707031 3357326.52536011 15.14653015 132 181 177
246118.76257324 3357324.11376953 14.94662762 126 122 113
246138.66418457 3357324.65515137 14.65842342 99 102 111
246132.92260742 3357324.94165039 14.99341297 62 63 65
246131.09753418 3357325.57897949 14.48456287 128 125 110
246118.88134766 3357325.40103149 14.90574455 113 115 114
246123.84899902 3357325.68045044 15.31918144 115 117 114
246109.11071777 3357326.89077759 14.91470623 151 145 129
246110.75439453 3357326.53552246 15.31510830 151 159 146
246120.80261230 3357325.78894043 15.23211098 106 107 102
246144.56213379 3357324.98049927 14.42623425 83 83 83
246106.73437500 3357326.39956665 15.06840992 143 148 154
246112.12329102 3357326.14166260 14.90595150 91 93 92
246127.10266113 3357325.85794067 15.26493931 206 221 224
246120.80908203 3357324.93383789 14.84142113 47 49 46
246126.11791992 3357326.13735962 15.02054596 80 97 113
246124.68310547 3357326.58926392 14.80248833 103 118 113
246141.85974121 3357325.25750732 14.65462303 115 111 108
246107.30407715 3357326.65753174 14.90720463 105 108 113
246114.20678711 3357326.12524414 14.97592926 47 53 53
246112.50622559 3357326.61193848 14.87522984 78 78 78
246107.63037109 3357327.30017090 15.04790878 142 146 145
246126.96215820 3357324.51007080 14.58809471 107 108 110
246141.92993164 3357324.59072876 14.47093678 108 111 116
246132.10754395 3357325.58895874 14.54457855 125 117 106
246131.31054688 3357325.95684814 14.45818043 103 100 93
246125.41271973 3357326.03698730 15.17663288 81 77 74
246123.38842773 3357324.63961792 14.97656250 204 160 131
246127.03503418 3357325.64923096 15.16264820 160 162 149
246121.31298828 3357324.86068726 14.71090031 57 55 60
246137.46337891 3357325.18515015 14.75238132 100 86 49
246126.00585938 3357324.53506470 14.55223560 121 120 125
246136.97961426 3357324.97766113 14.83816528 59 59 59
246127.69519043 3357326.11093140 14.85563946 34 35 29
246140.05590820 3357325.39489746 14.60963154 207 207 209
246127.48706055 3357324.60232544 14.73919106 116 111 107
246141.47778320 3357325.64309692 14.48850346 44 46 45
246111.72521973 3357326.38586426 15.05140209 122 139 129
246131.08593750 3357325.88946533 14.48122311 118 112 96
246121.30615234 3357326.67968750 14.64956570 91 100 79
246111.70288086 3357325.99301147 15.07335854 45 48 53
246133.08288574 3357326.27816772 14.67444038 136 60 70
246124.47167969 3357325.28823853 15.06928349 156 149 103
246138.51660156 3357324.68887329 14.77928829 119 125 137
246108.47900391 3357326.51858521 15.21754742 65 74 79
246143.27453613 3357325.94296265 14.61633015 69 66 61
246141.13354492 3357325.03536987 14.63081264 34 34 36
246131.10900879 3357325.75939941 14.48499680 124 121 102
246115.86669922 3357324.76806641 14.98754311 124 125 127
246141.24377441 3357326.27755737 14.46351337 142 136 112
246132.68872070 3357325.08804321 14.84921741 120 127 135
246133.45153809 3357325.92114258 14.39798164 248 250 247
246140.20703125 3357325.72952271 14.68654251 90 92 81
246140.26342773 3357325.10467529 14.79110622 80 85 79
246130.09643555 3357325.92492676 14.92782593 123 122 130
246133.15356445 3357324.60067749 14.49920654 252 247 251
246116.28869629 3357326.16180420 14.93484306 176 191 184
246111.28320313 3357326.71160889 15.03033257 99 156 149
246116.65136719 3357325.68020630 15.22878265 59 59 61
246135.02612305 3357324.87802124 14.48306847 126 130 131
246137.76464844 3357324.53298950 14.47099781 251 252 254
246138.32128906 3357325.02044678 14.96356773 224 212 196
246127.72204590 3357326.08547974 14.81097412 30 35 29
246130.86511230 3357324.96661377 14.76977348 89 85 84
246141.11828613 3357325.63885498 14.78263760 195 195 171
246119.86193848 3357324.29727173 14.68492985 120 121 125
246138.80883789 3357325.61337280 14.62526131 255 255 247
246107.11059570 3357327.30886841 14.80865669 119 119 121
246120.01037598 3357325.50323486 14.96431923 65 64 69
246140.96960449 3357324.95260620 14.76280594 43 47 48
246141.75927734 3357325.52584839 14.44293404 120 116 113
246139.09802246 3357325.07543945 14.49028873 23 25 12
246141.18786621 3357324.80664063 14.47740364 75 67 54
246125.61486816 3357325.18133545 15.10083294 56 41 12
246133.51770020 3357325.07882690 14.61890411 155 162 172
246141.29370117 3357326.19726563 14.65146828 82 79 64
246132.53625488 3357325.13565063 14.82787132 109 131 142
246123.02197266 3357324.81622314 15.10997963 136 119 109
246123.04003906 3357326.68731689 14.86007881 82 79 74
246138.12072754 3357326.36404419 14.50691032 123 122 120
246133.89916992 3357324.98559570 14.86454964 59 74 81
246130.34289551 3357326.00924683 14.75483704 32 33 38
246121.66748047 3357325.84848022 15.05345440 115 112 103
246117.17504883 3357324.40805054 14.79526234 122 123 127
246116.36486816 3357325.95681763 15.31576443 200 215 218
246116.91857910 3357325.70455933 15.19557285 154 176 173
246137.64807129 3357325.16864014 14.84610844 185 176 161
246110.83483887 3357325.82504272 15.02610016 247 255 255
246136.92626953 3357324.48388672 14.69841290 121 112 115
246120.99011230 3357326.39425659 15.01403618 140 127 85
246116.73852539 3357325.43264771 15.18060303 81 83 80
246119.67712402 3357325.87280273 15.13915539 130 121 116
246111.85229492 3357326.19033813 15.14270401 187 179 140
246119.71508789 3357325.13555908 14.73159218 90 92 91
246107.91113281 3357326.19665527 15.09074402 96 99 108
246131.57312012 3357324.79644775 15.10743523 60 66 64
246132.34973145 3357326.15780640 14.76190853 76 77 82
246124.79760742 3357326.48431396 14.82001495 85 124 119
246138.78601074 3357325.13693237 14.97887611 123 124 116
246109.12976074 3357325.88134766 14.95089149 94 104 114
246124.31042480 3357325.25619507 15.14626122 102 97 39
246123.63623047 3357326.28646851 15.02286243 84 84 82
246116.34667969 3357325.26348877 15.03883839 112 107 88
246121.90222168 3357326.38455200 14.86862469 80 98 112
246130.84619141 3357326.48727417 14.45811081 132 124 111
246111.60864258 3357326.89517212 14.74929047 141 136 117
246130.40734863 3357326.08401489 14.68214035 44 41 48
246108.74621582 3357326.40948486 15.21601009 251 255 255
246109.06164551 3357326.37625122 15.13011837 49 59 69
246120.88867188 3357324.23080444 14.88047504 124 105 109
246113.72924805 3357326.76089478 14.87475204 88 93 89
246111.83728027 3357326.34414673 15.05103588 82 86 72
246119.55334473 3357324.39062500 14.65707302 90 89 94
246112.20031738 3357325.92382813 14.95387840 72 71 69
246123.93334961 3357325.08779907 15.17817211 73 64 47
246139.14672852 3357324.54141235 14.45539284 107 108 110
246119.59826660 3357326.66220093 14.70078278 105 101 89
246136.69372559 3357324.47418213 14.48886204 218 212 214
246110.91931152 3357325.81137085 15.13581944 145 175 203
246140.54199219 3357324.79956055 14.78278637 218 189 147
246129.04052734 3357324.78094482 14.51922989 255 255 255
246119.38562012 3357325.44094849 14.92680454 71 53 31
246130.33886719 3357325.25729370 14.59780407 107 105 106
246136.42736816 3357324.44869995 15.02443123 36 26 27
246123.35156250 3357324.48098755 14.76988316 99 92 84
246108.85607910 3357326.52514648 15.19754219 58 65 73
246131.89709473 3357325.92886353 14.43549824 124 121 106
246139.81591797 3357325.15518188 14.98995399 83 83 85
246120.56323242 3357326.30990601 15.21565056 94 85 76
246112.02502441 3357326.84707642 14.77314568 127 120 114
246124.19140625 3357326.01306152 15.03059196 61 85 63
246107.23205566 3357326.77468872 14.86651421 108 111 118
246111.90209961 3357325.43954468 15.19414043 89 92 97
246137.31665039 3357326.60000610 14.57076645 116 115 111
246120.61096191 3357324.42541504 14.90891552 237 237 245
246143.33081055 3357326.53259277 14.50318241 116 113 108
246109.65966797 3357326.60623169 14.84172440 103 103 105
246120.92089844 3357325.20611572 15.16662979 175 141 114
246116.73803711 3357325.99151611 15.07315254 110 104 90
246122.50415039 3357324.71023560 14.96019173 161 128 95
246118.13012695 3357325.78955078 14.95226574 73 73 73
246131.89978027 3357324.44232178 14.51966000 113 113 115
246122.03186035 3357325.32263184 15.20278168 79 80 84
246121.17468262 3357326.38809204 15.24219990 92 88 79
246111.71997070 3357325.24761963 15.16690159 107 111 112
246137.91772461 3357326.19961548 14.46099949 161 154 136
246110.69323730 3357325.98004150 15.22302914 242 242 242
246139.86181641 3357325.18841553 14.97035217 75 75 75
246142.24218750 3357325.18646240 14.47146893 56 60 63
246127.31896973 3357325.95297241 15.29827023 209 227 227
246142.25097656 3357324.74291992 15.02549839 242 240 253
246137.20288086 3357324.49841309 14.66607475 59 61 60
246116.27709961 3357325.98937988 15.23259354 90 125 119
246112.40112305 3357325.51889038 15.22651196 53 48 42
246141.41125488 3357325.77783203 14.49372387 37 39 36
246129.23498535 3357325.83636475 15.10688972 118 100 90
246144.39831543 3357324.70880127 14.60484409 160 142 118
246131.39990234 3357325.55996704 14.45496178 125 121 109
246107.45495605 3357326.92822266 14.97163963 97 96 101
246107.52429199 3357326.74725342 14.93442726 117 116 122
246141.65551758 3357326.27935791 14.72840023 135 135 123
246136.70922852 3357326.25939941 14.45616531 172 167 148
246133.70751953 3357325.86660767 14.47060680 108 110 105
246111.26940918 3357325.70883179 15.34783077 112 106 92
246122.94995117 3357325.64602661 14.81288338 69 88 102
246124.44165039 3357325.67330933 15.02780342 135 153 165
246143.85925293 3357325.04092407 14.75858212 145 145 119
246114.31994629 3357325.21121216 14.79392529 122 121 126
246114.47998047 3357325.95983887 14.94452000 36 39 46
246140.17956543 3357325.24566650 14.60993385 72 73 75
246144.48193359 3357325.37414551 14.33289337 116 116 118
246132.40063477 3357324.64733887 14.52949333 237 236 241
246121.55957031 3357326.64718628 14.61608601 95 96 82
246143.14001465 3357325.08981323 14.91262627 230 216 167
246115.83386230 3357325.70535278 15.05190468 73 73 65
246116.39001465 3357325.17114258 15.11482430 184 175 166
246117.56396484 3357325.18402100 15.17080975 109 111 110
246107.35913086 3357326.84689331 14.83655167 101 102 107
246142.98608398 3357325.95297241 14.66845036 139 140 142
246130.00219727 3357325.87915039 14.92829895 104 102 113
246125.80346680 3357324.83633423 15.12646866 116 99 69
246122.65734863 3357324.75289917 15.15048981 65 54 24
246112.77893066 3357326.66238403 14.77459431 110 112 99
246112.47888184 3357326.58609009 14.89318085 142 141 146
246138.63073730 3357325.89019775 14.75903034 128 113 90
246127.95556641 3357324.96636963 14.68870544 121 99 75
246130.73754883 3357324.42962646 14.45479298 115 115 117
246109.25659180 3357326.08944702 15.00562668 88 100 116
246112.77258301 3357326.44357300 14.81016731 91 94 87
246134.04394531 3357325.51531982 14.43909550 109 110 112
246111.53039551 3357325.36486816 15.23891735 108 110 99
246125.59606934 3357324.54965210 14.97307396 45 29 3
246140.65844727 3357324.76440430 14.73167133 211 190 171
246128.96618652 3357325.91702271 14.82821178 138 128 118
246141.62243652 3357325.07501221 15.01921463 177 165 117
246106.95544434 3357327.26010132 14.81779385 122 121 126
246132.84912109 3357325.21444702 14.86425781 196 191 187
246129.18737793 3357325.34588623 15.03456593 121 72 78
246143.71752930 3357326.59072876 14.50919342 206 200 200
246115.37402344 3357326.48348999 14.85555840 129 162 181
246135.34667969 3357325.40505981 14.48143864 119 119 121
246116.82543945 3357326.15658569 15.18819237 90 84 68
246142.62524414 3357326.06359863 15.12532997 194 200 188
246131.70715332 3357325.38815308 14.72313690 100 103 94
246139.91760254 3357324.85690308 14.88932896 124 117 111
246130.69433594 3357324.49832153 14.48044586 121 119 122
246141.62048340 3357325.40139771 14.60371876 109 110 105
246111.00415039 3357327.14462280 15.01090622 110 110 98
246139.27587891 3357325.75909424 14.49068069 73 77 78
246128.06250000 3357325.39059448 14.51800346 146 144 145
246142.94555664 3357325.53536987 14.56046963 105 100 97
246144.46765137 3357325.52618408 14.32971573 105 105 107
246120.29235840 3357324.70849609 15.37961006 209 206 215
246143.48840332 3357324.95318604 14.47790527 124 124 124
246132.39501953 3357325.76412964 14.54076290 106 102 101
246132.22253418 3357324.93823242 15.21740532 97 86 90
246125.82409668 3357325.54208374 14.98615646 27 33 19
246136.38757324 3357324.48260498 14.96471405 44 28 31
246125.14575195 3357324.43792725 15.00184059 240 224 173
246136.93957520 3357325.65414429 14.68545628 118 116 117
246130.52368164 3357326.50704956 14.50917530 116 111 105
246112.89965820 3357325.06155396 14.86714745 112 113 118
246140.98608398 3357325.35903931 14.49488449 77 73 74
246116.34777832 3357324.43450928 14.81314754 120 121 123
246132.12353516 3357324.82424927 14.88164520 26 28 27
246124.71508789 3357326.48617554 14.91473961 98 139 135
246137.26611328 3357324.74203491 14.78362656 53 54 59
246139.33435059 3357326.53164673 14.54117775 188 183 179
246128.14648438 3357325.52081299 14.52711678 89 87 88
246124.97412109 3357324.84579468 15.06476688 103 79 31
246134.59082031 3357325.76065063 14.79809952 188 198 207
246118.44628906 3357326.22714233 15.02705860 84 93 100
246113.44067383 3357326.42904663 14.87931061 64 51 45
246117.19848633 3357326.14395142 15.19657421 98 81 74
246112.86462402 3357325.76293945 15.28180599 240 247 253
246113.74499512 3357325.97250366 15.49434376 83 97 98
246128.63391113 3357326.24081421 14.54433632 165 144 115
246134.90368652 3357325.83520508 14.72607994 43 50 56
246124.99987793 3357324.33081055 14.78382778 109 107 112
246133.76147461 3357326.19311523 14.51414680 98 97 92
246124.91955566 3357326.07229614 15.17331696 62 95 84
246123.64868164 3357325.60760498 15.21496773 112 113 107
246136.58544922 3357325.28414917 14.68435669 120 121 123
246143.81237793 3357325.98397827 14.33039856 78 75 60
246115.64257813 3357325.55203247 15.00256252 174 171 156
246120.97961426 3357324.51559448 15.04914474 23 31 33
246142.19494629 3357326.04513550 14.76765251 67 66 38
246116.31872559 3357325.24548340 15.06165791 117 112 93
246126.91516113 3357325.96511841 15.14210415 52 68 65
246139.60986328 3357326.46011353 14.53591919 184 181 174
246109.61474609 3357326.56759644 14.86563110 102 102 102
246124.93896484 3357324.79324341 15.05900764 84 59 18
246112.26696777 3357325.88513184 14.97051716 73 73 73
246112.71325684 3357325.37060547 14.91622734 75 76 80
246136.47521973 3357324.79492188 14.87001228 80 80 82
246127.98986816 3357326.63339233 14.53704262 68 62 50
246135.36901855 3357326.13665771 14.45062160 104 92 76
246138.72363281 3357324.64151001 14.85767078 180 187 203
246138.04919434 3357326.19512939 14.49004841 153 144 129
246131.82373047 3357325.31829834 14.95191002 91 92 87
246118.09826660 3357325.04589844 15.21086025 106 105 101
246114.71105957 3357325.76263428 14.94527531 85 92 100
246114.74304199 3357325.72644043 14.93865299 78 83 89
246116.00939941 3357325.82156372 15.10074329 91 95 94
246114.26428223 3357325.06713867 14.79640293 122 121 126
246108.39428711 3357326.21786499 15.00938988 93 96 105
246117.37963867 3357324.69766235 15.08677673 122 124 123
246108.50427246 3357326.89447021 15.09711456 53 75 96
246132.81738281 3357325.61972046 14.70408440 83 89 63
246132.01525879 3357325.46777344 14.62736225 111 96 77
246116.76403809 3357324.64596558 14.90618801 118 119 121
246138.81726074 3357325.09915161 14.99726200 122 121 116
246137.10437012 3357325.05993652 14.97027397 112 105 97
246140.79589844 3357326.57403564 14.54577351 191 183 170
246134.79077148 3357325.96823120 14.61618137 52 52 50
246129.15747070 3357325.64837646 15.05019760 132 126 112
246121.88085938 3357326.94967651 14.70809841 106 113 95
246111.85583496 3357325.33679199 15.21533203 94 97 102
246113.88317871 3357326.23168945 14.99281693 105 110 104
246136.99340820 3357324.52102661 15.01532650 110 105 109
246123.19006348 3357326.23654175 14.88174915 66 66 68
246141.12353516 3357326.03390503 14.53289413 102 105 78
246141.11853027 3357325.03424072 14.62830448 34 34 36
246139.19494629 3357324.58105469 14.49199009 84 88 87
246124.02612305 3357326.20233154 15.26869106 106 109 90
246122.78564453 3357325.07983398 15.17319584 73 55 33
246137.13452148 3357325.05319214 14.85292816 109 105 102
246139.08947754 3357325.83840942 14.39650440 98 100 97
246132.91821289 3357325.67501831 14.62934017 107 109 85
246128.54992676 3357326.67700195 14.62354088 136 127 118
246111.91210938 3357325.39089966 15.19977570 101 102 106
246134.58032227 3357326.10525513 14.53213501 109 105 96
246127.92443848 3357325.08532715 14.55738735 164 155 158
246132.69787598 3357325.60061646 14.70713902 89 99 72
246117.35766602 3357325.22207642 15.18265915 102 102 104
246129.90026855 3357326.23803711 14.69856358 67 63 60
246142.81237793 3357325.81719971 14.66604424 148 136 124
246137.30969238 3357325.57418823 14.97295380 91 87 88
246129.09033203 3357325.35147095 14.79271793 135 128 118
246137.99780273 3357325.65841675 14.86844826 61 62 64
246138.63525391 3357325.12817383 14.94713402 58 57 52
246134.32385254 3357325.68768311 14.50642109 116 116 116
246111.84790039 3357326.26632690 15.09718704 137 132 103
246143.04211426 3357325.23919678 14.79497910 133 127 111
246130.56469727 3357326.12023926 14.54179955 56 55 50
246109.02246094 3357326.84841919 15.00297260 104 104 94
246133.56115723 3357325.10134888 14.59444714 132 137 141
246131.16027832 3357325.40667725 14.47590828 105 103 91
246122.96057129 3357325.50991821 15.23020363 96 104 106
246135.29235840 3357325.45681763 14.47974873 117 119 118
246111.83483887 3357325.56326294 15.15369320 84 88 89
246131.44042969 3357325.11669922 14.78220749 95 91 90
246110.92602539 3357325.57247925 15.04082584 77 96 113
246140.14160156 3357325.37924194 14.53853703 98 100 99
246133.40991211 3357325.34652710 14.61429119 199 200 202
246123.94665527 3357325.78366089 15.21484375 101 109 88
246121.35839844 3357324.09973145 14.74715233 120 115 122
246140.30981445 3357326.39175415 14.43538857 169 161 158
246136.92004395 3357324.46151733 14.80937958 106 95 99
246108.46240234 3357326.90014648 15.08508968 43 52 67
246136.07385254 3357324.55819702 14.65212250 150 150 152
246118.29663086 3357324.30581665 14.94477749 116 116 118
246121.60046387 3357324.17953491 14.66631222 116 119 124
246141.96203613 3357325.14239502 14.76048374 94 94 94
246129.79125977 3357326.20001221 14.83453178 74 75 57
246115.62500000 3357324.84545898 14.99852085 127 128 130
246122.87133789 3357324.40429688 14.66631031 118 114 115
246123.09606934 3357324.97296143 15.18693066 237 231 215
246129.53479004 3357324.80072021 14.57785034 189 188 186
246120.03186035 3357324.67642212 15.04897308 133 92 100
246143.35192871 3357326.53753662 14.50232315 116 113 108
246110.33496094 3357325.96493530 15.05522919 87 88 92
246139.02783203 3357325.29516602 14.42137718 91 91 89
246142.06591797 3357325.78536987 14.85406399 204 192 150
246122.94006348 3357326.31066895 14.89066029 68 66 67
246138.29882813 3357326.15023804 14.61304092 133 126 108
246122.48779297 3357325.64492798 15.27947617 85 85 75
246127.92053223 3357324.94549561 14.90382195 143 108 68
246119.83789063 3357324.29177856 14.68221474 118 119 123
246115.06787109 3357326.12741089 14.92946339 57 62 68
246116.32507324 3357324.61145020 14.90074444 125 125 125
246138.52209473 3357324.68820190 14.81175804 132 135 150
246116.93334961 3357325.00369263 15.04784203 113 113 113
246130.91931152 3357326.48617554 14.44487381 137 130 114
246120.58422852 3357324.46606445 14.96101761 159 163 172
246126.04260254 3357324.90628052 15.08505058 169 169 179
246107.04223633 3357327.42846680 14.80840015 126 126 128
246113.51074219 3357325.35485840 14.92648602 116 120 123
246140.77722168 3357325.51290894 14.80885410 242 232 231
246138.73266602 3357324.75494385 15.03406811 90 91 95
246108.02587891 3357326.65512085 15.22831726 252 248 201
246114.68127441 3357324.73522949 14.83568096 121 120 126
246108.92443848 3357326.51599121 15.17945004 35 42 52
246118.72497559 3357324.06933594 14.89761257 125 125 125
246109.25659180 3357326.86209106 14.84321499 91 70 49
246144.39404297 3357326.48544312 14.47856236 202 196 196
246119.10400391 3357326.57760620 14.91196728 57 54 47
246124.96594238 3357324.89804077 15.07442379 255 238 176
246127.94897461 3357324.85437012 15.20183372 120 88 77
246108.97021484 3357326.88748169 14.96883488 106 107 102
246118.08361816 3357324.97033691 15.32391548 114 111 104
246131.53857422 3357324.51373291 14.60367584 111 101 109
246120.72888184 3357326.63293457 14.96501732 78 82 65
246110.71325684 3357326.93206787 15.23503780 181 215 217
246107.55578613 3357326.94546509 15.09441948 114 117 124
246141.15270996 3357325.69415283 14.70662308 77 80 63
246121.95446777 3357324.64492798 14.64634895 107 108 110
246119.21923828 3357324.25680542 14.81307220 66 63 58
246123.89355469 3357326.50897217 15.00524330 84 90 90
246137.05664063 3357326.44207764 14.47786522 138 138 138
246139.64147949 3357325.53076172 14.69072151 74 74 74
246139.42248535 3357324.69845581 14.81647968 72 88 114
246133.24072266 3357326.36138916 14.58548260 70 42 39
246140.98156738 3357325.50241089 14.83212662 199 183 158
246107.44519043 3357326.37344360 15.05746078 98 103 107
246123.46740723 3357325.06939697 15.27347851 157 134 102
246122.19030762 3357326.22735596 15.11346054 173 182 189
246128.38745117 3357326.45870972 14.51435852 138 132 110
246131.11584473 3357324.76303101 14.77115440 136 127 130
246129.99182129 3357324.74438477 14.91778278 49 53 54
246132.28613281 3357324.90249634 15.07280540 34 33 28
246118.76489258 3357324.71768188 14.72588444 83 87 90
246110.31054688 3357327.27807617 14.93185043 196 192 183
246125.05041504 3357325.36862183 15.07930088 107 89 75
246107.80480957 3357326.30166626 15.11366844 95 99 102
246131.55847168 3357324.73226929 15.12908840 42 46 45
246121.85522461 3357325.22860718 15.21501827 56 56 56
246117.82336426 3357325.72915649 14.96685505 82 89 95
246118.17651367 3357324.03228760 14.82180977 115 119 122
246118.93505859 3357325.05444336 14.65582085 60 61 63
246132.16369629 3357325.21673584 14.86581612 128 144 141
246140.80029297 3357325.33718872 14.44988155 59 60 64
246120.24523926 3357324.56127930 15.11655712 98 63 67
246128.08972168 3357326.53137207 14.52482224 85 83 70
246144.25952148 3357325.04824829 14.58128166 63 65 64
246111.74414063 3357325.38137817 15.20932102 100 101 103
246135.33874512 3357326.41320801 14.46809196 162 153 138
246134.66845703 3357325.26214600 14.43402290 117 118 120
246141.76599121 3357325.31881714 14.61897469 111 106 103
246126.51745605 3357325.85763550 15.01070786 104 109 112
246109.95007324 3357326.49017334 14.84470272 138 146 159
246111.27856445 3357325.40429688 15.23907661 106 110 109
246110.30261230 3357326.90533447 14.76453304 175 154 125
246141.19506836 3357325.98687744 14.69914722 119 113 91
246115.79345703 3357325.75384521 14.98340034 95 91 88
246136.38586426 3357324.56771851 14.59267616 137 112 116
246126.55822754 3357325.86407471 14.98305225 97 106 105
246110.23266602 3357325.91839600 15.10555840 83 78 75
246123.62866211 3357326.01666260 15.20648956 81 82 84
246143.62011719 3357325.70834351 14.68189430 57 54 47
246141.32165527 3357325.22366333 14.64225197 45 46 48
246122.89501953 3357325.15814209 15.19122314 47 46 41
246137.80541992 3357325.14852905 15.02268028 110 110 76
246135.05078125 3357325.04943848 14.48036003 123 124 126
246111.37011719 3357325.94900513 15.13598061 167 183 182
246140.43176270 3357325.10751343 14.76005077 87 89 88
246111.39135742 3357327.10357666 14.79494381 108 108 96
246138.79211426 3357326.49957275 14.53628349 146 143 126
246136.71728516 3357324.56686401 15.02089596 48 47 52
246143.15502930 3357325.43710327 14.78029442 134 113 70
246141.12365723 3357326.48785400 14.47720909 172 166 152
246140.74963379 3357325.92797852 14.58881855 71 73 59
246140.44104004 3357326.32940674 14.41513634 144 137 127
246134.47656250 3357325.69219971 14.63174152 109 110 114
246135.14770508 3357325.60302734 14.59564686 94 105 111
246140.46057129 3357325.28051758 14.60682201 71 71 71
246140.56909180 3357324.75802612 14.61535168 125 108 92
246141.94738770 3357325.26272583 14.60116386 104 102 105
246130.65490723 3357326.51846313 14.49276066 129 122 116
246133.01904297 3357325.06762695 14.95523453 137 138 142
246118.34777832 3357326.30743408 15.00248814 140 149 164
246113.83251953 3357326.40795898 14.95307446 58 62 61
246138.57019043 3357325.63800049 14.97704887 191 179 153
246123.53479004 3357325.53085327 15.04368114 101 105 106
246123.77954102 3357324.41030884 14.82022190 99 87 73
246144.01391602 3357324.64999390 14.43226051 135 139 140
246118.84008789 3357325.89135742 15.10020065 97 99 98
246141.29064941 3357325.18063354 14.61729813 36 38 37
246142.73681641 3357325.68292236 14.69523525 44 39 19
246113.24230957 3357325.80923462 15.16092968 96 115 121
246116.54064941 3357324.52377319 14.83280945 119 120 122
246131.07995605 3357326.26141357 14.44037628 136 125 105
246142.47998047 3357326.51840210 14.63313580 132 125 115
246121.72619629 3357324.42062378 14.66168308 113 117 120
246138.97460938 3357324.62765503 14.81706905 156 165 172
246126.14855957 3357324.66928101 14.66988277 175 141 113
246116.34985352 3357326.05123901 15.20527267 203 223 222
246143.33496094 3357326.20697021 14.43825531 65 65 67
246118.35192871 3357326.23623657 15.02427006 130 141 159
246117.15295410 3357325.38479614 15.22671795 107 107 107
246144.12451172 3357325.43356323 14.33328533 69 73 72
246120.05456543 3357324.64428711 14.90100098 95 93 94
246141.39465332 3357326.22253418 14.81839561 99 100 94
246118.97973633 3357324.65802002 14.68565273 54 54 56
246119.47814941 3357325.44915771 15.06083012 135 107 68
246129.98876953 3357326.57952881 14.56454945 67 69 66
246140.78186035 3357324.78717041 14.76906300 187 173 136
246143.03002930 3357325.12460327 14.43814659 76 72 71
246122.53051758 3357324.74850464 15.03418636 255 236 191
246131.40563965 3357325.22726440 14.61031532 89 85 86
246112.84960938 3357325.90579224 15.18676567 81 88 104
246142.90234375 3357325.98962402 14.71689701 165 161 162
246127.70532227 3357324.73532104 15.18430805 159 142 124
246122.85900879 3357324.94400024 15.11880398 103 83 50
246116.28527832 3357324.39276123 14.80561924 124 125 127
246139.79980469 3357325.81130981 14.60889053 141 142 124
246128.39013672 3357324.49826050 14.53522205 123 123 121
246134.89086914 3357324.63104248 14.50223255 218 219 223
246107.81164551 3357326.74945068 15.16843987 124 120 121
246141.54199219 3357324.84017944 14.82714462 235 222 143
246123.55395508 3357326.29013062 14.98263741 78 78 76
246111.93151855 3357326.19064331 15.02455425 124 117 88
246119.06970215 3357324.50119019 14.71737957 55 58 65
246141.38793945 3357326.34222412 14.63438702 124 122 110
246138.99096680 3357325.74081421 14.44961357 220 220 218
246133.94189453 3357325.09921265 14.64104080 98 99 93
246117.32666016 3357324.97476196 15.16758919 113 116 109
246110.77844238 3357325.92251587 15.17879009 188 197 206
246129.38684082 3357325.09246826 14.85497379 124 118 120
246121.28820801 3357326.47344971 14.84516716 85 92 100
246123.02246094 3357325.45263672 15.29580402 81 85 86
246135.90368652 3357325.12265015 14.65776348 122 124 123
246141.97705078 3357325.64410400 14.51391697 118 113 107
246144.81054688 3357325.96026611 14.29617882 205 191 165
246136.87731934 3357324.70050049 14.97455025 56 56 54
246113.35424805 3357326.21661377 15.29538059 90 33 39
246141.49536133 3357324.91625977 14.97157478 190 167 97
246131.24987793 3357326.31607056 14.43618870 175 168 142
246108.53039551 3357327.20690918 14.80595875 150 145 126
246119.07434082 3357326.12722778 15.10376072 106 103 98
246143.42578125 3357326.45318604 14.46389484 80 78 81
246118.63940430 3357325.49813843 14.90038490 108 108 106
246123.25183105 3357325.35751343 15.29275227 93 95 94
246131.43615723 3357326.40084839 14.47944546 157 152 123
246121.54345703 3357325.12435913 15.09333420 220 216 215
246133.71643066 3357326.42807007 14.51734066 84 74 72
246114.29602051 3357325.88287354 15.15751076 192 196 205
246128.59057617 3357326.55697632 14.57045555 166 154 132
246130.77355957 3357324.72616577 14.77829933 178 155 163
246125.90332031 3357325.21154785 15.05283356 68 67 46
246139.85729980 3357325.24307251 14.90586948 78 76 77
246109.02807617 3357327.50317383 14.93380356 197 193 192
246106.79504395 3357327.30401611 14.84296703 125 124 129
246131.68725586 3357325.12002563 15.10811901 103 112 107
246135.26623535 3357324.80349731 14.54187775 128 132 133
246122.75634766 3357325.17025757 15.20466328 93 83 74
246111.74633789 3357325.46859741 15.22606659 101 105 106
246132.91455078 3357326.27377319 14.93991756 117 125 127
246123.31567383 3357324.20547485 14.69260025 120 120 120
246137.03149414 3357326.42407227 14.46863937 125 126 121
246122.05700684 3357326.33218384 15.05066967 163 176 184
246121.34741211 3357325.13269043 14.98224640 121 101 100
246124.72436523 3357325.53527832 15.22337055 191 179 165
246137.50842285 3357325.42324829 15.00716209 151 148 131
246132.01184082 3357326.12005615 14.78880882 166 89 81
246119.79174805 3357325.31030273 14.96406174 210 190 155
246126.45007324 3357324.52011108 14.55814075 122 122 130
246112.65100098 3357326.64761353 14.80232430 95 97 92
246128.38623047 3357326.50561523 14.54000473 103 98 79
246123.87951660 3357324.64743042 15.11105537 41 14 3
246118.59680176 3357325.61260986 14.94046497 113 114 108
246136.99011230 3357325.68676758 14.68877506 121 121 119
246142.47021484 3357325.99414063 15.03973770 119 119 93
246120.19213867 3357326.13711548 15.12812138 104 97 78
246132.06909180 3357324.50473022 14.50334167 112 111 109
246121.95373535 3357324.91802979 14.85921383 250 213 169
246115.02685547 3357325.29025269 14.89846611 118 117 122
246118.87939453 3357326.07131958 15.03780079 101 100 95
246115.74377441 3357324.69888306 14.94782734 122 121 126
246140.44018555 3357325.80413818 14.67038441 76 77 72
246127.44812012 3357324.83468628 15.38788986 70 65 59
246129.13769531 3357324.87304688 14.51975632 125 125 123
246112.61999512 3357326.96862793 14.77414036 183 186 179
246127.30761719 3357325.51095581 15.03874207 90 91 75
246131.06640625 3357325.03417969 14.66533089 87 83 82
246130.84960938 3357325.54959106 14.48383713 105 99 85
246111.81835938 3357326.39666748 15.00867367 87 97 88
246107.65759277 3357326.47439575 15.04947662 103 102 107
246127.66284180 3357324.23687744 14.66424370 117 117 119
246109.70703125 3357327.35766602 14.88309097 193 194 198
246127.85937500 3357325.26257324 14.58091164 44 40 37
246132.23315430 3357324.72052002 14.53592587 174 182 184
246138.86828613 3357326.04489136 14.38495541 232 223 218
246110.64416504 3357325.57312012 14.92395401 98 103 109
246128.61071777 3357326.02456665 14.65369415 153 139 126
246138.27307129 3357325.86810303 14.96287251 187 169 129
246122.41162109 3357325.89050293 14.97990608 120 131 137
246129.17028809 3357325.28326416 14.87973213 133 119 110
246140.91162109 3357324.77291870 14.53333282 178 151 130
246122.85717773 3357325.92855835 14.85149002 87 91 92
246121.03869629 3357324.09317017 14.81187057 133 123 122
246120.76135254 3357326.30322266 15.17589760 179 155 127
246107.72790527 3357327.30151367 15.05319786 136 138 133
246125.61108398 3357326.47805786 14.74320126 64 67 76
246130.75451660 3357326.02377319 14.52149868 107 105 90
246130.23742676 3357326.33657837 14.51814365 63 60 51
246141.81433105 3357326.53573608 14.53922272 148 145 128
246142.32556152 3357324.67608643 14.85585308 226 213 179
246142.99023438 3357325.91864014 14.67375374 169 169 171
246130.04809570 3357324.29898071 14.63816929 115 105 106
246106.48767090 3357326.74719238 14.95822239 130 129 134
246122.11572266 3357324.93191528 15.20625114 116 90 53
246128.66906738 3357324.71594238 14.53862381 255 255 255
246140.31469727 3357325.46066284 14.51567268 103 100 93
246142.81042480 3357325.85018921 14.85351086 172 165 147
246116.64062500 3357324.38708496 14.76772404 120 121 125
246144.68005371 3357325.89053345 14.29459095 135 123 107
246142.62768555 3357325.01327515 14.51036644 63 61 62
246134.03527832 3357326.26498413 14.54888821 137 129 108
246109.40649414 3357326.35852051 15.05295849 86 86 88
246134.91748047 3357325.21066284 14.45847511 126 124 127
246140.09594727 3357324.89285278 14.88599586 184 176 155
246137.98132324 3357325.82183838 14.71124840 78 77 73
246121.54760742 3357326.24960327 15.39993191 141 134 105
246142.86547852 3357325.94161987 14.92621136 116 114 115
246125.85314941 3357325.59240723 15.00342560 39 42 35
246128.77551270 3357324.72537231 14.53298187 255 255 255
246107.09924316 3357327.30764771 14.80881786 119 119 121
246119.82788086 3357324.99655151 14.81863213 98 91 99
246122.36437988 3357325.52182007 15.21980762 114 109 90
246118.91528320 3357325.43911743 15.09335136 108 108 110
246108.17553711 3357327.22103882 14.85285759 114 110 107
246128.98278809 3357326.33941650 14.96720886 142 136 104
246119.68566895 3357324.42776489 14.65849209 75 74 79
246112.12780762 3357325.99441528 14.94497204 60 61 55
246141.09436035 3357325.88500977 14.70452976 52 48 39
246114.28723145 3357325.99301147 15.02655125 79 83 92
246142.23120117 3357325.01599121 14.77538109 74 76 75
246116.15808105 3357326.00195313 14.88246632 135 155 156
246121.69287109 3357326.52133179 14.65759659 68 69 61
246136.23937988 3357324.50863647 15.23382282 117 52 58
246112.58593750 3357326.67587280 14.81658459 72 71 66
246136.19592285 3357324.61450195 15.24832821 82 36 38
246143.62182617 3357325.29116821 14.70875549 54 48 32
246114.04467773 3357326.29605103 14.95512295 52 58 56
246108.05114746 3357326.10299683 15.00812149 84 89 95
246125.77807617 3357325.39984131 15.02996159 88 86 45
246109.85607910 3357327.30838013 14.87464046 205 199 199
246116.02563477 3357326.01849365 14.83644676 87 98 102
246119.66564941 3357324.64859009 14.67340946 71 72 77
246121.16125488 3357324.90359497 14.74602127 96 91 98
246112.34204102 3357325.56707764 15.23017025 51 51 41
246119.22277832 3357326.43991089 14.69672775 78 77 72
246138.82690430 3357324.67407227 15.07849503 150 154 166
246114.34362793 3357325.51992798 15.13056278 69 79 88
246121.82409668 3357325.19653320 15.21569252 49 53 54
246113.48156738 3357325.63037109 15.04284000 86 85 90
246140.99572754 3357324.77777100 14.47292423 195 169 146
246119.26757813 3357325.47817993 15.40682888 143 113 51
246129.54553223 3357326.39581299 14.85175323 72 70 55
246141.32922363 3357326.57821655 14.57862377 185 181 170
246117.15625000 3357326.06747437 15.17102718 78 77 72
246111.96850586 3357326.19259644 14.98998833 97 95 74
246115.46630859 3357325.77697754 14.80503750 92 96 97
246128.89904785 3357325.94097900 14.74732780 145 137 126
246130.78674316 3357326.28671265 14.45156670 151 143 120
246141.99914551 3357325.76596069 14.64874840 166 151 96
246135.72705078 3357325.65432739 14.40746307 129 133 134
246124.16076660 3357324.48068237 15.21560669 195 169 132
246112.26354980 3357326.63711548 14.89808655 80 82 81
246125.32861328 3357325.90725708 15.09206009 77 69 56
246117.68994141 3357324.71481323 15.23951435 118 113 110
246125.68457031 3357326.40954590 15.01431274 48 55 63
246140.34204102 3357325.79385376 14.60580540 80 81 75
246118.23742676 3357326.32617188 14.99674511 76 97 116
246138.30383301 3357326.23373413 14.57191372 126 119 109
246138.90466309 3357324.61395264 14.48835945 237 238 240
246141.72509766 3357326.33496094 14.58048153 138 135 128
246131.22717285 3357324.43829346 14.44906139 115 116 118
246132.19763184 3357324.72280884 14.55961990 141 151 152
246131.36633301 3357324.57711792 14.68112183 51 41 50
246111.82226563 3357326.46374512 14.90308189 81 93 89
246137.45996094 3357326.53491211 14.54811668 145 143 144
246112.31884766 3357325.23889160 15.19059181 99 93 81
246123.08654785 3357324.35925293 14.68702507 115 113 114
246112.99731445 3357325.68215942 15.23729420 85 96 114
246127.23168945 3357324.83908081 15.30857658 225 212 178
246130.14196777 3357324.66830444 14.92431545 47 41 43
246141.68811035 3357325.22473145 14.80233002 96 88 75
246142.94689941 3357325.07223511 14.42017365 68 68 68
246143.31335449 3357325.04940796 14.47616386 121 111 110
246143.97912598 3357326.44888306 14.47326279 183 178 182
246142.37426758 3357325.02569580 14.59096336 77 75 76
246113.48229980 3357326.02481079 15.28759670 57 45 49
246109.84545898 3357327.35110474 14.90367413 204 202 203
246111.81359863 3357326.17657471 15.20308590 216 211 173
246140.08874512 3357326.34402466 14.41407585 167 158 151
246119.94970703 3357325.71789551 14.89211273 64 60 61
246120.48632813 3357324.37548828 14.77211094 121 121 123
246118.17126465 3357326.09448242 15.20547009 71 75 84
246124.94409180 3357326.28866577 15.22568798 124 170 167
246111.61083984 3357326.62988281 14.86452579 61 87 86
246142.31713867 3357324.73001099 15.01831150 242 242 242
246130.59863281 3357324.79824829 14.81547356 179 147 152
246125.43603516 3357325.04843140 15.09756756 57 40 22
246140.80371094 3357325.23483276 14.51035023 49 50 52
246114.25830078 3357326.11599731 14.97282982 50 55 61
246137.57141113 3357324.51199341 14.49082565 242 241 246
246120.83984375 3357325.59078979 15.29298687 102 106 109
246126.62573242 3357326.30261230 14.92269993 67 67 65
246132.76562500 3357326.14465332 14.62012386 178 179 181
246107.72265625 3357327.19223022 15.27160263 146 168 156
246140.13488770 3357324.71914673 14.38088417 186 185 191
246129.99670410 3357325.69073486 14.74996185 91 90 88
246132.05932617 3357324.72311401 14.66706467 29 39 41
246142.02905273 3357325.36541748 14.46422386 122 120 121
246125.16064453 3357325.22961426 15.04771709 82 80 81
246132.86718750 3357326.02648926 14.46410561 113 110 103
246130.02172852 3357326.11920166 14.82248974 32 30 35
246114.82373047 3357326.55578613 14.94044495 68 78 80
246137.95581055 3357325.19479370 15.17361259 77 78 82
246138.00878906 3357326.25509644 14.48147964 139 133 119
246135.60205078 3357326.14477539 14.45178795 203 187 162
246128.77856445 3357326.20373535 14.61112404 174 153 126
246127.32641602 3357325.82696533 15.12128162 59 70 62
246142.88415527 3357326.02099609 14.68462181 158 156 157
246109.35937500 3357326.36001587 15.07483292 78 78 86
246121.34753418 3357326.45989990 15.03618145 116 121 124
246123.05944824 3357324.75338745 15.10610676 118 113 107
246127.40747070 3357326.11538696 15.06432343 42 55 48
246106.90588379 3357326.47076416 15.12782097 175 176 181
246121.08654785 3357325.96310425 15.25165081 108 105 100
246125.09509277 3357325.25628662 15.05319214 52 44 41
246130.23034668 3357325.78570557 14.65455723 64 62 65
246118.20581055 3357325.53750610 14.89716911 106 106 104
246123.87036133 3357325.84295654 15.26477337 103 109 95
246134.36206055 3357326.03997803 14.70145702 69 64 61
246137.20190430 3357325.70294189 14.82244587 108 106 109
246108.93127441 3357326.40747070 15.16735458 35 52 70
246116.23815918 3357324.43380737 14.82358742 121 122 124
246111.51049805 3357326.48190308 15.25354004 138 153 148
246117.41149902 3357324.52224731 14.93203735 116 117 119
246122.86987305 3357326.53753662 14.80939007 70 70 68
246141.18249512 3357325.92260742 14.61936665 78 70 59
246123.66479492 3357326.07067871 15.23639202 80 80 82
246118.41955566 3357325.57315063 14.90615463 109 109 107
246108.91772461 3357326.75823975 15.14743328 82 86 87
246127.93981934 3357325.63113403 14.52258301 181 182 187
246124.40441895 3357326.09802246 15.17564106 36 56 65
246138.02673340 3357325.00823975 14.76660061 156 140 107
246115.12475586 3357325.03417969 14.94680882 122 124 123
246116.47375488 3357324.61059570 14.89165115 126 126 126
