246067.68859863 3357567.07543945 14.29196548 60 63 72
246065.71618652 3357565.38604736 13.85371113 178 183 179
246068.36157227 3357567.94287109 14.09031391 62 61 59
246068.87976074 3357566.98529053 14.26427650 54 52 55
246070.78735352 3357577.66070557 13.50640583 107 117 127
246070.08117676 3357568.49279785 13.88499546 141 136 130
246068.98754883 3357568.54809570 13.85919571 90 90 82
246073.14636230 3357571.24700928 13.73198032 108 113 117
246065.99047852 3357580.78210449 13.36995792 190 192 191
246068.25012207 3357565.19110107 13.88809013 204 203 199
246072.39184570 3357570.70642090 13.85427189 30 42 54
246072.18811035 3357572.75909424 13.68408012 53 69 84
246071.89624023 3357572.86053467 14.22673416 40 43 50
246070.59643555 3357577.73303223 13.49228287 163 168 174
246069.45654297 3357567.09503174 14.08426952 38 39 41
246068.02270508 3357567.73669434 13.90793037 127 126 122
246064.05139160 3357567.64294434 13.95410347 203 204 199
246072.38684082 3357575.11712646 13.58764744 134 137 144
246065.63928223 3357566.76538086 14.08403015 45 50 56
246069.80200195 3357577.42413330 13.50024223 208 209 211
246069.91992188 3357576.30694580 13.59000683 84 94 96
246073.57604980 3357572.32128906 13.71870422 94 112 124
246067.19946289 3357580.09747314 13.63683224 154 157 166
246072.79882813 3357571.20556641 13.78060627 144 151 157
246068.70959473 3357567.39764404 14.36324406 98 91 99
246072.89208984 3357573.33911133 13.69693470 91 109 123
246072.65954590 3357573.06115723 13.71664906 79 93 104
246068.21081543 3357567.04968262 14.06585217 118 123 127
246067.88171387 3357578.31146240 13.76933670 50 50 52
246072.00268555 3357574.04016113 13.67434025 196 198 193
246066.13146973 3357566.25543213 14.01216793 115 117 114
246066.71569824 3357565.75781250 14.02121544 47 58 60
246070.97717285 3357576.11437988 13.56959915 93 110 126
246071.73425293 3357575.06542969 13.82271767 39 53 62
246068.67797852 3357578.18505859 13.66439724 55 56 60
246069.41198730 3357567.56921387 13.87619877 55 64 73
246066.18908691 3357567.08697510 14.10125732 62 67 71
246067.85095215 3357567.11511230 14.34670639 222 227 233
246068.13488770 3357567.85235596 13.91543388 147 146 141
246066.55236816 3357564.89031982 13.95059586 156 157 151
246072.66149902 3357572.90850830 13.73320293 60 76 91
246073.02758789 3357572.50640869 14.13176155 63 71 74
246069.50000000 3357568.37670898 13.87446594 158 158 156
246068.53479004 3357568.20300293 13.89298916 171 171 171
246066.16345215 3357579.64807129 13.57262516 75 73 58
246069.54064941 3357577.62713623 13.49118519 216 220 219
246070.94873047 3357575.40075684 13.59029675 111 118 128
246072.51745605 3357572.84002686 13.67735958 54 70 86
246068.25927734 3357566.48522949 13.93406010 64 76 88
246068.41076660 3357567.07659912 14.16593933 238 239 241
246064.40881348 3357567.61163330 13.97942829 126 127 129
246066.72192383 3357565.12384033 14.31736565 31 32 37
246067.75622559 3357566.36608887 14.15591908 132 133 137
246067.95568848 3357566.49340820 14.10231400 96 107 113
246068.07495117 3357565.73699951 13.89347458 56 60 63
246064.62060547 3357567.96435547 13.91865540 73 82 87
246069.17504883 3357576.56243896 13.67763710 113 118 121
246072.42480469 3357569.84143066 14.09841061 222 214 211
246064.64367676 3357566.81842041 13.83196640 173 174 168
246066.62792969 3357567.70135498 13.90197468 69 74 77
246071.41418457 3357575.08264160 13.77424717 144 149 153
246065.33190918 3357567.38134766 14.29086876 132 135 142
246068.09484863 3357568.32269287 13.89036179 147 144 139
246071.75256348 3357575.30499268 13.66224098 74 81 87
246070.76953125 3357565.40167236 13.86642551 157 158 162
246065.75952148 3357567.63110352 14.05117226 49 59 60
246072.41894531 3357565.99755859 14.08287811 167 167 169
246071.93017578 3357575.00738525 13.63406658 36 46 55
246072.08813477 3357566.73883057 13.97535896 249 255 255
246072.80493164 3357572.07873535 14.18631554 43 50 58
246071.98608398 3357573.04101563 14.15709019 144 143 151
246071.45336914 3357565.57147217 13.95127773 31 35 36
246065.82336426 3357565.60180664 13.85882092 171 178 171
246067.56787109 3357567.03912354 14.27007389 104 99 103
246069.48828125 3357566.26861572 13.88688564 184 185 187
246071.53601074 3357566.94970703 13.93852234 200 199 205
246064.12109375 3357567.28344727 13.85424995 206 208 203
246070.65270996 3357575.59918213 13.60532951 55 63 74
246073.42822266 3357571.00854492 13.76835918 130 130 132
246072.99096680 3357572.74963379 14.34828949 211 222 226
246071.17529297 3357568.38983154 13.97542763 138 142 143
246069.69360352 3357578.36505127 13.46205521 173 176 183
246070.79956055 3357565.32110596 13.86318874 161 162 166
246073.03649902 3357571.09918213 13.76766968 111 112 117
246067.99560547 3357578.54815674 13.58607006 47 54 60
246067.49719238 3357566.78857422 14.27908516 64 68 71
246072.50085449 3357569.76934814 14.06911564 246 241 235
246070.93896484 3357576.18267822 13.56647491 92 111 128
246068.05139160 3357566.44537354 13.99959660 40 49 54
246072.66723633 3357571.97558594 13.78873730 83 96 105
246066.98925781 3357579.47644043 13.57231808 117 118 120
246068.43237305 3357568.08880615 13.90443420 179 179 179
246068.59899902 3357566.93377686 14.28251076 232 228 227
246066.25158691 3357565.67962646 14.44336033 130 144 145
246070.50476074 3357577.02593994 13.54087162 119 133 146
246065.86047363 3357566.97998047 13.93013763 43 52 57
246068.66918945 3357567.63824463 14.44647121 121 115 129
246072.64916992 3357572.61132813 13.76101589 84 102 114
246070.81616211 3357574.71472168 13.63545227 202 205 212
246068.28771973 3357578.59191895 13.55951309 69 73 82
246071.34289551 3357568.45861816 13.91859436 84 84 84
246066.17102051 3357579.57910156 13.58686829 43 44 30
246069.74157715 3357578.32666016 13.46306515 135 138 143
246073.51318359 3357572.78332520 13.67877007 89 107 121
246067.89990234 3357565.84259033 14.00219727 32 35 40
246070.46838379 3357568.84161377 13.90310383 86 81 77
246070.55749512 3357574.57305908 13.81631660 57 61 62
246066.59765625 3357567.19665527 13.91594124 40 49 54
246071.27539063 3357566.49401855 13.89132881 165 163 164
246067.47058105 3357567.25897217 13.93167686 148 147 145
246067.24584961 3357565.39355469 13.95025349 63 70 78
246070.63842773 3357576.23760986 13.59587955 75 92 108
246066.48425293 3357565.42504883 14.40412140 67 74 82
246068.56652832 3357566.17291260 13.90681553 93 103 105
246071.04736328 3357565.61730957 13.87184620 197 201 202
246071.59851074 3357575.74682617 13.60014534 174 175 177
246068.27160645 3357578.94519043 13.49708843 70 82 96
246067.34887695 3357566.73596191 14.00639629 148 151 144
246065.28125000 3357566.43493652 13.97908783 155 157 156
246068.45581055 3357579.68328857 13.40034008 183 186 191
246073.19616699 3357572.61346436 13.72285557 46 59 68
246073.19055176 3357573.11224365 13.74366570 28 37 46
246067.84265137 3357565.57336426 14.04333591 39 45 45
246073.24865723 3357570.84008789 13.78096485 152 156 157
246070.73901367 3357568.21466064 13.94278812 161 161 159
246068.76477051 3357567.77508545 14.13319016 8 9 13
246064.49548340 3357568.54809570 13.93373489 101 105 114
246071.87145996 3357573.53942871 13.82279015 96 99 104
246068.53710938 3357567.00219727 14.23882103 228 226 227
246067.68908691 3357578.57244873 13.59755611 72 76 85
246072.13842773 3357575.03936768 13.59566879 174 178 181
246072.47167969 3357566.29565430 14.02574062 241 220 227
246072.82714844 3357570.72979736 13.79686069 185 189 190
246064.29394531 3357567.72692871 14.24664116 45 46 48
246070.67590332 3357565.68084717 13.88048172 182 185 190
246063.92810059 3357566.92102051 13.82589912 203 205 200
246068.37597656 3357565.69842529 13.86503601 87 101 112
246068.85473633 3357577.69927979 13.63956261 131 133 130
246068.37829590 3357578.77197266 13.51557255 93 102 111
246071.42626953 3357575.06048584 13.79765129 121 126 130
246066.49548340 3357565.34045410 14.42721176 53 56 63
246065.07739258 3357566.20404053 13.83510113 190 195 191
246072.05175781 3357573.12115479 13.75395012 55 68 77
246072.42504883 3357571.54248047 13.81146622 100 116 129
246072.58178711 3357569.67156982 14.02929688 184 174 172
246067.62780762 3357565.41284180 13.96639729 171 175 178
246072.92443848 3357570.73754883 13.79547215 171 175 176
246072.66308594 3357571.84063721 13.80531788 108 121 130
246066.29443359 3357566.48321533 14.07689571 76 76 74
246068.43627930 3357567.65881348 14.51394367 255 254 255
246068.41271973 3357567.52172852 14.47419262 183 181 186
246068.84216309 3357577.11431885 13.54148388 196 198 197
246066.96252441 3357567.24523926 13.91169167 58 68 67
246066.02001953 3357579.55657959 13.60662270 72 66 50
246068.58825684 3357578.88970947 13.51278782 97 111 124
246064.26086426 3357566.84472656 13.82939529 163 165 160
246066.15234375 3357567.62664795 14.08925247 66 67 71
246072.41052246 3357570.60968018 13.87370968 73 80 90
246066.38122559 3357565.56646729 14.48465633 89 104 107
246068.38854980 3357566.52386475 13.91960144 83 95 107
246066.05029297 3357565.74053955 14.57629585 219 225 225
246071.98718262 3357566.15637207 13.99248886 48 46 47
246067.98779297 3357578.14947510 13.76111031 254 255 255
246067.39978027 3357578.93829346 13.43019962 83 91 102
246069.63781738 3357568.40307617 13.86505795 152 154 153
246064.27770996 3357567.64929199 14.26391506 69 69 67
246067.19201660 3357565.50427246 14.07437897 75 80 86
246069.27624512 3357566.01824951 13.89421654 167 169 168
246065.97546387 3357565.66510010 14.58028412 247 247 245
246072.32177734 3357574.22906494 13.63208961 192 190 191
246064.34912109 3357567.40753174 13.90386105 191 193 188
246072.49584961 3357566.32812500 14.02437210 193 181 185
246065.28210449 3357566.74737549 14.44269276 62 65 72
246073.31066895 3357573.78259277 13.64503956 80 102 116
246069.29797363 3357577.92407227 13.47359657 178 182 185
246068.77856445 3357565.56835938 13.86945343 180 182 181
246068.16271973 3357578.21594238 13.99734116 72 76 79
246065.59484863 3357566.39385986 13.89778519 183 184 179
246069.44799805 3357566.57598877 13.89152241 176 177 179
246067.93188477 3357567.70257568 13.90234089 133 130 125
246068.35302734 3357567.04846191 14.11990833 226 230 231
246067.01123047 3357567.76812744 13.89929867 64 69 72
246066.86254883 3357567.26019287 13.90635300 129 135 133
246067.36572266 3357578.55743408 13.47039795 84 100 113
246070.30493164 3357575.41320801 13.69208527 197 197 197
246066.93554688 3357565.57647705 14.33911037 82 85 92
246066.97363281 3357567.08929443 13.90415192 107 117 118
246068.24060059 3357567.78698730 14.00198746 155 154 150
246067.71276855 3357578.46899414 13.59333706 63 67 76
246066.00537109 3357580.51336670 13.37329388 170 169 165
246067.63659668 3357565.39306641 13.94913673 172 179 185
246067.76159668 3357568.26171875 13.88630581 142 139 134
246073.10766602 3357570.80462646 13.79254436 148 152 153
246073.01843262 3357571.06811523 13.77670002 82 85 92
246072.95654297 3357572.22973633 14.29496861 38 47 54
246067.60363770 3357578.80163574 13.46730423 72 81 96
246073.12866211 3357572.12530518 13.74406719 69 83 94
246066.54492188 3357580.81506348 13.38434219 178 178 180
246068.48791504 3357566.35192871 13.91555977 65 75 85
246069.84313965 3357577.39019775 13.49580574 210 215 211
246067.99304199 3357578.21209717 13.87799454 135 139 138
246073.00952148 3357570.24719238 14.08016968 72 76 79
246072.06445313 3357573.49353027 13.69981861 39 51 63
246064.25439453 3357568.10656738 14.13649273 58 62 65
246066.73522949 3357565.29467773 14.20354939 35 42 50
246064.14428711 3357567.46875000 13.90931034 199 201 198
246068.55383301 3357566.89471436 14.15357685 237 237 237
246065.18066406 3357566.70050049 14.20600891 234 239 243
246066.15173340 3357566.55554199 13.91100979 104 106 103
246067.97448730 3357566.72460938 13.97354794 42 47 53
246067.93212891 3357567.58587646 13.91777134 148 147 142
246072.06188965 3357572.90472412 13.67706490 49 65 78
246066.13598633 3357565.45904541 14.24086285 230 234 235
246070.31774902 3357576.34930420 13.60307217 86 103 123
246064.87158203 3357566.02087402 13.82299328 197 202 196
246068.26611328 3357579.47125244 13.41425419 92 101 116
246070.57116699 3357568.77917480 13.92348957 181 163 161
246065.32104492 3357568.36431885 14.00716782 233 225 222
246067.71643066 3357565.89990234 14.02434731 39 47 50
246073.51928711 3357573.02246094 13.69120121 87 106 121
246071.17285156 3357573.61553955 13.69723511 186 188 185
246064.49731445 3357567.25628662 13.87538147 174 175 169
246066.04846191 3357565.99151611 13.96426868 68 74 74
246072.99108887 3357572.15521240 13.84083462 75 86 92
246073.29772949 3357572.40332031 13.70696354 80 94 105
246068.58056641 3357567.23406982 14.28082275 45 43 46
246064.22839355 3357567.29968262 13.86059093 207 209 204
246067.17834473 3357566.65948486 13.90515900 129 130 124
246070.52172852 3357568.96313477 13.91166782 137 136 131
246065.50708008 3357566.36071777 13.89795780 190 192 187
246070.67773438 3357575.18920898 13.73836613 145 161 174
246073.01757813 3357571.26147461 13.74863052 150 153 158
246069.52624512 3357567.04162598 14.05318069 95 96 98
246071.82312012 3357573.21392822 14.28475857 96 105 114
246064.11291504 3357568.39624023 14.08512592 137 141 150
246066.10485840 3357580.28033447 13.43755245 90 90 90
246069.85620117 3357568.47070313 13.85889816 143 142 137
246070.04724121 3357576.33081055 13.59193420 127 141 152
246067.11157227 3357580.56463623 13.80406570 204 204 212
246068.05944824 3357578.30041504 14.12369633 72 73 78
246071.99523926 3357566.67083740 13.99077225 255 255 255
246070.86108398 3357575.42773438 13.60018635 72 82 94
246064.44592285 3357566.96380615 13.83787346 181 183 178
246065.51318359 3357565.96691895 13.82983971 162 165 158
246071.21020508 3357568.70855713 13.93892193 219 218 223
246069.13732910 3357576.69073486 13.64351177 30 39 44
246066.25720215 3357566.42706299 14.02351379 184 188 187
246066.41931152 3357579.28869629 13.58448124 128 122 106
246067.31994629 3357565.75195313 14.31506729 54 21 28
246067.46057129 3357565.14617920 13.84566402 98 102 103
246067.50830078 3357567.98498535 13.87890911 141 141 139
246065.10998535 3357566.92614746 14.20713329 247 252 255
246071.94946289 3357573.80627441 13.71159935 184 184 186
246072.71679688 3357574.73809814 13.60509014 201 202 207
246073.71240234 3357571.89324951 13.74803352 126 137 141
246068.89599609 3357566.68176270 14.11862183 234 232 233
246072.33508301 3357565.88098145 14.13259888 243 247 246
246066.38977051 3357566.43499756 14.05567551 213 212 208
246072.18359375 3357569.45727539 14.00596237 133 132 130
246070.94995117 3357569.14978027 13.91250992 215 216 211
246073.10583496 3357572.95843506 13.90426445 11 20 25
246068.21557617 3357578.11712646 13.79469395 32 32 32
246073.19055176 3357573.96478271 13.63706970 123 137 150
246066.41223145 3357580.40167236 13.53929901 98 103 106
246067.83166504 3357567.53961182 13.93084812 157 156 152
246068.31945801 3357565.92828369 13.89257717 151 159 162
246069.64746094 3357567.30529785 13.93481541 62 70 83
246073.47387695 3357572.39721680 13.70985222 97 113 128
246072.32543945 3357572.64379883 13.68884945 63 80 96
246065.93969727 3357565.62103271 14.46162510 248 253 249
246065.19946289 3357568.38543701 16.26687813 81 94 40
246070.59143066 3357577.02337646 13.54065895 111 125 136
246072.66040039 3357570.30889893 13.89524364 46 45 51
246069.37219238 3357576.06921387 13.69201279 52 61 68
246069.90344238 3357575.83251953 13.59428310 73 87 100
246068.92517090 3357566.89367676 14.22541904 43 41 46
246064.26025391 3357568.09265137 14.13277912 35 38 43
246064.94519043 3357568.07373047 13.96821785 116 121 124
246071.01525879 3357565.38171387 13.86103725 171 172 176
246068.73181152 3357579.24566650 13.42554092 87 109 123
246071.95178223 3357572.92852783 14.05471611 162 161 167
246065.23144531 3357567.34814453 14.37294006 71 74 79
246067.59985352 3357578.76806641 13.44663525 74 83 98
246066.53955078 3357565.05364990 14.37298679 119 124 128
246065.36718750 3357566.70672607 14.43321514 225 229 240
246072.78308105 3357571.89611816 13.80213642 91 104 113
246070.38293457 3357576.59796143 13.56156349 74 92 112
246066.51196289 3357565.31231689 14.42562580 47 50 57
246071.75134277 3357566.02178955 14.02402115 115 114 120
246065.00683594 3357567.10064697 13.97451878 181 182 174
246071.91308594 3357572.38006592 14.06933975 106 125 139
246072.51245117 3357571.35473633 13.77266216 155 164 169
246068.03186035 3357577.88806152 13.54196739 175 179 180
246065.88085938 3357565.66589355 13.88962936 173 178 174
246068.20092773 3357567.59912109 14.00050163 152 151 147
246072.89001465 3357571.98669434 13.88081741 71 82 88
246070.67578125 3357576.16033936 13.59882069 76 93 109
246066.10754395 3357565.91308594 14.09891510 55 66 60
246064.15026855 3357566.88983154 13.83071136 198 200 195
246068.94958496 3357567.00518799 14.26523399 51 52 54
246071.85437012 3357573.44696045 13.97521973 8 11 16
246069.09997559 3357568.40960693 13.86710930 158 150 147
246068.53906250 3357567.80841064 14.44375324 64 59 65
246067.73913574 3357565.31536865 13.95255470 143 151 154
246072.59057617 3357572.15832520 13.76973438 96 106 118
246066.72033691 3357564.86547852 14.41631699 175 177 176
246067.17907715 3357579.29425049 13.45600700 192 192 194
246066.09143066 3357580.48712158 13.37928772 151 150 148
246069.57714844 3357576.97229004 13.53645134 138 143 147
246065.89282227 3357565.68841553 13.93829155 181 182 177
246073.59631348 3357572.54882813 13.69227123 95 114 129
246067.40820313 3357565.20874023 13.85590076 96 100 103
246068.14733887 3357566.33990479 13.97745609 115 124 131
246068.64794922 3357565.35559082 13.84749889 199 199 199
246068.85717773 3357577.11236572 13.54397678 196 198 197
246066.95886230 3357566.24273682 13.87863731 91 97 95
246069.08276367 3357567.53326416 13.91972256 41 44 53
246069.23718262 3357567.32940674 14.26038551 32 37 40
246066.53051758 3357566.93347168 13.89806366 17 24 30
246072.49731445 3357574.63946533 13.60250759 114 124 136
246072.45324707 3357569.35626221 13.92741966 194 194 184
246067.77197266 3357566.94488525 14.22651672 85 89 92
246069.31250000 3357567.57794189 13.86089325 38 47 56
246067.27185059 3357580.47741699 13.61524200 59 64 70
246070.15710449 3357565.59619141 13.86513138 176 177 179
246073.54931641 3357572.85845947 13.68492222 89 108 123
246069.06774902 3357578.88555908 13.45036411 75 85 95
246073.55737305 3357573.10253906 13.69756126 97 119 133
246065.73010254 3357565.49548340 13.84417629 173 175 170
246070.33154297 3357568.30175781 13.90378380 178 173 169
246069.77197266 3357565.75531006 13.88288212 192 193 195
246066.42492676 3357564.88598633 13.87182808 150 151 143
246073.07678223 3357572.92053223 14.35526848 177 188 194
246072.68493652 3357571.80755615 13.79437542 98 111 120
246066.52929688 3357580.39562988 13.74293423 191 196 202
246069.77563477 3357576.46575928 13.53076935 121 126 132
246069.79443359 3357577.37585449 13.49735069 212 214 213
246067.82971191 3357566.92468262 14.14709568 66 66 74
246071.79919434 3357575.13439941 13.68722439 24 42 54
246069.93737793 3357577.13024902 13.51703358 144 145 147
246069.69543457 3357576.23321533 13.55636883 67 75 86
246071.72290039 3357573.65478516 13.73949909 116 120 119
246071.77050781 3357574.10736084 13.67530060 101 103 102
246069.14819336 3357576.79113770 13.55373383 52 60 63
246068.86804199 3357576.87078857 13.56101990 194 194 192
246071.34375000 3357576.70672607 13.52765274 110 131 148
246067.20239258 3357566.07617188 13.93275833 68 72 75
246070.36547852 3357574.92425537 13.73249722 144 146 141
246068.79870605 3357577.16101074 13.54242325 195 197 196
246070.02832031 3357577.57452393 13.49341583 205 209 210
246071.33764648 3357576.24285889 13.56033421 109 126 142
246068.87573242 3357576.72534180 13.67560005 192 193 188
246067.28222656 3357579.18243408 13.43513489 167 168 173
246071.96166992 3357574.14813232 13.65895844 203 205 202
246069.27795410 3357568.61804199 13.86023903 147 148 142
246068.71472168 3357576.95635986 13.54207706 193 193 193
246065.60888672 3357565.92846680 13.82941151 137 140 133
246071.41955566 3357565.62500000 13.95324516 22 22 24
246068.47155762 3357567.47180176 14.48390007 176 176 186
246069.43041992 3357567.41412354 13.88349342 49 53 64
246072.08166504 3357573.84228516 13.68538380 194 194 194
246068.24597168 3357577.85906982 13.63683033 178 182 183
246067.89245605 3357578.86645508 13.84996319 40 47 53
246068.82775879 3357566.90686035 14.25547409 128 117 121
246068.73620605 3357579.20837402 13.42781353 89 111 125
246065.50805664 3357567.32501221 14.22017765 20 29 34
246068.02258301 3357567.12554932 14.16275215 62 67 73
246067.30749512 3357566.87915039 14.05918884 143 142 137
246071.99682617 3357572.88562012 13.73574924 43 57 68
246066.12902832 3357565.78747559 14.42911148 166 181 178
246064.41650391 3357567.59136963 13.96533680 156 158 157
246067.48083496 3357567.31292725 13.92357922 144 144 144
246072.81909180 3357570.09869385 14.05807781 42 43 45
246073.63928223 3357572.61840820 13.68750286 107 124 140
246070.79235840 3357577.08093262 13.53476048 103 121 135
246064.26574707 3357566.49139404 13.81507301 175 180 174
246071.33947754 3357573.78363037 13.69771671 175 176 178
246064.62304688 3357568.54541016 13.92722702 195 198 203
246068.99426270 3357577.47045898 13.53370285 197 199 198
246068.75305176 3357578.24353027 13.48402309 60 63 68
246072.70642090 3357571.75280762 13.78418446 92 105 114
246072.87170410 3357571.91485596 13.81180477 77 90 99
246066.43188477 3357565.58343506 14.39191151 87 100 106
246064.29113770 3357566.30664063 13.81093693 168 171 164
246069.56848145 3357577.88903809 13.48071289 112 117 121
246066.12304688 3357567.41766357 14.14438820 72 79 85
246072.77001953 3357574.75531006 13.60604477 200 201 205
246064.89355469 3357566.43719482 13.84816837 174 177 170
246069.48779297 3357567.58349609 13.88275146 63 73 85
246063.93432617 3357567.77551270 13.94325161 213 212 207
246073.37280273 3357573.61163330 13.66108799 103 122 139
246067.05664063 3357566.39208984 13.88633156 148 149 141
246066.63842773 3357566.00048828 13.89771748 57 70 76
246069.22094727 3357567.56719971 13.86190605 39 43 54
246070.37817383 3357576.85522461 13.54900646 90 108 122
246073.42028809 3357573.82482910 13.64106941 110 130 139
246067.64733887 3357565.30816650 13.88715363 86 99 105
246071.66210938 3357576.07312012 13.56481075 106 121 128
246070.78369141 3357568.33245850 13.94110966 217 221 222
246065.21582031 3357565.80316162 13.81759548 184 186 181
246071.02880859 3357568.91607666 13.94072914 148 147 145
246068.11901855 3357568.27209473 13.89661980 158 157 152
246066.78967285 3357565.72375488 14.05520916 47 56 61
246071.30261230 3357573.90618896 13.68938065 178 179 181
246067.48144531 3357566.81451416 14.27571583 129 133 134
246068.70019531 3357578.30364990 13.51319122 143 145 144
246068.54528809 3357567.65460205 14.59007263 188 180 191
246073.63989258 3357572.62487793 13.68757057 107 124 140
246067.25976563 3357578.56329346 13.50293732 63 75 87
246066.02136230 3357566.07769775 14.06655598 106 112 110
246065.93420410 3357567.69122314 13.99546242 136 140 139
246069.15393066 3357577.29913330 13.51643944 197 199 196
246068.34252930 3357577.70050049 13.62875652 159 160 162
246068.04016113 3357579.24749756 13.49776936 54 63 72
246068.46667480 3357567.36700439 14.35944748 84 85 89
246065.95300293 3357565.68011475 14.29692650 250 246 243
246067.29235840 3357579.50933838 13.55440235 133 138 141
246072.62329102 3357574.60760498 13.60562134 168 172 183
246071.92150879 3357572.57788086 13.93624783 34 44 54
246070.10217285 3357577.61450195 13.49152565 201 205 204
246066.32153320 3357580.91662598 13.37650776 186 186 188
246067.90295410 3357566.69799805 14.01862812 61 64 69
246070.23864746 3357568.20568848 13.89561749 164 154 142
246071.35339355 3357574.94256592 13.72332478 76 81 85
246066.76867676 3357580.32147217 13.63360786 185 184 190
246067.54479980 3357579.90386963 13.95370102 58 46 56
246066.43615723 3357566.73535156 14.09284687 14 22 24
246070.16943359 3357575.74511719 13.63019657 47 48 52
246070.00744629 3357576.91638184 13.54959393 91 100 109
246067.45837402 3357579.84362793 13.97570610 89 82 90
246071.06262207 3357573.97167969 13.66683674 199 201 200
246067.66516113 3357565.88513184 14.03370476 32 39 45
246072.35949707 3357569.85186768 14.08177280 254 251 246
246068.61584473 3357578.52111816 13.87753677 81 88 98
246070.94213867 3357574.51165771 13.62597847 80 83 90
246065.90881348 3357565.66015625 14.00387192 167 164 159
246068.91210938 3357576.64318848 13.77903175 170 172 169
246071.84057617 3357566.02593994 14.03515434 139 140 144
246067.53735352 3357567.64929199 13.87497616 117 119 118
246067.31286621 3357580.43389893 13.55281448 83 86 93
246072.19299316 3357574.30938721 13.62478447 170 171 175
246070.49340820 3357574.89221191 13.82950687 82 86 87
246064.82849121 3357567.85589600 13.99844074 90 100 99
246069.26452637 3357578.66723633 13.45909214 78 83 89
246067.54260254 3357580.23217773 13.44518471 90 91 96
246071.68835449 3357565.13641357 13.90594769 136 136 138
246064.29846191 3357567.43029785 13.90904045 200 202 197
246064.94091797 3357567.95642090 14.06422997 227 232 235
246068.26696777 3357579.86102295 13.42098045 191 192 194
246073.56433105 3357572.47088623 13.70168495 102 121 135
246069.10583496 3357577.11187744 13.53170204 197 201 200
246069.09460449 3357567.29107666 14.44748020 126 130 139
246067.94482422 3357579.54577637 13.40795708 196 195 201
246069.61022949 3357575.99621582 13.56219006 145 158 167
246069.17834473 3357566.89862061 14.07802868 56 57 59
246067.20300293 3357566.90722656 13.96692085 130 133 126
246068.66040039 3357567.15856934 14.27475643 115 113 114
246068.05700684 3357566.19635010 14.31928825 31 36 39
246070.34545898 3357576.74359131 13.55532646 84 102 116
246072.32629395 3357571.03747559 13.81438732 86 98 110
246068.25720215 3357566.15289307 13.96551991 24 33 38
246072.80529785 3357572.48052979 13.95469284 185 194 199
246069.13977051 3357577.20867920 13.52350521 204 204 202
246064.30688477 3357567.65301514 14.20660496 103 103 103
246064.48046875 3357566.56439209 13.82090187 172 174 169
246068.72448730 3357567.11413574 14.28337097 69 65 66
246072.78637695 3357570.02636719 14.14149570 157 158 160
246072.98266602 3357573.40838623 13.69538021 106 122 138
246066.90673828 3357564.77050781 13.89010811 152 155 148
246068.56835938 3357566.84979248 14.10015202 215 217 216
246072.80541992 3357573.62799072 13.66317844 93 115 129
246070.33239746 3357575.67175293 13.65315151 91 95 96
246071.30297852 3357576.76745605 13.52470684 106 125 140
246071.63183594 3357565.94677734 14.01692200 91 92 96
246070.22973633 3357576.90631104 13.55113888 116 130 143
246067.60351563 3357565.62799072 14.24004650 53 41 41
246071.95715332 3357566.01428223 14.07554245 53 54 56
246069.09521484 3357566.59558105 13.93842793 144 145 147
246072.91003418 3357572.44628906 14.16658211 10 15 18
246071.81201172 3357565.57434082 13.99984837 54 61 69
246066.88513184 3357580.66729736 13.47506905 46 51 57
246067.17724609 3357566.84393311 13.93697166 133 134 128
246067.76013184 3357578.78399658 13.75138760 24 27 32
246066.17956543 3357580.62341309 13.37794018 178 178 176
246064.78344727 3357568.54144287 13.93672657 205 207 204
246066.03930664 3357566.50463867 13.85997963 146 149 142
246071.82861328 3357566.34796143 13.94730091 135 129 129
246072.77978516 3357572.10815430 13.93124485 57 66 75
246065.26733398 3357566.74719238 14.43567467 70 73 78
246065.78308105 3357565.66912842 13.82416821 156 161 155
246069.85668945 3357578.15753174 13.47261333 191 196 199
246071.96166992 3357569.22985840 13.90930939 184 186 175
246067.41796875 3357568.02416992 13.88288212 148 148 146
246068.67846680 3357567.89294434 13.96411514 155 157 154
246072.94311523 3357570.34381104 13.91040897 172 171 167
246066.72399902 3357566.15264893 13.87134266 71 79 81
246067.01660156 3357565.44525146 14.08672523 58 69 75
246069.97338867 3357568.73461914 13.87317181 143 142 140
246070.83679199 3357574.68792725 13.63344955 202 205 212
246068.37780762 3357577.78533936 13.67074108 173 177 176
246070.42797852 3357568.31622314 13.91467381 213 213 211
246073.15698242 3357570.63726807 13.79286385 212 211 206
246067.77124023 3357579.01031494 13.80692863 158 162 171
246066.83679199 3357565.64636230 14.18761539 49 58 63
246069.63903809 3357578.33312988 13.46970081 203 206 211
246072.49865723 3357573.90716553 13.63914490 137 146 151
246066.22265625 3357567.78308105 13.94074535 89 93 94
246067.24365234 3357578.70013428 13.47712040 108 116 127
246068.47082520 3357565.69079590 13.86854267 108 120 132
246065.38110352 3357568.00787354 13.98563671 49 54 60
246069.02233887 3357567.71466064 13.91569805 35 39 50
246068.61108398 3357578.62542725 13.77558804 17 26 35
246072.29992676 3357571.85882568 13.86193848 103 122 137
246066.66992188 3357564.99395752 14.47882557 92 92 94
246069.82849121 3357575.78863525 13.57591343 76 89 105
246066.20959473 3357566.79650879 14.06018353 168 172 175
246069.48486328 3357577.59002686 13.49158955 219 221 220
246064.38659668 3357568.49389648 13.95605183 88 95 103
246066.22363281 3357566.43835449 13.97773552 144 146 145
246072.76220703 3357570.25579834 13.89454651 74 75 80
246071.90637207 3357574.90435791 13.61777020 40 50 60
246067.91479492 3357567.50854492 13.94678783 138 137 133
246067.60241699 3357564.98937988 13.83367538 161 163 160
246066.48791504 3357580.30462646 13.61197281 155 166 170
246067.22509766 3357565.91210938 14.05283165 18 17 22
246065.33666992 3357567.01660156 14.46910858 51 58 68
246064.65112305 3357566.79333496 13.83066559 173 174 168
246065.94775391 3357567.13757324 13.96802235 56 65 70
246066.86376953 3357565.65222168 14.21290588 54 61 67
246072.05310059 3357569.12139893 13.92007923 169 165 154
246068.40319824 3357567.91467285 14.14675331 60 56 55
246069.26733398 3357565.73895264 13.88153267 188 190 189
246065.81640625 3357566.60247803 13.87155724 142 142 140
246064.27941895 3357566.26727295 13.80973625 165 168 161
246067.02038574 3357580.77319336 13.79065800 216 217 221
246072.92089844 3357570.15203857 14.15113258 132 133 135
246066.67175293 3357567.37261963 13.91825008 51 56 60
246066.30541992 3357580.24450684 13.43081856 189 190 192
246066.86157227 3357579.14801025 13.48271179 50 55 61
246072.19470215 3357573.06762695 13.68073559 49 63 76
246072.06701660 3357573.27984619 13.78687096 33 46 54
246064.75988770 3357566.53338623 13.83482838 185 187 182
246067.79577637 3357566.57708740 14.25139427 65 68 73
246073.52526855 3357572.56640625 13.68920422 74 93 108
246070.83544922 3357576.90960693 13.53292370 137 153 169
246070.42651367 3357577.15295410 13.52121830 101 118 134
246069.14453125 3357566.29992676 13.89493561 166 166 166
246071.67260742 3357575.19537354 13.85171509 53 63 65
246068.68945313 3357578.17559814 13.61138916 101 102 106
246068.05578613 3357566.13317871 14.27533245 80 87 93
246066.90893555 3357564.91723633 13.94482613 120 122 119
246068.72949219 3357578.44744873 13.49383926 133 137 140
246070.55651855 3357574.85101318 13.84994030 79 83 86
246069.42919922 3357565.88684082 13.89006138 177 178 180
246065.96228027 3357565.73773193 14.52104282 195 195 193
246070.30273438 3357575.15515137 13.69646263 188 190 189
246071.04785156 3357565.26135254 13.85985851 167 171 174
246073.07275391 3357573.41650391 13.68590546 76 93 109
246068.95825195 3357566.23449707 13.89908504 163 163 165
246067.32849121 3357565.86309814 14.08982849 62 52 53
246066.57385254 3357566.95739746 13.89793873 17 26 31
246071.07519531 3357569.12945557 13.93899155 201 203 200
246072.18249512 3357572.64611816 13.68926144 71 87 102
246068.38037109 3357566.96026611 14.07762051 236 240 241
246064.52563477 3357567.48565674 13.90605736 188 189 183
246067.38366699 3357580.27813721 13.65160179 88 88 96
246068.10009766 3357567.07598877 14.04552841 68 75 81
246073.25732422 3357573.97473145 13.63242149 103 115 129
246064.25024414 3357568.19903564 14.10753345 143 146 153
246070.07006836 3357576.65295410 13.61403656 67 80 96
246066.19824219 3357565.78503418 14.30060673 91 101 102
246070.66174316 3357574.42150879 13.77307701 69 69 71
246073.53771973 3357573.48211670 13.67350483 71 92 109
246064.07080078 3357566.38934326 13.80888557 187 190 183
246066.32495117 3357580.48309326 13.44048119 177 179 178
246071.67187500 3357573.68682861 13.72514725 173 175 174
246067.28820801 3357567.33911133 13.91052818 152 153 148
246072.60375977 3357571.15130615 13.79288673 112 119 125
246072.01232910 3357573.01007080 13.75679302 37 51 62
246067.18469238 3357578.70056152 13.49228477 84 93 100
246071.75231934 3357573.61047363 13.75392246 145 149 148
246071.65185547 3357574.27246094 13.72539711 175 179 182
246066.60766602 3357567.00695801 13.89917469 33 42 47
246066.99511719 3357566.98950195 13.90664864 103 114 110
246070.09924316 3357576.62170410 13.61333370 78 91 107
246069.92590332 3357576.01458740 13.61181068 91 101 110
246072.03747559 3357572.36108398 13.74192429 78 92 105
246073.52465820 3357573.35498047 13.68264866 72 91 108
246064.53918457 3357566.61962891 13.82337761 174 176 171
246067.09655762 3357580.52563477 13.74254894 170 170 178
246072.62194824 3357569.56921387 13.98831272 151 141 132
246072.76550293 3357572.68530273 13.87254715 57 71 80
246067.41894531 3357566.85937500 14.21042347 167 169 168
246063.97253418 3357567.83795166 13.97158051 213 214 209
246072.09375000 3357569.49273682 13.99535275 254 255 255
246067.78234863 3357578.35021973 13.63861847 66 69 74
246073.17150879 3357571.36328125 13.71963596 110 115 118
246066.98156738 3357580.76379395 13.73713017 167 168 173
246065.25646973 3357567.63458252 14.24579048 27 28 30
246071.05615234 3357575.40093994 13.57517147 133 137 140
246066.21826172 3357565.50567627 14.62947369 160 167 175
246067.31896973 3357580.28344727 13.68422985 88 89 94
246066.25415039 3357565.82849121 14.03172874 107 107 107
246068.93017578 3357567.97918701 13.91440105 36 40 49
246072.73083496 3357572.61584473 13.84442616 87 102 109
246073.79125977 3357571.79956055 13.75329876 145 151 149
246069.20654297 3357577.60437012 13.49462986 213 213 213
246070.37109375 3357575.44250488 13.73330879 187 188 192
246065.57714844 3357567.13415527 14.23972893 27 36 41
246072.25964355 3357569.29052734 13.94645500 92 82 73
246067.96728516 3357578.33245850 13.96032143 223 230 236
246068.30676270 3357565.33483887 13.85823536 165 168 173
246066.48413086 3357565.47326660 14.40936661 33 42 49
246064.95361328 3357567.17626953 13.93315506 165 166 158
246071.68408203 3357565.08306885 13.90406799 133 133 133
246071.37695313 3357576.17932129 13.56321239 107 125 139
246070.27514648 3357576.32965088 13.60777855 88 105 123
246068.10498047 3357578.01324463 13.64061546 112 114 111
246067.79431152 3357566.26812744 14.11745834 141 145 148
246065.50610352 3357566.64764404 14.21484470 120 125 131
246071.96008301 3357572.91772461 13.79106426 108 118 128
246064.82202148 3357568.14886475 13.90933514 82 91 96
246068.24365234 3357578.22869873 13.85898018 160 161 163
246068.77624512 3357577.28332520 13.56242466 194 196 195
246069.65905762 3357566.33654785 13.88278103 178 179 181
246071.33422852 3357574.25115967 13.70620632 176 177 179
246067.31420898 3357567.07788086 14.00269413 138 135 128
246071.82592773 3357572.62054443 14.21501827 62 68 80
246067.96276855 3357567.28704834 14.21785450 141 146 152
246067.00244141 3357579.70349121 13.71088505 241 242 247
246066.01574707 3357566.02105713 14.19255733 107 117 109
246072.84704590 3357570.14923096 14.02906704 43 47 50
246071.67700195 3357569.27514648 13.86095047 176 178 173
246067.33068848 3357579.15100098 13.42454052 148 151 156
246070.78735352 3357568.10162354 13.93612194 164 164 166
246064.87133789 3357566.83599854 13.87063980 181 182 176
246068.04736328 3357568.51495361 13.89182758 169 165 156
246067.72521973 3357579.20336914 13.67932510 145 150 156
246066.70446777 3357579.82324219 13.58915615 152 153 158
246072.41955566 3357574.85003662 13.59518909 110 117 125
246071.85180664 3357574.59814453 13.60381985 86 91 97
246068.31616211 3357567.82958984 14.08964062 220 220 220
246067.04748535 3357578.95861816 13.46791267 80 87 95
246065.64990234 3357565.71411133 13.80555344 187 192 186
246065.87329102 3357566.08087158 13.88464737 174 179 175
246067.97216797 3357567.27691650 14.25554466 100 100 108
246072.28283691 3357573.99389648 13.65195560 195 195 193
246072.94482422 3357571.88354492 13.79631901 70 80 89
246066.03393555 3357565.95684814 14.23914433 130 141 133
246073.20080566 3357572.86523438 13.74207783 61 72 78
246068.59997559 3357566.09973145 13.90664673 172 177 180
246068.88659668 3357566.48266602 13.93007851 137 138 142
246067.89855957 3357565.57507324 14.00581360 48 52 55
246066.32482910 3357579.97515869 13.45055199 81 85 86
246072.51831055 3357571.95068359 13.80056763 117 131 142
246065.52648926 3357567.52581787 14.14191723 30 37 43
246065.09289551 3357566.27166748 13.84312534 162 165 158
246066.31408691 3357566.90563965 14.22714138 25 28 33
246073.77587891 3357571.77618408 13.75494385 178 183 179
246069.42004395 3357576.59442139 13.55126286 48 58 70
246072.96630859 3357571.97387695 13.81143665 71 81 90
246068.61999512 3357578.55920410 13.86305237 45 52 62
246064.64147949 3357567.79394531 13.93175602 77 85 87
246069.93750000 3357576.62426758 13.57326889 160 169 176
246064.10156250 3357567.02044678 13.83399391 204 206 201
246068.81738281 3357566.60101318 14.00612164 83 87 90
246064.22619629 3357567.12854004 13.84077454 206 208 203
246070.25793457 3357575.93591309 13.73946095 183 187 188
246066.59289551 3357567.00677490 13.89921284 35 44 49
246072.35986328 3357574.63787842 13.60502625 85 98 114
246067.62255859 3357565.85437012 14.06774616 27 35 38
246067.73669434 3357578.88751221 13.71690369 90 97 105
246066.71838379 3357580.37194824 13.81003475 117 116 121
246066.29113770 3357565.61218262 14.52176571 58 72 73
246067.40515137 3357580.04437256 13.84597588 161 160 166
246067.64245605 3357579.36737061 13.43732738 154 159 165
246066.11206055 3357580.97143555 13.38173485 183 185 184
246065.80786133 3357566.09564209 13.84866905 174 175 170
246069.41967773 3357566.76190186 13.92108727 184 183 179
246067.87536621 3357578.94671631 13.93347931 28 35 41
246068.60827637 3357566.81921387 14.10620689 230 232 231
246073.32604980 3357573.53894043 13.66817093 94 111 129
246066.98132324 3357565.15332031 13.90988255 43 59 59
246073.03479004 3357571.77093506 13.76934052 81 95 106
246071.68298340 3357574.70507813 13.72348881 28 38 48
246072.45068359 3357571.28216553 13.79586792 169 174 177
246067.74401855 3357566.34399414 14.08161259 114 116 115
246071.70458984 3357574.82012939 13.70157623 20 37 45
246067.26184082 3357566.02478027 13.94708538 38 39 43
246067.69824219 3357566.65338135 14.30624008 63 66 71
246071.73925781 3357575.10986328 13.73799801 20 38 48
246072.88671875 3357570.23852539 13.96875668 71 75 78
246065.87841797 3357567.45098877 14.10272217 57 67 69
246069.86132813 3357568.24707031 13.85713577 138 140 139
246073.34692383 3357573.58062744 13.66411209 99 118 135
246066.11706543 3357565.47045898 14.22950745 186 190 189
246072.35974121 3357573.24517822 13.69656849 63 79 94
246068.15234375 3357579.48803711 13.41902256 126 129 138
246073.41088867 3357571.07531738 13.77287483 147 147 147
246067.81896973 3357568.00750732 13.89711857 112 111 106
246069.30920410 3357576.35009766 13.64466381 44 51 57
246065.95129395 3357566.62322998 13.85992908 177 179 176
246071.76977539 3357566.71887207 13.99822521 226 231 234
246070.82666016 3357576.83056641 13.53599358 103 122 137
246065.45434570 3357566.41369629 13.96697807 134 136 131
246065.88928223 3357580.67816162 13.36675358 191 193 190
246066.43151855 3357566.86029053 13.95367813 82 85 90
246072.06054688 3357575.79962158 13.58669949 186 187 189
246069.97729492 3357565.61822510 13.87668037 164 164 164
246068.71008301 3357566.33251953 13.90407181 93 102 107
246065.35668945 3357568.15679932 13.96877575 84 89 83
246071.41918945 3357574.19531250 13.84503269 92 98 94
246071.30505371 3357566.17694092 13.89023685 125 124 120
246070.27209473 3357575.53753662 13.64478779 207 209 208
246072.93847656 3357572.42846680 14.26528072 135 142 148
246070.39465332 3357577.87780762 13.48117542 204 206 205
246072.19702148 3357575.61743164 13.58660603 187 190 195
246072.06127930 3357575.53222656 13.60366821 169 174 178
246069.56384277 3357565.71148682 13.87725067 186 188 187
246064.25195313 3357567.42810059 13.89944553 200 202 199
246069.51782227 3357567.52032471 13.88460159 60 68 79
246068.61584473 3357566.09222412 13.90610981 172 177 180
246065.61022949 3357566.80047607 14.13710880 28 33 39
246071.24804688 3357575.62371826 13.55688667 108 120 132
246064.98229980 3357568.41369629 16.15678787 119 127 76
246071.96813965 3357569.22436523 13.91009712 206 209 198
246069.16027832 3357567.50671387 13.88414192 15 18 25
246072.36450195 3357575.17413330 13.58532047 112 119 127
246067.10302734 3357564.60272217 13.82230091 195 196 190
246070.78649902 3357568.77410889 13.94131565 221 220 215
246066.27148438 3357565.69427490 14.35583878 51 61 62
246065.84436035 3357565.32226563 13.92279816 218 222 221
246068.09460449 3357578.92443848 13.50239468 59 67 78
246069.66943359 3357567.06207275 13.94552708 74 77 82
246066.37719727 3357567.84790039 13.91132736 110 112 111
246072.32788086 3357575.18542480 13.58388329 133 142 149
246064.88098145 3357568.52404785 16.16575432 136 148 84
246067.73791504 3357567.10137939 14.28118420 61 70 77
246071.43640137 3357575.13287354 13.79908657 178 183 186
246068.07849121 3357564.95727539 13.88184738 205 201 200
246071.65856934 3357574.69531250 14.03617287 137 140 147
246073.45483398 3357573.66119385 13.65630341 95 113 135
246065.11755371 3357567.64477539 14.52461529 121 126 132
246073.27661133 3357571.90692139 13.74934959 86 103 111
246068.02392578 3357578.70239258 13.52550125 33 40 46
246064.77380371 3357568.53680420 13.93372917 205 207 204
246071.73767090 3357568.93548584 13.88848305 69 63 67
246069.53637695 3357566.65966797 13.89042664 173 175 174
246070.95910645 3357568.51702881 13.96545792 139 135 132
246070.30358887 3357576.94360352 13.54712868 112 125 141
246069.39343262 3357567.33117676 13.92047310 30 35 41
246072.92053223 3357572.79736328 14.03287315 35 44 51
246067.10144043 3357566.29229736 13.89076042 160 162 157
246067.60217285 3357565.57122803 14.20725155 120 108 110
246067.18225098 3357580.53247070 13.77985096 108 111 118
246073.66418457 3357572.04608154 13.73868656 104 122 134
246067.35424805 3357566.76751709 14.02932072 145 146 140
246070.71081543 3357576.34948730 13.56243420 93 112 127
246072.23266602 3357566.63684082 13.99981689 236 240 251
246068.52270508 3357579.38525391 13.41811657 91 111 135
246068.73278809 3357565.70086670 13.88154793 186 188 187
246069.65075684 3357576.08911133 13.56789207 64 78 91
246072.70532227 3357571.31457520 13.77254009 149 156 162
246068.78686523 3357577.49731445 13.65390587 127 127 129
246071.70996094 3357575.11071777 14.12486744 53 60 66
246070.82531738 3357575.85772705 13.57715511 88 100 112
246068.17163086 3357577.62762451 13.54985619 157 162 165
246065.23083496 3357567.17022705 14.44926643 73 76 83
246067.91088867 3357565.43865967 14.10616016 35 31 30
246069.56884766 3357578.43359375 13.46391773 199 200 205
246067.68603516 3357567.87908936 13.88552475 147 148 143
246073.46008301 3357572.68548584 13.67403316 70 90 101
246067.00598145 3357580.25097656 13.57103443 31 36 40
246067.62304688 3357567.41534424 13.92153645 157 159 154
246070.37280273 3357575.58251953 13.70672226 66 70 71
246070.74829102 3357565.75213623 13.88086700 194 198 201
246073.14892578 3357573.63653564 13.65885162 116 135 150
246065.16760254 3357566.85449219 14.31187153 165 168 175
246072.49011230 3357573.32214355 13.69409084 82 98 114
246072.02111816 3357572.23699951 13.85526562 74 90 103
246069.94860840 3357577.94091797 13.48019028 196 198 195
246072.46667480 3357574.26263428 13.62879467 191 191 193
246066.26574707 3357567.65771484 13.99070168 47 51 54
246071.50878906 3357574.97863770 13.92545223 182 187 190
246068.45214844 3357566.91778564 14.07081890 237 241 240
246065.09350586 3357566.76495361 14.06473255 181 186 182
246068.50085449 3357566.46978760 13.91004467 77 87 97
246071.55004883 3357573.58758545 13.70481300 184 184 184
246071.78247070 3357574.89697266 13.67430305 40 57 65
246066.92370605 3357565.45672607 14.18842506 57 76 83
246067.47070313 3357578.63574219 13.45313644 85 101 116
246064.77563477 3357566.00488281 13.82213783 193 198 192
246071.79431152 3357574.30853271 13.64153385 161 165 168
246070.28149414 3357576.02075195 13.71425629 27 39 37
246068.54956055 3357578.39373779 13.76833153 107 110 117
246073.00659180 3357572.29534912 13.84880543 110 119 116
246067.73828125 3357565.39654541 14.04557610 206 198 196
246068.02502441 3357566.73260498 13.95936298 42 49 55
246069.32116699 3357566.36145020 13.89098740 167 167 169
246066.99572754 3357580.70855713 13.74048996 179 182 187
246071.86193848 3357573.89685059 13.70408344 185 190 184
246069.29626465 3357578.44781494 13.47032261 214 216 215
246065.58813477 3357566.99102783 14.21953201 40 47 53
246066.18432617 3357567.69079590 14.01763630 41 42 46
246069.86779785 3357575.76477051 13.57731342 78 92 105
246068.28686523 3357567.80572510 14.05192757 167 166 164
246065.05480957 3357567.65985107 14.37178421 217 225 228
246067.98095703 3357567.32788086 14.15544224 190 192 204
246069.04418945 3357576.74859619 13.65975952 93 94 96
246069.68420410 3357577.75720215 13.48846531 217 221 224
246071.48193359 3357565.66601563 13.97171593 28 28 30
246068.93664551 3357576.73474121 13.76689434 143 143 143
246066.35070801 3357566.37084961 13.97197819 177 174 167
246067.49914551 3357580.08703613 13.57023430 200 204 207
246067.44775391 3357567.15747070 13.98567200 47 46 44
246067.91271973 3357580.10485840 13.40310192 17 23 35
246071.78930664 3357569.22515869 13.88603878 242 243 237
246071.12402344 3357575.16149902 13.64509869 179 183 186
246066.77038574 3357580.31848145 13.76910782 178 176 181
246071.64111328 3357574.76110840 14.11255264 60 66 78
246072.17761230 3357574.27673340 13.62714005 207 208 210
246069.77026367 3357576.04907227 13.56623459 82 96 109
246070.43334961 3357576.45507813 13.56923962 89 108 125
246064.12231445 3357568.73858643 14.05966473 45 46 48
246071.54003906 3357574.18316650 13.85421753 193 198 201
246072.91943359 3357573.10192871 13.86054039 105 118 124
246064.43896484 3357567.12127686 13.84644890 176 179 172
246067.92175293 3357565.58996582 13.99895763 40 44 47
246063.91174316 3357568.16339111 13.97257137 203 203 201
246065.25805664 3357566.47839355 14.05109882 166 168 167
246066.62670898 3357567.74615479 13.90084457 81 86 90
246065.70947266 3357567.16894531 14.04179382 29 38 43
246070.01098633 3357568.60101318 13.88002014 152 148 149
246065.41394043 3357566.96215820 14.45590591 54 60 72
246071.17846680 3357574.32495117 13.65380096 162 163 165
246068.33959961 3357578.61267090 13.57069969 53 60 68
246071.45239258 3357566.48284912 13.92297554 150 150 152
246072.87036133 3357572.93743896 13.90875721 74 87 95
246068.58789063 3357578.34765625 13.84177017 19 19 27
246069.18127441 3357566.53259277 13.91122627 159 163 162
246065.11877441 3357566.73309326 14.08529568 186 191 187
246071.54846191 3357573.47528076 13.68232918 183 183 183
246066.56579590 3357579.91113281 13.53295231 160 164 165
246069.44836426 3357578.64074707 13.45916939 124 127 134
246066.57739258 3357580.65509033 13.40137577 203 203 203
246065.16296387 3357568.14276123 13.96280861 85 86 91
246066.24865723 3357565.76055908 14.24474621 19 23 26
246067.29199219 3357579.74114990 13.91934872 30 29 34
246071.01989746 3357566.08764648 13.85931969 174 173 171
246067.41064453 3357578.72332764 13.44019604 85 97 111
246072.25036621 3357573.05273438 13.67461681 56 72 87
246068.70275879 3357565.99298096 13.90314865 198 196 197
246072.60937500 3357573.14758301 13.68722248 62 80 92
246067.44946289 3357578.87615967 13.43115044 85 95 105
246071.42041016 3357575.16931152 13.76662350 157 165 168
246069.92358398 3357575.56274414 13.58125210 189 189 189
246065.73229980 3357568.14373779 14.01974297 218 221 210
246066.50732422 3357566.52404785 13.96378803 156 161 157
