245786.31365967 3357418.12176514 17.72658730 119 119 117
245787.77880859 3357419.06234741 17.63698006 160 152 139
245787.57379150 3357418.00094604 18.15442848 101 102 97
245779.67858887 3357415.94500732 17.67881775 188 184 183
245778.10510254 3357415.81149292 17.78032494 225 221 220
245781.10089111 3357416.17541504 17.88066673 194 196 193
245788.84167480 3357419.18356323 17.94742775 41 40 36
245781.63726807 3357416.20086670 17.88888550 175 179 180
245787.50750732 3357418.09790039 18.12087059 169 166 161
245787.66821289 3357418.87219238 17.66462517 82 79 72
245779.94281006 3357417.24197388 17.68339920 47 49 48
245780.08129883 3357416.29165649 18.05050659 159 154 151
245779.32055664 3357415.38363647 17.63347816 196 200 201
245786.27972412 3357417.43704224 18.05400467 96 96 94
245785.47839355 3357417.20410156 18.18058586 136 133 124
245780.25628662 3357415.92861938 18.05756569 194 194 186
245779.43695068 3357417.14517212 17.61631203 115 117 116
245783.81207275 3357417.95135498 17.65109253 170 166 154
245787.77923584 3357417.76882935 17.98549461 112 109 102
245780.11175537 3357417.52758789 17.63931465 97 99 98
245784.88751221 3357417.48977661 17.71920776 97 98 93
245784.04919434 3357417.74462891 17.77857971 170 163 153
245779.13012695 3357415.85681152 17.84914970 122 126 129
245787.30474854 3357418.09313965 18.14906693 185 184 182
245780.27050781 3357416.97589111 17.65945053 80 82 79
245779.05206299 3357416.96856689 17.65071678 106 110 111
245785.57354736 3357417.89672852 17.86217499 71 70 66
245786.84973145 3357418.16506958 17.67729378 127 124 119
245788.87585449 3357418.54565430 17.99198341 46 47 42
245786.45227051 3357417.84625244 17.77140617 119 121 116
245778.44592285 3357415.72482300 17.83927536 187 182 179
245785.33294678 3357417.32058716 18.19871902 164 160 151
245784.10430908 3357416.97222900 17.75870132 188 187 182
245788.92413330 3357418.63012695 18.12343216 72 73 68
245784.70269775 3357416.98104858 17.90393639 171 168 163
245784.53753662 3357417.69671631 17.96856689 59 57 58
245779.97839355 3357416.43429565 17.95610428 98 93 90
245780.31182861 3357416.42236328 17.87593651 156 158 153
245778.17016602 3357416.43518066 17.75250244 149 151 148
245787.03381348 3357418.00772095 17.72528839 210 204 192
245787.40106201 3357417.78024292 17.84803200 243 244 239
245778.94616699 3357415.52005005 17.71911812 69 70 74
245785.03271484 3357418.33215332 17.62715149 120 111 102
245780.11676025 3357416.10427856 18.09500122 193 192 187
245788.98583984 3357419.24099731 17.96586227 53 53 51
245788.83111572 3357418.45230103 17.69318581 80 80 70
245786.75677490 3357417.51446533 17.83457756 165 166 161
245787.73809814 3357418.62747192 17.72819328 94 95 89
245783.76013184 3357417.66308594 17.88656998 149 147 135
245780.99194336 3357417.24575806 17.59884453 67 69 68
245788.40838623 3357418.27651978 17.85678864 51 51 49
245788.00329590 3357418.90014648 17.80798912 241 234 224
245780.94293213 3357415.85168457 17.71392822 200 199 195
245785.51940918 3357417.55661011 18.10913277 124 123 118
245785.56976318 3357418.53555298 17.57793999 94 87 79
245784.63287354 3357417.50802612 17.93470192 94 96 95
245785.02734375 3357417.66235352 17.84058762 157 157 155
245786.98931885 3357418.05566406 17.70193100 159 155 146
245787.24694824 3357417.63208008 17.64104843 119 120 114
245778.90948486 3357416.97494507 17.67239952 97 105 107
245784.20831299 3357417.69128418 17.81400299 124 117 109
245788.28503418 3357418.63119507 17.88298225 130 120 118
245787.38104248 3357418.53363037 18.00177383 62 64 63
245785.80432129 3357417.25833130 17.86212349 178 169 160
245778.64300537 3357415.77844238 17.84942627 175 170 167
245784.82916260 3357417.56906128 17.75101662 85 85 85
245778.98809814 3357415.48364258 17.67333603 129 129 131
245787.65277100 3357418.27398682 17.79494476 78 77 72
245785.53814697 3357418.50018311 17.58187485 122 115 109
245780.85284424 3357415.80850220 17.70314217 205 200 197
245780.88665771 3357417.74884033 17.59367561 176 174 162
245788.40673828 3357418.21612549 17.88822365 51 53 50
245786.70751953 3357417.89993286 17.66261673 115 116 111
245779.72619629 3357417.37738037 17.66775131 114 116 115
245786.54876709 3357418.06744385 17.66686630 70 70 68
245787.94964600 3357417.96484375 17.72588348 121 117 108
245787.11840820 3357418.34991455 18.10704041 118 123 126
245787.47412109 3357418.39636230 18.03526306 57 59 58
245779.97766113 3357416.08105469 17.79274368 139 135 134
245788.06439209 3357418.13821411 17.66960144 134 130 119
245789.04675293 3357418.40963745 17.88425064 34 34 34
245784.66387939 3357418.19076538 17.75476265 108 104 95
245778.57781982 3357415.59103394 17.78818703 167 157 158
245785.82672119 3357418.46099854 17.57838058 113 110 103
245779.88616943 3357416.36911011 17.68655777 130 131 133
245780.61822510 3357416.58798218 17.73668480 133 132 130
245781.07214355 3357417.06237793 17.61753845 67 67 67
245785.90789795 3357418.10546875 17.76669884 48 47 45
245786.46832275 3357417.77722168 17.77430153 151 152 147
245784.94873047 3357418.11544800 17.69345284 61 60 56
245788.85583496 3357419.11685181 18.08975410 42 38 35
245785.01953125 3357418.53591919 17.58972740 171 162 145
245779.87310791 3357416.77453613 17.84291649 56 58 53
245784.32476807 3357417.65972900 17.94242477 162 154 152
245786.11529541 3357418.10113525 17.75836754 61 63 62
245780.73181152 3357416.25357056 17.74331093 202 193 188
245781.36688232 3357416.74499512 17.66472054 93 92 88
245787.77423096 3357417.78436279 17.98856544 106 103 98
245780.69519043 3357416.67422485 17.88700676 111 111 109
245785.59002686 3357417.26257324 18.06490326 198 191 181
245780.85443115 3357417.63015747 17.59401703 93 92 88
245788.94909668 3357418.52981567 18.05538177 50 51 46
245786.85772705 3357418.86242676 17.64510918 221 209 193
245779.67199707 3357416.14935303 17.65117073 221 217 214
245788.29425049 3357417.99841309 17.77039146 203 204 198
245788.41729736 3357417.93273926 17.83621216 225 221 220
245779.91571045 3357415.71652222 17.68933487 118 114 113
245787.20013428 3357418.34219360 18.16288567 203 207 210
245780.13543701 3357417.14193726 17.67459106 57 61 62
245780.39520264 3357416.21560669 17.87233925 195 196 190
245779.40185547 3357417.15005493 17.61076736 107 109 108
245781.35150146 3357416.96109009 17.63250160 90 91 86
245786.60095215 3357417.63522339 17.92328072 192 192 182
245783.24560547 3357416.56698608 17.85369682 115 116 111
245785.98541260 3357418.16799927 17.70421600 59 59 59
245786.43054199 3357417.84152222 17.79983521 102 104 99
245788.81610107 3357419.18399048 17.91631317 49 51 50
245779.23590088 3357415.74490356 17.96305275 160 164 175
245779.57122803 3357417.11120605 17.63355637 121 123 122
245779.42517090 3357415.77835083 17.80172348 109 112 117
245786.44982910 3357417.93334961 17.75228310 57 58 53
245788.30786133 3357418.68066406 17.85581589 71 61 60
245786.61596680 3357417.65072632 17.88382721 191 188 179
245784.67413330 3357418.02731323 17.82332993 63 64 66
245787.01348877 3357417.97796631 17.70559883 216 208 197
245785.22888184 3357418.34469604 17.60654068 97 93 84
245781.00457764 3357416.20217896 17.88957214 229 228 224
245778.80267334 3357415.45040894 17.69979668 161 166 169
245785.06439209 3357418.05120850 17.77458572 84 83 79
245778.22521973 3357416.15600586 17.74250412 116 116 114
245781.17578125 3357417.45138550 17.58470535 95 95 93
245785.23937988 3357417.09832764 17.95246887 186 183 174
245780.25427246 3357416.24954224 17.92217255 173 172 167
245778.89801025 3357415.42410278 17.67974663 151 153 152
245786.91613770 3357417.58578491 17.63346100 133 132 128
245780.83020020 3357416.25567627 17.82680511 207 202 199
245781.01367188 3357416.06423950 17.85758400 181 177 174
245787.50927734 3357417.80633545 18.09018135 205 207 202
245785.72180176 3357417.96829224 17.96952629 164 159 156
245781.48376465 3357416.17678833 17.86657143 174 178 179
245789.08740234 3357418.58584595 18.09556961 54 54 52
245784.52001953 3357417.19790649 17.85022163 168 168 166
245780.88134766 3357417.26406860 17.60645866 67 67 67
245778.30963135 3357416.43750000 17.80818367 159 158 154
245781.02648926 3357415.86254883 17.73042488 188 188 188
245787.11248779 3357418.83023071 17.69637871 178 162 146
245780.34161377 3357416.33642578 17.88097191 154 157 150
245783.90502930 3357416.71090698 17.98561668 190 187 182
245779.67242432 3357416.23553467 17.64339828 198 197 195
245778.88195801 3357416.19790649 17.85597992 98 99 101
245784.74688721 3357417.30096436 17.84603691 101 100 98
245785.28735352 3357417.45993042 18.17384911 151 148 143
245777.98980713 3357415.90188599 17.73836899 215 214 212
245788.70147705 3357418.85687256 17.88597298 61 60 56
245784.82666016 3357417.50479126 17.73995399 96 96 94
245788.37512207 3357418.53570557 17.83150864 105 106 100
245780.28051758 3357415.72286987 17.79636192 183 175 172
245779.21807861 3357416.37509155 17.74525833 141 145 146
245780.20727539 3357415.95156860 18.09173393 197 196 191
245779.77508545 3357415.68936157 17.69163513 175 175 175
245779.72277832 3357415.60260010 17.67864418 190 191 193
245780.34832764 3357416.65023804 17.86765099 148 145 140
245785.34777832 3357417.60000610 18.19525909 78 79 74
245787.86444092 3357418.01510620 17.73280525 195 192 183
245781.08178711 3357417.76019287 17.58968735 196 190 178
245780.07055664 3357416.07427979 18.00825500 168 164 165
245779.96539307 3357417.32192993 17.67901802 51 53 52
245785.14459229 3357417.67428589 18.09330177 77 77 75
245778.81671143 3357416.76162720 17.74063492 118 119 121
245784.54052734 3357417.25079346 17.87030792 120 120 118
245780.02148438 3357416.08087158 17.85460854 143 139 140
245780.12231445 3357416.28030396 18.00969887 116 112 109
245779.84613037 3357416.88674927 17.77779198 95 97 94
245787.76947021 3357418.01095581 17.79350662 175 176 170
245780.78039551 3357417.33676147 17.60913849 76 76 76
245788.17834473 3357418.03982544 17.70749474 161 158 149
245778.03009033 3357416.01272583 17.73782349 127 127 127
245785.23211670 3357417.54278564 18.14413452 127 126 124
245778.17700195 3357416.37145996 17.75740242 135 137 134
245783.92126465 3357418.09924316 17.59388542 181 175 161
245785.97833252 3357417.58291626 18.01953888 61 57 54
245787.59161377 3357418.83822632 17.69453812 118 118 110
245788.13061523 3357418.66723633 17.90829277 233 233 225
245785.92864990 3357418.38058472 17.58889580 89 88 83
245780.65917969 3357416.93688965 17.66849327 77 77 77
245777.94177246 3357415.90240479 17.75407600 208 207 205
245779.02349854 3357415.36376953 17.65805626 212 211 207
245778.94494629 3357415.95251465 17.94675446 52 56 59
245779.17272949 3357415.71710205 17.87081909 135 139 148
245785.39160156 3357417.50769043 18.20412064 122 125 118
245784.52514648 3357418.23410034 17.78087997 155 149 137
245783.52001953 3357416.56555176 18.04920959 109 108 104
245780.04705811 3357416.45733643 17.97826004 132 127 123
245786.95037842 3357418.52264404 17.93369293 250 249 245
245781.63641357 3357416.04617310 17.79547691 180 184 187
245785.80810547 3357417.32647705 17.84701157 170 160 151
245779.29101563 3357417.17785645 17.59671593 99 100 102
245784.76940918 3357417.14321899 17.88040161 172 168 165
245785.55462646 3357417.28268433 18.10018349 196 189 181
245779.66772461 3357417.52841187 17.64555740 116 120 119
245783.86175537 3357417.30279541 18.08360672 139 140 135
245779.94732666 3357416.95153809 17.79837227 62 64 59
245779.90325928 3357416.21090698 17.70092201 210 208 209
245786.89910889 3357418.63967896 17.85596466 190 181 164
245780.76013184 3357416.73727417 17.92721176 85 86 81
245778.75604248 3357416.44415283 17.77370262 49 49 51
245784.28210449 3357418.10754395 17.73786545 175 165 153
245780.15447998 3357415.78890991 17.91093063 83 77 79
245785.23730469 3357418.10818481 17.63842964 105 106 100
245785.73956299 3357417.33554077 17.88599777 176 165 159
245781.46185303 3357416.63610840 17.72070694 185 186 180
245786.93280029 3357417.78219604 17.65220833 162 159 150
245778.30786133 3357416.45526123 17.80282211 170 169 165
245787.36895752 3357417.93225098 17.96484756 74 73 71
245788.89501953 3357418.55435181 18.05057335 44 45 40
245784.40039063 3357417.15026855 17.79195595 185 185 183
245788.35241699 3357418.38760376 17.81178665 52 53 48
245788.11486816 3357418.04812622 17.67791176 139 137 125
245786.22174072 3357417.42221069 18.02349854 95 97 92
245779.20416260 3357417.07519531 17.59885788 123 124 126
245788.71606445 3357418.46444702 17.68341637 99 100 94
245785.45629883 3357417.97564697 17.72752190 51 52 54
245784.97979736 3357417.26187134 17.76852608 177 172 166
245787.81378174 3357418.16503906 17.68774414 158 158 148
245784.70898438 3357417.62756348 17.84351349 72 72 72
245785.04156494 3357417.48724365 17.73866272 170 170 162
245786.56964111 3357417.67721558 17.82530594 186 186 178
245779.56579590 3357417.11285400 17.63317871 113 115 114
245788.37438965 3357418.54391479 17.83812332 105 106 100
245784.95599365 3357417.66680908 17.76756287 112 112 110
245781.07098389 3357416.16696167 17.88329887 186 186 184
245780.15240479 3357416.29913330 17.96370506 119 113 113
245785.19061279 3357418.20736694 17.60925484 92 91 86
245787.96569824 3357418.38937378 17.69450188 160 157 142
245788.57751465 3357417.98840332 17.86262703 79 75 74
245785.70068359 3357418.57580566 17.57020760 107 103 94
245781.23834229 3357416.70559692 17.65692139 74 69 66
245786.08496094 3357418.12097168 17.73586464 59 61 60
245787.21295166 3357418.67749023 17.94205284 54 56 55
245780.44531250 3357417.45007324 17.61046410 59 61 60
245778.11486816 3357416.56903076 17.69319916 116 122 122
245779.07244873 3357415.77505493 18.04787827 104 108 109
245783.95343018 3357417.08026123 17.94638062 112 112 110
245779.23962402 3357415.74621582 17.89656448 133 136 141
245785.77325439 3357417.82287598 18.02709007 214 214 212
245783.90124512 3357417.41806030 17.99529839 126 126 118
245785.25506592 3357417.07965088 17.94664955 188 184 175
245786.49847412 3357418.29833984 17.65934181 84 86 83
245785.84039307 3357417.30838013 17.83412743 167 158 149
245785.11267090 3357417.69088745 18.03140450 60 59 55
245778.88873291 3357415.67654419 17.86218452 67 77 79
245778.77966309 3357415.34005737 17.69286537 179 173 177
245780.96875000 3357416.79840088 17.75884438 98 99 94
245784.35638428 3357417.14514160 17.76272011 180 180 178
245781.22393799 3357416.77691650 17.65310287 151 148 143
245780.06085205 3357416.16201782 18.18810844 145 140 137
245786.58178711 3357418.07559204 17.66577721 88 90 87
245778.61651611 3357416.57586670 17.74363327 116 116 114
245780.78820801 3357417.58605957 17.59886932 74 74 72
245787.48236084 3357417.89343262 18.05952072 90 89 85
245785.39074707 3357417.13287354 18.18270493 67 63 54
245783.91003418 3357416.84097290 17.99182320 189 188 183
245779.39801025 3357416.83346558 17.61759758 98 98 98
245780.29504395 3357417.70751953 17.62175179 98 98 100
245785.70648193 3357417.59298706 17.79955292 115 112 107
245781.08221436 3357417.12725830 17.61112785 94 96 95
245785.29669189 3357417.92700195 17.86229897 43 45 44
245780.74926758 3357416.31729126 17.78515816 125 117 114
245784.32470703 3357417.21685791 17.71394730 130 131 126
245784.24804688 3357417.99313354 17.74198723 127 117 105
245785.17419434 3357418.36544800 17.60662079 88 81 73
245784.32116699 3357418.05880737 17.76549530 113 101 87
245785.05529785 3357417.27795410 17.76974678 184 180 171
245786.21185303 3357418.80206299 17.58637238 176 169 153
245783.73095703 3357416.62609863 18.21990967 154 155 150
245787.48376465 3357418.26382446 18.06746864 84 87 80
245783.81152344 3357417.64041138 17.89916801 149 146 137
245787.05963135 3357418.36575317 18.01247978 165 171 171
245786.00891113 3357417.97973633 17.95516586 49 49 47
245778.24560547 3357416.29431152 17.78748131 117 118 113
245778.52539063 3357415.92098999 17.84065628 222 218 215
245779.99780273 3357416.71548462 17.94016457 62 63 58
245785.34686279 3357417.29940796 18.21028900 113 110 101
245779.27435303 3357416.24444580 17.71219254 110 114 115
245786.76574707 3357417.52423096 17.82208252 165 164 159
245781.03027344 3357415.92993164 17.77694321 188 189 191
245779.80456543 3357415.92855835 17.74653435 160 160 162
245780.06237793 3357415.98937988 17.94357300 137 137 139
245779.67962646 3357416.79592896 17.65059662 104 104 104
245785.99377441 3357418.49343872 17.58283806 174 170 158
245780.08551025 3357416.03500366 18.18349075 131 125 125
245783.25164795 3357416.58123779 17.87548828 121 120 115
245781.28424072 3357415.93484497 17.84375191 174 179 183
245780.52935791 3357417.66497803 17.61218452 123 125 122
245787.21026611 3357417.78518677 17.72729492 182 179 170
245788.05072021 3357418.97409058 17.84378624 180 168 154
245786.50817871 3357417.77062988 17.74107170 176 177 171
245788.39971924 3357418.59280396 17.82940483 52 53 48
245787.51525879 3357418.52291870 17.92722130 89 90 84
245778.31170654 3357415.95797729 17.67967606 175 174 172
245780.09643555 3357416.15863037 18.10026741 198 195 190
245787.55340576 3357417.91156006 18.15633774 99 101 96
245788.18377686 3357418.23837280 17.79940033 116 113 106
245779.96630859 3357417.52545166 17.65397835 95 95 97
245780.16925049 3357416.93670654 17.81257439 146 145 143
245783.88580322 3357416.78146362 18.01955986 189 188 183
245786.55664063 3357417.63067627 17.93724823 193 194 186
245780.76403809 3357416.53921509 17.88407707 170 169 167
245787.40136719 3357418.76828003 17.82595253 73 72 68
245778.98675537 3357416.36752319 17.84254265 64 68 71
245784.19262695 3357416.96353149 17.76592445 179 176 171
245787.72509766 3357418.29818726 17.72100067 160 156 147
245787.63702393 3357418.38586426 17.82146645 139 141 130
245781.00109863 3357416.18847656 17.88977814 230 229 224
245788.78833008 3357418.43853760 17.62874222 113 113 105
245785.97717285 3357418.37677002 17.59122086 100 99 94
245784.49023438 3357417.97653198 17.87398148 52 48 45
245786.74664307 3357418.75189209 17.75394821 222 210 194
245787.69415283 3357417.74807739 18.08754539 26 27 29
245780.36328125 3357417.70928955 17.61928177 118 118 118
245780.29058838 3357416.96701050 17.67157555 89 88 86
245783.93084717 3357416.95938110 17.96358299 186 187 182
245788.89599609 3357418.25735474 17.59405327 133 134 126
245778.95660400 3357415.44903564 17.67398453 144 148 147
245784.42828369 3357416.95925903 17.80994987 171 170 165
245788.77667236 3357419.14797974 17.98787880 26 25 23
245785.00866699 3357417.80993652 17.86339760 98 99 94
245783.70581055 3357416.65658569 18.25310898 162 163 158
245780.37677002 3357416.61788940 17.85134888 101 101 93
245780.91595459 3357417.26129150 17.60385513 68 68 68
245785.73089600 3357417.89837646 18.02455139 165 164 162
245786.14758301 3357418.70660400 17.58768654 168 163 144
245784.59649658 3357417.60394287 17.95639420 62 64 63
245778.24176025 3357415.67089844 17.82276726 183 177 177
245788.73504639 3357418.29833984 17.58002090 86 87 82
245788.56109619 3357418.12979126 17.83190155 75 74 72
245788.11560059 3357418.53994751 17.84846687 206 207 199
245784.66387939 3357418.37957764 17.64812279 182 175 157
245780.77343750 3357416.89038086 17.73852539 119 120 115
245781.16125488 3357416.53900146 17.73799706 176 175 173
245785.11462402 3357417.54699707 17.92671967 99 96 91
245780.07159424 3357415.60952759 17.65209007 193 193 191
245779.13659668 3357415.67709351 18.00359154 77 84 90
245785.64605713 3357417.22079468 18.00486755 199 192 182
245786.15032959 3357417.61538696 18.03714371 87 89 88
245778.56170654 3357415.48568726 17.72577477 171 159 161
245783.87469482 3357417.61471558 17.91192436 153 151 139
245780.64904785 3357415.95404053 17.79321098 211 212 206
245780.96887207 3357417.24755859 17.60058594 67 69 68
245787.64221191 3357417.71353149 18.14578629 29 30 32
245784.45416260 3357417.86770630 17.91546822 100 96 85
245787.60522461 3357417.74987793 18.19542885 103 104 99
245789.19726563 3357419.00341797 17.97267342 48 50 49
245788.27545166 3357419.12698364 17.72181320 71 68 63
245781.18237305 3357416.43658447 17.79560852 188 189 184
245787.49908447 3357417.82510376 18.07024384 167 169 164
245786.99664307 3357418.41378784 17.91835403 221 227 227
245779.64453125 3357415.79705811 17.80054474 182 183 185
245785.29571533 3357417.93667603 17.84463882 47 49 48
245785.88287354 3357418.11062622 17.76597786 48 44 43
245786.04620361 3357417.84841919 18.10588455 68 68 68
245787.89727783 3357418.45336914 17.67967033 169 166 151
245784.21386719 3357416.98904419 17.76602554 179 178 174
245784.95642090 3357417.02188110 17.83000565 176 171 165
245787.36199951 3357418.20092773 18.18557549 129 123 123
245778.41662598 3357416.33227539 17.86590767 109 109 101
245780.26635742 3357417.23992920 17.64787102 52 56 57
245787.74926758 3357418.22207642 17.69399071 151 148 139
245785.79925537 3357418.21957397 17.66203880 57 54 49
245788.11419678 3357418.90722656 17.87732124 91 82 73
245780.04528809 3357416.16931152 18.11678123 171 165 165
245780.53735352 3357417.56900024 17.60974121 76 78 77
245780.49365234 3357417.11645508 17.64509583 59 58 63
245784.34234619 3357417.84155273 17.86792374 170 163 144
245785.48828125 3357418.37600708 17.59377480 146 141 137
245785.18450928 3357417.56802368 18.12513351 78 78 76
245788.55389404 3357418.81814575 17.72091103 119 120 112
245788.44293213 3357418.43920898 17.80254555 76 81 77
245785.86248779 3357418.61099243 17.56820869 168 164 152
245785.80194092 3357418.12411499 17.72608948 32 32 24
245787.79571533 3357418.79159546 17.66077614 82 83 78
245787.61840820 3357418.06002808 17.97804642 154 155 147
245785.48187256 3357417.64947510 18.06752205 95 94 89
245787.53472900 3357418.75820923 17.75797462 86 88 83
245780.73950195 3357417.27871704 17.61689568 63 63 65
245778.98864746 3357415.36669922 17.66325951 204 203 199
245788.87371826 3357418.43374634 17.71301460 44 41 34
245785.46643066 3357417.26977539 18.19054031 167 164 157
245784.44390869 3357418.03518677 17.82848549 55 47 44
245786.58819580 3357417.97561646 17.68140411 151 152 147
245779.43139648 3357415.68182373 17.68277740 81 82 86
245779.56854248 3357416.52075195 17.63238907 101 102 104
245786.00720215 3357418.67160034 17.57530975 166 160 146
245786.01593018 3357417.60278320 18.05184364 72 71 67
245785.56005859 3357417.34805298 18.09592819 192 187 181
245784.57727051 3357417.07928467 17.88932037 172 171 167
245787.51397705 3357419.02511597 17.63218880 166 158 147
245778.48724365 3357416.53466797 17.75851440 160 157 152
245779.59484863 3357417.02603149 17.62415504 146 148 147
245784.25305176 3357418.14566040 17.71716309 182 172 162
245789.03533936 3357418.65551758 18.15256882 51 51 51
245778.34399414 3357416.18872070 17.79976463 105 106 101
245785.38116455 3357417.14901733 18.19618225 82 78 69
245779.90710449 3357416.73287964 17.91197395 99 101 98
245787.07397461 3357417.77172852 17.66629028 195 189 175
245780.05230713 3357416.81274414 17.89805412 74 74 72
245788.82775879 3357418.55810547 17.93512154 97 94 87
245783.94335938 3357417.18563843 17.98250961 113 114 109
245787.47064209 3357418.95129395 17.66089439 136 127 120
245783.71368408 3357417.88687134 17.69637680 165 159 147
245780.41687012 3357417.60812378 17.61504745 93 95 94
245781.13500977 3357415.85806274 17.75010872 181 184 189
245786.28405762 3357418.03826904 17.79399872 125 125 123
245788.38458252 3357418.53747559 17.82588768 105 106 100
245784.61138916 3357417.91549683 17.89312935 46 48 47
245778.35198975 3357415.62368774 17.82961082 202 196 196
245783.22656250 3357416.49154663 17.74034309 160 159 154
245787.36602783 3357418.76382446 17.83403778 71 70 68
245778.60711670 3357415.94503784 17.86912155 213 209 210
245781.59497070 3357416.33026123 17.93293190 181 180 178
245787.74938965 3357417.84011841 17.99374771 139 136 127
245788.99865723 3357419.12332153 18.04371452 42 43 38
245787.58941650 3357418.53509521 17.84898758 129 129 121
245788.30609131 3357418.77249146 17.85671425 58 49 52
245778.13043213 3357415.79086304 17.78663254 225 221 220
245779.51348877 3357415.49328613 17.63590622 171 172 174
245781.32427979 3357416.67199707 17.66547012 118 117 113
245781.31463623 3357416.37057495 17.80061340 197 198 192
245783.98937988 3357417.17477417 17.85673904 105 106 101
245778.79827881 3357415.57943726 17.76396370 84 85 87
245783.57458496 3357416.58190918 18.12343407 123 124 119
245785.65899658 3357417.82015991 17.90099716 110 109 105
245786.43585205 3357417.36724854 18.17224884 129 132 125
245781.13543701 3357417.72933960 17.59249306 181 174 164
245784.82885742 3357418.51449585 17.60073471 170 163 147
245786.63348389 3357418.57354736 17.67258835 216 210 198
245787.93304443 3357417.91778564 17.75769424 99 98 93
245778.70092773 3357417.09060669 17.67936325 101 105 108
245785.36096191 3357417.45315552 18.20630836 130 131 125
245779.22961426 3357416.39993286 17.71507263 153 155 154
245779.45404053 3357416.33444214 17.62724495 126 122 121
245788.91583252 3357419.07507324 18.10600090 67 66 61
245780.01708984 3357416.27325439 17.90571404 133 125 122
245786.12719727 3357417.76016235 18.09957886 70 70 70
245783.99346924 3357416.95187378 17.86050034 183 182 178
245788.92663574 3357419.16186523 18.03361130 43 43 41
245779.97955322 3357417.38314819 17.67224121 74 76 75
245786.46136475 3357417.53787231 18.05318832 138 137 135
245779.39324951 3357415.76318359 17.73942947 83 86 91
245780.65582275 3357416.05813599 17.82616997 202 197 193
245780.60852051 3357416.54779053 17.73291779 110 107 102
245780.64569092 3357416.90664673 17.69330215 81 81 79
245780.05926514 3357417.53143311 17.64606476 97 99 98
245788.78222656 3357418.05813599 17.62473869 89 89 81
245779.06671143 3357416.34335327 17.85581017 91 94 99
245780.85186768 3357415.92895508 17.74552155 206 206 198
245779.96447754 3357416.47100830 17.84821129 87 81 81
245786.83911133 3357418.75234985 17.75295830 220 204 188
245778.94128418 3357415.46871948 17.67845345 144 148 147
245780.71801758 3357417.01428223 17.64409828 43 43 41
245784.59149170 3357417.24719238 17.88325691 107 106 104
245787.72332764 3357418.39212036 17.73117447 168 166 153
245785.05358887 3357417.32241821 17.73183823 160 157 150
245788.80096436 3357418.19097900 17.57837868 119 120 114
245780.06286621 3357416.11169434 18.16113853 138 132 132
245781.09246826 3357415.94964600 17.80319595 182 185 190
245787.44708252 3357418.87570190 17.69519997 144 141 134
245784.98333740 3357417.81994629 17.84176254 116 117 111
245788.82611084 3357418.68011475 18.12095451 144 147 138
245785.48083496 3357418.04727173 17.65977859 66 65 63
245783.95422363 3357417.15100098 17.95423317 108 108 106
245779.81628418 3357417.38034058 17.67508316 72 72 70
245778.46417236 3357415.77688599 17.83705711 203 197 197
245778.82879639 3357416.93740845 17.70596504 99 104 107
245785.41735840 3357418.46395874 17.58893585 122 115 109
245786.80688477 3357418.70956421 17.80821800 219 206 190
245778.91180420 3357415.38888550 17.67566299 154 156 151
245788.51965332 3357417.94497681 17.86450577 179 173 173
245789.12316895 3357419.07128906 17.99322510 45 47 44
245779.72656250 3357415.83828735 17.75814247 170 172 171
245787.05578613 3357417.69387817 17.63304901 192 190 178
245779.57806396 3357417.21026611 17.63616943 107 109 108
245784.92303467 3357417.23440552 17.80947876 183 178 172
245780.58068848 3357416.60281372 17.74846458 90 86 85
245780.66632080 3357416.44949341 17.80041695 167 156 150
245780.89465332 3357417.47479248 17.58929634 85 86 88
245785.42224121 3357418.20538330 17.61821938 71 68 63
245788.25604248 3357418.74114990 17.88804436 97 87 85
245778.07800293 3357415.89794922 17.71768570 197 195 196
245779.11010742 3357417.31774902 17.61486435 118 119 121
245780.80981445 3357417.05618286 17.62833214 69 69 67
245788.31921387 3357418.85583496 17.84827995 48 47 43
245786.76306152 3357418.34085083 17.68915749 185 175 163
245783.98706055 3357417.63223267 17.83218384 154 152 140
245783.97558594 3357417.60919189 17.85562515 151 149 137
245786.01629639 3357418.18426514 17.69581985 62 62 62
245780.72064209 3357416.01681519 17.73847580 206 203 198
245787.39196777 3357418.20193481 18.17989159 89 85 82
245783.91790771 3357416.76080322 17.95811462 193 190 185
245784.34069824 3357417.25393677 17.72301483 113 114 109
245787.29119873 3357417.96194458 17.93816948 47 49 48
245785.17706299 3357418.30786133 17.60933495 115 110 104
245788.00195313 3357417.94583130 17.71634483 111 107 96
245784.18347168 3357417.34454346 17.70404434 120 119 115
245786.38555908 3357417.75573730 17.87597466 117 118 113
245788.73303223 3357419.10751343 17.99565697 93 92 90
245779.96563721 3357416.55725098 17.95650101 72 64 62
245779.33642578 3357416.67968750 17.61435318 88 90 89
245778.18835449 3357416.02395630 17.68931961 136 136 136
245779.97668457 3357416.22671509 17.71739197 124 120 119
245779.36145020 3357416.33093262 17.63855553 92 94 93
245785.71051025 3357417.53045654 17.81274796 109 106 99
245788.32153320 3357417.99984741 17.79609489 215 214 210
245778.89764404 3357416.05148315 17.90347672 68 69 71
245779.82128906 3357417.50537109 17.66215897 107 109 108
245779.38995361 3357417.41778564 17.60992050 106 108 107
245778.92303467 3357416.81710815 17.71308517 146 148 147
245780.50585938 3357416.22030640 17.83112335 206 202 193
245787.87719727 3357419.03128052 17.72023392 157 145 131
245786.88616943 3357417.61532593 17.66741562 174 174 166
245779.63885498 3357415.73211670 17.76260567 86 87 89
245786.17773438 3357418.68301392 17.59121323 175 168 150
245779.59271240 3357415.87237549 17.71080017 207 207 207
245780.72991943 3357415.80334473 17.71309662 178 180 175
245779.56512451 3357416.76907349 17.62236404 99 99 99
245786.93652344 3357418.73410034 17.78791237 219 201 177
245788.43707275 3357417.94924927 17.86407280 225 221 220
245785.97302246 3357417.43405151 17.89480019 57 47 46
245779.35614014 3357417.31106567 17.60495758 102 103 105
245779.27130127 3357415.35510254 17.63761330 202 204 203
245784.33129883 3357417.19985962 17.72364426 164 165 160
245787.19610596 3357418.09170532 17.96743202 48 44 43
245779.87011719 3357417.35025024 17.67594337 48 47 45
245779.84722900 3357416.59457397 17.74225235 126 126 126
245784.23889160 3357417.94503784 17.75640106 125 115 105
245785.54016113 3357417.18060303 18.11937714 200 196 185
245787.80694580 3357418.40304565 17.69630241 173 170 155
245785.47998047 3357417.99050903 17.70647240 52 54 53
245785.70117188 3357418.05679321 17.80851364 211 208 199
245783.90942383 3357417.95880127 17.63551331 167 163 151
245778.78930664 3357415.73434448 17.86277008 124 125 127
245780.85229492 3357416.87615967 17.72824287 105 104 100
245781.07653809 3357416.56466675 17.76395035 158 159 154
245787.83477783 3357417.88314819 17.83079338 124 121 116
245786.73687744 3357418.05548096 17.66090012 147 148 143
245784.50860596 3357417.38742065 18.01075172 115 116 118
245780.24890137 3357417.15222168 17.65273666 56 60 63
245780.70050049 3357417.39755249 17.61100388 66 66 66
245784.13604736 3357417.52633667 17.83679771 151 148 139
245780.14013672 3357415.85311890 18.08348656 75 76 70
245780.23718262 3357416.29122925 17.92485046 172 171 166
245783.82092285 3357418.09646606 17.59629059 176 172 160
245787.82586670 3357417.87603760 17.84861374 146 143 136
245786.61700439 3357418.75570679 17.65567780 218 210 197
245779.13848877 3357416.46566772 17.78920174 108 108 108
245780.25872803 3357415.69384766 17.70910835 138 134 131
245786.49530029 3357418.48971558 17.61572647 157 154 145
245787.72131348 3357417.92016602 17.95752525 122 119 110
245788.69110107 3357419.01898193 17.97846222 159 161 158
245780.17407227 3357416.48693848 17.93699837 204 207 200
245786.45672607 3357418.84909058 17.59175110 189 183 171
245779.75659180 3357416.62988281 17.67919159 83 84 86
245780.11553955 3357416.00228882 18.23807907 191 186 182
245785.49035645 3357418.00292969 17.68958092 52 52 50
245784.77331543 3357417.57940674 17.76668358 84 84 84
245782.49383545 3357416.29525757 17.74764252 210 209 205
245781.32861328 3357415.98687744 17.85885620 186 189 194
245778.36914063 3357415.83230591 17.80632782 226 221 218
245784.02838135 3357417.96823120 17.63747215 168 162 148
245779.10717773 3357416.75924683 17.70442009 110 112 111
245781.33312988 3357416.23715210 17.83043289 171 173 170
245779.49401855 3357415.69119263 17.66426849 43 47 50
245781.43383789 3357415.94808960 17.79154396 187 190 195
245784.34179688 3357417.04501343 17.77156258 173 172 168
245786.29364014 3357417.75314331 17.95228004 108 108 108
245785.95916748 3357418.20520020 17.68123055 61 61 59
245787.75897217 3357418.36688232 17.69352531 162 159 144
245784.53302002 3357417.97085571 17.89217567 47 47 45
245785.84381104 3357417.84109497 18.13233757 59 59 57
245780.85009766 3357417.17178345 17.61604500 117 119 118
245779.39666748 3357415.77224731 17.77138710 91 96 100
245788.87933350 3357418.74331665 18.16810036 85 88 81
245785.55041504 3357417.22369385 18.10706139 198 194 183
245787.44390869 3357418.41262817 18.05392075 58 60 59
245779.52685547 3357417.02984619 17.61709976 152 154 153
245788.81854248 3357418.31756592 17.58675385 34 33 28
245785.21148682 3357417.97033691 17.82587814 47 43 42
245788.94158936 3357418.51715088 18.02587318 47 47 45
245783.90344238 3357417.93527222 17.64820290 165 161 149
245788.62298584 3357418.26870728 17.70233727 86 87 82
245779.94720459 3357416.02447510 17.78365135 165 161 162
245784.85711670 3357418.38351440 17.62516022 171 162 147
245786.19018555 3357418.33053589 17.61632156 128 124 113
245787.56018066 3357417.71185303 18.17146683 121 122 117
245785.90014648 3357418.36547852 17.58981133 107 106 101
245787.63488770 3357417.86108398 18.16512489 129 130 122
245786.14038086 3357418.66091919 17.58827400 174 169 150
245783.96777344 3357417.28985596 17.90014458 122 121 117
245780.79364014 3357416.73864746 17.94539261 58 59 54
245786.68103027 3357418.71694946 17.71228027 219 210 195
245781.03845215 3357417.27337646 17.59566116 80 80 82
245779.39770508 3357416.91372681 17.60570717 143 143 143
245781.17687988 3357416.56884766 17.71401215 175 174 172
245785.05767822 3357418.56103516 17.58511162 167 159 140
245784.25030518 3357416.91076660 17.77344513 177 174 169
245784.20611572 3357418.00772095 17.70867920 174 164 154
245779.07250977 3357415.98245239 17.85471916 127 131 132
245780.32751465 3357415.70166016 17.76653290 169 161 158
245786.08764648 3357417.66476440 18.07820702 67 67 67
245779.21765137 3357416.14779663 17.78690720 133 138 141
245779.76281738 3357417.27407837 17.66580200 92 96 97
245788.92083740 3357418.38885498 17.68471527 51 48 41
245781.07592773 3357417.53164673 17.57484436 81 82 77
245787.30487061 3357418.66009521 17.92975807 68 70 67
245786.64752197 3357417.65243530 17.87402344 193 190 181
245780.10473633 3357417.45263672 17.65021706 79 83 82
245785.88098145 3357417.92999268 18.07074738 65 65 63
245784.65924072 3357417.84170532 17.88392258 60 61 63
245786.55993652 3357417.55548096 18.06230164 148 147 142
245788.37744141 3357417.95489502 17.81915665 211 211 209
245779.98284912 3357416.39367676 17.85383987 109 105 104
245779.03576660 3357416.15435791 17.88198090 126 131 134
245786.37725830 3357418.18261719 17.67336845 110 110 108
245784.17974854 3357417.26312256 17.63155556 120 121 116
245780.40521240 3357416.76174927 17.82510757 142 139 134
245785.24072266 3357417.28567505 18.01431274 195 188 180
245784.96405029 3357417.20687866 17.80591202 179 176 169
245786.27447510 3357417.90698242 17.88645744 74 74 72
245789.00488281 3357419.07495117 18.05057716 40 41 36
245787.23291016 3357418.13717651 18.17427635 224 224 224
245783.85150146 3357418.18582153 17.58457375 182 176 162
245786.83996582 3357418.13342285 17.67246246 125 124 120
245780.81945801 3357417.30627441 17.60827827 84 84 84
245784.83471680 3357418.27761841 17.65501785 177 167 155
245784.98101807 3357417.91528320 17.83643723 101 100 95
245787.69891357 3357418.09185791 17.81706619 96 97 89
245779.81121826 3357415.57061768 17.66941261 213 215 212
245788.87738037 3357418.88330078 18.20134354 65 66 60
245779.05993652 3357415.63565063 17.79147148 13 24 28
245780.66662598 3357417.31591797 17.60449982 69 70 72
245780.80041504 3357416.37472534 17.87893677 153 147 147
245785.73095703 3357417.82580566 17.96601295 192 191 187
245785.25012207 3357417.20288086 18.00404930 207 203 194
245779.65118408 3357417.47833252 17.63969612 114 118 117
245778.00683594 3357416.26693726 17.70475578 129 130 132
245780.08178711 3357416.23452759 18.09344292 135 131 130
245787.80389404 3357418.81710815 17.65742683 86 85 80
245780.08203125 3357416.16210938 18.20656776 144 139 136
245788.71246338 3357419.08334351 17.94104958 88 88 88
245784.48205566 3357417.94168091 17.88846207 55 51 48
245785.64074707 3357418.52990723 17.57596207 92 88 79
245784.04187012 3357417.29476929 17.78048706 126 125 120
245781.41265869 3357416.56015015 17.72250366 202 201 197
245780.73754883 3357416.20257568 17.72620773 224 215 210
245787.85430908 3357418.40673828 17.69367790 169 166 151
245783.91961670 3357417.42990112 17.97964287 126 126 118
245788.85473633 3357418.22494507 17.58455276 140 141 133
245786.71032715 3357418.85070801 17.65724373 220 210 198
245778.52252197 3357415.83221436 17.84817314 208 202 202
245785.11370850 3357417.90737915 17.92897415 112 111 107
245779.72186279 3357415.84936523 17.74346352 169 169 169
245779.83081055 3357416.31115723 17.65185547 155 156 158
245779.42846680 3357417.18389893 17.61389351 105 109 110
245780.10577393 3357416.43991089 17.96116447 121 118 113
245787.81689453 3357418.82110596 17.65880775 94 93 88
245783.82470703 3357417.80392456 17.73480797 162 158 146
245778.65277100 3357416.84280396 17.71773338 115 116 121
245786.91870117 3357417.79229736 17.65441895 162 159 150
245788.24786377 3357417.93515015 17.70525360 177 175 163
245787.96472168 3357418.14205933 17.65287781 178 172 158
245787.23120117 3357418.50265503 18.03760338 57 58 60
245779.44110107 3357415.73211670 17.69943810 56 57 61
