245879.95483398 3357443.84609985 17.11646080 82 83 88
245880.01580811 3357444.64733887 17.01934433 100 99 107
245880.83624268 3357446.69128418 16.78426170 39 43 42
245880.61694336 3357449.48306274 16.58534431 64 64 76
245881.31750488 3357445.26049805 16.58194542 19 24 18
245880.29290771 3357447.66311646 16.66712761 49 54 58
245881.48297119 3357445.76425171 16.42192268 67 80 63
245880.39123535 3357444.07287598 16.81773186 92 93 95
245880.24053955 3357441.07229614 16.77571678 99 102 107
245881.34222412 3357446.34658813 16.48756790 39 41 40
245880.66851807 3357448.63726807 16.90276337 95 104 119
245880.09155273 3357442.00286865 16.73838806 45 49 50
245881.00836182 3357446.94430542 16.78273773 55 51 50
245880.69866943 3357447.41882324 16.85328293 84 98 107
245879.83892822 3357443.82650757 17.04653549 133 133 143
245881.41522217 3357448.09841919 16.46407700 84 89 95
245880.72564697 3357441.09402466 16.64545822 87 92 98
245881.20751953 3357443.15551758 16.61409569 94 98 99
245881.31719971 3357444.07955933 16.51612473 107 111 112
245880.11511230 3357447.13327026 16.67876053 67 67 65
245879.75585938 3357441.18869019 16.68110847 108 109 113
245881.31402588 3357445.36444092 16.67719460 56 58 55
245881.10986328 3357445.83996582 17.19821930 95 99 110
245880.95825195 3357447.75662231 16.71974945 71 74 81
245880.05187988 3357448.95150757 16.41246605 102 103 108
245880.29040527 3357447.10919189 17.05785751 37 33 30
245879.73645020 3357441.43359375 16.74353218 120 121 125
245881.43768311 3357449.53598022 16.49471283 74 81 89
245880.63543701 3357445.20993042 16.94270706 150 154 165
245881.56347656 3357450.86373901 16.34287643 104 105 100
245881.30560303 3357445.35873413 16.76521873 44 46 43
245880.27404785 3357450.44296265 16.40909004 117 118 123
245880.45819092 3357448.98300171 16.66067123 40 40 48
245879.78454590 3357441.68090820 16.77699280 134 135 140
245881.03662109 3357448.85705566 16.59652710 53 56 61
245880.86242676 3357447.28631592 16.84782982 66 79 87
245880.49987793 3357441.91244507 16.73030090 76 80 81
245880.29956055 3357443.82946777 16.85724831 95 96 98
245880.07702637 3357448.40042114 16.60151672 95 96 100
245880.20141602 3357448.50045776 16.68832397 80 83 88
245880.02758789 3357443.22644043 16.66403389 99 100 104
245881.03356934 3357450.85800171 16.46792984 94 95 97
245881.28100586 3357445.01477051 16.57947159 75 80 84
245881.32922363 3357444.77352905 16.52896690 82 87 90
245880.42303467 3357447.19079590 16.96765137 57 52 56
245880.87347412 3357445.27990723 16.83137512 196 195 211
245880.15771484 3357447.04608154 16.96035194 35 34 32
245879.98461914 3357441.43917847 16.88945580 138 137 145
245880.15435791 3357443.25634766 16.67424583 82 83 88
245881.24749756 3357449.12658691 16.48901939 93 96 101
245880.52325439 3357447.13504028 16.94335747 51 41 40
245880.97827148 3357449.45971680 16.66262245 107 111 123
245879.73718262 3357441.04785156 16.63818359 111 116 119
245880.14825439 3357445.44015503 16.89554024 178 176 187
245880.48852539 3357450.48138428 16.51070404 72 72 74
245881.02514648 3357445.48498535 17.18397331 164 166 187
245880.07177734 3357445.19528198 16.90771866 95 99 102
245881.42602539 3357444.10311890 16.48451614 105 110 103
245879.78039551 3357441.47799683 16.76983643 137 138 142
245880.54461670 3357448.82708740 16.89284515 51 54 63
245880.73974609 3357448.74160767 16.90384483 104 113 122
245880.85278320 3357447.02844238 16.87981987 105 70 64
245881.27386475 3357445.90866089 16.96372223 79 87 90
245880.28057861 3357441.45028687 16.91218948 98 101 108
245880.92364502 3357445.12161255 16.81235313 163 161 174
245880.94128418 3357447.61337280 16.73497581 62 71 76
245881.25415039 3357441.94006348 16.49623108 96 98 97
245880.75323486 3357447.51834106 16.81484985 35 46 52
245880.70092773 3357446.40231323 16.85110855 70 70 78
245880.05139160 3357448.45898438 16.59912682 86 87 91
245880.79492188 3357443.08123779 16.79591560 80 84 87
245880.01879883 3357444.96749878 16.87572289 100 101 106
245880.42193604 3357443.93209839 16.79559708 102 103 105
245880.29510498 3357445.76733398 16.90932274 50 53 60
245879.97235107 3357443.00000000 16.69584465 107 106 111
245880.30175781 3357443.79284668 16.88024712 96 97 99
245880.85559082 3357449.63781738 16.64360428 43 46 53
245880.10174561 3357442.10412598 16.72653580 72 73 77
245880.42663574 3357444.99880981 17.02931976 52 55 60
245880.74145508 3357442.33218384 16.76079178 102 106 107
245881.02252197 3357444.27499390 16.55023956 84 90 90
245881.16827393 3357447.57766724 16.62012291 61 68 74
245880.52502441 3357445.52685547 16.97688484 66 67 71
245880.32031250 3357449.19064331 16.46039200 96 97 101
245881.43493652 3357441.79061890 16.47899437 53 67 41
245880.88189697 3357441.85037231 16.66087532 115 120 123
245879.88342285 3357443.55587769 17.05993652 153 155 170
245879.98437500 3357444.73101807 16.94638634 102 101 107
245880.06152344 3357443.02560425 16.69285011 104 103 109
245879.91528320 3357441.21853638 16.78470993 101 100 105
245880.28826904 3357444.25765991 16.99349594 73 73 81
245881.21563721 3357447.99151611 16.59518814 78 82 91
245881.24291992 3357450.07165527 16.43484306 102 101 106
245880.64855957 3357445.15530396 16.96375084 169 173 185
245881.14025879 3357444.28381348 16.52970505 89 95 95
245880.17877197 3357448.85211182 16.70368195 6 7 11
245880.09136963 3357447.54086304 16.62675667 53 56 61
245880.15771484 3357446.83956909 17.09246635 57 58 63
245879.90325928 3357447.04830933 16.58836365 76 77 82
245880.40814209 3357450.56649780 16.47753906 123 122 127
245880.86547852 3357441.36401367 16.71333694 54 62 65
245880.17193604 3357442.44009399 16.73895073 85 88 93
245880.24084473 3357442.35394287 16.76627159 100 105 111
245880.06890869 3357442.42651367 16.73904991 88 89 93
245880.23193359 3357449.75131226 16.39171982 104 107 114
245880.95806885 3357446.46545410 16.73238564 92 95 100
245881.30151367 3357444.50433350 16.50257683 76 82 80
245881.14971924 3357441.98703003 16.53270340 103 107 108
245880.93200684 3357447.30725098 16.81467247 66 75 80
245880.66735840 3357448.88507080 16.85008240 27 30 35
245880.46765137 3357443.68603516 16.84201622 90 93 100
245880.11950684 3357443.59588623 17.14843941 46 47 52
245880.57604980 3357449.31732178 16.55974007 43 46 55
245880.60021973 3357449.07241821 16.59630203 65 66 70
245880.93914795 3357445.48129272 17.07807159 145 147 162
245880.18914795 3357446.50143433 16.91679764 100 95 99
245879.97644043 3357442.06869507 16.72400475 73 74 78
245880.36608887 3357441.91421509 16.77444458 23 28 31
245880.81652832 3357444.19458008 16.62185287 73 79 79
245881.42236328 3357447.26547241 16.44445610 64 66 63
245881.10675049 3357442.62438965 16.62160683 97 101 102
245880.28948975 3357443.79080200 16.89269829 96 97 99
245880.15100098 3357449.56600952 16.38418961 118 119 123
245879.82708740 3357441.67434692 16.79220200 123 124 129
245879.98321533 3357446.97958374 16.94149399 49 51 50
245880.26306152 3357441.15826416 16.84077835 103 106 111
245880.65478516 3357449.99948120 16.51290703 98 99 104
245880.13916016 3357448.18304443 16.63758659 93 94 98
245880.01434326 3357449.35665894 16.37198639 126 127 132
245880.13671875 3357447.26605225 16.67940712 69 75 75
245879.92126465 3357444.78543091 16.85381508 105 104 110
245879.90679932 3357442.31787109 16.75028801 118 121 128
245880.62194824 3357443.39096069 16.87643433 77 80 85
245880.71997070 3357444.79058838 16.99625587 68 73 79
245881.40490723 3357444.66708374 16.47137070 76 82 80
245881.28991699 3357445.35494995 16.88530731 53 54 56
245881.51861572 3357450.83215332 16.34036827 112 113 107
245881.47045898 3357447.52847290 16.42294502 91 96 99
245881.35888672 3357441.68862915 16.49134827 51 57 43
245880.88653564 3357443.69317627 16.62779808 84 88 89
245880.09503174 3357445.07809448 16.91653633 90 91 96
245880.12896729 3357442.92498779 16.71226692 102 101 107
245880.23522949 3357441.83560181 16.81924820 13 18 21
245880.05981445 3357443.01141357 16.69369888 109 108 113
245880.25689697 3357444.49264526 17.11420822 51 54 61
245880.01904297 3357446.23318481 16.78668022 96 95 100
245880.06542969 3357443.45153809 16.81487274 47 47 49
245881.33068848 3357449.63864136 16.53965950 69 73 84
245881.19885254 3357444.39471436 16.50662041 80 84 83
245880.43792725 3357449.62951660 16.49966621 29 32 41
245881.28015137 3357446.11035156 16.71362495 35 39 38
245880.98449707 3357445.80197144 17.23738480 174 176 188
245880.96093750 3357449.20422363 16.58359528 79 83 94
245880.32653809 3357450.87576294 16.40361977 125 126 131
245880.18896484 3357441.11862183 16.80253029 97 100 105
245879.89630127 3357444.47531128 17.00260925 102 101 106
245880.60284424 3357444.39120483 16.88770103 115 121 133
245880.80529785 3357441.08917236 16.63805580 79 84 88
245880.76635742 3357441.02719116 16.62084007 91 96 102
245881.19525146 3357446.82089233 16.58950043 92 93 95
245881.39074707 3357449.81954956 16.42480087 63 64 68
245881.15454102 3357445.52496338 17.18706322 180 185 205
245880.17114258 3357443.33139038 16.73514748 115 118 127
245880.40979004 3357445.25897217 17.02566528 228 230 243
245881.23852539 3357442.28500366 16.49281502 76 81 77
245880.45660400 3357442.82077026 16.84111404 65 66 70
245880.78210449 3357447.66180420 16.77140617 67 74 80
245881.46527100 3357449.59222412 16.46301460 60 63 70
245880.79357910 3357442.34603882 16.75119972 104 110 110
245881.28631592 3357447.82705688 16.53699684 152 160 173
245880.44287109 3357446.81228638 17.01657677 55 55 57
245879.90850830 3357447.14971924 16.58342934 81 81 83
245880.03521729 3357446.99237061 17.12494850 23 28 32
245881.29943848 3357446.36993408 16.50629616 37 39 38
245881.05944824 3357448.90704346 16.56775856 27 31 34
245880.95721436 3357445.48452759 17.10229111 143 142 160
245881.35498047 3357446.68444824 16.45923996 88 94 92
245881.39282227 3357443.14959717 16.51725006 90 97 89
245880.93481445 3357441.36169434 16.69130516 63 71 74
245880.53686523 3357448.65124512 16.90362549 78 86 99
245880.93334961 3357443.28482056 16.68565369 80 84 87
245881.38031006 3357446.12771606 16.46840668 65 71 67
245880.20422363 3357445.02590942 16.98559380 118 118 128
245880.38592529 3357448.09478760 16.77308846 54 57 62
245879.99383545 3357442.56225586 16.69364738 112 113 118
245880.00408936 3357447.82537842 16.58387184 89 90 95
245880.60754395 3357446.99737549 16.92866135 88 74 71
245879.74346924 3357441.81231689 16.75182152 53 53 55
245880.18768311 3357450.79415894 16.38831902 115 116 121
245880.37994385 3357447.74304199 16.69075775 55 60 66
245879.98822021 3357448.60656738 16.56463623 95 94 100
245880.62078857 3357441.52682495 16.78533745 43 50 56
245880.93994141 3357443.57171631 16.63499260 89 93 96
245881.33300781 3357445.02423096 16.53306198 115 120 124
245880.02050781 3357444.50604248 17.16996002 123 123 131
245881.42413330 3357448.15042114 16.46101570 73 76 81
245880.54864502 3357445.37582397 16.98282623 94 94 102
245881.33160400 3357447.70254517 16.50008011 191 201 213
245880.87487793 3357450.08432007 16.53843880 99 100 104
245879.91174316 3357441.37628174 16.83500671 88 88 88
245880.48382568 3357441.49874878 16.82836914 38 46 48
245880.03240967 3357448.53787231 16.60898209 89 88 93
245881.28631592 3357446.08587646 16.77704811 29 33 32
245880.22912598 3357448.40670776 16.67562294 80 81 86
245880.96246338 3357443.27673340 16.68109131 81 85 88
245880.84381104 3357441.85983276 16.65957642 113 118 122
245880.18121338 3357447.07678223 16.85577583 49 44 40
245881.34808350 3357446.52359009 16.46249580 79 81 78
245881.53564453 3357446.09417725 16.43387032 51 64 44
245881.35522461 3357448.11880493 16.49678993 133 135 147
245880.49340820 3357447.23156738 16.93607903 63 56 64
245880.38458252 3357447.07189941 17.05712128 33 32 30
245880.00134277 3357449.13003540 16.38129234 120 119 125
245880.84680176 3357450.05639648 16.53772926 98 101 106
245881.61523438 3357450.66830444 16.33787537 138 140 135
245880.89465332 3357448.63436890 16.82242012 54 63 68
245880.04193115 3357443.79660034 17.11820412 163 165 177
245879.96673584 3357442.15136719 16.72220421 99 100 104
245880.02136230 3357443.38140869 16.71693230 96 95 100
245880.76330566 3357445.64309692 17.03215408 47 50 57
245880.18591309 3357448.87777710 16.56749153 34 38 39
245879.89971924 3357442.16964722 16.71826553 108 112 115
245881.18292236 3357449.80133057 16.55002594 42 45 52
245881.34588623 3357443.21142578 16.53602409 89 94 90
245881.09509277 3357449.80352783 16.58945274 45 50 56
245880.53363037 3357449.93859863 16.47885895 89 94 98
245880.78247070 3357444.27883911 16.66759491 65 69 72
245880.34503174 3357441.64196777 16.86303711 18 23 26
245879.93902588 3357446.93267822 16.84246635 73 75 72
245881.19659424 3357449.19177246 16.51288795 94 97 102
245879.85290527 3357442.06219482 16.70384979 123 127 130
245881.18560791 3357447.68264771 16.60936356 60 65 71
245880.15637207 3357443.38644409 16.78731155 58 59 64
245880.08734131 3357443.97470093 17.02626419 89 90 92
245881.40844727 3357441.60934448 16.49306488 78 86 71
245880.29516602 3357445.89636230 16.92382813 95 99 110
245880.49273682 3357446.87103271 16.97015953 58 57 63
245879.78851318 3357442.81576538 16.70715523 121 122 127
245881.05230713 3357445.48916626 17.20134354 191 193 216
245881.36120605 3357443.45077515 16.50914955 110 114 113
245880.92968750 3357447.30450439 16.81621170 66 75 80
245880.22906494 3357449.89813232 16.39253235 103 106 113
245879.98974609 3357446.89175415 17.00846672 128 127 132
245881.36358643 3357442.41079712 16.47015953 91 96 90
245881.00030518 3357442.97689819 16.70198822 92 96 97
245881.34582520 3357448.51855469 16.48500633 21 24 29
245881.32971191 3357444.41296387 16.48613548 88 92 91
245881.17755127 3357445.20208740 16.86504364 162 160 171
245879.81109619 3357442.86346436 16.70504761 120 121 125
245880.30523682 3357450.42834473 16.42070770 118 119 124
245881.05316162 3357444.34744263 16.53239250 79 87 89
245880.02111816 3357443.79010010 17.14019775 106 109 118
245880.35565186 3357442.63867188 16.85994148 94 97 102
245880.19561768 3357448.13619995 16.66019440 95 96 100
245881.57696533 3357450.92129517 16.34526443 112 113 107
245881.24353027 3357442.86630249 16.56321144 98 102 103
245881.07757568 3357446.56314087 16.69082260 28 32 31
245880.21685791 3357444.23324585 17.05083275 36 37 39
245880.86291504 3357450.10330200 16.53412819 102 103 107
245881.40887451 3357446.46975708 16.41890526 90 96 86
245880.21655273 3357447.18075562 16.77482605 62 62 60
245880.86651611 3357443.54104614 16.66770172 77 81 84
245881.29571533 3357445.34014893 16.83014870 48 50 49
245881.15972900 3357446.26010132 16.89580536 93 91 96
245881.19274902 3357442.99261475 16.61002350 93 94 96
245881.37152100 3357446.61907959 16.46062469 85 89 88
245880.46014404 3357450.58007813 16.49504089 101 100 105
245880.08361816 3357450.70367432 16.37847137 118 119 124
245880.29925537 3357441.99902344 16.73412132 21 21 23
245880.43823242 3357441.72668457 16.81399918 56 60 63
245879.94122314 3357442.46743774 16.72855949 64 65 67
245880.90087891 3357444.48132324 16.61636925 75 80 84
245880.36944580 3357442.89285278 16.79341316 74 71 78
245880.73168945 3357444.55740356 16.86309624 69 74 80
245881.12725830 3357448.55047607 16.60035133 99 104 124
245881.23919678 3357449.28506470 16.51409340 80 81 86
245879.88159180 3357443.18365479 16.67885399 111 110 115
245880.82983398 3357443.93612671 16.63848305 82 86 89
245881.30499268 3357446.01620483 16.59608650 42 44 43
245880.67303467 3357441.91021729 16.68478203 102 103 108
245880.78442383 3357449.93988037 16.54320526 68 73 77
245879.83972168 3357441.11837769 16.67596245 112 116 119
245880.90521240 3357448.60571289 16.81503296 56 63 69
245879.78051758 3357442.77462769 16.70868492 120 121 126
245881.09973145 3357441.18194580 16.56510735 85 90 94
245880.65209961 3357447.39013672 16.86644363 72 82 91
245880.17785645 3357447.23458862 16.71306801 69 73 74
245880.14538574 3357450.24691772 16.36679268 120 123 130
245880.03485107 3357446.96871948 16.86916161 61 61 63
245881.03649902 3357443.08602905 16.68628502 86 87 89
245880.46887207 3357449.01339722 16.60223198 54 53 59
245881.30749512 3357445.99194336 16.60256958 42 43 45
245881.42022705 3357442.87829590 16.49809265 62 75 57
245880.45117188 3357442.86209106 16.82236862 68 69 73
245880.91369629 3357444.00448608 16.60909843 84 88 89
245881.23022461 3357443.53604126 16.55271721 96 100 101
245880.34179688 3357447.72393799 16.67253113 52 57 63
245881.52551270 3357450.41741943 16.34156227 70 70 70
245881.41394043 3357441.30017090 16.46935463 74 79 73
245881.14526367 3357442.48522949 16.56124496 98 104 104
245880.94989014 3357441.11425781 16.63138580 82 87 91
245881.07360840 3357446.85424805 16.72305489 75 73 76
245880.36047363 3357444.15100098 16.86740303 67 68 72
245881.15197754 3357443.60275269 16.56134605 94 100 100
245880.73876953 3357442.72839355 16.91350937 84 89 95
245881.58776855 3357449.83007813 16.38399887 84 91 83
245880.55279541 3357441.52593994 16.79883194 55 63 66
245880.37982178 3357444.02194214 16.81569099 106 107 109
245879.94537354 3357443.56726074 17.08174896 203 204 224
245881.49481201 3357449.22854614 16.43088531 20 23 28
245881.35174561 3357445.71182251 16.65289307 19 21 20
245880.01593018 3357443.02493286 16.69370079 110 109 115
245879.66235352 3357440.80548096 16.61227036 116 121 124
245880.36871338 3357450.41519165 16.44699478 116 117 122
245881.37841797 3357445.70083618 16.51217842 30 32 29
245881.00512695 3357446.10394287 17.09504318 12 12 14
245881.11755371 3357442.79785156 16.62712479 97 102 105
245880.57086182 3357449.58786011 16.56473732 39 41 53
245880.23400879 3357447.23733521 16.77331352 68 67 72
245880.75561523 3357445.53030396 16.95519257 152 154 166
245881.09063721 3357447.37640381 16.69535828 32 41 50
245880.72821045 3357441.66748047 16.76129341 57 65 68
245880.94097900 3357449.12435913 16.58086014 73 76 85
245880.57781982 3357447.77362061 16.76813126 59 62 69
245880.70928955 3357444.97686768 17.01527977 92 95 100
245880.11444092 3357448.19552612 16.62813950 97 98 102
245880.03973389 3357443.30709839 16.66833878 95 96 100
245880.44744873 3357441.24603271 16.80307770 90 95 101
245881.38146973 3357443.47460938 16.49347878 109 115 111
245880.14215088 3357446.60342407 16.94066811 64 64 64
245879.94439697 3357441.92718506 16.74083710 98 101 106
245881.01440430 3357448.97119141 16.57351685 37 38 43
245880.70642090 3357444.49246216 16.85834503 66 71 75
245881.29791260 3357450.54595947 16.43557930 99 101 100
245880.71063232 3357447.00286865 16.91745186 109 74 72
245881.51617432 3357449.65011597 16.41264153 44 50 50
245881.29931641 3357447.95495605 16.53277969 68 71 80
245880.79516602 3357442.61053467 16.83748245 193 197 206
245880.17913818 3357449.30215454 16.42942619 126 126 128
245880.86688232 3357445.66476440 17.13820839 170 169 183
245881.38653564 3357450.44387817 16.39328766 93 97 96
245880.61260986 3357446.28274536 16.87781334 57 57 65
245881.41088867 3357447.34579468 16.45447922 73 79 79
245880.48370361 3357443.58682251 16.89944458 118 124 136
245880.74566650 3357444.92312622 17.02227402 56 60 63
245880.10504150 3357442.78292847 16.70718956 97 98 103
245881.05639648 3357445.10223389 16.75406265 34 33 38
245881.57641602 3357450.42745972 16.33158493 65 65 65
245881.25000000 3357450.62261963 16.46004105 99 100 102
245880.26794434 3357448.74865723 16.82503510 31 32 37
245880.80596924 3357443.05346680 16.78927803 81 85 88
245879.97271729 3357446.70986938 16.84544945 74 75 79
245881.14910889 3357442.63000488 16.58569336 100 104 105
245881.11444092 3357441.67465210 16.61550140 83 88 91
245880.42016602 3357446.86990356 17.03595924 46 45 50
245881.34362793 3357445.68191528 16.74959564 28 30 29
245880.06146240 3357448.72958374 16.60143661 78 79 84
245880.54785156 3357443.55361938 16.87232018 122 126 137
245880.12524414 3357447.22857666 16.67497444 68 72 73
245880.43505859 3357441.25390625 16.81082344 92 97 103
245880.73455811 3357446.63278198 16.79904747 65 68 73
245880.24829102 3357443.05389404 16.74037170 103 103 105
245880.55426025 3357444.54980469 17.00859642 52 57 61
245880.94818115 3357448.97827148 16.60778809 39 42 47
245880.11450195 3357447.45370483 16.65751076 66 69 76
245879.90246582 3357445.64868164 16.72412682 102 103 108
245881.17926025 3357449.95715332 16.50009346 95 94 99
245880.46545410 3357446.69250488 17.01292992 74 72 77
245881.53173828 3357445.58071899 16.42195129 48 62 37
245879.98931885 3357448.67733765 16.54518127 92 91 97
245879.89935303 3357444.24536133 17.08160019 116 116 118
245880.60632324 3357441.03045654 16.64592552 93 98 104
245881.47119141 3357446.30749512 16.41978455 66 76 65
245880.81842041 3357449.89587402 16.55916214 57 62 68
245880.17663574 3357442.59957886 16.73831177 64 65 69
245880.10449219 3357446.41806030 16.85935593 84 82 85
245880.32824707 3357443.83547974 16.82809448 90 91 95
245880.34802246 3357449.92352295 16.42635727 102 105 112
245880.41668701 3357448.38656616 16.76929474 43 46 51
245880.28710938 3357446.71173096 17.06038094 70 66 67
245880.73065186 3357442.74859619 16.92612648 70 73 80
245880.77929688 3357441.65090942 16.75568008 32 40 42
245880.13177490 3357447.04626465 17.03976059 139 140 144
245880.45129395 3357448.94787598 16.73110771 31 34 39
245880.08905029 3357445.02105713 16.91040230 86 85 93
245881.47869873 3357443.95016479 16.47483253 84 92 79
245880.05108643 3357444.65548706 17.06686401 104 105 110
245881.37469482 3357445.74807739 16.52552795 36 41 37
245880.39764404 3357449.48809814 16.50456619 52 53 57
245880.75891113 3357447.13449097 16.91117096 78 58 51
245880.12701416 3357446.40905762 16.86290932 84 82 85
245880.03179932 3357444.94653320 16.88593483 91 92 97
245880.96179199 3357445.09368896 16.80398369 52 51 57
245880.55877686 3357445.87197876 16.99762917 85 91 103
245881.43298340 3357449.12261963 16.43430901 114 117 124
245881.29467773 3357445.67282104 17.05991745 44 49 55
245879.94323730 3357441.35461426 16.85225868 87 85 86
245879.81500244 3357441.36489868 16.75447464 202 203 208
245880.23986816 3357441.45507813 16.91654587 115 118 125
245880.94451904 3357449.77713013 16.61190224 18 25 31
245880.79980469 3357447.28347778 16.87405586 68 77 84
245880.25329590 3357447.37142944 16.74464417 62 65 70
245880.27563477 3357448.71514893 16.82632446 31 31 39
245880.47839355 3357445.62518311 16.95734024 52 52 60
245880.25286865 3357448.99972534 16.44711113 86 90 93
245880.97332764 3357442.47790527 16.70679283 99 103 106
245881.21459961 3357446.30307007 16.76510429 104 107 112
245881.56982422 3357448.79214478 16.39303589 51 51 59
245881.29168701 3357446.17617798 16.59874344 46 48 47
245881.53558350 3357450.18048096 16.34858894 67 72 68
245881.01458740 3357442.63995361 16.70035553 101 105 108
245880.76220703 3357448.91027832 16.79768753 21 25 26
245880.13726807 3357441.73458862 16.84251404 107 117 119
245881.06787109 3357449.50210571 16.65146637 69 73 84
245881.20397949 3357444.54101563 16.53427887 83 87 90
245880.31365967 3357443.60897827 17.00681114 35 36 41
245880.48193359 3357442.81851196 16.84956360 65 66 70
245880.88140869 3357447.34628296 16.82704353 55 75 84
245880.19091797 3357443.71386719 17.06982803 85 86 90
245880.61090088 3357447.63040161 16.79543114 45 50 54
245881.32836914 3357445.45343018 16.69509315 39 41 38
245880.45648193 3357442.74591064 16.87211037 128 131 138
245881.44903564 3357445.19082642 16.44402122 74 85 77
245880.79370117 3357447.19525146 16.89538956 75 73 74
245880.67449951 3357448.96273804 16.71011925 35 36 40
245880.58612061 3357442.35626221 16.78683853 97 101 104
245880.02166748 3357448.33020020 16.58630371 99 100 104
245881.22088623 3357445.87579346 17.06729507 55 60 64
245880.09881592 3357447.13128662 16.66268158 66 68 67
245880.82781982 3357450.81399536 16.46644592 99 100 104
245880.66009521 3357448.89331055 16.83863449 24 27 32
245880.72082520 3357448.80883789 16.88565063 53 57 66
245880.90887451 3357447.71139526 16.73900604 57 60 67
245880.09356689 3357449.27206421 16.40457535 130 129 134
245881.30310059 3357450.85760498 16.42029190 110 112 111
245880.44665527 3357441.19726563 16.78516388 91 96 102
245880.05767822 3357447.12951660 16.64329147 62 66 67
245880.49163818 3357443.04113770 16.84517479 85 86 90
245880.76147461 3357443.92764282 16.66585159 90 94 97
245880.86486816 3357448.76956177 16.78961945 17 21 22
245881.04437256 3357443.34490967 16.64987373 81 85 88
245881.10064697 3357450.69479370 16.51430893 105 105 107
245879.92065430 3357441.53732300 16.83019066 140 140 148
245881.26861572 3357443.48648071 16.55003548 101 105 106
245880.17230225 3357449.77664185 16.37723923 114 117 126
245880.68518066 3357443.38946533 16.83130836 61 64 69
245880.77990723 3357444.29507446 16.67387962 65 69 72
245881.26513672 3357445.36923218 16.97184563 95 96 100
245881.02734375 3357441.52734375 16.68847084 62 68 66
245881.26629639 3357446.22183228 16.67335510 93 98 101
245880.19458008 3357444.72384644 17.08485222 141 141 149
245880.77825928 3357450.56964111 16.56632996 46 46 48
245881.33441162 3357448.21282959 16.51337624 64 67 74
245880.16125488 3357449.93606567 16.37383080 122 125 134
245880.09771729 3357441.06588745 16.75256348 98 99 104
245880.10528564 3357449.84060669 16.36296654 113 116 125
245880.88232422 3357441.34463501 16.70460320 65 73 76
245880.92999268 3357448.29754639 16.68784714 38 41 46
245880.28436279 3357448.23974609 16.70089531 104 105 110
245881.03131104 3357442.40786743 16.64067459 105 109 112
245881.30279541 3357446.00408936 16.76758957 37 39 38
245880.19177246 3357444.59323120 17.14593124 47 47 55
245880.76928711 3357447.06939697 16.92003059 103 62 56
245880.06738281 3357447.23327637 16.65632248 72 78 78
245880.26159668 3357445.80090332 16.89863968 60 65 71
245880.49401855 3357442.89111328 16.82742500 69 70 75
245879.72082520 3357442.01977539 16.69658279 125 126 130
245880.00842285 3357445.80746460 16.76943970 98 97 103
245880.73065186 3357441.88064575 16.68245506 112 115 120
245880.07769775 3357442.42623901 16.73870850 90 93 98
245880.19537354 3357446.12869263 16.85138130 63 64 68
245880.58581543 3357450.86453247 16.44268990 124 123 129
245881.14257813 3357446.22906494 16.94180870 75 70 77
245879.85260010 3357443.74865723 17.07554436 160 162 175
245880.77197266 3357449.02716064 16.62184334 56 57 61
245880.91363525 3357448.84677124 16.68116760 68 67 72
245881.12078857 3357445.36630249 17.07059669 113 112 120
245880.07708740 3357443.49661255 16.92070770 67 68 72
245880.39685059 3357446.77810669 17.06505203 75 73 74
245880.32189941 3357445.92816162 16.93356323 97 101 113
245880.00622559 3357450.12377930 16.36057472 119 122 131
245880.71551514 3357449.51113892 16.61538315 83 87 98
245881.53149414 3357449.85501099 16.38848495 96 98 93
245880.81317139 3357442.83511353 16.82913971 70 73 78
245880.35723877 3357449.60192871 16.46864510 42 43 48
245880.43731689 3357444.19149780 16.86648941 46 47 51
245880.55859375 3357449.43524170 16.56279755 37 37 49
245881.34057617 3357446.36642456 16.48852539 67 69 66
245880.42315674 3357444.24105835 16.90533257 39 43 46
245880.28497314 3357446.26434326 16.86305237 57 58 60
245880.17730713 3357444.84408569 17.01531410 80 80 88
245881.26727295 3357446.21447754 16.66999626 57 61 62
245881.08355713 3357450.56451416 16.52557182 60 60 60
245881.07659912 3357445.57592773 17.23539543 121 124 139
245880.43981934 3357441.81329346 16.78369331 27 31 32
245880.31274414 3357442.72064209 16.78407860 67 71 74
245880.17559814 3357442.40530396 16.74435234 96 101 107
245880.86798096 3357450.82589722 16.47339058 99 100 104
245880.91131592 3357445.98562622 17.13747978 66 69 76
245880.34320068 3357448.43322754 16.73692894 63 64 69
245880.21289063 3357447.08840942 16.98879051 33 28 25
245881.08386230 3357447.05136108 16.73705673 30 31 35
245881.08770752 3357442.78762817 16.64275932 100 105 108
245881.12622070 3357448.88433838 16.53735352 24 29 32
245880.34448242 3357441.48181152 16.88293457 95 100 106
245881.32995605 3357448.95938110 16.45680428 63 68 74
245880.70709229 3357448.95205688 16.72772980 27 31 34
245881.14770508 3357450.09417725 16.48218727 97 96 101
245880.74639893 3357441.58270264 16.77660370 61 69 72
245881.51702881 3357448.78311157 16.39823341 83 84 89
245881.39959717 3357441.07312012 16.47054482 75 81 77
245881.07116699 3357443.85128784 16.56556892 86 90 93
245880.47216797 3357450.80975342 16.43167686 124 123 128
245880.40563965 3357447.04541016 17.04763794 25 25 25
245881.05822754 3357450.28738403 16.49444008 86 86 88
245880.29827881 3357442.28674316 16.75119972 86 91 95
245881.17633057 3357447.40451050 16.60864449 58 64 76
245881.46405029 3357449.52938843 16.47072029 30 35 39
245881.39459229 3357450.34823608 16.38114166 69 70 72
245881.42675781 3357448.92184448 16.42522621 75 78 83
245881.32073975 3357443.28491211 16.55388451 116 118 117
245880.39245605 3357442.79174805 16.82499313 77 76 81
245880.85351563 3357441.04254150 16.63049316 83 88 94
245880.37017822 3357444.56768799 17.08053207 64 67 74
245880.43334961 3357447.28289795 16.89598656 54 53 61
245880.33135986 3357448.48248291 16.74853706 55 58 63
245881.47375488 3357446.10784912 16.42431831 56 69 52
245879.96209717 3357450.16345215 16.36107826 120 123 132
245881.50476074 3357444.04190063 16.48501968 72 83 67
245880.22320557 3357440.87289429 16.68531418 97 100 105
245881.26849365 3357446.20507813 16.66924095 57 61 62
245880.56103516 3357450.21066284 16.50102234 106 107 109
245880.05993652 3357448.31051636 16.60130501 98 99 103
245880.79022217 3357444.14501953 16.63894081 74 80 80
245880.93103027 3357450.37338257 16.53936386 88 87 92
245880.43994141 3357448.96673584 16.68525314 35 38 45
245880.41271973 3357450.16290283 16.44307518 106 106 114
245880.17761230 3357443.75830078 17.03992844 93 93 101
245880.71533203 3357443.38592529 16.80462456 65 69 72
245880.26141357 3357449.99673462 16.40173912 120 123 130
245881.51745605 3357448.47647095 16.42857933 51 55 54
245881.23553467 3357447.12518311 16.57243729 46 53 59
245880.53167725 3357441.35537720 16.78679276 81 88 96
245881.43505859 3357449.29501343 16.45751762 42 43 47
245880.53155518 3357448.87115479 16.86690331 40 40 50
245881.19195557 3357441.54190063 16.58596039 80 85 88
245880.69256592 3357447.80856323 16.78207779 63 66 71
245881.26904297 3357443.55554199 16.53476906 97 101 102
245880.01055908 3357444.72045898 16.98018837 103 102 108
245881.11138916 3357446.14837646 17.03262901 54 53 58
245879.95642090 3357449.86480713 16.36273003 115 118 127
245881.48028564 3357449.83612061 16.39204025 79 80 82
245880.44360352 3357442.75189209 16.86580467 114 117 122
245880.24462891 3357442.99905396 16.74586678 98 97 102
245880.56390381 3357444.52001953 16.98362923 56 61 67
245881.13989258 3357443.93176270 16.55570412 97 101 100
245881.08343506 3357449.07730103 16.53750610 72 73 77
245881.55474854 3357448.23086548 16.42758179 76 87 79
245881.02429199 3357448.33270264 16.67260742 54 57 66
245881.17285156 3357442.63012695 16.56811333 100 104 105
245880.61389160 3357442.42984009 16.81616020 93 97 100
245880.07611084 3357448.15808105 16.61682510 95 96 100
245880.82873535 3357444.63006592 16.77168465 76 81 85
245881.12957764 3357445.52212524 17.20523071 195 197 218
245881.05682373 3357444.53997803 16.56212997 77 82 86
245880.17425537 3357449.06704712 16.42023849 98 99 103
245880.50616455 3357443.02536011 16.84471893 85 86 90
245881.40545654 3357443.02752686 16.52130127 73 81 70
245880.67456055 3357445.23941040 16.89971352 171 170 186
245881.44555664 3357444.58566284 16.45825768 76 83 76
245880.02020264 3357447.20150757 16.63450813 74 83 80
245880.99346924 3357447.11779785 16.80636215 70 73 78
245880.68383789 3357444.87124634 17.05319595 119 124 130
245880.05584717 3357445.11285400 16.89237022 100 101 105
245881.49475098 3357443.23791504 16.50230408 87 98 84
245881.27026367 3357446.03643799 16.88121223 22 24 23
245881.38964844 3357445.40252686 16.44797707 76 79 72
245880.13250732 3357445.17514038 16.94479752 74 78 79
245880.36682129 3357443.63153076 16.93151283 110 113 122
245880.54992676 3357441.09774780 16.69560432 91 96 102
245880.29425049 3357441.81793213 16.83243370 27 36 35
245880.94805908 3357441.32882690 16.68081284 60 68 71
245879.97973633 3357445.23828125 16.85913277 98 97 102
245880.70349121 3357446.79162598 16.86087036 38 39 34
245880.46075439 3357443.73202515 16.81513596 88 91 98
245881.29046631 3357445.08590698 16.57273865 65 70 73
245881.20611572 3357449.71859741 16.58936501 57 61 70
245881.54016113 3357445.84222412 16.42963982 71 86 63
245880.40173340 3357443.82873535 16.78858757 116 117 119
245880.59655762 3357445.01284790 17.02087402 91 96 102
245880.39520264 3357443.70645142 16.86292839 97 100 107
245880.63323975 3357444.06713867 16.73490143 88 92 93
245879.83374023 3357443.54885864 17.00177765 123 125 137
245880.22503662 3357443.88537598 16.89237595 90 91 93
245880.41326904 3357444.20385742 16.88375854 51 52 56
245881.05114746 3357445.65661621 17.24532509 220 224 235
245879.80981445 3357441.81866455 16.75615501 60 61 63
245881.32202148 3357445.90600586 16.77851295 18 20 17
245881.55450439 3357449.22448730 16.41020775 37 40 47
245880.21881104 3357448.84005737 16.76601791 28 31 38
245880.86547852 3357445.47085571 16.98148537 99 99 109
245881.02252197 3357444.90490723 16.81747246 78 83 87
245880.47033691 3357443.27172852 16.89423180 90 93 100
245880.33465576 3357443.70895386 16.90774727 78 81 86
245881.46008301 3357448.27243042 16.45014381 49 53 52
245880.80596924 3357448.08474731 16.77791023 27 32 38
245880.25891113 3357448.56613159 16.75743103 63 63 71
245881.14929199 3357441.03649902 16.53697014 89 94 97
245880.37359619 3357443.26416016 16.83568764 149 152 161
245880.65350342 3357448.99673462 16.65610313 41 44 49
245880.90338135 3357444.94357300 16.90570259 59 63 66
245881.07818604 3357448.93646240 16.54989243 29 33 34
245881.49499512 3357444.11837769 16.48909950 76 87 70
245880.58221436 3357446.46813965 16.92832947 125 119 131
245880.21246338 3357446.62515259 16.97809219 100 95 99
245880.08032227 3357444.69583130 17.06414986 105 104 110
245881.27471924 3357443.88134766 16.50912285 94 98 99
245880.78289795 3357447.48596191 16.82754135 63 80 88
245881.40289307 3357444.40664673 16.47800827 84 91 84
245881.27789307 3357446.37417603 16.51563454 37 39 38
245880.79418945 3357441.98077393 16.64843750 96 99 104
245880.07800293 3357446.76156616 17.00213242 57 56 61
245880.88000488 3357449.33950806 16.62921333 95 101 115
245879.81335449 3357443.51025391 16.91041183 108 109 114
245880.34515381 3357442.65628052 16.84383774 111 114 121
245880.90826416 3357448.36529541 16.69913673 34 38 47
245880.74023438 3357448.52078247 16.84608459 58 67 76
245880.96569824 3357449.62844849 16.66235161 9 12 17
245880.34826660 3357444.22451782 16.92682457 53 54 59
245880.07940674 3357441.78411865 16.80956841 40 44 47
245881.23785400 3357442.50408936 16.50513458 93 98 94
245880.19622803 3357443.52069092 16.98893547 53 52 57
245880.43359375 3357447.70892334 16.71997833 37 45 48
245881.49755859 3357449.87396240 16.39124107 98 100 99
245880.15020752 3357441.34533691 16.95198059 140 143 150
245879.83160400 3357443.43502808 16.82187080 112 111 117
245880.63677979 3357445.18954468 16.95144653 150 154 165
245880.87921143 3357442.03698730 16.64119339 103 108 111
245881.50463867 3357449.07531738 16.40684891 49 54 58
245881.00500488 3357442.15252686 16.58755493 102 108 108
245879.94073486 3357445.06347656 16.83398628 105 106 111
245881.30126953 3357450.11386108 16.41074944 111 111 111
245879.99121094 3357445.23211670 16.86512375 98 97 102
245880.66717529 3357443.63958740 16.77026939 66 70 73
245879.79077148 3357441.74578857 16.77280045 114 115 120
245881.28857422 3357446.35363770 16.51075935 26 28 25
245880.59759521 3357444.54162598 16.96770477 62 67 73
245880.43615723 3357449.09631348 16.48246765 105 108 115
245881.41094971 3357444.43579102 16.47466278 78 88 80
245880.47229004 3357448.91320801 16.81549263 33 33 41
245880.93035889 3357448.36419678 16.69005013 47 52 58
245880.42510986 3357442.76058960 16.85671997 114 117 122
245880.32165527 3357450.03826904 16.41841125 108 109 114
245880.07513428 3357447.01974487 17.02973747 151 152 157
245880.55194092 3357444.67868042 17.05560112 49 54 58
245879.86456299 3357442.88125610 16.70278358 117 118 122
245881.10864258 3357444.80111694 16.70037842 84 89 93
245880.72174072 3357442.96652222 16.83707809 116 120 123
245880.82513428 3357448.18319702 16.74617195 33 38 44
245880.51574707 3357441.43591309 16.80846786 60 65 69
245880.63732910 3357449.15026855 16.56214905 93 96 103
245881.31585693 3357446.56097412 16.48820686 77 81 82
245880.90722656 3357445.97549438 17.14304352 66 69 76
245881.09149170 3357448.53146362 16.62361717 176 180 205
245880.74499512 3357444.21002197 16.69103241 51 55 58
245880.70996094 3357443.43029785 16.79487228 65 69 72
245880.95477295 3357443.75967407 16.59922409 89 93 96
245881.38525391 3357449.72589111 16.46159935 41 44 49
245880.81958008 3357448.37472534 16.74311256 39 44 50
245880.52630615 3357449.71414185 16.51769829 25 32 40
245880.06127930 3357445.57153320 16.74982262 57 58 62
245881.23388672 3357444.17477417 16.53307915 104 108 107
245880.86456299 3357441.98025513 16.64843750 101 106 109
245880.36334229 3357445.50070190 16.94358253 143 140 149
245881.25054932 3357449.23425293 16.50298882 81 82 86
245880.76684570 3357445.78436279 17.07360268 77 84 94
245880.95721436 3357443.13262939 16.70934677 85 89 92
245880.64666748 3357443.75619507 16.74967957 100 104 107
245881.40844727 3357445.44607544 16.45167542 80 83 74
245880.07318115 3357450.02386475 16.35918999 120 123 132
245880.29760742 3357448.59161377 16.80101967 53 54 59
245880.17663574 3357441.19448853 16.85577011 100 103 108
245879.92352295 3357444.54614258 16.97274590 98 99 103
245881.36614990 3357443.11257935 16.52882767 97 102 96
245881.16271973 3357441.01223755 16.53420067 93 98 101
245880.97723389 3357448.91271973 16.61227989 55 55 63
245881.30957031 3357445.39633179 16.78029251 37 39 36
245880.63543701 3357450.00064087 16.50742531 97 101 104
245881.14123535 3357446.10787964 17.04308891 59 58 64
245881.06390381 3357449.07269287 16.54499245 72 73 77
245880.19061279 3357449.29788208 16.43283844 122 122 124
245880.32769775 3357450.24807739 16.41831207 116 116 124
245881.43548584 3357445.90658569 16.42496109 68 78 67
245880.05230713 3357441.09927368 16.77081299 92 95 100
245881.38562012 3357445.25781250 16.47819710 88 95 87
245880.69964600 3357445.23278809 16.87155342 171 170 186
245881.21307373 3357443.15087891 16.61081123 94 98 99
245881.07531738 3357444.54949951 16.56102180 76 80 83
245881.22851563 3357446.26321411 16.77512360 70 71 75
245880.80633545 3357445.44638062 16.94608307 89 92 101
245880.97924805 3357445.32440186 16.91757011 119 119 131
245881.24676514 3357441.89208984 16.50677109 96 100 99
245880.59228516 3357450.10504150 16.49855423 107 108 112
245879.70825195 3357441.41168213 16.72580719 113 114 118
245880.27496338 3357444.13610840 16.88888931 65 66 68
245880.09039307 3357449.95742798 16.35819435 117 120 129
245880.82098389 3357446.79879761 16.81734085 52 46 34
245880.47784424 3357449.85559082 16.46220398 80 88 91
245880.34466553 3357445.38082886 16.98156166 212 210 223
245881.21087646 3357447.97042847 16.59776878 104 108 117
245881.03881836 3357445.87442017 17.21030045 64 68 77
245881.19152832 3357446.06909180 16.99476624 79 80 85
245881.28564453 3357444.68627930 16.53461456 77 83 83
245880.14105225 3357445.56707764 16.80037689 29 30 34
245881.35766602 3357442.05087280 16.45861244 88 96 85
245880.86273193 3357445.47375488 16.98054123 99 99 109
245880.09973145 3357441.83081055 16.79877472 22 26 27
245880.09716797 3357449.22875977 16.40566254 120 120 122
245880.54229736 3357448.16168213 16.82598877 98 100 112
245879.95977783 3357443.10031128 16.68925858 126 125 130
245880.69714355 3357446.30831909 16.86033440 57 57 65
245880.08825684 3357446.84927368 17.06620789 105 108 115
245880.11511230 3357447.03527832 17.14321327 200 202 214
245881.41284180 3357442.35827637 16.46488762 66 72 62
245880.97491455 3357448.48663330 16.68574142 52 59 69
245880.70904541 3357446.00155640 17.00773811 22 27 31
245880.35906982 3357445.62622070 16.92114067 67 66 72
245880.90765381 3357446.09265137 17.05578041 41 45 54
245880.56280518 3357444.26943970 16.85185814 87 92 98
245881.49316406 3357443.99041748 16.47972870 74 85 69
245880.47424316 3357443.95428467 16.77980232 103 104 106
245880.33020020 3357441.03146362 16.75055695 95 100 104
