245882.60577393 3357435.00405884 16.72076225 50 54 57
245893.78222656 3357435.77343750 16.91863632 68 69 71
245892.66552734 3357436.40097046 17.21266365 146 151 157
245895.49200439 3357436.28997803 16.78030205 100 105 98
245891.68328857 3357436.50009155 16.79007149 51 58 66
245884.30902100 3357438.01586914 16.50550461 54 70 33
245884.91168213 3357437.68789673 16.52204323 81 85 88
245882.15411377 3357437.19421387 16.79706383 99 103 104
245892.24310303 3357436.29855347 16.92999077 62 66 69
245895.24334717 3357436.44979858 16.74343300 90 94 97
245884.32281494 3357437.57049561 16.58835983 41 45 46
245882.82714844 3357434.56097412 16.69775772 48 52 53
245890.04022217 3357436.79949951 16.75704575 64 63 68
245884.34088135 3357436.72970581 16.88378716 50 55 58
245884.93688965 3357435.34429932 16.88046074 47 52 56
245895.83020020 3357435.93563843 16.63192368 97 99 98
245884.06140137 3357436.28973389 16.75570488 85 91 91
245883.87091064 3357436.58856201 16.74421692 83 89 89
245890.04705811 3357437.04135132 16.75998497 97 96 104
245884.00683594 3357438.06692505 16.52685738 51 72 33
245884.30810547 3357437.13967896 17.05351067 109 116 124
245889.64874268 3357436.90747070 16.85456276 58 57 62
245883.49584961 3357436.97702026 16.71848297 77 83 83
245882.96490479 3357436.18908691 16.72580338 101 105 106
245884.68945313 3357437.40783691 16.84270096 61 69 80
245895.02020264 3357435.81582642 16.75476837 105 105 103
245882.10113525 3357434.53970337 16.65750885 87 87 85
245884.51086426 3357437.81451416 16.47877502 168 175 185
245883.56744385 3357437.48315430 17.03846931 39 45 45
245882.45092773 3357437.04647827 16.92306900 98 97 95
245883.70471191 3357437.37976074 17.10896301 44 50 50
245883.12933350 3357435.96121216 16.79216385 96 100 101
245882.94470215 3357434.67199707 16.68096352 18 21 26
245883.96588135 3357437.63186646 16.79360199 30 38 40
245884.11834717 3357437.28753662 17.26935005 31 34 41
245882.05792236 3357435.16369629 16.60759544 102 106 107
245888.96179199 3357436.47845459 17.03432083 52 52 52
245888.76391602 3357437.05368042 16.86371422 87 88 90
245881.84918213 3357435.20370483 16.55812454 111 112 116
245891.79412842 3357437.05105591 16.72568703 102 103 108
245885.22503662 3357435.74224854 17.07869530 116 116 114
245892.95404053 3357436.79602051 16.93472290 129 131 143
245882.21160889 3357433.96102905 16.67452431 91 91 89
245891.70574951 3357437.00173950 16.70429611 100 101 106
245883.41162109 3357436.28277588 16.67271042 89 95 95
245890.70104980 3357437.26235962 16.54916000 57 57 57
245882.94104004 3357437.64913940 16.69439888 88 89 93
245884.45465088 3357435.03976440 16.98749924 20 27 33
245883.65332031 3357435.87582397 16.63231850 85 90 94
245889.35070801 3357436.91265869 16.57526970 89 92 97
245883.93066406 3357435.36117554 16.62422752 113 115 114
245895.86401367 3357436.03829956 16.62104988 119 120 122
245889.63281250 3357436.91525269 16.79817772 48 47 52
245883.86700439 3357435.83319092 16.59625244 116 118 117
245888.30468750 3357436.41979980 17.17535973 77 77 77
245882.12921143 3357436.60693359 16.75415230 101 106 110
245885.14923096 3357436.74050903 17.14610863 86 81 87
245885.39971924 3357435.61691284 17.02874756 58 58 56
245884.57830811 3357435.99588013 16.96235657 79 82 89
245882.80316162 3357436.25723267 16.74604988 99 103 104
245882.18096924 3357436.64398193 16.77032661 100 108 111
245881.99145508 3357435.51919556 16.59750175 113 114 118
245882.25726318 3357435.64077759 16.66848755 108 109 111
245884.87957764 3357437.44073486 17.04204559 79 88 97
245891.48254395 3357436.79254150 16.75201988 81 81 89
245893.88555908 3357436.60189819 17.05266762 94 95 99
245884.43829346 3357435.59515381 16.92012978 97 101 104
245882.06011963 3357437.54760742 17.01911354 88 92 91
245884.80834961 3357435.64825439 16.89339638 96 97 102
245884.20336914 3357437.19104004 17.12984848 27 31 40
245883.39434814 3357436.05102539 16.70221329 97 102 105
245890.92968750 3357436.78231812 17.06509781 71 69 70
245890.54644775 3357437.20745850 16.53174973 109 109 111
245883.62689209 3357437.47741699 16.91060066 36 37 41
245884.36975098 3357434.98571777 16.90349770 147 152 158
245889.25061035 3357436.73330688 16.80485725 152 159 169
245891.97912598 3357437.06228638 16.85258484 40 38 41
245882.12420654 3357434.18499756 16.72144508 100 101 96
245884.62567139 3357435.89398193 17.06001663 87 90 97
245883.23138428 3357437.84469604 16.49055099 182 190 193
245883.40655518 3357437.56182861 17.00010300 70 72 71
245883.97839355 3357437.03051758 17.00140381 49 53 54
245896.18432617 3357435.94143677 16.56997108 97 98 100
245893.98614502 3357436.27795410 16.92694855 92 96 99
245888.75238037 3357436.98901367 16.93155479 29 29 27
245883.19024658 3357437.60772705 16.62491226 77 78 83
245882.66607666 3357437.80187988 16.67683792 65 61 62
245884.23785400 3357437.41018677 17.04636192 50 57 65
245882.85296631 3357434.49960327 16.68879318 60 61 63
245890.88885498 3357436.71621704 16.83220100 91 95 96
245882.50714111 3357437.33520508 17.00581551 134 136 135
245883.69635010 3357437.98388672 16.49897385 31 47 18
245883.54229736 3357434.75698853 16.59111786 55 57 56
245882.39855957 3357435.97784424 16.74315834 106 111 115
245882.24047852 3357435.16250610 16.65042686 88 90 89
245884.65289307 3357436.12286377 16.99379349 49 52 59
245889.94995117 3357436.76876831 16.84834671 84 81 88
245890.40777588 3357436.65673828 16.55138588 98 99 104
245893.48052979 3357436.37722778 17.08066940 71 75 78
245884.20471191 3357437.46209717 17.04386139 58 65 73
245883.53613281 3357437.83993530 16.47311020 116 125 120
245883.03283691 3357437.78833008 16.52286148 73 74 76
245883.25640869 3357436.77688599 16.73328590 88 94 94
245889.73321533 3357437.01730347 16.88420105 83 85 97
245884.26947021 3357435.10351563 16.89793396 27 30 39
245884.46026611 3357436.03082275 16.84548187 60 63 68
245884.44067383 3357437.02581787 16.93936729 27 32 36
245882.25958252 3357434.71881104 16.63475037 75 74 72
245881.84307861 3357435.11068726 16.55433273 108 109 113
245885.18542480 3357437.17453003 17.29265594 67 73 85
245881.84088135 3357434.82388306 16.55445099 112 114 113
245882.55065918 3357436.78509521 16.78208733 104 108 109
245883.55389404 3357437.56103516 16.67870331 18 19 21
245884.15631104 3357435.56787109 16.76767540 103 101 102
245883.81420898 3357435.50207520 16.62682724 109 113 112
245888.66082764 3357436.56250000 17.18428040 15 16 11
245892.20452881 3357436.89904785 16.99185181 53 52 57
245881.87091064 3357433.81207275 16.64745140 103 101 102
245885.25445557 3357437.41110229 16.95944023 68 72 81
245885.35235596 3357436.99163818 17.22518730 35 45 44
245884.75384521 3357436.02856445 17.07616997 74 75 79
245882.89361572 3357435.46978760 16.81074905 88 92 95
245883.32189941 3357435.94659424 16.75286293 94 100 100
245892.97009277 3357435.96597290 17.04695320 87 92 96
245882.00646973 3357436.63958740 16.74155998 104 113 112
245881.85070801 3357434.72204590 16.56537628 113 113 113
245884.61242676 3357437.09912109 16.98224449 40 49 56
245885.11712646 3357436.82495117 17.13995552 33 31 36
245888.57293701 3357436.88363647 17.00476837 39 39 41
245894.48895264 3357436.59948730 16.66949654 76 77 82
245883.22119141 3357435.12655640 16.85351944 4 14 24
245895.12719727 3357436.25457764 16.76509476 91 95 98
245882.36163330 3357434.34008789 16.71142006 78 80 77
245882.63012695 3357435.72537231 16.75769615 98 102 105
245883.43060303 3357436.93862915 16.71914291 82 88 88
245895.20812988 3357435.74871826 16.68330002 114 114 112
245895.73394775 3357436.23855591 16.78866577 58 49 50
245884.15747070 3357437.21319580 17.21790123 45 53 64
245894.45678711 3357435.85632324 16.68794250 108 110 109
245882.95214844 3357436.13494873 16.75046730 92 96 97
245882.59271240 3357437.83520508 16.77102280 178 175 182
245883.19158936 3357436.52191162 16.72894478 99 104 107
245883.74975586 3357437.54913330 16.65940475 13 8 14
245892.35894775 3357436.40658569 16.94248581 75 79 82
245889.10058594 3357436.99520874 16.65752411 66 67 69
245882.67718506 3357437.35736084 16.73383904 74 77 82
245882.74334717 3357434.97210693 16.78751373 44 48 51
245883.53680420 3357437.55322266 17.05275726 111 114 121
245890.58105469 3357436.77682495 16.61187744 87 92 98
245889.67932129 3357437.10064697 16.58614922 103 104 108
245882.91326904 3357437.23797607 16.71927834 93 102 101
245884.54010010 3357435.40573120 16.90076065 82 83 87
245883.93023682 3357437.80130005 16.51177025 146 151 154
245883.05279541 3357435.33511353 16.84743690 65 68 73
245883.05822754 3357435.89627075 16.82248116 97 103 101
245888.92938232 3357436.98928833 16.88156128 69 70 72
245884.16790771 3357437.51260376 17.05460548 125 135 147
245884.41412354 3357436.46322632 16.89171791 38 41 46
245884.35339355 3357435.09329224 17.02037430 96 99 104
245883.17535400 3357437.59896851 16.73322678 102 103 108
245884.14880371 3357437.59445190 16.95168877 37 51 60
245882.20904541 3357435.86602783 16.65423393 107 108 112
245891.86431885 3357437.07815552 16.73878860 78 82 85
245895.87707520 3357436.04196167 16.61862373 119 120 122
245894.49035645 3357435.75439453 16.65938759 109 109 107
245885.38226318 3357435.94876099 17.18721390 38 38 36
245893.45642090 3357435.93209839 17.15287781 45 49 52
245890.91290283 3357436.93194580 17.07348061 84 85 87
245884.70019531 3357436.77984619 17.04814720 38 43 49
245885.48797607 3357436.34060669 17.53710556 50 89 26
245883.06030273 3357437.82556152 16.51010895 143 148 151
245883.72753906 3357437.53472900 16.67491531 21 19 24
245894.64337158 3357436.36514282 16.91209030 32 34 33
245882.17364502 3357435.55722046 16.64453316 110 111 115
245889.18701172 3357436.62506104 16.89673996 98 105 113
245891.19140625 3357436.93103027 16.78083611 24 28 27
245883.75848389 3357437.21475220 17.21811295 48 52 63
245882.88940430 3357437.58111572 16.81587410 77 78 83
245884.32824707 3357437.58389282 16.57976723 54 55 60
245882.93157959 3357434.25247192 16.71709442 83 85 84
245890.42340088 3357436.97650146 16.55031586 94 99 105
245881.97509766 3357435.10241699 16.58185196 106 110 113
245882.85839844 3357435.03579712 16.75007820 33 37 40
245890.45159912 3357437.08377075 16.52956581 103 107 110
245883.90509033 3357437.14266968 16.93312645 57 66 65
245895.49310303 3357436.04174805 16.63966751 104 106 105
245885.39599609 3357435.43975830 17.01585770 62 62 60
245884.64990234 3357435.02572632 16.83806038 46 54 57
245892.73413086 3357436.79376221 16.54731750 80 81 85
245882.02191162 3357436.40756226 16.69884682 107 112 115
245883.96191406 3357435.02728271 16.64932251 112 114 113
245895.17651367 3357435.98431396 16.70906830 100 104 105
245894.34338379 3357435.99996948 16.74443054 94 98 101
245892.52032471 3357436.38714600 16.93004417 83 88 91
245882.25793457 3357434.64212036 16.65701866 94 94 96
245884.92828369 3357436.23703003 17.07269287 41 47 47
245889.42767334 3357437.05313110 16.52339554 101 102 106
245892.88610840 3357436.51129150 17.18664742 107 110 117
245895.33648682 3357435.92553711 16.67004204 99 103 104
245882.87799072 3357436.58068848 16.77179909 105 111 111
245882.77087402 3357434.81085205 16.80521584 65 68 73
245883.46789551 3357429.82400513 16.96858215 77 81 84
245885.78021240 3357429.24319458 16.69087791 52 53 55
245882.01208496 3357430.81167603 17.03734016 53 57 58
245882.90637207 3357429.57577515 16.80326271 43 47 50
245885.38879395 3357428.60266113 16.72337914 109 111 108
245893.67895508 3357436.92498779 16.97887611 76 77 79
245885.10479736 3357430.86276245 16.81243134 50 55 58
245882.46697998 3357431.20935059 16.85473442 74 78 77
245894.07739258 3357435.56597900 16.67738342 93 93 93
245890.98004150 3357432.45169067 16.80641174 141 144 151
245892.43231201 3357437.08911133 16.61894417 89 88 93
245885.41931152 3357434.89450073 16.67267799 91 89 94
245894.17529297 3357435.58065796 16.65674973 92 92 92
245885.49774170 3357432.20385742 17.53501129 57 80 52
245885.02972412 3357430.21658325 16.87791634 59 60 64
245884.25103760 3357433.62545776 17.03283310 49 53 64
245882.23797607 3357432.62765503 16.96688843 163 162 157
245883.89855957 3357430.95397949 16.81151772 76 80 79
245886.62078857 3357427.24203491 16.61944962 116 120 121
245895.71197510 3357437.38092041 16.48124313 46 46 48
245885.91540527 3357426.75729370 17.48867607 112 121 130
245894.58282471 3357437.19082642 16.57504082 86 90 93
245890.66741943 3357431.64508057 16.53397751 128 130 129
245885.51348877 3357432.17752075 17.29533768 63 76 58
245885.86224365 3357426.77932739 16.81696510 53 56 61
245895.73559570 3357436.70785522 16.90068436 50 51 53
245885.53277588 3357431.63769531 16.98938370 86 86 84
245894.44879150 3357436.79736328 16.64269829 77 81 84
245884.28717041 3357432.60913086 16.88440704 44 48 51
245885.54748535 3357426.92868042 16.91576385 71 76 80
245893.27685547 3357436.81665039 17.14811516 65 66 70
245888.97680664 3357433.42868042 16.59790421 119 121 120
245887.52416992 3357426.19531250 16.69922638 71 73 72
245887.52593994 3357434.87545776 17.04945755 10 15 9
245888.84857178 3357432.43847656 16.86908913 85 90 94
245885.71685791 3357434.75131226 16.63137245 109 107 110
245882.56549072 3357430.14840698 17.17503357 41 45 48
245882.46124268 3357432.22418213 17.04729080 213 205 203
245887.29840088 3357426.91192627 16.68095779 56 57 59
245881.77655029 3357432.09555054 16.68784332 122 118 115
245882.05596924 3357432.69299316 16.84017181 255 255 253
245884.70288086 3357434.48922729 16.65005875 91 92 96
245888.18579102 3357431.84274292 17.12668228 27 29 28
245884.12011719 3357434.31661987 16.54555130 108 108 110
245893.37530518 3357435.53781128 17.37604141 59 63 66
245884.57708740 3357430.25762939 17.02873802 56 60 63
245883.69726563 3357428.97933960 16.80993843 188 189 191
245882.08062744 3357432.47998047 16.86458588 229 230 225
245883.08758545 3357429.49230957 16.91471100 30 33 38
245885.39862061 3357427.92593384 17.18759346 41 45 54
245883.91320801 3357433.73733521 16.75678253 57 64 70
245889.38684082 3357431.98233032 16.96143150 141 146 152
245883.65002441 3357432.86456299 16.58630943 98 100 95
245885.63049316 3357435.31954956 16.67198753 89 85 82
245884.03259277 3357432.47335815 16.63842392 97 99 94
245894.64605713 3357436.81823730 16.95490074 75 79 82
245889.49945068 3357432.05148315 16.88685989 102 109 117
245884.12237549 3357433.73135376 16.94019127 45 48 55
245883.32818604 3357430.68896484 16.74288177 116 116 116
245888.24438477 3357435.60275269 16.70025444 61 61 61
245885.43341064 3357430.38040161 16.70394325 87 87 95
245889.11437988 3357431.48153687 16.81603813 111 111 111
245889.89764404 3357431.26684570 16.62857056 111 113 112
245882.22363281 3357430.47689819 17.19249535 139 124 131
245894.72692871 3357435.62545776 16.66349030 108 108 106
245887.04217529 3357426.67526245 17.25578499 73 80 86
245884.84729004 3357432.21456909 16.96060753 62 68 68
245883.56732178 3357434.15704346 16.54927063 66 70 71
245889.67486572 3357432.87765503 16.99058723 94 98 99
245889.45642090 3357432.52856445 17.16442871 71 80 87
245886.03332520 3357426.77960205 17.04247856 17 35 47
245893.78704834 3357436.88806152 16.90136719 54 52 55
245887.25238037 3357434.80590820 16.93456459 194 191 184
245884.13568115 3357432.42767334 16.72240257 98 98 96
245888.65570068 3357432.34756470 17.04565430 34 39 45
245886.92114258 3357426.49932861 17.35457039 74 85 89
245890.02996826 3357432.72845459 16.89168167 115 116 118
245891.11883545 3357436.20629883 16.86812019 60 62 61
245885.15081787 3357427.53521729 16.70746040 73 74 76
245884.59338379 3357427.77020264 16.91744423 20 28 30
245887.48059082 3357434.41677856 16.68411827 91 91 89
245881.88854980 3357433.33517456 16.68365860 99 101 98
245891.83410645 3357435.85235596 16.98912048 64 68 69
245886.82733154 3357426.21298218 17.17457008 96 119 127
245886.56573486 3357426.87646484 17.07315826 42 56 65
245884.10369873 3357434.05654907 16.55732536 75 79 82
245884.19610596 3357428.00335693 16.74248123 97 99 98
245883.27246094 3357429.65051270 16.94921494 34 37 42
245894.03826904 3357435.71871948 16.76044083 77 77 77
245884.76745605 3357434.64950562 16.67063713 94 93 98
245887.21044922 3357426.99758911 16.64875221 76 76 74
245886.29101563 3357427.36645508 16.61642075 104 108 111
245889.95959473 3357433.30645752 16.77142525 50 50 48
245885.49835205 3357432.07574463 17.51779175 50 68 44
245895.42657471 3357437.55422974 16.44982147 111 114 105
245889.33074951 3357431.69378662 17.08327484 186 190 199
245885.18261719 3357433.04525757 17.02654076 55 56 58
245889.91973877 3357436.29101563 17.08645439 66 67 71
245883.22448730 3357431.65570068 16.99582481 70 96 145
245893.41461182 3357436.68756104 17.31392860 96 91 95
245885.84637451 3357429.46643066 16.65593529 95 95 97
245884.61236572 3357433.85650635 16.91759491 51 54 59
245887.34423828 3357426.72943115 16.88998985 28 29 34
245885.58129883 3357429.43667603 16.70756340 65 69 72
245888.94677734 3357433.64971924 16.59114075 113 115 114
245884.51324463 3357433.17453003 16.85407448 63 64 66
245884.94677734 3357433.59268188 16.95077515 49 53 54
245881.74127197 3357431.51068115 16.78211212 113 115 114
245888.32171631 3357432.99597168 16.79723549 165 166 168
245885.17187500 3357430.75708008 17.01299095 92 94 91
245887.17816162 3357426.07525635 17.16105461 2 15 23
245884.85961914 3357428.30212402 16.74467468 89 93 96
245887.00970459 3357427.04101563 16.64062500 84 85 87
245886.82604980 3357426.80322266 17.15247726 35 57 71
245891.26678467 3357432.17272949 16.70664024 58 59 61
245884.01928711 3357430.12405396 17.00502014 58 58 58
245883.28247070 3357433.09201050 16.83010292 134 135 130
245887.04895020 3357426.48803711 17.35866165 0 7 12
245885.59228516 3357432.06085205 17.80985641 49 70 37
245887.15844727 3357434.47482300 16.70767975 89 88 86
245884.07940674 3357432.25167847 16.72572327 93 95 92
245884.90570068 3357431.89392090 17.38914680 37 40 47
245882.81781006 3357431.58081055 16.99159622 77 81 84
245885.66064453 3357428.24911499 16.83068085 98 101 106
245888.84423828 3357431.62438965 16.69169807 122 124 123
245885.74560547 3357428.75067139 16.74764442 96 100 103
245883.39477539 3357433.84509277 16.67335129 65 67 66
245882.80645752 3357432.85751343 17.01185608 128 130 129
245885.88482666 3357434.86550903 16.62153435 117 119 118
245885.59484863 3357434.07971191 16.62939262 98 98 100
245884.74633789 3357428.47933960 16.67559624 102 103 105
245884.31793213 3357428.72509766 16.59346199 116 118 115
245887.34069824 3357434.18090820 16.65626335 92 92 90
245886.82147217 3357426.55334473 17.62490654 111 126 131
245884.84399414 3357430.03213501 16.98335266 54 61 69
245888.17077637 3357435.27572632 16.64272118 90 90 92
245885.10937500 3357431.89544678 17.20665169 143 153 155
245883.73114014 3357433.57083130 16.93169403 85 86 90
245887.44622803 3357426.74465942 16.77917480 91 99 102
245891.40863037 3357435.98037720 16.90625954 75 80 83
245894.75537109 3357437.39550781 16.96880722 47 49 48
245885.47869873 3357426.83459473 17.28513527 59 70 76
245887.35137939 3357426.85910034 16.70136642 39 44 40
245884.45001221 3357434.32293701 16.58469582 99 103 106
245890.53460693 3357432.80874634 17.01871300 52 56 59
245885.10113525 3357431.35659790 16.63809586 62 67 70
245884.37872314 3357434.50088501 16.58549881 88 89 93
245888.02899170 3357432.32498169 17.37283707 25 35 27
245894.62725830 3357436.89630127 16.87321854 72 77 80
245889.96270752 3357431.84985352 16.73529053 101 103 102
245883.42864990 3357432.21325684 16.75771523 71 76 70
245886.64843750 3357434.87765503 17.14423752 36 36 34
245885.03784180 3357426.92889404 16.80157852 71 75 76
245885.43640137 3357426.42404175 17.18875694 83 91 93
245890.58917236 3357436.11080933 16.74553680 105 113 116
245896.07025146 3357437.40927124 16.76357651 38 37 43
245884.90136719 3357426.89666748 16.87770844 89 93 92
245886.89117432 3357426.16796875 17.30385971 119 134 139
245890.65655518 3357432.32565308 16.76104927 69 70 74
245889.23193359 3357436.01062012 16.97039986 57 62 65
245881.79711914 3357432.59396362 16.68464088 108 109 104
245884.96954346 3357431.46322632 16.74243927 61 65 68
245883.42956543 3357432.92828369 16.73658371 24 24 22
245883.33856201 3357433.41110229 16.77151108 41 41 41
245887.61279297 3357434.58850098 16.70098877 93 95 92
245891.23504639 3357432.03668213 16.64504814 42 42 42
245882.45031738 3357430.99078369 16.84762955 42 49 55
245883.63201904 3357430.45065308 16.78392601 90 96 96
245888.32684326 3357431.91403198 17.11032295 39 40 42
245883.01116943 3357433.49365234 16.78211784 77 81 84
245889.86718750 3357436.35461426 16.85572052 43 42 47
245891.17987061 3357436.15792847 17.00120544 63 65 64
245887.53326416 3357434.71060181 16.74288368 76 75 73
245889.41687012 3357432.12423706 16.97986031 89 94 98
245884.82757568 3357433.19848633 16.87760925 66 67 69
245889.80364990 3357433.76754761 16.67973709 121 121 119
245883.34387207 3357430.06668091 16.80645561 57 62 56
245893.06842041 3357435.78112793 16.94375992 62 61 66
245884.40203857 3357426.99124146 16.75323296 79 79 81
245885.51190186 3357429.14236450 17.03204727 15 20 24
245886.24230957 3357426.37561035 17.60316467 244 234 232
245884.62902832 3357432.91992188 16.99139786 51 52 56
245885.69262695 3357430.17532349 16.63830948 100 101 103
245884.62017822 3357433.89730835 16.79623032 62 65 70
245884.34875488 3357426.79052734 16.90987778 112 111 107
245882.61407471 3357433.22018433 16.86258888 66 66 64
245887.83081055 3357434.94125366 16.74407005 80 80 78
245884.48327637 3357429.09957886 17.07945633 86 90 93
245887.76660156 3357435.01156616 17.00901985 69 68 64
245882.85906982 3357430.89981079 16.86907005 35 37 34
245884.88549805 3357430.67507935 17.00822639 50 51 53
245884.57000732 3357430.20739746 17.04319572 71 72 76
245891.23455811 3357436.35833740 16.82542610 51 51 53
245888.58587646 3357431.78097534 16.70325661 69 71 70
245886.12670898 3357426.58874512 17.58165550 218 186 173
245893.54089355 3357437.19256592 16.49792671 101 99 100
245885.85101318 3357427.74365234 16.66057396 96 98 97
245889.24694824 3357434.26388550 16.57802773 121 121 119
245882.88787842 3357431.54708862 16.98978996 93 94 96
245891.90997314 3357435.69641113 17.01889038 68 68 70
245892.55993652 3357435.68402100 16.81431580 84 86 85
245891.84295654 3357436.09735107 17.04292488 73 80 86
245884.21990967 3357432.14648438 16.83652496 82 84 83
245884.79846191 3357431.92413330 17.14194107 63 66 71
245890.20166016 3357434.36959839 16.62023163 119 119 117
245883.68560791 3357429.19918823 16.91042900 105 108 113
245882.91687012 3357429.59689331 16.81268692 116 120 123
245891.18591309 3357432.37081909 16.82263756 68 69 73
245883.96600342 3357429.04049683 16.97671509 166 166 166
245885.05401611 3357430.66769409 16.97375107 67 71 72
245888.35430908 3357432.80203247 17.12183380 213 226 232
245885.61248779 3357431.43124390 17.09667015 136 132 123
245889.14318848 3357434.34637451 16.57488632 125 125 123
245883.73864746 3357429.39089966 16.93810463 93 96 101
245884.68536377 3357428.08706665 16.72616005 72 77 81
245881.99060059 3357430.31570435 17.32208252 102 88 87
245889.29333496 3357431.96234131 17.04769516 124 129 133
245884.62261963 3357431.26095581 16.83720970 70 75 78
245885.32574463 3357429.38656616 16.77543259 67 71 74
245889.49121094 3357435.86880493 16.73538208 86 87 91
245885.07623291 3357428.52877808 16.75064468 103 105 104
245889.20281982 3357432.08432007 17.18356133 131 133 132
245882.25274658 3357433.05828857 16.89540100 234 233 228
245894.40081787 3357437.12557983 16.54836464 81 82 84
245885.40502930 3357430.08361816 16.76018143 46 47 51
245884.87341309 3357434.90847778 16.70781517 143 142 148
245884.99530029 3357426.64398193 16.90784836 96 100 99
245890.69488525 3357436.61614990 16.65276909 89 94 98
245885.13470459 3357435.03454590 16.80375481 192 197 200
245892.37512207 3357435.75772095 16.82807159 90 91 93
245890.59210205 3357432.15966797 16.80585289 79 80 84
245885.48583984 3357427.40051270 16.66656876 77 78 80
245882.43945313 3357432.93344116 17.03272629 189 182 174
245885.41577148 3357426.53213501 16.98979187 44 48 51
245885.59722900 3357429.07333374 17.05686760 20 25 28
245884.32391357 3357429.00558472 16.76421547 113 115 112
245884.24560547 3357430.34146118 16.87249374 52 53 55
245881.88299561 3357432.29672241 16.72295380 100 99 95
245885.06109619 3357434.53509521 16.68867111 91 92 96
245884.25018311 3357434.26812744 16.55910873 106 110 111
245892.74401855 3357436.95004272 16.49924469 93 94 96
245895.02655029 3357437.02285767 16.81829262 56 57 59
245882.28186035 3357429.89981079 17.07853889 98 98 100
245882.70367432 3357430.19573975 17.24152756 46 47 51
245888.23980713 3357435.68011475 16.72468948 57 57 57
245887.01373291 3357434.21768188 16.62988091 94 96 91
245885.16760254 3357427.62963867 16.75720978 62 66 67
245885.41467285 3357426.79754639 17.19805145 66 70 73
245888.00598145 3357432.49258423 17.46702194 24 31 24
245884.91595459 3357426.65625000 16.92111015 162 164 163
245882.56982422 3357429.86056519 16.92940521 50 52 51
245886.91607666 3357426.59756470 17.38597870 88 97 106
245884.86694336 3357431.34042358 16.76803589 69 73 76
245893.06726074 3357436.81869507 17.03156662 34 37 46
245884.46588135 3357430.49102783 16.90976524 47 51 54
245888.51361084 3357431.44546509 16.75969124 97 98 100
245884.73156738 3357426.53802490 16.76645088 86 88 85
245887.99841309 3357432.43536377 17.45761490 28 35 28
245890.54724121 3357436.28622437 16.76542282 100 108 111
245889.61029053 3357433.32385254 16.79929352 44 46 45
245889.90478516 3357436.25851440 17.05043411 102 101 106
245888.75451660 3357433.43444824 16.54874611 120 120 120
245885.86718750 3357434.70092773 16.63593483 111 111 111
245890.19366455 3357433.35632324 16.83423233 125 129 130
245885.88250732 3357434.82192993 16.63018036 114 114 114
245884.97021484 3357431.93438721 17.33866501 123 128 132
245883.09790039 3357433.06494141 16.92320824 95 93 94
245883.56524658 3357430.71905518 16.82125854 192 196 195
245885.40411377 3357434.75338745 16.68591499 98 96 99
245888.05206299 3357432.70877075 17.20627213 54 52 55
245890.56030273 3357433.88153076 16.61680794 83 85 84
245885.52935791 3357432.34054565 17.21300507 57 72 53
245882.62408447 3357433.28356934 16.84418488 82 83 85
245885.53845215 3357432.19345093 17.71773720 49 73 37
245890.29602051 3357432.69610596 16.88868332 78 82 85
245886.97528076 3357426.19378662 17.51374245 143 154 156
245891.86358643 3357437.35244751 16.57058525 87 87 87
245884.85186768 3357429.61965942 16.87348366 77 78 82
245884.85504150 3357426.84451294 16.96141052 107 111 110
245884.77984619 3357434.95330811 16.71420097 70 75 79
245889.44445801 3357432.63400269 16.94439316 56 63 69
245885.10375977 3357428.29684448 16.86723709 93 94 96
245886.66912842 3357427.51058960 16.61393356 111 115 116
245892.63397217 3357437.18298340 16.49483109 108 108 110
245886.87646484 3357426.14468384 17.29248428 82 106 116
245882.30871582 3357431.37326050 16.94738579 84 85 89
245894.79833984 3357436.90875244 16.88245773 35 43 45
245884.61877441 3357429.06469727 16.92709923 86 85 90
245886.92163086 3357426.23541260 17.67342377 139 147 149
245882.45819092 3357430.72360229 16.94381905 52 56 55
245884.62030029 3357432.31616211 16.88648987 66 70 71
245885.47576904 3357431.12686157 16.77284622 94 99 95
245882.37341309 3357433.54226685 16.79645920 60 62 61
245885.55169678 3357426.96432495 16.84348106 68 76 78
245888.68072510 3357436.20535278 16.92052078 62 63 67
245884.78179932 3357433.10293579 16.90801048 61 65 64
245890.81903076 3357432.53656006 16.81412697 81 84 89
245894.73693848 3357437.47076416 16.51765251 146 144 145
245882.89733887 3357429.36007690 16.73653793 100 100 102
245889.46630859 3357434.05868530 16.58181381 103 103 101
245885.18890381 3357432.18597412 17.05212975 46 52 50
245891.16174316 3357435.82629395 16.62545776 107 107 107
245888.89379883 3357432.91738892 16.64534950 115 116 118
245893.49011230 3357437.06051636 16.64713097 77 78 80
245884.39190674 3357429.36911011 16.96041489 37 41 42
245885.20794678 3357432.83685303 17.14126587 55 56 60
245884.44329834 3357429.11480713 17.18420029 43 48 51
245889.41357422 3357433.14114380 16.75236320 130 134 133
245882.15460205 3357432.38949585 16.93120003 45 40 36
245895.11181641 3357435.71206665 16.70172501 111 111 109
245882.23468018 3357433.30285645 16.79857826 81 82 77
245884.23834229 3357427.66180420 16.79811478 93 94 96
245884.64935303 3357434.88784790 16.71909714 132 135 140
245892.64953613 3357435.77297974 16.90097809 103 105 104
245889.56329346 3357431.22467041 16.69080544 101 105 108
245888.23358154 3357431.75921631 17.17690086 43 47 48
245890.33843994 3357431.40679932 16.56317520 120 122 121
245886.18225098 3357426.82437134 17.13167000 48 72 84
245891.84497070 3357435.94461060 17.01301575 63 66 73
245893.22357178 3357435.75717163 17.12165260 35 41 41
245883.50512695 3357434.06210327 16.58455658 86 90 91
245888.88073730 3357432.27658081 17.03714180 80 88 90
245890.96801758 3357435.91574097 16.57565117 95 99 100
245883.75592041 3357429.13195801 17.00529480 109 112 121
245884.75646973 3357431.41592407 16.84546852 63 66 71
245885.29162598 3357433.75460815 16.82036591 62 63 67
245884.81433105 3357434.56173706 16.67285538 88 89 93
245888.48846436 3357431.90521240 16.88552284 116 118 117
245884.21209717 3357433.45486450 16.88078880 68 67 72
245889.16033936 3357432.43161011 16.93493652 74 82 84
245883.92651367 3357429.83163452 17.01196671 96 100 103
245887.63006592 3357434.88400269 16.89264107 58 57 52
245886.88940430 3357426.17001343 17.30065155 83 103 112
245885.71832275 3357430.89303589 16.71109390 103 105 102
245892.60400391 3357437.00003052 16.54169083 95 93 96
245882.77374268 3357429.48422241 16.73554611 59 60 64
245885.20123291 3357433.79412842 16.86960411 32 36 39
245887.37213135 3357426.17639160 16.81477165 25 33 36
245886.98632813 3357434.75683594 16.92508888 11 13 12
245886.89001465 3357426.24664307 17.26193237 74 89 94
245886.74621582 3357426.26815796 17.66166496 239 248 247
245884.92236328 3357433.97717285 16.77824593 46 47 51
245884.70208740 3357432.72778320 16.93416023 29 34 37
245889.49407959 3357431.74725342 16.86262512 33 38 42
245889.90222168 3357432.14291382 16.77086258 95 99 102
245889.34234619 3357432.22140503 17.21068954 126 127 129
245888.52465820 3357432.77374268 17.05881882 155 165 177
245889.87530518 3357433.09902954 16.76364708 53 53 51
245886.32763672 3357427.37014771 16.61089706 109 110 114
245882.95727539 3357431.54229736 16.99384117 121 124 129
245889.64373779 3357434.36294556 16.60981750 130 130 128
245893.78961182 3357437.55041504 16.46172714 151 148 143
245885.27099609 3357426.68417358 16.98905754 94 102 104
245883.72619629 3357431.50982666 16.73156548 88 91 96
245885.23919678 3357433.90762329 16.77255058 33 37 38
245883.15649414 3357429.29095459 16.81000900 67 71 74
245885.29553223 3357430.72222900 16.71492004 79 82 87
245884.41082764 3357433.81872559 16.98709106 18 23 26
245884.34100342 3357434.67733765 16.60673523 97 101 102
245890.40484619 3357433.09356689 16.96518707 75 80 86
245892.65521240 3357436.00033569 16.97015572 122 130 132
245890.53479004 3357431.45742798 16.54572105 120 122 121
245894.86010742 3357437.50436401 16.57487297 113 115 112
245885.51727295 3357431.46832275 16.89613342 55 55 57
245885.65173340 3357431.31036377 17.10443115 113 103 91
245887.08209229 3357426.96475220 16.69303703 64 68 67
245884.04577637 3357434.71124268 16.55844498 114 118 117
245886.49920654 3357434.46786499 16.71254730 98 98 96
245885.49389648 3357431.67755127 16.93588638 86 88 87
245887.80041504 3357433.67477417 16.60225868 104 102 103
245885.25195313 3357426.77706909 16.94289780 75 79 82
245888.73443604 3357432.60577393 16.82294273 66 67 72
245883.44604492 3357429.85443115 16.97128487 56 60 61
245890.29077148 3357433.54257202 16.81510925 134 138 141
245882.63006592 3357431.95510864 17.08210564 23 26 31
245893.62573242 3357437.65917969 16.46578789 72 72 48
245886.74774170 3357426.15658569 17.07494354 85 122 138
245883.59088135 3357431.35653687 16.78047752 57 62 68
245891.29431152 3357436.30435181 16.84907341 50 54 57
245889.19885254 3357432.33337402 17.06040764 125 133 136
245890.78723145 3357432.33651733 16.71635056 88 93 96
245889.80712891 3357436.23101807 16.79839706 100 101 105
245882.91333008 3357433.58459473 16.75920486 94 96 95
245893.30151367 3357435.39825439 17.20961952 35 37 36
245896.27728271 3357436.65093994 16.60544395 82 83 85
245884.74108887 3357433.41738892 16.85303879 64 65 67
245890.47430420 3357433.80953979 16.69601440 46 48 47
245889.50830078 3357432.69552612 16.85076523 57 62 66
245883.10937500 3357432.62689209 16.98009682 135 135 137
245888.96362305 3357433.38531494 16.59154892 135 137 136
245889.54547119 3357432.71939087 16.99374008 61 65 68
245883.03570557 3357429.72885132 16.89085197 169 174 180
245885.06835938 3357428.83651733 16.68024063 105 105 105
245885.18634033 3357435.02041626 16.79503822 75 80 83
245884.87695313 3357434.05361938 16.70170403 58 59 63
245883.35528564 3357429.83648682 16.95621109 73 77 76
245885.21093750 3357428.89810181 16.76273918 101 105 104
245885.49072266 3357434.91955566 16.65406990 89 89 91
245884.20104980 3357433.59240723 16.99709511 57 59 71
245883.72979736 3357428.98660278 16.99160576 189 191 190
245888.57153320 3357432.10949707 16.94034004 59 65 63
245885.55566406 3357426.90859985 16.96635818 40 45 48
245881.87268066 3357430.71997070 16.92534065 66 67 71
245883.95513916 3357429.07064819 17.19886017 120 121 126
245886.74169922 3357426.20385742 17.64865112 218 222 225
245889.16625977 3357433.98150635 16.57687569 112 112 112
245882.10418701 3357432.95483398 16.85197258 227 226 221
245884.10552979 3357427.35128784 16.69222641 107 111 110
245883.98461914 3357433.90618896 16.63419724 75 78 83
245885.01269531 3357435.01248169 16.77068138 121 129 131
245895.48516846 3357436.54855347 16.65625954 99 101 100
245882.28247070 3357430.83337402 16.92342949 107 117 116
245890.98223877 3357436.27645874 16.72777557 92 96 95
245888.69421387 3357432.33285522 17.01628304 61 68 74
245885.88470459 3357427.16375732 16.65953827 86 87 91
245883.14550781 3357431.26672363 16.88796425 73 82 97
245887.18701172 3357434.73513794 16.85147476 30 27 22
245888.52520752 3357431.59854126 16.72596550 65 65 67
245887.44494629 3357426.13992310 16.70452309 72 74 73
245889.96948242 3357433.96206665 16.63682175 137 136 132
245893.52404785 3357437.38522339 16.46025658 117 117 117
245882.77844238 3357429.97308350 17.15610695 108 109 113
245886.02612305 3357427.94042969 16.69946098 108 110 109
245890.40911865 3357432.57958984 16.90089226 56 61 65
245893.59362793 3357437.01409912 16.72286797 92 93 97
245888.90948486 3357433.63192749 16.57738495 120 120 122
245884.55023193 3357430.33404541 16.96896553 60 64 65
245884.83258057 3357432.69503784 16.88348389 31 35 36
245884.28594971 3357428.19464111 16.68157196 115 115 117
245890.51507568 3357434.23214722 16.57504845 115 116 118
245889.51635742 3357432.70547485 16.82743645 53 58 62
245884.94903564 3357434.67929077 16.68757820 88 89 93
245884.29431152 3357426.80059814 16.79624557 81 81 79
245882.25048828 3357433.13473511 16.85764503 69 68 63
245889.32446289 3357431.62722778 17.09525871 115 119 128
245896.05438232 3357437.39468384 16.61680412 59 58 63
245886.64947510 3357434.56460571 16.70027733 83 85 82
245885.16760254 3357428.64797974 16.72683716 105 106 108
245892.77490234 3357437.38388062 16.46028328 141 137 136
245890.79705811 3357435.92544556 16.57701302 92 97 100
245888.92773438 3357432.29238892 17.00969887 83 93 94
245889.89471436 3357433.00451660 16.88956642 81 83 82
245883.56317139 3357429.34063721 16.89381599 102 106 109
245883.91394043 3357433.32180786 16.70820427 98 100 99
245884.53369141 3357433.20388794 16.85649300 62 63 65
245884.01812744 3357430.37506104 16.96946526 74 73 78
245885.02886963 3357431.38690186 16.68077660 63 68 71
245884.32830811 3357428.99319458 16.74876213 117 119 116
245886.94909668 3357426.28396606 17.35322189 112 129 136
245885.88171387 3357428.07620239 16.81180382 100 104 107
245886.55877686 3357426.34283447 17.61488342 229 227 228
245883.76800537 3357430.46401978 16.86702347 82 88 88
245888.42089844 3357431.73745728 16.92958832 12 12 12
245894.03094482 3357435.48248291 16.65106773 91 91 91
245886.83288574 3357426.86785889 16.82393837 59 63 64
245891.75732422 3357436.16616821 16.97672844 85 89 98
245883.03308105 3357432.73165894 17.08190918 163 167 170
245888.65454102 3357432.71578979 16.86129189 51 52 54
245885.60089111 3357428.81021118 16.75717354 90 94 97
245882.57830811 3357429.47821045 16.68063736 94 94 94
245895.42175293 3357436.54248047 16.67237473 95 96 98
245893.64276123 3357435.36624146 16.79234505 93 93 93
245883.19384766 3357431.31045532 16.88859177 53 66 85
245884.34350586 3357432.30722046 16.85209465 77 78 80
245882.24285889 3357430.40155029 17.21075821 128 105 111
245885.66839600 3357431.54360962 17.66018677 50 75 35
245890.79229736 3357432.22479248 16.71232796 94 98 99
245887.88208008 3357434.76696777 16.68554688 99 99 97
245882.55834961 3357432.62234497 16.99750710 117 109 106
245882.64544678 3357432.49533081 16.95718384 154 143 139
245888.99725342 3357435.87405396 16.76213646 89 90 92
245892.35870361 3357437.13351440 16.64982224 87 86 92
245888.24737549 3357431.76983643 17.17047310 31 35 36
245885.20623779 3357431.64187622 16.87960815 104 114 124
245884.66436768 3357429.84362793 16.88644409 108 109 111
245889.57812500 3357432.90054321 16.93692970 102 106 107
245885.71057129 3357434.79171753 16.63027000 109 107 110
245885.25653076 3357430.65917969 16.71759796 87 88 92
245894.87536621 3357437.02279663 16.84760094 49 53 56
245881.87139893 3357430.96737671 16.85754585 116 121 127
245886.54730225 3357426.87789917 17.28357506 45 63 77
245890.03704834 3357433.11746216 16.80066872 96 96 96
245889.10137939 3357432.79534912 16.67690086 103 107 110
245888.96441650 3357435.84576416 16.75400925 89 89 91
245882.81848145 3357431.90679932 17.05691338 52 53 58
245884.92602539 3357427.60055542 16.79005241 59 63 66
245886.51782227 3357434.92425537 17.04974937 229 217 205
245888.43463135 3357432.19555664 17.12721443 174 182 184
245884.26971436 3357433.53741455 16.97043419 45 48 57
245883.92596436 3357434.29638672 16.54632568 53 54 58
245881.82580566 3357432.34216309 16.68417549 105 106 101
245885.34088135 3357433.59298706 16.94545555 58 59 61
245889.07940674 3357433.51522827 16.64891052 125 127 126
245891.00256348 3357431.64004517 16.57009888 131 135 136
245885.50622559 3357431.99395752 17.42109680 52 67 46
245883.68975830 3357431.74411011 16.67960930 103 103 103
245886.63439941 3357426.77517700 17.51227951 220 218 223
245895.71429443 3357437.06701660 16.87539482 87 91 94
245890.64813232 3357432.39718628 16.75970840 67 68 73
245892.13262939 3357437.19528198 16.72702789 74 74 74
245894.73791504 3357437.22186279 16.66524315 55 59 62
245890.31915283 3357434.03695679 16.60120010 28 28 28
245893.99334717 3357435.63540649 16.73378181 88 88 88
245888.28277588 3357432.64306641 17.29730797 232 236 235
245884.35974121 3357429.04449463 16.83239174 77 79 78
245886.08978271 3357426.76272583 17.47283936 76 91 98
245889.34381104 3357433.23901367 16.74795341 144 148 151
245890.01507568 3357434.27938843 16.59262085 138 140 137
245884.01287842 3357434.52246094 16.53681564 97 99 96
245883.19628906 3357429.69296265 16.97679329 58 61 66
245885.57867432 3357427.78619385 17.00311089 26 30 39
245883.87518311 3357434.19027710 16.55481339 55 58 63
245884.22973633 3357433.78704834 17.00247574 27 30 35
245891.60882568 3357437.30825806 16.51932907 86 87 91
245883.24041748 3357431.85296631 17.02419853 23 31 42
245886.54663086 3357426.91690063 16.72032166 64 62 63
245884.61395264 3357433.72265625 16.98036003 27 35 37
245888.17620850 3357435.24090576 16.64061737 85 85 87
245882.24096680 3357430.06436157 17.16702271 119 117 118
245886.28887939 3357426.59991455 17.57842827 221 190 185
245885.39007568 3357432.10519409 17.03705406 64 66 65
245885.94812012 3357434.62078857 16.65316963 109 109 109
245888.58105469 3357432.66668701 17.03309822 18 19 24
245884.35424805 3357433.69400024 17.09387398 48 53 59
245887.67633057 3357434.09814453 16.62880135 93 91 92
245894.48010254 3357437.25674438 16.50692749 83 87 90
245883.23529053 3357434.37048340 16.64773750 96 98 95
245890.51574707 3357433.10394287 16.84439659 42 43 47
245882.38305664 3357431.35324097 16.91652107 81 81 83
245882.08233643 3357432.48330688 16.86609840 229 230 225
245890.95599365 3357436.52957153 16.83906364 74 78 79
245889.95538330 3357433.57940674 16.77326393 168 169 171
245885.54461670 3357432.24856567 17.71732330 53 79 42
245884.87530518 3357430.21899414 16.99946594 67 68 72
245895.36206055 3357437.61691284 16.44949913 85 90 70
245882.98278809 3357432.15728760 17.05649948 228 231 236
245885.49652100 3357432.29254150 17.53119850 42 62 35
245886.79888916 3357426.35144043 17.09035492 93 112 118
245891.43865967 3357435.98834229 16.94029808 75 80 83
245885.18402100 3357433.73568726 16.96260643 62 63 67
245889.36804199 3357431.87149048 16.96908379 178 182 191
245885.54876709 3357434.16351318 16.62434387 97 96 101
245882.91949463 3357430.60568237 16.93679428 150 151 153
245889.64886475 3357435.83593750 16.59156227 103 104 108
245882.08801270 3357431.05752563 16.81690216 57 61 64
245885.50024414 3357432.03372192 17.54644394 54 72 48
245890.02825928 3357431.60821533 16.66580200 101 102 104
245886.09613037 3357427.72689819 16.61949921 107 109 108
245883.50396729 3357434.49343872 16.54917717 84 86 83
245882.11584473 3357432.60375977 16.89018822 220 221 216
245888.07543945 3357432.37155151 17.34936142 40 47 40
245882.38507080 3357432.51052856 16.98633766 61 63 58
245892.80541992 3357435.87344360 17.06409264 59 60 62
245885.42193604 3357426.52099609 17.25977898 45 54 53
245885.75933838 3357430.29196167 16.63760376 103 105 104
245886.80963135 3357434.81976318 16.83972168 47 49 48
245886.63488770 3357434.78121948 16.64957047 50 51 53
245884.99133301 3357431.62033081 16.95964241 22 23 27
245888.64416504 3357432.15710449 16.98958778 79 85 83
245890.30413818 3357431.73791504 16.70302391 88 88 88
245894.57336426 3357436.85238647 16.84843254 72 73 78
245890.98431396 3357433.12240601 16.79881859 121 123 122
245883.24755859 3357429.73300171 16.86773300 26 27 32
245886.92822266 3357426.55505371 17.57618713 66 81 88
245887.73162842 3357434.23883057 16.64666367 97 97 97
245889.92065430 3357435.87539673 16.76873970 100 100 100
245884.78320313 3357427.26593018 16.69245148 78 82 83
245883.11608887 3357430.20046997 17.06448555 165 173 162
245893.34826660 3357437.56314087 16.46179390 164 161 154
245888.28948975 3357431.90420532 17.11169815 48 49 51
245885.37835693 3357427.74905396 16.95999336 44 50 48
245889.92694092 3357434.45220947 16.62635994 133 133 131
245889.56665039 3357432.94229126 16.86998749 101 105 106
245883.05285645 3357429.54971313 16.84865952 47 52 56
245884.15655518 3357431.35247803 16.84659195 58 61 66
245882.97778320 3357430.10061646 16.95651054 105 106 108
245883.40588379 3357429.21469116 16.88698578 98 102 105
245885.67993164 3357427.79574585 16.78314972 37 42 46
245885.02294922 3357433.80465698 17.09261131 86 88 87
245885.75073242 3357429.49176025 16.64946556 84 85 89
245893.27130127 3357435.46398926 17.36278152 24 28 29
245883.10101318 3357429.89395142 17.10714340 21 25 26
245887.04724121 3357426.32870483 17.85091019 124 175 178
245882.86871338 3357431.73675537 17.02710342 137 136 142
245887.10418701 3357426.90338135 16.78251457 36 40 43
245887.51910400 3357426.24969482 16.73984146 46 55 54
245884.22808838 3357434.71054077 16.60149765 105 109 108
245884.20837402 3357427.22006226 16.67913437 112 114 113
245885.80987549 3357430.93859863 16.78569412 87 92 88
245885.49591064 3357430.12103271 16.68772316 40 44 47
245895.20721436 3357437.35818481 16.50201225 93 94 98
245886.33581543 3357426.81533813 17.45361137 68 77 84
245882.48773193 3357432.46096802 16.96489906 175 171 162
245886.03845215 3357427.95321655 16.70632744 111 111 111
245888.50854492 3357432.82971191 16.95773506 66 82 97
245896.18316650 3357437.44723511 16.61077499 62 62 62
245883.34173584 3357430.50448608 16.72927284 87 87 89
245885.40631104 3357426.80560303 17.16004181 95 99 102
245886.23022461 3357427.80172729 16.64385605 114 115 117
245885.58789063 3357426.91662598 16.91298485 55 60 63
245889.37585449 3357436.03933716 16.89165306 52 59 65
245895.97467041 3357436.65972900 16.82072830 58 59 63
245885.02368164 3357428.96148682 16.77245331 103 103 103
245884.23352051 3357431.88366699 16.93609810 66 70 71
245894.57775879 3357437.07720947 16.63743973 86 87 89
245883.72222900 3357428.97375488 16.80265999 164 166 163
245885.98156738 3357427.18054199 16.64212036 92 96 99
245888.32287598 3357436.22662354 17.01610756 47 48 52
245881.92272949 3357431.90768433 16.89929390 62 61 59
245887.42852783 3357426.88146973 16.67260361 48 47 43
245885.20733643 3357428.02590942 16.91980553 88 92 93
245891.07788086 3357433.21862793 16.71073723 114 114 114
245884.83215332 3357429.88146973 16.87932587 79 82 87
245889.92364502 3357436.48892212 16.81315231 61 60 66
245884.68945313 3357434.02331543 16.67596054 72 73 78
245884.22436523 3357430.31521606 16.89199638 58 59 61
245887.52532959 3357426.52505493 16.85898209 68 89 94
245884.43426514 3357430.18487549 16.98943710 57 61 62
245885.48681641 3357434.92782593 16.65395164 89 89 91
245884.83184814 3357428.60824585 16.66662979 106 106 106
245887.93383789 3357434.40469360 16.63290596 98 97 95
245887.97674561 3357432.90969849 17.01292229 74 72 73
245890.55328369 3357433.34826660 16.72651482 107 105 108
245895.84405518 3357437.32159424 16.65551376 28 29 31
245883.08270264 3357433.90072632 16.79437637 88 88 88
245885.00433350 3357431.60131836 16.90897369 23 24 28
245889.95300293 3357432.55798340 16.85382080 111 115 118
245885.17425537 3357429.28005981 16.84408569 62 66 69
245883.56500244 3357433.95516968 16.57952690 118 122 123
245884.99987793 3357429.92477417 16.85662460 60 61 66
245885.51245117 3357431.28857422 16.79301262 82 87 83
245891.18957520 3357436.57119751 16.83709526 71 70 76
245894.10656738 3357437.68328857 16.44393539 66 73 39
245884.13787842 3357433.08737183 16.65125084 86 88 87
245885.96875000 3357435.03353882 16.57487679 105 107 106
245890.74633789 3357433.14715576 16.77087212 92 92 92
245888.45904541 3357433.14630127 16.60010338 85 90 93
245885.67651367 3357426.89590454 16.84224701 69 75 75
245883.92572021 3357430.08224487 16.99722862 54 55 57
245892.35607910 3357435.75866699 16.84234428 90 91 93
245884.11700439 3357432.44552612 16.70443153 100 102 99
245889.81262207 3357436.42922974 16.81870461 91 89 94
245889.34600830 3357431.79003906 17.07289314 184 188 199
245883.60034180 3357432.75119019 16.62028313 103 102 97
245889.22283936 3357431.95886230 17.08796501 134 142 144
245888.50805664 3357433.27593994 16.56119156 87 91 90
245884.19750977 3357432.06274414 16.85185432 80 82 81
245885.35076904 3357429.96743774 16.71953201 47 47 49
245893.52874756 3357437.10910034 16.57455444 93 92 97
245885.62933350 3357430.89044189 16.70880508 103 105 102
245889.54437256 3357432.75344849 16.76537704 73 76 81
245885.67401123 3357426.88287354 16.85486603 54 58 61
245890.36090088 3357432.47982788 16.89266777 64 69 72
245885.58654785 3357431.98504639 17.79413605 48 69 36
245891.12567139 3357436.38476563 16.97157478 133 132 130
245883.74908447 3357428.75735474 16.63687134 61 62 56
245891.15240479 3357431.98666382 16.61939240 67 71 72
245889.47351074 3357433.13775635 16.81776047 137 143 141
245886.56707764 3357426.23852539 17.62569618 206 210 211
245885.20745850 3357431.68151855 16.96586800 120 134 145
245885.06048584 3357431.65087891 17.00601959 40 51 57
245885.37066650 3357435.14495850 16.70898628 39 40 44
245882.87365723 3357429.63177490 16.82025146 31 35 36
245888.54010010 3357432.05578613 16.94836044 104 105 107
245886.53039551 3357427.34786987 16.61484718 108 109 111
245890.42840576 3357435.85604858 16.75297165 111 112 116
245883.90344238 3357431.76748657 16.73508644 74 74 72
245885.01000977 3357431.75610352 17.32016754 145 155 164
245885.60247803 3357431.53308105 17.15299988 117 120 101
245885.61346436 3357430.02786255 16.62187004 98 99 104
245888.81677246 3357431.91220093 16.73067474 107 109 108
245884.67498779 3357434.35360718 16.63041878 89 90 94
