246105.21875000 3357452.61483765 14.71975327 225 232 240
246108.68554688 3357452.00610352 14.53133965 83 84 88
246103.25134277 3357450.23153687 14.27374172 152 153 155
246104.22253418 3357452.22848511 14.52526379 38 39 41
246107.15441895 3357451.24133301 14.26528835 121 126 129
246102.59155273 3357450.17996216 14.28951168 171 174 179
246101.92712402 3357451.01428223 14.43643475 22 29 37
246108.70605469 3357452.38861084 14.27362728 149 149 149
246107.74230957 3357452.26983643 14.25160789 73 77 78
246102.14904785 3357451.00497437 14.30509472 99 100 105
246115.27954102 3357452.51858521 14.29755974 68 70 69
246101.02185059 3357450.24188232 14.35398674 136 139 144
246112.94763184 3357452.35913086 14.41585636 137 141 142
246102.45300293 3357450.70947266 14.62829685 205 207 206
246102.53332520 3357451.83148193 14.97322178 142 143 147
246103.82885742 3357451.20162964 14.50889969 85 90 94
246110.88879395 3357452.25424194 14.46551132 115 115 115
246107.39831543 3357452.68499756 14.31575394 109 111 108
246108.89379883 3357452.52899170 14.61550617 86 86 84
246106.52758789 3357451.93087769 14.30598354 131 134 139
246111.07910156 3357451.62493896 14.23605156 123 126 119
246115.73620605 3357452.45330811 14.04013824 110 114 91
246108.60827637 3357452.56698608 14.32559109 113 113 111
246113.45458984 3357452.99209595 14.68423748 92 101 84
246103.39782715 3357450.95684814 14.65136814 52 55 60
246105.18554688 3357451.25421143 14.24793625 137 138 142
246106.65844727 3357451.76535034 14.68005276 93 98 101
246112.13806152 3357452.03231812 14.54188919 222 224 219
246104.95642090 3357450.44403076 14.24393177 167 169 168
246108.20654297 3357452.13693237 14.29360485 143 142 138
246107.43457031 3357452.65939331 14.31374550 108 110 107
246103.14624023 3357451.32507324 14.53299522 81 84 89
246111.01574707 3357451.95297241 14.37602901 68 69 71
246102.25488281 3357450.48962402 14.30219460 137 144 152
246101.85522461 3357450.17105103 14.64596272 97 102 108
246109.88085938 3357453.05325317 14.28034687 65 69 68
246100.66040039 3357450.29379272 14.45363235 51 58 68
246101.74108887 3357450.02035522 14.55807590 115 118 123
246100.67932129 3357450.95037842 14.74592113 41 46 49
246108.95910645 3357451.82803345 14.51472664 86 87 89
246107.67199707 3357452.92373657 14.23367977 131 130 126
246102.42529297 3357450.94348145 14.88323593 100 108 111
246114.07238770 3357452.67553711 14.28852940 56 57 49
246108.55249023 3357451.82846069 14.48307419 98 98 98
246105.34655762 3357451.67266846 14.66145802 71 72 74
246104.54272461 3357452.26336670 14.60605621 79 84 87
246106.67626953 3357452.44525146 14.67956638 116 115 113
246107.82922363 3357452.57376099 14.21183300 114 113 109
246108.65905762 3357452.01065063 14.51944065 84 85 89
246115.52966309 3357453.62805176 14.19974518 81 83 70
246105.77856445 3357451.99566650 14.59453773 140 145 149
246117.19982910 3357453.50189209 14.30041599 106 106 94
246113.17431641 3357453.08941650 14.55873775 154 162 151
246116.99731445 3357453.98629761 14.20724487 89 93 70
246114.99780273 3357452.45184326 14.47031498 37 38 40
246103.68334961 3357452.22973633 14.27731895 72 74 73
246102.87634277 3357451.91033936 14.66649723 133 131 134
246112.11181641 3357452.10339355 14.27595901 96 97 92
246101.25610352 3357451.23907471 14.80910778 73 71 74
246117.45568848 3357453.36154175 14.14752102 84 85 77
246119.69567871 3357453.71154785 14.28498173 72 73 65
246118.67065430 3357453.28713989 14.25070667 78 79 83
246113.00610352 3357451.82101440 14.25072289 132 128 125
246113.56359863 3357452.55966187 14.42970467 64 64 66
246118.80566406 3357453.56665039 14.47184658 168 170 169
246118.66955566 3357453.85836792 14.15038967 66 69 62
246100.59509277 3357450.47955322 14.56582928 41 48 56
246102.89514160 3357451.83422852 14.51352596 92 91 96
246101.96667480 3357451.21594238 14.44749069 42 45 54
246114.63940430 3357453.63217163 14.31500530 67 70 51
246115.27746582 3357452.87570190 14.34906960 95 92 85
246113.95202637 3357453.30026245 14.13855267 87 85 73
246118.88610840 3357453.00637817 14.25945473 46 47 51
246110.74475098 3357451.55874634 14.18564796 141 143 140
246106.19104004 3357452.90719604 14.23693180 70 75 71
246112.09265137 3357451.79638672 14.50372124 75 62 53
246101.62011719 3357451.82458496 14.34524250 127 129 128
246114.76318359 3357452.44207764 14.52975368 48 47 52
246112.66601563 3357453.25140381 14.46648026 90 91 85
246104.85888672 3357451.29492188 14.27368736 66 71 74
246101.96252441 3357451.19726563 14.44880295 42 45 54
246103.23059082 3357452.29864502 14.28055954 79 81 80
246118.75891113 3357453.60186768 14.63417244 105 107 102
246110.72229004 3357453.26562500 14.28433990 71 73 62
246117.80688477 3357454.13119507 14.21012878 62 66 49
246104.70825195 3357451.72189331 14.57760048 136 150 161
246112.58801270 3357451.89965820 14.40556145 71 71 69
246106.36889648 3357452.26449585 14.23672962 143 143 145
246104.90466309 3357451.36337280 14.26603794 80 83 88
246113.60607910 3357453.40039063 14.28201771 80 81 73
246103.81665039 3357450.31939697 14.26622581 181 182 184
246107.21447754 3357450.73925781 14.20051956 167 168 170
246105.84716797 3357452.86431885 14.41659164 39 46 39
246107.60046387 3357453.04983521 14.24515629 89 89 81
246106.78833008 3357451.60314941 14.40586281 112 115 122
246100.65185547 3357450.13375854 14.39229488 70 73 82
246111.83911133 3357452.59350586 14.13189220 100 102 97
246100.58837891 3357450.27499390 14.49507046 36 45 54
246107.54992676 3357452.34075928 14.34824562 47 49 48
246116.15551758 3357452.57162476 14.17226601 103 102 97
246117.45788574 3357454.07510376 14.18324089 78 82 59
246104.67150879 3357451.78329468 14.61620140 101 112 130
246114.57666016 3357452.15875244 14.38686943 132 120 108
246102.11340332 3357450.07110596 14.29616356 111 118 124
246113.04614258 3357452.89135742 14.68775749 114 123 122
246106.69421387 3357451.58068848 14.63538933 69 74 80
246103.06054688 3357452.42672729 14.23670101 86 92 92
246109.23046875 3357453.11926270 14.27192497 72 74 63
246107.02978516 3357451.38531494 14.24526024 78 79 81
246106.16992188 3357450.81964111 14.22631645 192 193 195
246104.32568359 3357451.90197754 14.76068974 55 56 60
246118.31384277 3357454.01525879 14.06612206 69 72 65
246102.41796875 3357451.58334351 14.25854683 110 113 120
246114.85168457 3357453.04919434 14.51546288 44 43 41
246112.19555664 3357452.17852783 14.62193584 214 215 209
246113.12536621 3357453.29486084 14.38204479 131 133 128
246114.45019531 3357452.85885620 14.22644806 83 82 78
246115.51513672 3357453.33251953 14.15858746 68 69 61
246101.14990234 3357450.38900757 14.39850426 88 88 90
246109.85925293 3357452.08401489 14.48516560 55 55 57
246114.39318848 3357452.23620605 14.17618656 89 88 83
246110.79833984 3357451.57803345 14.18646336 128 130 127
246108.90747070 3357451.87155151 14.56159782 70 68 69
246106.11193848 3357452.47882080 14.27227592 105 109 110
246101.19665527 3357452.07891846 14.34850025 73 74 78
246105.04492188 3357452.40151978 14.76536465 158 159 163
246114.00854492 3357453.07177734 14.16898060 19 23 24
246106.54614258 3357451.17123413 14.37947369 160 158 159
246108.39733887 3357452.65713501 14.39128494 121 122 114
246110.91992188 3357452.07809448 14.35912228 108 108 108
246117.56518555 3357453.55303955 14.13084030 61 63 58
246119.92517090 3357453.42453003 14.08844280 70 81 67
246101.72521973 3357450.22402954 14.43946838 135 139 148
246102.61035156 3357452.17999268 14.38589668 187 196 195
246107.38342285 3357453.05493164 14.26123810 96 98 87
246102.38732910 3357451.98522949 14.31598759 175 176 171
246108.83300781 3357452.23229980 14.37158394 89 94 98
246104.85070801 3357451.58547974 14.34435844 43 53 55
246108.92407227 3357451.97100830 14.49063587 77 77 79
246108.40625000 3357452.37478638 14.25295258 131 135 134
246115.38366699 3357452.30401611 14.13857079 85 85 83
246102.43774414 3357450.96688843 14.63594437 49 50 52
246114.76257324 3357452.50164795 14.46511841 41 42 44
246102.13830566 3357452.13046265 14.37787056 111 114 105
246109.03320313 3357451.98071289 14.40734386 109 112 117
246119.90112305 3357453.61245728 14.17371273 83 89 79
246104.11975098 3357450.21850586 14.25685501 177 178 180
246101.07617188 3357451.80441284 14.40986347 73 74 76
246116.98461914 3357453.28518677 14.50821209 41 43 42
246114.02282715 3357452.54812622 14.38721180 53 58 52
246101.66149902 3357450.66372681 14.38238239 86 90 99
246104.43371582 3357452.25988770 14.53106308 63 68 71
246107.47961426 3357451.89770508 14.47853756 190 190 190
246103.85937500 3357452.07110596 14.85502434 73 77 80
246105.11096191 3357452.30346680 14.67029381 183 182 188
246115.37927246 3357452.78271484 14.28221893 90 90 82
246102.18408203 3357450.20922852 14.29375839 94 101 107
246101.81005859 3357449.90820313 14.61773586 222 223 228
246106.52648926 3357451.43096924 14.55325413 113 115 114
246120.94018555 3357454.08221436 14.09867668 176 172 145
246105.01416016 3357451.12179565 14.24687195 107 108 110
246110.84960938 3357452.06265259 14.25069332 99 101 100
246107.64587402 3357450.98355103 14.20405006 172 173 175
246115.18603516 3357452.85717773 14.44229126 101 101 89
246114.36889648 3357453.60937500 14.28174686 54 61 45
246111.00219727 3357452.14559937 14.58235264 62 62 64
246108.43322754 3357453.19998169 14.30288506 86 90 63
246104.47790527 3357451.84234619 14.67886639 135 138 145
246106.44604492 3357451.28271484 14.25485802 181 182 184
246112.05505371 3357452.55325317 14.14591885 112 113 108
246110.29406738 3357452.88961792 14.31671429 59 59 49
246104.56042480 3357451.85317993 14.66883564 150 156 168
246113.75622559 3357452.65246582 14.47058105 41 45 44
246102.99316406 3357451.28115845 14.58677006 66 70 73
246105.58483887 3357451.52203369 14.48726749 79 84 80
246120.05419922 3357453.57608032 14.13244057 77 82 75
246106.48291016 3357451.45364380 14.27692604 170 171 173
246108.90991211 3357452.15963745 14.39253426 78 83 86
246104.47534180 3357450.95599365 14.55529022 216 221 224
246103.67724609 3357452.11892700 14.70239258 105 109 112
246102.90087891 3357452.28662109 14.32971191 84 91 83
246100.61962891 3357451.37316895 14.80420876 16 21 25
246113.99255371 3357452.08642578 14.28441525 87 85 70
246105.96887207 3357452.15032959 14.45009613 90 91 96
246102.55712891 3357452.01715088 14.36764812 171 171 169
246104.72167969 3357452.70043945 14.29619789 135 141 141
246104.58874512 3357452.03338623 14.65572548 130 134 145
246103.62072754 3357452.30264282 14.26191998 87 89 88
246104.39038086 3357452.74819946 14.23034191 129 132 125
246107.16833496 3357452.35281372 14.73615170 109 115 115
246107.10424805 3357452.66290283 14.33546257 155 155 157
246113.57067871 3357452.99722290 14.64456081 132 136 121
246102.67565918 3357450.89749146 14.76185226 32 41 46
246112.08386230 3357451.98568726 14.32428646 106 107 102
246117.35864258 3357453.56671143 14.19678307 89 92 81
246110.07336426 3357453.16607666 14.31029129 86 90 76
246104.22546387 3357452.74008179 14.24306011 145 150 144
246115.55822754 3357453.25015259 14.09776783 52 53 45
246107.62854004 3357451.93624878 14.35892010 100 101 103
246100.40148926 3357451.07003784 14.44967270 112 113 115
246107.23645020 3357452.15615845 14.60038853 110 109 104
246117.08239746 3357452.71148682 14.09160519 71 71 69
246110.04577637 3357452.06402588 14.62015629 52 52 54
246105.74365234 3357451.66085815 14.73830414 203 206 211
246111.97314453 3357452.21731567 14.12441540 111 113 108
246102.77380371 3357451.94662476 14.89438820 205 204 210
246103.42956543 3357451.93481445 14.82919502 91 94 99
246108.55517578 3357451.25506592 14.23118496 165 167 166
246100.68627930 3357451.89059448 14.45006752 66 67 72
246108.40173340 3357452.92468262 14.25644302 130 131 125
246112.35424805 3357452.95950317 14.46765900 53 56 45
246101.14245605 3357450.63314819 14.49010754 97 97 99
246111.06896973 3357452.58731079 14.62806797 132 132 140
246115.88452148 3357453.86062622 14.13026905 69 72 55
246111.78454590 3357452.82287598 14.13033104 84 86 81
246103.08557129 3357451.95642090 14.58090115 100 100 98
246111.00817871 3357451.76144409 14.25841618 88 93 89
246109.73803711 3357451.41143799 14.24179554 138 140 139
246110.21313477 3357451.30688477 14.19808865 162 163 165
246103.52185059 3357450.96423340 14.49627495 72 71 76
246101.87536621 3357450.07110596 14.78901863 75 80 84
246104.63623047 3357451.06469727 14.82177353 159 163 172
246109.56042480 3357451.84246826 14.55730820 69 73 76
246105.87597656 3357450.54519653 14.23819828 159 161 160
246118.00073242 3357452.96838379 14.11051750 87 89 84
246115.90380859 3357453.94198608 14.11989594 72 75 58
246110.07446289 3357452.19573975 14.60853291 55 55 57
246108.19311523 3357453.16680908 14.29706192 91 94 75
246117.33337402 3357453.21984863 14.17188168 80 79 77
246115.10363770 3357453.63424683 14.32784271 117 121 98
246110.34326172 3357452.46258545 14.35657883 52 54 53
246106.74597168 3357452.10961914 14.83874893 60 62 59
246102.56396484 3357450.61831665 15.07444763 216 224 226
246116.24291992 3357453.97903442 14.12325954 76 83 67
246118.13256836 3357453.84967041 14.08939743 66 67 61
246104.60571289 3357452.81448364 14.27759171 75 80 73
246105.23095703 3357452.73336792 14.63092327 124 129 132
246100.73120117 3357449.70291138 14.31636715 135 138 145
246118.71862793 3357453.51364136 14.18906021 48 53 49
246100.84399414 3357451.37454224 14.68526077 55 57 56
246113.70446777 3357452.51028442 14.49626446 25 31 31
246121.03332520 3357454.06948853 14.09028339 152 148 121
246109.57165527 3357451.70687866 14.34367943 84 88 91
246105.81188965 3357450.86569214 14.21780109 152 153 155
246113.42419434 3357452.62298584 14.40086269 46 52 50
246120.24401855 3357453.70089722 14.18272209 82 85 76
246118.31469727 3357453.56280518 14.04927921 91 92 87
246105.20715332 3357452.32958984 14.73951244 91 92 97
246119.32983398 3357453.51174927 14.35334396 62 64 61
246102.56005859 3357449.90765381 14.29158974 133 137 140
246116.60339355 3357453.20550537 14.47528744 74 73 71
246107.13684082 3357451.84164429 14.38942719 109 111 110
246102.46948242 3357451.91262817 14.42054367 107 107 105
246106.97497559 3357453.00650024 14.25380230 79 82 71
246118.80798340 3357453.40246582 14.38606739 60 64 65
246103.77832031 3357450.41708374 14.26861954 172 174 173
246114.57531738 3357452.37652588 14.25212383 86 87 79
246102.15002441 3357452.04107666 14.43947029 97 102 98
246102.35974121 3357451.44079590 14.30458641 116 119 124
246112.85266113 3357452.11752319 14.37396908 78 79 73
246105.66955566 3357451.59457397 14.68363190 221 221 229
246106.64233398 3357451.89254761 14.73402119 140 140 116
246104.09777832 3357451.11206055 14.37795353 105 106 101
246106.81127930 3357452.65112305 14.33416367 156 158 157
246108.60375977 3357452.07272339 14.46942711 96 97 99
246116.90148926 3357453.93695068 14.24383736 113 116 95
246109.95544434 3357452.35604858 14.41640663 63 63 63
246109.20935059 3357453.18469238 14.28149414 95 97 86
246102.74365234 3357451.21847534 14.81390572 139 146 156
246114.83850098 3357452.87670898 14.34596539 64 66 61
246119.12512207 3357453.44284058 14.40878963 64 64 62
246102.54602051 3357451.78427124 14.97477436 67 71 74
246104.11047363 3357450.56500244 14.25996685 175 175 177
246110.08325195 3357453.32727051 14.31323338 68 71 54
246104.70202637 3357452.50622559 14.39518738 125 136 119
246103.70581055 3357451.13174438 14.42816448 52 57 61
246102.88659668 3357450.59014893 14.27859592 122 123 127
246104.03942871 3357452.31762695 14.60651207 41 47 47
246103.26110840 3357450.32437134 14.27449417 164 165 167
246120.68762207 3357453.86703491 14.13745785 82 82 72
246107.50878906 3357452.26672363 14.64628696 70 72 71
246119.68151855 3357453.74865723 14.30584049 68 69 61
246103.85559082 3357451.39096069 14.57147408 80 80 88
246117.27026367 3357453.43655396 14.26390743 107 109 98
246111.10192871 3357452.73056030 14.52052879 58 60 72
246112.46459961 3357452.71694946 14.68008041 94 95 90
246113.58666992 3357452.09146118 14.65397263 8 13 9
246102.53137207 3357451.32534790 14.84874916 107 113 125
246110.49633789 3357453.33645630 14.27350807 74 75 59
246117.23181152 3357453.18774414 14.25218391 68 67 65
246113.65539551 3357452.94537354 14.46035957 91 96 92
246115.89404297 3357453.21176147 14.08721924 58 59 43
246102.11535645 3357452.07192993 14.44632530 73 76 65
246108.68994141 3357452.65884399 14.42295742 184 184 182
246109.18872070 3357452.05157471 14.40495872 54 58 61
246112.94775391 3357453.17294312 14.56060886 200 205 199
246104.74365234 3357452.38327026 14.51676369 126 131 125
246119.72473145 3357453.50204468 14.18840313 77 79 74
246118.75830078 3357453.46829224 14.29087353 105 109 112
246120.50976563 3357454.01931763 14.24798584 62 63 55
246101.86328125 3357450.78948975 14.36723232 114 114 122
246107.20153809 3357452.16210938 14.78089905 121 121 119
246106.65356445 3357452.44241333 14.53284073 103 103 105
246119.68444824 3357453.98437500 14.31103134 127 129 126
246113.42480469 3357453.16683960 14.33067513 124 128 114
246119.35937500 3357453.66601563 14.39366531 49 53 52
246105.45202637 3357450.81765747 14.22696400 161 162 166
246106.61071777 3357451.35934448 14.71111870 73 78 82
246109.82348633 3357453.28802490 14.33996010 70 70 58
246105.39343262 3357451.52883911 14.49063492 198 198 190
246107.68005371 3357452.18066406 14.27830029 50 54 57
246119.61767578 3357453.78189087 14.34225941 61 61 53
246109.66650391 3357452.62121582 14.38584614 58 59 61
246104.69287109 3357451.10671997 14.37650776 100 107 113
246118.61633301 3357452.93994141 14.38236809 81 82 86
246106.11279297 3357452.05908203 14.27828884 98 99 103
246102.10156250 3357451.44982910 14.34101677 67 72 76
246112.67810059 3357452.37780762 14.41957092 98 93 90
246106.86535645 3357452.36975098 14.82914257 105 110 106
246102.64270020 3357450.84350586 14.99095535 90 99 106
246121.57067871 3357453.90490723 13.98482895 50 51 45
246100.55957031 3357449.95700073 14.33667374 114 114 122
246112.79040527 3357452.51669312 14.31029320 102 99 94
246115.70373535 3357452.73181152 14.07620907 43 44 30
246115.45129395 3357453.65664673 14.20663738 81 81 69
246109.66027832 3357453.13592529 14.40217113 85 87 82
246107.09411621 3357451.74710083 14.31065083 102 103 105
246102.32653809 3357451.75518799 14.26107216 104 107 114
246103.49792480 3357452.33270264 14.25893021 91 92 94
246107.20178223 3357452.52517700 14.49747658 133 137 138
246105.70422363 3357450.43203735 14.23087120 187 188 190
246104.45532227 3357451.35211182 14.78513718 135 94 100
246102.51354980 3357451.31457520 14.84670734 146 152 164
246104.50500488 3357450.34286499 14.24528694 199 200 202
246105.07214355 3357450.30691528 14.24738598 185 186 188
246107.51330566 3357451.24597168 14.39325523 53 56 49
246104.26965332 3357451.71960449 14.68487453 51 51 51
246116.56701660 3357453.53497314 14.46521854 161 161 151
246120.44714355 3357453.96188354 14.24035454 63 64 56
246100.53381348 3357451.28454590 14.81884003 104 102 103
246102.64147949 3357452.21652222 14.38509750 168 177 176
246100.84362793 3357450.74798584 14.45099068 91 91 93
246119.04602051 3357453.64529419 14.61400890 85 84 82
246100.52124023 3357451.13180542 14.87515926 32 34 33
246114.65856934 3357453.41482544 14.38628292 66 72 60
246109.32238770 3357451.62313843 14.33815098 72 76 79
246102.66540527 3357450.46304321 14.28725338 149 154 160
246108.52551270 3357451.77444458 14.43239784 106 108 107
246107.81079102 3357452.95025635 14.24608612 123 125 122
246112.35571289 3357453.08905029 14.47291183 85 93 72
246106.82128906 3357452.84478760 14.26476860 136 139 128
246112.52355957 3357452.73645020 14.72299576 63 62 58
246107.85986328 3357452.50973511 14.19480896 119 118 113
246102.21130371 3357450.92532349 14.29063129 119 124 130
246101.77758789 3357451.95050049 14.86812401 101 105 108
246119.15234375 3357453.65805054 14.53438377 46 46 46
246100.43969727 3357450.88674927 14.42656612 127 129 128
246120.10192871 3357454.23834229 14.28035259 55 61 49
246105.84729004 3357452.14221191 14.54215240 177 180 187
246111.59753418 3357452.67501831 14.19025135 114 116 113
246103.21044922 3357452.32727051 14.27043343 78 80 79
246108.46398926 3357452.79400635 14.31650734 122 123 118
246106.52905273 3357451.63375854 14.27585983 103 107 108
246106.39709473 3357452.53369141 14.24870205 139 139 139
246116.52343750 3357452.77456665 14.45989990 47 47 47
246117.83154297 3357452.93447876 14.06513309 86 88 83
246112.48425293 3357453.59671021 14.28308296 67 73 45
246101.79455566 3357451.93386841 14.89537334 84 88 91
246114.60339355 3357452.40783691 14.26698017 85 86 78
246105.00402832 3357452.72262573 14.40046883 117 118 120
246114.65881348 3357452.86874390 14.24492550 88 93 86
246108.12646484 3357451.46994019 14.25711346 174 175 177
246107.86071777 3357451.77081299 14.22187805 105 109 112
246108.57641602 3357452.58679199 14.33678532 82 82 80
246106.57641602 3357451.76828003 14.32545376 75 80 84
246101.85253906 3357449.98339844 14.72763348 113 120 126
246101.24401855 3357450.42916870 14.84423542 32 31 29
246111.22497559 3357451.84030151 14.22781277 110 112 111
246112.31481934 3357452.66754150 14.30221748 109 110 104
246107.11083984 3357450.85284424 14.20208931 176 177 181
246113.02575684 3357452.84811401 14.51654530 200 211 203
246117.17480469 3357453.58215332 14.27759171 119 120 104
246104.72131348 3357451.25201416 14.64828396 131 144 150
246111.27844238 3357452.86087036 14.21989059 72 75 68
246116.64086914 3357453.78579712 14.31467724 114 115 101
246111.00732422 3357452.78646851 14.25187397 82 84 81
246106.63977051 3357452.58074951 14.31342030 125 124 122
246104.49560547 3357450.95129395 14.66173935 231 235 236
246113.66625977 3357452.02566528 14.46689796 118 120 119
246101.98889160 3357449.76623535 14.36423016 79 84 90
246104.29089355 3357450.40353394 14.25232792 188 190 189
246102.53442383 3357451.67501831 14.85835648 101 104 113
246109.93457031 3357452.65118408 14.31524754 80 80 78
246107.79150391 3357452.22653198 14.25438118 70 74 75
246101.96142578 3357452.04022217 14.93112087 61 65 68
246114.79895020 3357453.11297607 14.57908916 176 174 175
246110.22985840 3357452.86740112 14.32445145 112 110 97
246102.95776367 3357451.42504883 14.50373077 62 65 72
246108.53308105 3357451.70062256 14.37623405 112 113 115
246103.31506348 3357451.84945679 14.55217934 103 101 104
246102.50756836 3357452.20126343 14.27522755 182 184 181
246108.41796875 3357451.77301025 14.43564129 113 113 115
246105.21655273 3357450.83422852 14.23250675 165 166 168
246111.41528320 3357453.10467529 14.14678097 91 94 87
246105.55493164 3357450.87277222 14.22325706 178 179 183
246103.51745605 3357450.54473877 14.28694916 146 147 149
246104.32116699 3357450.67062378 14.25136089 157 161 160
246109.29016113 3357451.80258179 14.46367455 48 49 54
246106.53442383 3357452.32305908 14.66605663 128 129 124
246114.01086426 3357452.35064697 14.37163734 53 55 50
246100.54479980 3357450.25967407 14.51298904 36 45 54
246110.71289063 3357452.26727295 14.30714130 83 85 84
246101.95434570 3357450.10485840 14.49309254 75 74 80
246114.96887207 3357453.48687744 14.42645836 98 96 81
246112.54321289 3357452.73812866 14.73904037 67 66 61
246108.69360352 3357451.76763916 14.49074650 99 100 102
246109.31945801 3357452.33947754 14.38842487 58 59 61
246106.52502441 3357452.31689453 14.51982117 133 134 128
246112.98461914 3357452.83853149 14.53083992 199 207 196
246101.78723145 3357451.66217041 14.65112877 51 54 59
246117.14514160 3357454.05410767 14.17909336 76 79 58
246107.92346191 3357451.05181885 14.20556355 161 163 162
246113.04211426 3357452.72378540 14.39918709 122 138 128
246106.41589355 3357450.95162964 14.21805763 176 177 179
246106.47180176 3357451.89694214 14.27212334 133 137 140
246105.83679199 3357451.52899170 14.56323433 34 38 41
246105.08886719 3357452.72686768 14.45647907 93 94 96
246100.82360840 3357449.75027466 14.31383038 164 167 172
246105.95617676 3357452.01617432 14.43621445 149 152 159
246104.09057617 3357452.30438232 14.47727299 35 35 33
246110.01831055 3357452.29226685 14.49494171 58 58 58
246119.91174316 3357454.30035400 14.22431087 56 60 45
246103.55114746 3357452.14736938 14.39245224 63 65 64
246108.44348145 3357452.55902100 14.39428902 113 113 111
246104.23803711 3357450.14407349 14.25679779 181 182 184
246115.37524414 3357453.60092163 14.23268795 60 61 47
246105.84899902 3357451.74111938 14.60538387 137 137 145
246102.42150879 3357450.52819824 14.31635475 149 154 160
246112.30065918 3357451.63967896 14.35061932 75 68 60
246100.70605469 3357450.41641235 14.46790791 33 37 46
246118.72033691 3357453.35537720 14.29155445 83 87 88
246103.85083008 3357452.56747437 14.28579235 109 109 109
246111.03710938 3357452.67224121 14.37630749 85 84 89
246109.87646484 3357453.31323242 14.32591343 66 69 48
246102.66918945 3357451.82296753 14.93407822 172 172 174
246105.55859375 3357451.49435425 14.41967583 98 100 99
246106.54077148 3357451.41726685 14.34639645 201 201 201
246120.44104004 3357454.01620483 14.26276112 57 58 50
246102.53527832 3357451.61856079 14.83226776 107 110 119
246102.26525879 3357450.25396729 14.29286575 120 125 129
246107.28906250 3357451.12133789 14.33354855 165 167 164
246116.74548340 3357453.44006348 14.67414951 122 119 112
246103.16076660 3357450.41757202 14.27578354 135 139 140
246105.82556152 3357451.12924194 14.24557590 153 154 156
246104.79785156 3357451.47323608 14.32486439 55 62 70
246102.61999512 3357450.73815918 14.47900009 36 37 39
246108.14978027 3357451.40155029 14.25520325 169 170 172
246108.14013672 3357451.45022583 14.25838947 171 172 174
246107.11950684 3357450.99810791 14.21282768 165 169 172
246108.15734863 3357452.59097290 14.19664574 125 124 122
246100.74694824 3357449.83599854 14.31772614 138 141 148
246116.32604980 3357452.51922607 14.30574799 129 129 121
246104.72070313 3357452.33450317 14.57372093 99 104 97
246106.17199707 3357451.47494507 14.23071575 116 117 121
246108.20361328 3357452.61566162 14.20187092 133 133 131
246109.80468750 3357451.82489014 14.38545609 62 64 61
246102.26733398 3357451.04028320 14.30951977 111 112 117
246118.55456543 3357453.10559082 14.33700848 70 74 77
246112.43493652 3357452.04754639 14.64833736 60 62 59
246103.76171875 3357452.38067627 14.25296879 96 98 97
246118.38269043 3357454.17654419 14.10620880 50 53 42
246107.58374023 3357451.04464722 14.24933243 158 160 159
246103.28771973 3357452.40307617 14.24329090 96 97 101
246112.98815918 3357452.54101563 14.38314438 81 95 95
246106.19116211 3357452.45199585 14.25977421 115 117 114
246104.30126953 3357451.30615234 14.69904900 84 68 68
246109.81030273 3357452.05621338 14.47835636 49 50 52
246114.90136719 3357452.58096313 14.48420143 33 37 36
246102.06933594 3357451.97943115 14.41431618 63 70 63
246118.68859863 3357453.11071777 14.31698799 102 107 111
246116.08227539 3357452.66567993 14.14845371 107 108 103
246103.74096680 3357452.13232422 14.50524902 63 63 63
246102.36767578 3357451.97998047 14.32468891 165 167 164
246100.84777832 3357451.01840210 14.80412102 38 37 42
246114.18591309 3357452.54684448 14.30411530 72 75 68
246116.17517090 3357452.52465820 14.17809105 113 110 103
246101.85791016 3357451.81738281 14.68517494 107 111 120
246108.30017090 3357452.35299683 14.40957642 122 124 121
246112.66015625 3357452.71148682 14.62112522 76 77 69
246104.43811035 3357451.02893066 14.62349415 204 204 202
246101.16650391 3357450.49633789 14.70404053 92 87 93
246115.48010254 3357453.55062866 14.22624683 51 51 41
246110.04772949 3357452.12469482 14.60860252 81 81 83
246101.79785156 3357449.75775146 14.59085560 117 120 125
246101.09680176 3357451.65179443 14.38902569 111 111 109
246109.03881836 3357451.32287598 14.26191235 131 133 132
246107.36157227 3357451.95175171 14.56281853 104 106 105
246103.06555176 3357451.98703003 14.48337269 97 98 100
246100.92407227 3357450.76281738 14.47527981 89 90 92
246105.87377930 3357452.12911987 14.52867317 144 145 150
246119.75976563 3357453.35147095 14.11675549 76 78 75
246102.13244629 3357449.80593872 14.29863167 101 108 116
246102.69470215 3357451.28540039 14.83554173 62 69 77
246111.07226563 3357452.87533569 14.24082279 55 55 57
246106.89843750 3357452.47619629 14.59531021 97 94 85
246110.16882324 3357452.43399048 14.42517757 47 49 48
246101.84155273 3357451.79431152 14.69294834 163 165 177
246105.43945313 3357451.60678101 14.61878300 43 43 43
246102.43432617 3357452.31921387 14.24299717 100 97 92
246119.68823242 3357453.93725586 14.30917072 115 116 110
246106.61364746 3357451.60086060 14.72572613 42 46 49
246106.48669434 3357451.40301514 14.27014637 164 164 166
246102.91320801 3357452.05987549 14.50025082 29 31 30
246107.99291992 3357451.66607666 14.21796989 134 135 139
246103.50805664 3357450.83065796 14.43835640 36 36 36
246116.78125000 3357453.07312012 14.48084068 50 49 47
246109.52026367 3357452.05557251 14.68667316 35 43 45
246102.32653809 3357449.97824097 14.29416656 124 129 135
246112.94128418 3357453.14929199 14.58398056 198 203 199
246115.01037598 3357452.66757202 14.50857162 46 48 47
246110.61840820 3357451.60455322 14.18211174 150 152 151
246109.48840332 3357452.68743896 14.40493584 78 82 85
246104.50036621 3357451.92614746 14.70103836 157 160 169
246105.92517090 3357452.01889038 14.46990967 159 162 171
246109.81945801 3357451.77038574 14.35522556 75 77 74
246119.83618164 3357454.23889160 14.23150635 70 73 62
246104.63330078 3357451.00061035 14.42904758 118 125 131
246115.78308105 3357453.67999268 14.17242527 90 90 78
246110.65466309 3357453.06869507 14.22223568 73 74 68
246111.04980469 3357452.75640869 14.28284073 77 79 76
246101.53271484 3357451.07147217 14.58216572 67 67 69
246104.54626465 3357452.46688843 14.38765049 95 103 88
246111.67053223 3357452.51553345 14.18831062 105 107 104
246104.13134766 3357451.15966797 14.58575344 181 176 172
246112.09460449 3357451.68798828 14.37745190 220 198 184
246114.34155273 3357453.22863770 14.22546005 77 78 73
246100.59448242 3357451.31158447 14.82317066 17 18 20
246102.99182129 3357451.00735474 14.29814053 71 72 74
246103.97668457 3357450.35607910 14.26163578 165 165 165
246116.79809570 3357453.55187988 14.48958874 139 133 117
246103.67285156 3357450.38201904 14.27151394 187 191 190
246113.48974609 3357452.65319824 14.38389397 49 51 48
246101.76159668 3357451.71115112 14.57746315 60 65 71
246106.59387207 3357451.51257324 14.71426105 88 92 93
246103.90905762 3357452.36294556 14.51525116 67 71 72
246113.69311523 3357452.92437744 14.33754253 72 77 71
246121.52404785 3357453.82745361 13.97303391 52 53 45
246106.98034668 3357451.19650269 14.22216606 113 117 118
246106.81311035 3357452.19821167 14.48318481 72 72 72
246108.30737305 3357452.53543091 14.29229641 114 115 110
246113.06835938 3357452.90753174 14.71777916 106 112 112
246104.29882813 3357451.64025879 14.67700195 47 49 48
246102.73535156 3357449.89151001 14.29129696 142 146 149
246107.52392578 3357451.31405640 14.41610241 33 38 32
246107.31860352 3357451.67327881 14.54688263 207 207 207
246109.89233398 3357451.51699829 14.23775291 126 128 127
246110.52880859 3357452.28872681 14.29954815 81 82 84
246109.18139648 3357453.04000854 14.26152515 86 86 76
246105.74438477 3357451.28176880 14.34305573 191 191 191
246104.74218750 3357451.80828857 14.55967522 117 128 146
246112.02368164 3357451.94900513 14.22680664 130 132 129
246107.50952148 3357451.50177002 14.60015678 109 113 116
246112.77355957 3357453.24609375 14.47974873 80 83 76
246102.83459473 3357451.58627319 14.51176357 84 89 95
246101.22204590 3357450.38198853 14.82605171 38 38 36
246111.25036621 3357452.67520142 14.43185711 122 123 109
246108.71923828 3357452.36611938 14.28339481 145 146 148
246102.33862305 3357451.30197144 14.29635620 128 128 136
246102.50280762 3357449.97155762 14.29125404 143 148 152
246107.27648926 3357453.02548218 14.25037003 93 96 87
246115.30773926 3357453.20556641 14.23971939 80 79 74
246110.30541992 3357452.31625366 14.40679264 50 51 53
246104.24780273 3357452.28836060 14.40584087 56 61 64
246105.04992676 3357450.99053955 14.23900414 116 120 121
246106.72961426 3357452.40161133 14.82100964 78 69 72
246113.29907227 3357452.40756226 14.53026485 33 43 42
246110.15344238 3357451.79779053 14.49227238 57 53 50
246114.79821777 3357453.67550659 14.32343769 76 79 58
246112.44091797 3357452.13543701 14.68864536 72 73 68
246106.47448730 3357451.51425171 14.28510857 158 160 159
246110.50146484 3357452.01708984 14.25444221 86 87 89
246102.45983887 3357451.13122559 14.56808949 202 205 210
246104.00732422 3357451.50012207 14.80626583 110 121 127
246105.25585938 3357450.95300293 14.23374462 165 165 167
246114.40856934 3357452.55386353 14.23408508 76 77 72
246112.08264160 3357451.66723633 14.28844547 117 108 99
246118.77868652 3357453.76132202 14.64784718 95 96 90
246110.19689941 3357453.03103638 14.29513454 109 110 96
246118.92480469 3357453.87802124 14.70964527 151 150 145
246117.08679199 3357453.38824463 14.41202068 63 62 58
246100.52795410 3357450.82086182 14.93378735 135 135 143
246106.67773438 3357451.68542480 14.65950680 76 80 81
246106.72619629 3357452.31225586 14.88735199 240 239 237
246104.11169434 3357451.92218018 14.94300175 69 70 74
246112.50280762 3357452.07150269 14.59166145 70 70 68
246112.29956055 3357451.90847778 14.67191029 80 89 88
246112.40832520 3357452.21289063 14.73377514 62 64 59
246105.19653320 3357452.48904419 14.86151886 83 84 89
246104.68493652 3357451.19149780 14.77425957 194 203 212
246115.81628418 3357453.38220215 14.11036777 53 54 46
246113.29077148 3357452.13610840 14.57260799 37 41 40
246107.20935059 3357451.94378662 14.44827747 101 101 101
246101.66552734 3357450.36907959 14.35242271 113 116 123
246102.52746582 3357452.00180054 14.33207703 145 146 141
246108.83837891 3357451.31149292 14.28780270 143 144 146
246107.72326660 3357451.50360107 14.27003860 71 75 76
246112.36669922 3357452.82366943 14.27902794 99 100 92
246117.02514648 3357453.66534424 14.28088665 122 123 105
246106.58410645 3357452.30017090 14.33591366 110 112 109
246102.44067383 3357452.20690918 14.25416470 118 117 112
246103.69189453 3357451.74832153 14.55667305 65 66 70
246114.95117188 3357452.52410889 14.53273392 37 37 39
246102.46337891 3357451.67889404 14.30921936 105 108 113
246115.18774414 3357453.81747437 14.22407436 108 114 78
246113.31750488 3357452.71731567 14.38517761 54 64 63
246107.27893066 3357451.17593384 14.36989880 157 159 154
246109.24523926 3357451.48257446 14.27929592 102 103 105
246103.98254395 3357451.16067505 14.43786812 126 125 121
246112.11035156 3357452.92687988 14.12716389 109 111 100
246112.57434082 3357453.01101685 14.66473103 71 74 67
246104.95495605 3357452.48446655 14.46040058 113 119 117
246107.51281738 3357451.62582397 14.66067505 171 177 177
246102.77282715 3357452.23794556 14.43699265 29 29 29
246104.00158691 3357451.58233643 14.84118652 238 248 250
246101.26147461 3357450.37817383 14.73198509 79 79 79
246103.37207031 3357451.86248779 14.70350742 129 132 137
246105.66528320 3357450.98300171 14.22126961 187 188 190
246100.63500977 3357451.72970581 14.49875832 86 89 94
246104.92761230 3357450.69296265 14.24026775 179 180 182
246108.48437500 3357453.00930786 14.26403046 83 84 79
246101.70275879 3357451.28353882 14.70429993 86 88 100
246101.76745605 3357451.73626709 14.60092354 51 54 59
246103.79516602 3357452.14666748 14.80243683 72 77 81
246119.13647461 3357453.77575684 14.57340813 27 33 33
246101.39257813 3357449.90289307 14.36355591 140 141 146
246102.46838379 3357450.12002563 14.29087162 147 152 156
246100.83276367 3357451.20037842 14.83282185 42 42 40
246105.84606934 3357451.34283447 14.41134262 136 136 136
246107.79968262 3357451.19363403 14.20683861 142 144 141
246111.00769043 3357452.55517578 14.50053215 98 98 100
246101.91589355 3357449.84912109 14.51533413 179 177 180
246113.32641602 3357452.86242676 14.37418175 55 59 58
246101.18286133 3357450.82461548 14.64902592 93 92 97
246101.14123535 3357451.27258301 14.63317776 152 146 146
246115.13635254 3357453.33010864 14.40974712 44 41 32
246106.72155762 3357451.09515381 14.30877495 141 142 144
246108.25952148 3357452.20657349 14.40462112 106 107 102
246104.35327148 3357451.62365723 14.67061806 52 48 49
246100.65832520 3357449.48434448 14.32104969 160 163 172
246102.03137207 3357451.82180786 14.35193825 75 80 83
246104.54467773 3357452.05831909 14.76348400 145 148 153
246114.21044922 3357453.48767090 14.28067303 82 86 71
246104.30895996 3357451.95526123 14.86357021 63 67 68
246112.73889160 3357453.61764526 14.27134418 65 66 50
246107.45471191 3357451.19296265 14.39981747 186 187 179
246110.97521973 3357452.27337646 14.66380596 108 108 108
246115.73498535 3357452.72567749 14.07679081 51 52 38
246111.30712891 3357452.10742188 14.23085690 87 89 88
246100.47973633 3357451.38040161 14.59121799 140 141 146
246102.47387695 3357451.32223511 14.66233253 233 236 241
246115.01464844 3357453.62643433 14.35407925 116 120 97
246104.09265137 3357452.77719116 14.27936649 90 95 89
246108.18750000 3357451.59515381 14.24582100 165 164 169
246113.20605469 3357453.27478027 14.35174561 106 108 105
246108.21105957 3357452.00350952 14.30738258 139 140 142
246108.48193359 3357452.16506958 14.41291428 115 116 118
246114.54296875 3357453.81863403 14.23213387 61 69 45
246116.81042480 3357453.31011963 14.67952442 83 82 80
246101.93493652 3357449.98480225 14.53381538 58 56 61
246112.38781738 3357453.19171143 14.43398190 98 106 85
246110.39453125 3357452.76669312 14.32958221 71 72 64
246111.27539063 3357452.19537354 14.29620171 81 83 82
246116.15795898 3357452.73110962 14.19255161 92 93 88
246121.16284180 3357453.91375732 14.07252789 81 82 64
246101.43701172 3357449.72811890 14.32460403 153 156 165
246105.43066406 3357451.93643188 14.72454357 32 36 39
246106.63293457 3357452.51358032 14.32009125 160 157 152
246108.34106445 3357452.48889160 14.28440094 126 128 125
246100.36462402 3357450.21820068 14.52780247 62 66 75
246106.70019531 3357451.42492676 14.64417934 118 122 131
246106.47448730 3357452.02850342 14.27065563 128 132 135
246101.84521484 3357451.88269043 14.90548992 80 83 90
246100.70190430 3357451.00347900 14.90999508 35 38 43
246112.60339355 3357451.80267334 14.30623150 78 78 76
246120.75439453 3357453.91021729 14.13938808 103 101 88
246111.94616699 3357452.36273193 14.12236691 118 120 115
246113.61987305 3357452.95623779 14.60753918 185 187 174
246100.53820801 3357451.42013550 14.72698784 33 36 41
246111.14379883 3357453.39178467 14.31827545 81 84 63
246102.05981445 3357452.08050537 14.53043079 66 75 58
246104.65368652 3357452.67318726 14.29425335 132 137 133
246103.95043945 3357450.16909790 14.26177597 186 187 189
246102.83325195 3357451.46191406 14.55309200 13 18 22
246108.91992188 3357452.50567627 14.59336948 100 100 100
246107.35327148 3357451.00888062 14.24228001 161 163 162
246119.34472656 3357453.60208130 14.37960911 59 63 64
246116.42980957 3357452.80227661 14.41922665 68 68 70
246107.29577637 3357452.59823608 14.37228298 126 127 129
246102.78332520 3357451.88037109 14.82224751 186 186 186
246114.64062500 3357453.40103149 14.38444805 66 72 60
246108.73461914 3357451.64752197 14.46874142 96 96 94
246104.33471680 3357450.31195068 14.24983692 171 173 172
246103.36840820 3357452.01327515 14.73518276 69 67 70
246109.82226563 3357452.94912720 14.27138901 73 75 74
246104.08154297 3357452.26486206 14.61530495 47 51 52
246106.29040527 3357451.65194702 14.20926857 129 133 136
246102.52880859 3357451.74392700 14.71891689 72 72 72
246100.88647461 3357451.86791992 14.53192616 60 60 70
246115.46398926 3357452.51104736 14.16150761 76 79 70
246107.37988281 3357452.57315063 14.37440014 111 113 112
246103.32922363 3357450.68939209 14.36307240 124 124 122
246108.90637207 3357451.91464233 14.54776478 92 92 92
246115.21289063 3357452.44760132 14.31660652 62 63 65
246102.45812988 3357451.04898071 14.86603260 60 64 73
246106.51611328 3357451.46255493 14.30858517 205 206 208
246101.34240723 3357449.65213013 14.31289959 159 162 171
246104.98059082 3357451.22540283 14.25415802 88 93 96
246103.82165527 3357452.65789795 14.26178360 124 124 122
246121.24291992 3357453.73654175 13.99678230 51 52 44
246103.87585449 3357451.63906860 14.66831207 251 255 255
246102.57568359 3357452.20544434 14.30723190 187 193 191
246104.74829102 3357450.34277344 14.24225998 182 183 185
246106.50427246 3357452.27301025 14.67873001 128 127 125
246105.21435547 3357450.56253052 14.23776245 160 161 163
246112.75939941 3357453.09317017 14.61128902 59 62 55
246104.69714355 3357452.41687012 14.48482227 118 127 106
246117.26599121 3357453.45040894 14.26268578 107 109 98
246101.79431152 3357451.90820313 14.89255905 84 88 91
246108.30395508 3357452.42904663 14.38404465 119 121 120
246113.07043457 3357452.01049805 14.54368687 84 90 90
246105.86682129 3357452.71868896 14.32691860 94 96 91
246108.67211914 3357451.65234375 14.41519451 120 120 118
246113.32861328 3357452.65881348 14.40619564 49 60 56
246105.16198730 3357451.17895508 14.23986244 136 140 143
246107.48205566 3357453.08020020 14.27021790 99 103 88
246106.13562012 3357452.09545898 14.27689266 94 95 97
246116.10253906 3357452.51940918 14.12345123 104 101 94
246119.67224121 3357453.32849121 14.14515591 78 80 77
246114.80627441 3357453.11099243 14.51901340 88 86 87
246112.80407715 3357452.75286865 14.72194099 168 171 164
246105.70605469 3357451.41265869 14.41861534 163 155 152
246109.49987793 3357451.75671387 14.47098637 42 46 47
246116.33239746 3357453.72570801 14.17161846 98 98 88
246101.57128906 3357451.74749756 14.32986450 133 133 135
246100.76489258 3357449.58010864 14.32454205 140 143 150
246107.50097656 3357452.55651855 14.33048820 106 106 104
246118.54345703 3357453.53219604 14.08576488 81 83 78
246112.68737793 3357451.90823364 14.34151745 84 83 79
246112.44702148 3357452.07904053 14.65375042 69 69 67
246103.63500977 3357452.16760254 14.34296799 69 71 70
246110.89343262 3357452.08383179 14.31824207 98 98 100
246109.05163574 3357451.63650513 14.41234493 50 51 53
246113.65380859 3357452.95413208 14.46681309 91 96 92
246103.80798340 3357451.80697632 14.59950256 78 81 86
246103.46948242 3357451.39337158 14.64092255 109 114 120
246104.35437012 3357452.55535889 14.28738117 110 115 109
246103.52258301 3357450.96511841 14.49545288 72 71 76
246115.21508789 3357453.43997192 14.33544445 66 62 50
246116.58264160 3357453.72308350 14.36797333 116 114 101
246107.30920410 3357452.57312012 14.41506958 124 125 127
246108.27075195 3357452.22921753 14.54389191 135 136 138
246118.74035645 3357453.05288696 14.30344963 37 42 45
246106.64501953 3357451.94506836 14.63045692 17 8 0
246101.21301270 3357451.82614136 14.31885338 105 105 105
246105.83935547 3357452.09899902 14.54629230 207 210 217
246116.80053711 3357453.07727051 14.48037434 51 50 48
246104.52038574 3357450.29519653 14.24645805 201 202 204
246107.57995605 3357450.92874146 14.20159149 172 173 175
246110.94506836 3357451.81072998 14.24382973 64 66 65
246119.55212402 3357453.90051270 14.36340046 127 133 129
246111.62573242 3357452.79953003 14.16145897 81 83 80
246113.23400879 3357452.98934937 14.63190460 28 34 34
246119.16455078 3357453.61108398 14.49517155 58 60 59
246103.67968750 3357452.73068237 14.23562622 140 142 137
246105.02978516 3357450.39462280 14.24563217 188 189 191
246115.35327148 3357452.34729004 14.16357803 81 81 81
246108.73291016 3357451.88583374 14.54103565 93 94 98
246118.64111328 3357454.12863159 14.19167614 73 75 62
246116.54064941 3357453.40805054 14.62445164 243 252 251
246109.29492188 3357452.35229492 14.33864689 52 53 55
246104.48278809 3357451.99060059 14.75570202 122 125 132
246109.75268555 3357452.19989014 14.51476479 18 24 22
246103.24206543 3357451.69912720 14.45615101 99 100 102
246105.66052246 3357451.50164795 14.53465080 230 229 235
246102.65722656 3357452.15704346 14.47342968 232 237 241
246102.96472168 3357452.14074707 14.39123726 66 71 64
246112.50390625 3357451.77743530 14.37264156 66 66 66
246114.91064453 3357452.93942261 14.62758255 73 74 69
246105.67553711 3357452.54254150 14.76570511 93 92 97
246117.04919434 3357453.30618286 14.45389938 40 42 41
246109.56677246 3357452.52770996 14.51881218 135 135 133
246107.49670410 3357452.44314575 14.36403751 67 69 66
246111.82958984 3357453.18319702 14.18587971 75 77 74
246112.48706055 3357452.79776001 14.72388744 53 54 49
246104.10583496 3357451.29849243 14.73657227 120 123 128
246106.74365234 3357452.12213135 14.80363083 72 74 71
246107.15136719 3357451.90396118 14.40620136 118 119 121
246101.63244629 3357451.20480347 14.56581783 110 115 121
246108.04577637 3357452.02746582 14.22841549 94 96 95
246102.77880859 3357451.02239990 14.54715157 14 22 25
246100.69763184 3357449.69442749 14.31741142 135 138 145
246112.13488770 3357452.00747681 14.56283092 226 228 225
246116.16979980 3357452.80935669 14.17547607 85 85 83
246112.88977051 3357452.76135254 14.36870670 79 86 70
246116.21179199 3357454.00000000 14.11552715 75 82 66
246104.96057129 3357451.57095337 14.28731823 77 82 86
246114.36328125 3357453.24676514 14.22699738 75 76 70
246106.99243164 3357452.16778564 14.39378738 102 102 100
246102.63891602 3357451.40838623 14.76554585 97 104 114
246103.08825684 3357450.77233887 14.27553368 120 121 123
246110.86328125 3357453.34088135 14.31030750 67 70 53
246101.08215332 3357451.00759888 14.81535912 60 60 60
246101.46362305 3357451.43063354 14.31584930 91 87 88
246111.65502930 3357452.61849976 14.18058968 101 103 100
246111.02514648 3357452.76583862 14.26723385 82 84 81
246112.96264648 3357452.49288940 14.37259865 131 141 142
246109.30151367 3357452.20935059 14.67126751 52 54 53
246114.71728516 3357452.17724609 14.57712841 38 40 39
246113.83776855 3357452.24996948 14.44767666 47 47 45
246112.52624512 3357452.31436157 14.59180164 80 79 74
246101.39526367 3357450.52496338 14.53053856 65 66 70
246111.06835938 3357452.36172485 14.62827587 134 133 131
246114.72631836 3357453.05035400 14.22996521 75 76 71
246115.77905273 3357452.91146851 14.10781002 67 66 46
246115.16271973 3357452.52648926 14.38462734 55 57 52
246111.39587402 3357451.92465210 14.17068863 107 109 108
246105.35900879 3357451.09289551 14.23201656 152 153 157
246106.59020996 3357452.44293213 14.31471634 166 165 160
246108.49731445 3357452.81561279 14.31758213 132 133 128
246107.45751953 3357452.30694580 14.76481438 108 112 113
246106.81372070 3357452.26800537 14.89188766 227 227 225
246105.71508789 3357452.75283813 14.61474800 110 114 115
246111.10632324 3357452.77627563 14.36461258 53 52 58
246106.84631348 3357451.47482300 14.33647060 81 84 89
246114.99035645 3357453.16152954 14.66748333 152 152 142
246109.23059082 3357451.66491699 14.36894131 63 67 70
246101.93835449 3357451.60858154 14.47120094 58 65 71
246110.68737793 3357451.92941284 14.19443417 105 107 106
246112.46118164 3357452.49252319 14.49780941 80 83 76
246102.87951660 3357451.34561157 14.58669376 46 49 54
246100.53149414 3357450.80227661 14.67704678 146 149 156
246117.16601563 3357454.00146484 14.19006252 76 79 58
246105.01000977 3357450.98437500 14.24077225 112 116 117
246106.41308594 3357451.12084961 14.25112247 181 182 184
246110.76171875 3357452.91601563 14.20422554 82 81 79
246101.08911133 3357451.42266846 14.43258953 110 110 110
246112.74743652 3357451.95690918 14.34613037 86 87 81
246116.67407227 3357453.76568604 14.34674263 121 119 106
246105.25097656 3357450.50253296 14.23853874 161 162 164
246106.33532715 3357452.68576050 14.21041107 144 145 150
246106.65075684 3357451.88964844 14.62895203 27 28 32
246101.55761719 3357450.64086914 14.42550945 73 78 84
246117.90087891 3357453.59216309 14.06376457 68 69 64
246114.60083008 3357452.18817139 14.41047287 118 108 98
246104.96142578 3357450.34130859 14.24534512 188 189 191
246118.18432617 3357453.77444458 14.07854176 76 77 71
246107.40063477 3357451.24319458 14.48018265 179 178 173
246102.67724609 3357451.91436768 15.03079224 227 226 232
246102.68835449 3357451.77447510 14.71369743 85 89 98
246112.35278320 3357452.75512695 14.47691917 166 168 163
246117.60778809 3357454.09207153 14.20951462 74 79 57
246102.55969238 3357451.66409302 14.80157948 113 115 127
246109.49243164 3357452.64099121 14.42409897 61 65 66
246107.00170898 3357451.24209595 14.22578526 111 115 118
246110.41491699 3357452.77700806 14.32478428 51 52 44
246106.44836426 3357452.13540649 14.98466396 72 56 33
