245706.15454102 3357588.98449707 17.37328529 56 64 67
245709.54736328 3357588.95043945 17.42255020 129 125 122
245707.33886719 3357589.00390625 17.23628044 173 174 169
245707.04040527 3357589.39575195 17.53864861 115 115 107
245708.39306641 3357588.28778076 17.24646378 213 209 200
245711.98150635 3357589.11968994 17.16196442 64 63 68
245707.17840576 3357588.71533203 17.29631233 112 112 104
245710.80560303 3357588.78302002 17.23977661 61 65 66
245711.59484863 3357589.31152344 17.44001770 150 149 145
245704.95910645 3357590.07409668 17.27304840 214 211 206
245712.24475098 3357589.32177734 17.15522575 92 88 89
245709.90417480 3357589.95037842 17.29708481 58 58 60
245710.83489990 3357589.07214355 17.26772499 65 69 72
245705.02764893 3357589.95629883 17.30434227 150 150 148
245709.47406006 3357589.28070068 17.34002304 97 99 94
245708.86761475 3357589.49182129 17.38924408 101 103 98
245707.70910645 3357588.85443115 17.30161476 102 104 101
245708.84472656 3357589.33374023 17.41013718 141 143 142
245708.26989746 3357588.26898193 17.22488976 206 203 194
245709.41265869 3357589.51330566 17.32472229 150 149 144
245708.67602539 3357589.21600342 17.24304008 169 169 169
245712.35607910 3357589.33398438 17.15664482 170 168 173
245706.89440918 3357589.33520508 17.70770264 152 151 149
245706.74536133 3357589.45410156 17.47560120 181 181 179
245707.00311279 3357589.76599121 17.23949242 186 185 181
245706.14147949 3357589.58801270 17.36631584 62 67 63
245708.44561768 3357588.76672363 17.20978737 131 131 123
245708.81329346 3357589.72589111 17.22223663 193 185 182
245703.90270996 3357591.46203613 17.56945419 80 81 85
245712.20324707 3357590.02050781 17.16164780 163 163 161
245709.55004883 3357588.87890625 17.46481895 80 71 66
245705.98150635 3357589.14947510 17.67296791 49 54 60
245708.19262695 3357589.97760010 17.21205139 156 158 157
245703.73321533 3357591.09777832 17.43653870 138 139 134
245710.65747070 3357588.93890381 17.51415634 60 56 57
245705.21057129 3357589.17718506 17.27182961 49 59 61
245710.04376221 3357589.67260742 17.60517311 74 76 75
245707.49108887 3357590.15148926 17.20164299 193 194 186
245710.25372314 3357590.09509277 17.19095612 83 83 81
245707.23950195 3357589.23278809 17.33516884 160 160 158
245704.95611572 3357590.07812500 17.27136993 214 211 206
245708.86431885 3357588.81744385 17.41159248 12 20 22
245704.71453857 3357590.43786621 17.24655724 206 203 196
245708.92352295 3357588.91638184 17.39247322 64 67 72
245712.28930664 3357590.07507324 17.15701485 241 243 242
245711.81817627 3357590.22753906 17.17550278 240 240 238
245709.86700439 3357588.81427002 17.50928307 25 21 18
245704.89141846 3357589.86859131 17.58483124 50 54 57
245710.37481689 3357589.65136719 17.60507965 255 255 255
245710.98205566 3357588.43322754 17.19425964 180 176 167
245709.73602295 3357589.85784912 17.53218269 255 255 253
245706.75738525 3357589.41162109 17.44490433 196 198 193
245708.02850342 3357588.56866455 17.23721123 211 207 198
245707.59637451 3357589.49255371 17.30340576 180 180 178
245709.89520264 3357589.80267334 17.66210175 86 90 89
245712.04840088 3357588.76043701 17.16703033 67 70 75
245705.05688477 3357589.88873291 17.36289215 70 72 69
245707.59655762 3357589.26739502 17.23713303 106 104 105
245708.31488037 3357590.13629150 17.19860649 183 185 184
245709.67358398 3357589.77600098 17.50677872 144 144 142
245703.81805420 3357591.16528320 17.54246140 75 76 78
245706.61956787 3357589.38806152 17.25375557 74 76 75
245709.63623047 3357589.83471680 17.38473892 75 75 73
245707.22863770 3357588.77783203 17.29235840 86 87 82
245709.73010254 3357589.63201904 17.68312263 35 35 33
245712.17144775 3357588.93328857 17.16342735 85 88 95
245709.59002686 3357588.87072754 17.56293297 61 50 46
245709.45605469 3357589.81280518 17.30188751 97 97 95
245707.76129150 3357589.24267578 17.33278275 129 131 126
245706.19696045 3357589.41064453 17.28523827 57 62 66
245708.76416016 3357588.75341797 17.45833206 69 78 77
245703.91979980 3357590.74566650 17.38694763 102 102 100
245708.19744873 3357589.37646484 17.26818848 208 207 202
245708.51074219 3357589.36895752 17.20055389 221 225 224
245708.20227051 3357589.75543213 17.21963882 96 96 94
245708.82025146 3357588.99792480 17.41143799 87 96 95
245709.90332031 3357588.62066650 17.38865471 104 90 87
245709.73730469 3357590.03393555 17.26460266 75 76 70
245709.36694336 3357589.14697266 17.29063034 178 184 182
245711.41107178 3357589.34906006 17.25269318 151 151 151
245703.96234131 3357590.93682861 17.32956505 23 24 26
245712.37554932 3357590.03460693 17.15441132 101 105 104
245708.59759521 3357588.49322510 17.33751488 206 199 191
245708.92102051 3357590.21447754 17.21594238 246 247 242
245707.51715088 3357588.58953857 17.23355293 118 113 110
245706.83966064 3357589.19653320 17.55097580 182 181 176
245703.85760498 3357591.25579834 17.53899384 77 78 83
245705.45416260 3357589.78460693 17.26362038 102 102 102
245707.17730713 3357589.46722412 17.34768867 204 204 196
245709.58209229 3357589.81152344 17.36505127 102 102 100
245709.28204346 3357588.62194824 17.26319122 129 133 136
245710.85620117 3357589.23004150 17.29686356 69 73 76
245708.57189941 3357590.22351074 17.20202637 253 255 254
245709.54425049 3357588.63958740 17.28050804 151 146 142
245706.30780029 3357589.44323730 17.23877144 74 77 82
245705.97460938 3357589.24719238 17.64677620 27 35 37
245710.85723877 3357589.29461670 17.28726768 73 74 78
245707.61523438 3357589.19952393 17.23378181 127 125 128
245703.93536377 3357590.93786621 17.46686554 18 22 23
245708.75891113 3357589.67907715 17.21503067 203 200 195
245707.04254150 3357589.33410645 17.57849121 189 190 184
245709.57495117 3357590.14355469 17.23754883 224 225 220
245710.60137939 3357589.71173096 17.27591515 28 30 27
245710.35748291 3357588.90777588 17.40485382 87 91 94
245705.47583008 3357589.28161621 17.23523712 93 97 98
245704.05493164 3357592.03796387 17.23676109 193 193 191
245706.40301514 3357589.20904541 17.22003746 79 84 87
245704.40307617 3357590.75445557 17.21992111 96 100 103
245708.04669189 3357590.17242432 17.20639038 155 157 156
245709.31988525 3357589.40069580 17.29092216 155 155 153
245704.44671631 3357590.54968262 17.23446274 207 198 191
245707.69964600 3357588.36285400 17.26172066 232 231 226
245703.70281982 3357590.81390381 17.50440216 161 157 154
245704.72204590 3357589.41229248 17.47996330 205 196 187
245712.22692871 3357590.29040527 17.15808868 203 202 198
245710.75726318 3357588.50921631 17.29170609 80 82 79
245706.65551758 3357589.14916992 17.26648521 146 147 142
245711.84521484 3357589.40307617 17.31329346 116 117 119
245709.43261719 3357589.98834229 17.24463272 154 153 149
245708.87664795 3357589.55664063 17.37659645 78 80 75
245710.89453125 3357588.81835938 17.22085381 63 71 73
245711.87017822 3357589.99615479 17.17557335 95 95 93
245705.15771484 3357589.09478760 17.29575539 53 61 64
245708.63409424 3357589.39648438 17.19757652 249 253 254
245710.57281494 3357589.71582031 17.31529999 11 12 16
245704.24884033 3357591.22918701 17.19428825 79 89 91
245703.91198730 3357591.52520752 17.53897476 56 57 59
245708.91198730 3357589.43078613 17.45281982 59 61 60
245706.88610840 3357589.34020996 17.71527100 122 121 119
245707.93188477 3357589.76348877 17.22834396 181 182 177
245703.89086914 3357592.17462158 17.22980118 255 255 253
245704.62463379 3357590.78320313 17.21304321 106 115 122
245710.59893799 3357588.74749756 17.66995430 48 44 43
245710.59606934 3357589.79266357 17.25116348 60 61 56
245709.13177490 3357588.52685547 17.23373795 116 120 123
245707.03430176 3357590.07568359 17.22231293 117 117 117
245707.18176270 3357588.68200684 17.28253746 139 136 129
245705.81372070 3357588.89141846 17.54840851 155 154 149
245710.67864990 3357588.52062988 17.43532944 32 33 27
245708.03137207 3357589.45349121 17.30982208 199 198 194
245703.82165527 3357590.95172119 17.73973465 90 90 98
245707.06011963 3357589.16735840 17.56380272 180 177 170
245705.32165527 3357588.96789551 17.24037361 83 93 95
245705.24798584 3357589.32482910 17.23821259 60 68 71
245710.11822510 3357589.46704102 17.45821953 89 95 95
245704.69067383 3357590.81250000 17.20871735 112 119 127
245705.74841309 3357588.88531494 17.40306664 173 169 158
245710.69378662 3357588.97540283 17.27657509 142 144 143
245707.66699219 3357588.95782471 17.24848366 96 96 96
245708.26141357 3357588.89801025 17.21992874 165 164 160
245708.50122070 3357589.13458252 17.20097160 98 99 94
245704.09033203 3357591.28723145 17.26710510 80 85 88
245709.25921631 3357590.13977051 17.19878387 215 214 209
245707.20910645 3357589.58654785 17.26183319 104 101 96
245708.61193848 3357588.46099854 17.35891151 178 173 167
245711.60003662 3357590.10821533 17.17386436 170 172 171
245710.38128662 3357588.35327148 17.32784271 159 154 148
245710.98254395 3357589.87878418 17.19026184 99 99 97
245705.36822510 3357589.24853516 17.23712349 73 81 83
245711.80596924 3357589.65924072 17.34049034 33 32 30
245708.04589844 3357590.10137939 17.20935822 174 174 174
245704.43933105 3357589.32495117 17.29819489 207 203 194
245709.26971436 3357588.71160889 17.29674530 149 150 154
245710.38964844 3357588.69042969 17.46904755 158 160 157
245708.75372314 3357589.92517090 17.17914009 124 120 117
245710.59161377 3357589.67358398 17.34382629 31 34 39
245712.33374023 3357589.41772461 17.15996742 200 189 185
245710.59002686 3357589.13128662 17.46798706 71 70 75
245704.12005615 3357591.34759521 17.24017334 66 71 74
245707.60998535 3357588.87683105 17.24328423 150 150 148
245706.13708496 3357589.21002197 17.36770439 52 62 64
245710.30084229 3357588.63031006 17.44053841 151 148 143
245705.00402832 3357590.15148926 17.26172447 214 210 207
245704.00201416 3357591.91473389 17.30866814 34 34 32
245709.02655029 3357590.23992920 17.21335983 249 248 246
245710.08880615 3357589.28100586 17.28846741 70 71 73
245703.88934326 3357591.43353271 17.57206154 136 140 143
245703.76885986 3357591.22503662 17.46804047 62 64 63
245709.80535889 3357589.46185303 17.55529404 50 54 57
245704.08197021 3357591.98144531 17.23768425 64 65 60
245711.02484131 3357589.70648193 17.19312668 171 170 166
245703.89294434 3357590.78619385 17.58548546 26 27 31
245707.60400391 3357588.93328857 17.23694801 177 177 177
245710.72760010 3357589.48791504 17.32303047 55 55 57
245711.39752197 3357590.02868652 17.16452026 102 113 115
245711.79486084 3357589.59063721 17.40339470 33 31 32
245711.69757080 3357588.73602295 17.36020660 97 98 102
245708.23901367 3357588.86370850 17.22351837 130 130 128
245710.57659912 3357589.67492676 17.39637947 53 58 62
245711.43560791 3357589.05041504 17.22323036 119 123 122
245703.79687500 3357590.50799561 17.65662575 189 190 184
245706.59960938 3357589.15325928 17.25111961 139 141 138
245705.91076660 3357589.58856201 17.51198769 59 59 61
245711.07928467 3357589.28778076 17.23469353 210 201 194
245707.11761475 3357589.19262695 17.47831345 181 180 175
245709.61639404 3357589.71356201 17.44261932 164 169 165
245710.73394775 3357589.02337646 17.24348450 59 63 66
245708.52838135 3357588.87042236 17.20479393 108 107 103
245704.69958496 3357590.44482422 17.24584389 202 197 191
245704.90441895 3357590.22210693 17.26084709 195 194 189
245706.83923340 3357589.19989014 17.55091476 182 181 176
245707.64965820 3357588.53576660 17.24363136 206 205 200
245704.72711182 3357589.19995117 17.42313576 153 144 135
245710.88983154 3357589.42230225 17.25351715 88 86 87
245711.98065186 3357589.54168701 17.18840981 55 60 63
245712.06335449 3357588.73730469 17.16990662 70 74 77
245707.61029053 3357589.79309082 17.27342606 68 72 75
245706.40954590 3357589.22546387 17.21616364 85 90 93
245707.77746582 3357589.59619141 17.34756660 104 106 103
245706.91937256 3357589.46173096 17.51273155 185 187 184
245710.92535400 3357590.04156494 17.18946075 206 209 202
245704.65667725 3357590.10369873 17.29155731 211 207 204
245709.00677490 3357588.97631836 17.34936714 74 80 80
245706.06976318 3357589.18267822 17.48568916 83 93 95
245703.88696289 3357591.99090576 17.28260994 214 213 209
245707.13824463 3357588.79321289 17.32229233 94 93 88
245711.38391113 3357590.16339111 17.16994476 172 181 186
245708.02600098 3357588.84844971 17.28075790 172 171 167
245709.15344238 3357588.81457520 17.30863380 44 49 52
245710.15283203 3357589.44519043 17.38371277 81 87 85
245705.48175049 3357589.71569824 17.32086754 141 138 133
245710.60357666 3357589.33099365 17.46762276 191 194 199
245707.59387207 3357589.43725586 17.26467514 175 175 175
245708.06475830 3357589.73388672 17.22487259 149 148 144
245704.07568359 3357591.29174805 17.28897858 108 112 115
245703.85034180 3357590.62139893 17.48759651 64 62 63
245709.75256348 3357589.83447266 17.70502281 239 240 235
245704.71624756 3357589.67510986 17.55857658 196 194 182
245709.60461426 3357589.80859375 17.37789917 120 121 116
245711.91711426 3357589.97540283 17.17413139 105 107 104
245710.60620117 3357588.88623047 17.63877296 48 39 40
245710.17309570 3357588.83679199 17.36431503 78 79 81
245705.11126709 3357589.13909912 17.32474899 155 159 162
245711.79241943 3357589.29278564 17.49496460 72 73 77
245711.71850586 3357589.60894775 17.46481133 80 84 87
245712.34613037 3357589.69592285 17.16285706 86 86 86
245710.67193604 3357588.47668457 17.35230446 86 87 81
245706.54473877 3357589.39471436 17.22047234 72 76 77
245709.62670898 3357589.94873047 17.30793571 83 82 78
245711.61102295 3357588.87042236 17.42354012 92 91 89
245709.73120117 3357589.58758545 17.61966133 206 207 209
245708.63629150 3357589.22680664 17.21586609 109 108 106
245708.26293945 3357590.12426758 17.20227623 193 195 194
245704.78723145 3357589.89160156 17.52846146 79 80 75
245708.22772217 3357588.99108887 17.24584007 188 188 186
245704.94934082 3357589.16906738 17.74999619 213 211 212
245705.01104736 3357590.00604248 17.29186821 211 210 206
245711.47344971 3357589.82830811 17.22144508 135 139 140
245703.90270996 3357590.71569824 17.45963287 103 103 103
245703.71856689 3357590.73614502 17.66585350 58 57 53
245706.12219238 3357589.80133057 17.42631721 32 31 27
245709.49774170 3357589.56475830 17.35082245 169 168 163
245710.72045898 3357588.78015137 17.38987541 154 151 144
245707.42706299 3357589.04705811 17.21156120 154 155 149
245711.30859375 3357589.89147949 17.17145348 113 118 121
245705.11236572 3357589.39575195 17.29397392 62 70 72
245704.00036621 3357591.66766357 17.37055779 74 74 76
245710.56353760 3357588.41912842 17.40325928 149 145 142
245708.06530762 3357589.36785889 17.32180023 203 196 190
245707.36236572 3357589.38641357 17.27840805 106 106 104
245703.75921631 3357590.68457031 17.77014923 64 65 69
245711.01232910 3357589.73730469 17.19316483 99 99 97
245708.19146729 3357589.67266846 17.22336197 141 140 138
245708.32250977 3357590.20019531 17.20145226 254 255 255
245708.99920654 3357589.61926270 17.24302673 191 193 190
245706.82318115 3357589.41937256 17.72397041 35 34 32
245706.59631348 3357589.43060303 17.24122047 80 82 81
245705.37884521 3357589.43951416 17.21526337 88 94 94
245706.33489990 3357589.88903809 17.27741432 93 103 105
245711.79809570 3357588.69152832 17.29331779 44 42 45
245709.16796875 3357590.21636963 17.20718575 249 250 244
245704.16491699 3357591.37731934 17.22556877 73 81 84
245710.39776611 3357589.51458740 17.63759422 94 96 95
245710.07574463 3357589.24566650 17.28636551 65 66 68
245704.16333008 3357591.33264160 17.21894455 72 80 83
245710.92700195 3357589.40814209 17.24815750 88 84 83
245703.84765625 3357591.54541016 17.52644348 53 57 58
245706.00366211 3357589.99407959 17.30774117 29 29 27
245704.45776367 3357589.45941162 17.28992844 210 203 195
245709.88964844 3357589.54217529 17.64266396 68 72 75
245712.14324951 3357589.46563721 17.16146278 81 82 84
245711.62322998 3357589.41741943 17.46804047 142 138 139
245709.08825684 3357588.91009521 17.31876373 73 78 81
245703.72711182 3357591.65612793 17.33249855 118 119 114
245710.59405518 3357589.62597656 17.45348549 126 131 134
245712.25152588 3357588.94140625 17.17349243 92 97 100
245709.09228516 3357588.24462891 17.20984077 198 195 190
245709.85870361 3357589.24896240 17.51197815 83 82 77
245706.10339355 3357589.29339600 17.40232658 63 71 74
245706.28479004 3357589.92584229 17.27998924 99 107 109
245710.15313721 3357590.09588623 17.18425179 96 96 94
245707.88439941 3357589.74981689 17.23581886 181 182 177
245710.39990234 3357589.76879883 17.34108543 142 144 143
245706.79382324 3357588.60766602 17.27997398 125 124 122
245711.63293457 3357588.74847412 17.40008926 154 155 159
245708.55682373 3357588.65460205 17.25969124 205 202 193
245711.09832764 3357588.88360596 17.21070480 99 100 102
245710.59039307 3357589.36724854 17.48077774 188 191 196
245704.68695068 3357590.08575439 17.31365967 213 212 208
245711.22296143 3357590.22863770 17.17283058 215 221 221
245710.31378174 3357589.50646973 17.61917877 109 111 110
245710.38995361 3357589.52154541 17.66268921 100 102 101
245703.71972656 3357590.73449707 17.58760452 53 49 46
245708.31042480 3357589.31549072 17.23840523 106 107 102
245710.25897217 3357588.90972900 17.38669586 84 89 92
245709.59637451 3357588.86370850 17.57778740 75 61 58
245707.82586670 3357589.85467529 17.22928810 93 95 94
245711.43066406 3357589.46020508 17.26783180 190 189 187
245708.70532227 3357589.15905762 17.28459930 197 199 198
245705.38189697 3357589.48651123 17.21953773 82 86 87
245707.68804932 3357588.91949463 17.29028702 137 137 135
245710.05993652 3357589.45721436 17.50100517 82 86 89
245707.52496338 3357588.44238281 17.24346924 213 210 201
245706.57360840 3357589.07391357 17.26503181 125 124 122
245709.13452148 3357589.02233887 17.30196571 79 83 84
245709.85083008 3357589.71844482 17.76111412 84 84 82
245709.73254395 3357588.25488281 17.22888374 204 197 191
245710.13739014 3357588.39501953 17.41963005 175 170 164
245704.94836426 3357589.01867676 17.60605049 246 252 252
245707.07495117 3357589.78521729 17.24348640 137 136 132
245707.54357910 3357589.09863281 17.21008873 118 118 116
245703.83496094 3357590.70007324 17.68959427 38 37 42
245704.49291992 3357589.93005371 17.34839630 214 205 198
245705.20672607 3357589.15905762 17.27344131 49 59 61
245710.39050293 3357590.14099121 17.19242287 243 243 243
245704.76684570 3357589.95739746 17.41790390 220 225 219
245711.83605957 3357590.27905273 17.17492104 207 206 202
245705.86059570 3357589.13818359 17.61462212 121 125 126
245706.62957764 3357588.91192627 17.31176949 184 177 167
245708.10406494 3357589.96752930 17.21538925 152 152 150
245706.88391113 3357589.08050537 17.59188271 78 74 71
245710.74719238 3357588.51092529 17.29980659 80 82 79
245707.41607666 3357588.59277344 17.22702026 214 209 203
245710.53833008 3357589.96166992 17.20626640 123 124 119
245708.01617432 3357588.58679199 17.24222755 211 207 198
245706.46478271 3357588.77862549 17.26111412 221 214 198
245708.88409424 3357589.02069092 17.42355347 77 87 86
245710.43847656 3357589.56317139 17.81253624 249 249 251
245704.41278076 3357589.38171387 17.29468155 202 198 189
245708.54364014 3357588.41076660 17.33253288 199 192 184
245711.90142822 3357590.05871582 17.17297363 189 189 187
245705.02941895 3357589.83197021 17.45939636 67 67 65
245708.18194580 3357588.93920898 17.24746323 225 224 222
245711.81481934 3357589.93243408 17.19045448 115 115 113
245709.31402588 3357588.22509766 17.21730423 198 191 185
245704.01147461 3357592.12103271 17.23377037 253 252 250
245710.69110107 3357588.46929932 17.31604576 108 109 104
245709.83154297 3357589.90368652 17.58258820 156 153 148
245707.00079346 3357589.57330322 17.29002571 134 133 128
245710.68585205 3357589.41143799 17.36220932 92 95 100
245706.22863770 3357589.29681396 17.26412964 60 65 69
245703.76135254 3357591.95562744 17.29194260 217 212 206
245708.69488525 3357588.81964111 17.31128311 59 64 60
245703.83013916 3357592.21124268 17.22756577 247 248 243
245705.73388672 3357589.50543213 17.31725502 119 119 119
245705.64569092 3357589.08209229 17.26890182 166 167 161
245709.93902588 3357589.80743408 17.51350021 43 47 48
245712.25299072 3357588.87054443 17.17435837 109 113 114
245710.97363281 3357589.21423340 17.25559044 103 98 95
245710.47003174 3357588.93334961 17.47722816 197 201 204
245703.94097900 3357590.69256592 17.30152893 71 73 70
245709.81481934 3357589.80084229 17.77181053 244 244 244
245708.40460205 3357589.92205811 17.20093536 120 120 118
245712.07391357 3357589.89733887 17.16949272 128 128 128
245710.03875732 3357589.64428711 17.63952637 81 83 82
245705.53057861 3357589.78869629 17.29199219 126 125 120
245710.76727295 3357589.52203369 17.27248955 57 55 56
245710.07885742 3357588.29602051 17.28892708 196 187 180
245710.02587891 3357589.94360352 17.27216911 76 76 78
245710.60198975 3357588.85632324 17.66614532 63 51 53
245708.72454834 3357588.78125000 17.38784027 67 73 71
245703.70941162 3357590.79949951 17.66012192 60 60 58
245708.45330811 3357588.35693359 17.27197266 214 210 201
245703.77087402 3357591.61248779 17.40806580 111 113 110
245707.17987061 3357589.03771973 17.33581161 117 117 115
245710.55084229 3357589.38562012 17.52017403 205 206 210
245703.71234131 3357590.78790283 17.55824661 106 105 103
245711.09240723 3357589.75933838 17.18425751 120 119 115
245703.76452637 3357592.10546875 17.21479607 247 243 240
245712.35778809 3357589.33642578 17.15672112 170 168 173
245711.71520996 3357588.99743652 17.63135910 57 61 64
245708.05187988 3357589.50994873 17.27996254 106 103 98
245705.16192627 3357589.66333008 17.30970001 132 138 138
245706.02972412 3357589.15515137 17.58587456 77 86 91
245711.83306885 3357589.78295898 17.22431946 62 61 57
245710.50720215 3357590.08276367 17.19271278 127 131 130
245707.68072510 3357590.00561523 17.21931648 161 163 158
245706.81372070 3357589.58190918 17.34930611 104 104 104
245711.16979980 3357589.90417480 17.17770767 103 109 109
245707.41589355 3357589.70611572 17.27364540 201 201 201
245712.32775879 3357588.98803711 17.17158318 89 94 98
245707.68188477 3357589.03112793 17.24540710 109 109 109
245706.64959717 3357589.83843994 17.26444054 85 81 80
245712.29956055 3357590.39575195 17.15249252 201 200 195
245709.55914307 3357589.84570313 17.33370399 91 91 89
245712.13940430 3357590.36968994 17.16119003 198 199 193
245710.96307373 3357589.44201660 17.23802185 88 83 80
245703.80139160 3357590.61511230 17.76433754 90 94 93
245706.07171631 3357589.71966553 17.50781441 182 178 167
245710.69812012 3357589.41284180 17.35236931 73 77 80
245706.70935059 3357589.75500488 17.26393318 168 167 165
245709.17620850 3357589.34594727 17.26389885 84 88 89
245704.26269531 3357591.69970703 17.21405983 71 78 86
245709.85052490 3357589.21691895 17.51812744 54 53 49
245710.41986084 3357589.63018799 17.70017052 254 255 255
245710.05328369 3357589.64483643 17.63517189 80 82 81
245704.67089844 3357590.42877197 17.24601936 202 197 191
245707.64141846 3357589.72869873 17.30130768 40 40 42
245707.92785645 3357588.75103760 17.27616119 187 186 181
245708.51043701 3357589.16424561 17.20129395 113 114 109
245706.81329346 3357589.85491943 17.23135757 89 89 87
245710.94976807 3357589.36242676 17.24818802 96 88 85
245709.67449951 3357589.48059082 17.48779106 173 177 176
245711.95135498 3357589.17224121 17.15345001 51 50 55
245709.71997070 3357589.39562988 17.53326988 48 52 55
245709.84393311 3357589.93353271 17.35018730 30 32 31
245707.81890869 3357589.18853760 17.50106049 213 213 213
245709.67846680 3357589.56207275 17.52191925 244 248 249
245706.52075195 3357590.00207520 17.25570488 116 119 124
245711.32397461 3357590.18664551 17.17093658 170 179 184
245703.82019043 3357590.66577148 17.72754478 65 66 68
245709.68444824 3357589.76116943 17.55130768 203 202 200
245706.99749756 3357589.23669434 17.60878944 188 189 183
245704.14678955 3357591.38751221 17.23512077 68 73 76
245708.81176758 3357588.54333496 17.41152191 39 44 48
245707.71228027 3357589.89654541 17.23570061 85 89 90
245710.00872803 3357590.01434326 17.18881035 106 106 108
245706.84417725 3357589.57324219 17.34037209 126 128 125
245711.14587402 3357589.60107422 17.18494034 197 192 186
245706.60437012 3357589.10748291 17.26386642 92 93 88
245710.34436035 3357589.85980225 17.26510620 83 84 86
245708.10797119 3357588.69396973 17.24591446 124 123 118
245709.00598145 3357589.74792480 17.22908974 233 232 227
245708.88629150 3357588.72119141 17.37816048 59 64 68
245707.92559814 3357589.82647705 17.22096443 173 174 169
245703.72686768 3357590.67730713 17.68292046 63 62 60
245711.51599121 3357590.33203125 17.18893623 235 237 232
245704.34771729 3357591.58111572 17.18863678 94 98 107
245705.01446533 3357589.50024414 17.39286041 101 107 107
245709.83239746 3357589.79730225 17.75608253 160 160 158
245706.65838623 3357589.93444824 17.23836136 187 189 188
245707.69921875 3357588.37091064 17.25918579 230 229 224
245705.10028076 3357589.72503662 17.38302803 62 64 63
245709.58416748 3357589.11450195 17.45643997 149 151 146
245705.78997803 3357589.36096191 17.36253357 232 233 227
245708.82348633 3357588.42163086 17.33123016 65 65 67
245710.31365967 3357589.08001709 17.36895561 80 84 85
245708.25421143 3357590.16064453 17.20147705 223 224 226
245707.99554443 3357589.39422607 17.34147453 106 105 100
245703.81640625 3357590.57672119 17.55609512 69 68 66
245711.82556152 3357589.36669922 17.44165993 42 41 46
245710.48419189 3357589.72125244 17.45352364 90 90 92
245711.72161865 3357590.45275879 17.18023109 213 210 205
245704.22198486 3357591.73864746 17.22153664 70 73 78
245710.77856445 3357588.97003174 17.22896004 58 62 63
245707.89031982 3357588.52734375 17.23569298 155 154 149
245703.67919922 3357590.79406738 17.43385506 98 95 90
245706.81665039 3357589.18609619 17.49054337 181 178 171
245709.71276855 3357588.38769531 17.23245811 204 197 191
245711.79309082 3357589.40356445 17.51087570 70 69 74
245707.79833984 3357588.60406494 17.26413345 67 66 64
245709.83581543 3357588.46374512 17.30557442 192 183 174
245704.03289795 3357590.75927734 17.26335716 52 52 54
245712.14971924 3357589.88391113 17.16673088 81 81 81
245710.60028076 3357589.56768799 17.48755455 67 74 80
245712.07098389 3357589.51983643 17.16406441 79 83 84
245709.50628662 3357589.21734619 17.34807777 57 58 53
245707.41894531 3357589.70611572 17.27366638 195 195 195
245706.50793457 3357588.98175049 17.27416801 180 177 172
245709.97009277 3357589.88995361 17.35124969 65 66 68
245709.68267822 3357589.78680420 17.51835060 144 144 142
245706.73718262 3357589.25256348 17.32582664 188 189 184
245708.91326904 3357589.88244629 17.19155693 213 208 204
245707.10046387 3357589.56591797 17.28545380 104 103 98
245704.03375244 3357591.23876953 17.33291626 137 138 140
245705.55871582 3357589.06420898 17.25166893 105 109 108
245706.77014160 3357588.91247559 17.42590332 135 136 130
245705.52770996 3357589.91223145 17.24542427 116 124 126
245706.15667725 3357589.84814453 17.37668228 66 67 62
245707.33245850 3357588.86419678 17.25705147 121 120 115
245707.44085693 3357589.67529297 17.27782822 174 174 174
245712.11798096 3357588.94934082 17.15650558 84 84 92
245705.92706299 3357589.53277588 17.51268768 85 86 90
245704.46014404 3357590.25836182 17.25071907 254 253 249
245710.26806641 3357589.02178955 17.36998367 81 82 84
245710.38317871 3357588.54986572 17.46281242 153 150 143
245709.97625732 3357589.58892822 17.72692299 105 109 112
245711.03765869 3357590.02825928 17.18140411 189 194 190
245705.99121094 3357588.90838623 17.57976341 50 54 57
245710.25457764 3357589.47485352 17.50166512 93 95 94
245709.02587891 3357588.58349609 17.26967239 52 59 65
245707.34594727 3357589.21960449 17.21737480 105 107 104
245710.51635742 3357588.39038086 17.36700249 172 167 164
245708.88739014 3357589.38482666 17.49864006 124 126 123
245705.97558594 3357589.11254883 17.69123650 70 77 85
245709.57843018 3357588.92773438 17.49520493 55 41 38
245707.75738525 3357589.03582764 17.35816193 162 164 159
245708.89483643 3357589.14477539 17.41463852 100 104 105
245703.70477295 3357591.27410889 17.34746552 166 167 161
245704.44427490 3357589.94647217 17.32533836 213 206 198
245705.07775879 3357589.22778320 17.34954262 131 137 137
245708.42413330 3357588.32244873 17.25566673 209 206 197
245704.95770264 3357589.10144043 17.64201927 170 169 174
245706.09448242 3357589.16497803 17.42332458 74 82 85
245704.53179932 3357589.56298828 17.29775429 219 208 202
245707.79797363 3357589.61938477 17.29942322 64 65 60
245703.88470459 3357591.87847900 17.34673309 104 104 102
245704.95843506 3357589.91455078 17.42168808 98 100 97
245709.69030762 3357589.55523682 17.52584457 246 250 251
245706.03100586 3357589.15460205 17.58299065 77 86 91
245703.87213135 3357590.89611816 17.66369247 38 41 46
245712.01141357 3357590.31506348 17.16748428 201 202 197
245710.17358398 3357589.53137207 17.74587059 113 117 118
245704.05657959 3357591.75952148 17.31865883 67 67 67
245710.71960449 3357589.48651123 17.32907486 55 55 57
245708.60675049 3357589.10607910 17.21258545 157 157 155
245703.73925781 3357591.29583740 17.41322517 148 150 149
245709.65490723 3357588.44812012 17.23402786 195 191 182
245705.02502441 3357590.13684082 17.26126480 210 206 203
245710.75085449 3357588.78564453 17.28899384 137 138 133
245705.10290527 3357589.66607666 17.36179924 66 70 69
245707.60095215 3357589.90362549 17.24358940 133 137 136
245709.95703125 3357588.25225830 17.23098946 203 194 187
245704.89752197 3357589.54901123 17.57244492 94 94 94
245707.98162842 3357588.75927734 17.26544571 175 174 169
245709.48742676 3357589.06658936 17.31761169 81 83 80
245706.74816895 3357589.44116211 17.52546120 168 168 166
245707.33087158 3357588.87493896 17.25635719 159 160 155
245711.54705811 3357589.09393311 17.30546379 109 110 105
245710.69439697 3357588.60089111 17.51035118 32 30 31
245705.09417725 3357589.20928955 17.33156204 129 133 134
245710.97900391 3357589.89813232 17.18980217 105 105 103
245712.26348877 3357589.93371582 17.16108513 103 103 101
245711.57727051 3357588.60382080 17.34275436 162 155 147
245704.77941895 3357589.98693848 17.38313293 212 214 209
245708.76202393 3357589.54272461 17.23793602 191 190 185
245710.42907715 3357588.81378174 17.48502159 132 138 138
245709.94940186 3357588.60809326 17.39583015 116 105 101
245708.27575684 3357589.82647705 17.21245956 153 155 152
245709.92352295 3357589.42608643 17.53146935 74 78 81
245705.46643066 3357589.38031006 17.22349548 132 134 133
245710.10369873 3357589.77386475 17.46210861 56 60 59
245707.79571533 3357588.59179688 17.26235199 62 61 59
245708.79772949 3357589.13452148 17.43007278 142 148 148
245711.56469727 3357590.29779053 17.18670845 225 226 221
245706.53936768 3357589.37121582 17.21937752 77 81 82
245704.69494629 3357590.13757324 17.28227043 214 210 209
245709.09356689 3357589.50415039 17.24074745 114 114 112
245704.03149414 3357590.98980713 17.29034805 76 80 81
245712.12774658 3357588.79840088 17.16472626 83 84 89
245709.92468262 3357589.61724854 17.71323776 104 105 107
245711.32556152 3357589.61425781 17.21893120 232 232 230
245705.66802979 3357589.62786865 17.32859421 133 128 122
245708.34912109 3357589.24084473 17.23628998 213 214 209
245710.60491943 3357589.63073730 17.39933968 68 73 79
245709.51013184 3357589.85931396 17.30148697 101 100 98
245707.43481445 3357589.86303711 17.25341988 151 151 151
245704.54333496 3357590.79272461 17.21335602 108 117 124
245706.02783203 3357589.04400635 17.55299568 74 83 92
245705.89733887 3357589.45581055 17.50786400 105 109 108
245709.50817871 3357588.80218506 17.38390541 147 146 144
245705.14843750 3357590.01690674 17.24993134 103 103 101
245708.37866211 3357588.25958252 17.24214554 207 203 194
245707.74182129 3357589.37915039 17.32347298 103 103 103
245711.82385254 3357589.68096924 17.28036499 34 33 31
245708.40100098 3357588.33337402 17.24899673 209 206 197
245706.87951660 3357589.50543213 17.45784378 127 127 125
245710.65704346 3357588.51892090 17.47878647 53 52 48
245706.64544678 3357590.05987549 17.23052216 101 105 106
245711.12493896 3357589.72955322 17.18333244 121 120 116
245708.18347168 3357588.99017334 17.25704575 153 153 151
245709.71240234 3357590.04559326 17.25499344 105 104 99
245706.30670166 3357588.90216064 17.30427170 108 109 104
245705.77868652 3357589.02355957 17.41838264 86 85 81
245712.18487549 3357589.78759766 17.16738319 75 75 77
245708.07318115 3357588.30828857 17.22511292 226 225 220
245707.60565186 3357589.17187500 17.22664261 107 105 106
245705.90948486 3357589.45349121 17.52377129 106 110 111
245711.58154297 3357588.54193115 17.32752228 158 149 140
245709.11468506 3357589.17962646 17.28200150 64 68 71
245710.82824707 3357589.61511230 17.24421120 71 71 71
245711.30377197 3357589.34582520 17.23265648 237 237 235
245704.46093750 3357591.35522461 17.18904114 98 107 116
245709.92211914 3357588.69616699 17.41350174 74 66 64
245705.90136719 3357589.44293213 17.52030373 105 109 108
245707.31207275 3357589.61816406 17.26235008 107 106 102
245706.25152588 3357589.19030762 17.25897408 65 73 76
245710.58917236 3357589.10101318 17.48140907 77 75 78
245712.27185059 3357588.88208008 17.17663193 109 113 114
245705.34149170 3357589.92755127 17.23193169 106 107 109
245709.74487305 3357588.39660645 17.23273468 197 190 182
245711.82073975 3357589.58135986 17.33116913 27 23 22
245709.56835938 3357589.76110840 17.38767815 122 124 121
245708.87469482 3357588.32574463 17.24222946 128 125 118
245705.19708252 3357588.98968506 17.25751305 52 57 61
245705.90435791 3357589.21160889 17.69808197 32 37 40
245711.51287842 3357588.96240234 17.26551437 142 146 145
245704.57067871 3357589.74652100 17.38596535 208 201 191
245711.82867432 3357589.00238037 17.41221619 47 43 44
245709.86590576 3357589.69329834 17.75347328 89 91 90
245704.83099365 3357589.25195313 17.55830956 181 181 179
245704.25378418 3357590.98248291 17.20498276 86 91 95
245704.12585449 3357591.01800537 17.23501778 70 75 78
245704.43194580 3357591.38110352 17.18835068 99 108 115
245706.00299072 3357589.80810547 17.55395126 106 106 104
245705.04083252 3357589.90502930 17.35418320 58 60 57
245706.85601807 3357588.77960205 17.37918854 182 181 179
245712.23425293 3357589.08166504 17.16428375 114 119 123
245710.21960449 3357589.87854004 17.28511429 80 84 83
245710.78997803 3357588.53558350 17.27621841 66 68 65
245711.67816162 3357588.69531250 17.37361336 84 82 83
245706.90423584 3357588.89416504 17.49307060 53 52 47
245710.23681641 3357589.54754639 17.75492096 155 159 158
245708.46527100 3357589.53045654 17.22378159 102 106 107
245707.15325928 3357588.79455566 17.31747437 94 93 88
245711.55285645 3357589.71606445 17.30764961 96 97 101
245707.74987793 3357588.75946045 17.28974533 186 186 184
245707.75250244 3357589.80920410 17.24275017 97 101 100
245711.62664795 3357589.76324463 17.32207298 156 158 157
245703.68395996 3357590.81042480 17.44409180 98 95 90
245710.16351318 3357589.61700439 17.62946892 69 71 68
245707.96838379 3357589.52972412 17.29357719 160 159 155
245711.58697510 3357588.95513916 17.37450981 120 119 117
245711.10168457 3357589.09265137 17.22418022 97 97 95
245711.18011475 3357588.61761475 17.19980240 189 182 174
245703.77258301 3357591.18579102 17.47463226 59 60 55
245705.50079346 3357589.95849609 17.22970390 110 121 123
245703.85058594 3357591.99578857 17.27054596 207 206 204
245705.44958496 3357589.82525635 17.24136734 145 146 148
245706.93994141 3357589.29443359 17.66410637 172 171 167
245704.08508301 3357591.70104980 17.28052139 123 122 127
245706.05706787 3357589.12500000 17.51298523 114 123 128
245711.99279785 3357589.68640137 17.16822624 88 90 89
245706.66339111 3357589.17712402 17.25992012 146 147 142
245707.03454590 3357590.00585938 17.23069000 143 144 139
245708.29052734 3357590.04669189 17.20342445 174 174 174
245710.15283203 3357589.74859619 17.47554779 56 60 59
245703.76086426 3357591.48034668 17.43299103 76 78 75
245706.71820068 3357589.06939697 17.35398674 190 187 180
245709.24353027 3357589.00933838 17.29542732 94 100 100
245710.33837891 3357589.78118896 17.34170532 83 87 88
245704.94897461 3357589.09350586 17.68872833 168 166 169
245704.33349609 3357590.90966797 17.20693016 96 101 107
245711.65014648 3357589.60162354 17.42815399 99 104 107
245703.71801758 3357590.75061035 17.72778130 64 66 65
245710.78253174 3357589.22131348 17.31423950 57 60 65
245707.77844238 3357589.85919189 17.23390388 103 107 108
245705.70800781 3357589.76104736 17.54153442 190 191 186
245712.26513672 3357588.65063477 17.18407440 203 199 196
245709.55767822 3357588.33392334 17.22867393 197 190 184
245706.68304443 3357589.68103027 17.31322670 189 188 186
245708.55541992 3357589.83044434 17.19494247 101 102 106
245712.30249023 3357589.28790283 17.15489960 156 152 153
245706.58142090 3357589.98553467 17.24914932 100 101 103
245710.76800537 3357588.83666992 17.23055649 134 138 137
245711.79528809 3357589.42572021 17.49260330 135 135 137
245711.83026123 3357589.48980713 17.34431267 90 90 92
245705.78887939 3357589.64874268 17.44800758 222 221 217
245703.86425781 3357591.07360840 17.55106926 15 16 18
245703.65905762 3357590.81036377 17.38203812 108 103 97
245711.56970215 3357588.83288574 17.35646057 138 138 138
245710.63543701 3357588.88732910 17.60406685 56 47 48
245708.84692383 3357588.92364502 17.44328117 84 89 92
245711.62182617 3357590.02490234 17.18963623 168 167 165
245712.12268066 3357589.78021240 17.17004204 68 69 71
245706.88665771 3357588.92462158 17.51794434 85 84 79
245709.56610107 3357590.20324707 17.22019386 255 255 255
245710.95996094 3357588.66748047 17.20028496 88 92 95
