245938.14410400 3357633.28540039 14.70589924 55 62 70
245936.83496094 3357639.90228271 14.89515209 164 172 185
245937.10089111 3357636.50732422 15.10056686 209 220 242
245936.24804688 3357637.32611084 14.78179741 32 37 41
245938.68634033 3357634.64874268 14.40325737 124 130 126
245938.22387695 3357634.95898438 14.67897415 47 51 54
245937.07360840 3357635.67279053 14.92707539 52 55 62
245937.22003174 3357640.19488525 14.38999176 181 183 161
245935.51757813 3357640.64270020 14.63917065 168 177 186
245937.37689209 3357636.77423096 14.79352379 99 109 119
245936.88592529 3357634.50360107 14.73137283 42 46 45
245937.55426025 3357633.32330322 14.87913227 25 35 37
245936.14630127 3357638.04846191 14.75158882 110 117 125
245938.36096191 3357632.11627197 14.96527958 38 48 57
245937.04272461 3357635.97375488 15.19101715 125 123 136
245938.78607178 3357630.92462158 14.83954620 37 47 49
245936.39337158 3357639.07763672 15.24349022 105 123 135
245939.21209717 3357630.26495361 14.56318283 46 54 56
245938.99719238 3357631.87823486 14.71104240 49 52 57
245938.07189941 3357630.91406250 14.87287331 41 46 49
245936.34307861 3357637.01159668 14.98263550 18 27 36
245938.10583496 3357633.09313965 14.62746429 55 62 68
245936.44360352 3357640.52557373 14.86103058 27 34 42
245937.06134033 3357634.02288818 14.43592167 91 96 102
245937.13189697 3357638.91552734 14.76280975 38 47 54
245938.59088135 3357630.11480713 14.46049786 43 51 54
245935.96868896 3357640.31237793 14.86461735 30 37 43
245936.74719238 3357639.98193359 14.90992260 49 60 80
245937.34838867 3357636.14965820 15.01373577 88 100 126
245936.84094238 3357639.10064697 15.08120060 165 178 195
245938.09228516 3357634.62225342 14.64539146 46 54 57
245935.71643066 3357641.53491211 14.91770840 6 14 27
245937.85131836 3357632.26220703 14.80148602 53 62 67
245938.96697998 3357630.68688965 14.80142212 45 49 48
245936.67913818 3357640.72985840 14.63162994 117 122 128
245936.79016113 3357634.97949219 14.64213371 74 83 88
245937.56915283 3357638.51513672 14.40434265 64 70 70
245939.13598633 3357631.13421631 14.97787189 57 62 66
245935.99774170 3357639.96051025 14.84375858 21 37 52
245938.84503174 3357630.15972900 14.47132301 55 60 63
245935.38146973 3357641.91357422 14.83719349 61 63 60
245936.52850342 3357638.00683594 15.12848949 78 84 96
245937.14453125 3357634.08355713 14.45075035 54 65 71
245937.67126465 3357636.33428955 14.67286110 42 50 61
245936.00299072 3357640.04467773 14.76277924 31 44 52
245936.56072998 3357638.60668945 14.97003078 20 18 29
245938.57385254 3357630.25842285 15.00079727 41 51 52
245935.96191406 3357639.91333008 14.92654324 61 77 93
245936.69482422 3357640.00006104 14.90254307 31 43 67
245938.93634033 3357630.31518555 14.48309898 81 84 77
245936.29217529 3357638.45965576 14.93726349 4 11 21
245938.89471436 3357632.06195068 14.76744080 80 85 89
245935.21533203 3357642.16363525 14.49640560 51 55 54
245937.05480957 3357636.59960938 14.82250023 133 146 165
245936.12823486 3357641.85546875 14.71000767 58 63 69
245938.20568848 3357631.11810303 15.16266441 121 126 129
245937.35235596 3357639.62023926 14.39092731 178 176 155
245937.98175049 3357636.71368408 14.47360516 125 135 147
245937.29461670 3357638.76184082 14.53941441 59 69 71
245937.46563721 3357637.53759766 14.45566559 122 132 141
245936.17083740 3357639.90472412 14.82748413 24 37 45
245935.85870361 3357640.55676270 14.77026176 24 29 33
245937.51470947 3357633.23248291 14.83511829 27 38 42
245936.12908936 3357637.85357666 14.93782234 104 112 114
245938.12927246 3357630.34649658 14.67805576 30 35 39
245938.10638428 3357631.88183594 14.95797539 107 115 118
245938.47265625 3357630.30273438 14.93182850 33 47 47
245937.38940430 3357637.17834473 14.62745571 34 37 44
245938.22485352 3357633.32775879 14.70624924 55 64 71
245939.42419434 3357630.35253906 14.57857037 54 59 62
245938.63311768 3357631.83477783 14.90186024 34 45 49
245936.06195068 3357639.11633301 14.67072010 21 28 34
245936.67285156 3357638.18719482 14.96067333 119 128 145
245936.46020508 3357635.69390869 14.94648933 47 61 46
245938.98645020 3357632.25012207 14.55863953 54 63 72
245936.27532959 3357639.47619629 14.94146919 119 138 144
245937.58251953 3357632.74127197 14.81384468 78 96 100
245936.73217773 3357641.47662354 14.43905449 68 70 65
245937.55517578 3357633.29315186 14.86415958 28 38 40
245938.62731934 3357633.94030762 14.40406704 66 73 79
245936.96948242 3357636.01123047 15.14764977 89 92 99
245937.04669189 3357635.20410156 14.70601559 52 57 61
245938.00250244 3357631.24810791 14.97553539 47 56 63
245935.77569580 3357641.34606934 14.64531708 37 41 52
245936.30328369 3357640.78521729 14.67017078 20 27 35
245937.43817139 3357637.14562988 14.68481350 24 29 35
245938.58599854 3357632.86730957 14.76904011 27 36 43
245938.09411621 3357633.77349854 14.82638264 56 59 64
245937.10601807 3357632.59686279 15.01872444 65 82 63
245937.17626953 3357638.14874268 14.80794144 94 76 88
245936.61126709 3357641.43707275 14.55661678 55 60 63
245936.66400146 3357637.02294922 14.93153381 85 91 103
245936.57910156 3357638.12738037 15.12238884 96 106 116
245937.22668457 3357633.61364746 14.51151085 113 122 129
245938.00720215 3357636.14251709 14.51627731 40 50 59
245936.52410889 3357638.22137451 15.17072296 78 87 104
245936.55633545 3357641.65643311 14.62682056 131 135 136
245936.81512451 3357641.51574707 14.38509655 111 112 94
245935.32489014 3357641.53680420 14.67631912 33 37 36
245936.76568604 3357638.70086670 14.88850117 44 48 60
245937.57720947 3357632.34930420 14.86497116 49 60 66
245936.27307129 3357636.80120850 14.91200924 26 33 26
245936.00878906 3357639.30407715 14.69079876 21 29 31
245938.63464355 3357632.79107666 14.67872429 77 82 85
245937.60418701 3357639.11206055 14.35243130 114 117 108
245938.13391113 3357630.96319580 15.17285347 52 56 65
245936.19396973 3357640.52282715 14.97630692 39 48 57
245937.92163086 3357631.39624023 14.92379761 76 85 92
245936.13720703 3357639.12609863 14.68850422 14 21 29
245936.98132324 3357641.28948975 14.36161137 173 176 155
245937.06427002 3357638.39337158 14.71307755 23 28 34
245937.84063721 3357637.10949707 14.42256165 118 126 137
245938.85723877 3357630.72009277 14.78820896 49 57 60
245937.10314941 3357640.22821045 14.50225353 72 77 81
245938.98437500 3357630.07989502 14.48276043 40 49 54
245937.07653809 3357636.33160400 15.30937862 180 182 207
245936.00744629 3357638.95983887 14.77702427 27 35 38
245938.78161621 3357632.68835449 14.50399590 59 68 73
245938.42565918 3357630.29412842 15.15861416 56 61 64
245936.03851318 3357638.18743896 14.58605480 65 75 77
245937.76489258 3357636.95123291 14.52785873 111 121 130
245936.73980713 3357634.17156982 14.84837818 35 49 34
245935.40447998 3357641.56304932 14.86903000 81 88 96
245935.50518799 3357640.59271240 14.76955318 160 170 179
245937.94342041 3357635.45758057 14.63144207 63 73 75
245936.89257813 3357635.08734131 14.63961220 41 50 55
245936.22076416 3357637.26513672 14.84171581 31 36 39
245937.18011475 3357634.64349365 14.72020054 39 47 50
245937.38073730 3357637.03393555 14.89295292 19 23 32
245937.81262207 3357631.62701416 14.86404610 88 99 105
245935.60858154 3357642.24108887 14.81151295 62 61 59
245936.21496582 3357641.25140381 14.46174145 58 68 69
245938.61920166 3357635.07507324 14.38227844 158 161 150
245937.36010742 3357638.18621826 14.71196270 72 52 61
245938.37426758 3357631.23742676 14.86479759 38 46 48
245938.72070313 3357631.29858398 14.80249405 54 63 68
245938.11627197 3357635.83422852 14.53677177 80 89 94
245937.86877441 3357636.65649414 14.53552532 125 139 150
245936.60864258 3357641.83477783 14.50587273 76 80 79
245938.59069824 3357630.48236084 14.82940292 39 51 51
245937.37310791 3357637.13836670 14.76911068 58 62 71
245937.60833740 3357637.07586670 14.69925690 114 119 122
245937.45806885 3357634.21185303 14.67107296 16 25 34
245938.78417969 3357631.36108398 14.81479549 55 65 67
245937.20770264 3357633.00842285 14.89698696 37 43 41
245938.93750000 3357630.68719482 14.77549458 39 45 43
245938.07989502 3357631.55096436 14.75017166 35 42 48
245937.77734375 3357633.85247803 14.75826550 38 42 51
245937.04364014 3357637.96582031 14.75932598 122 128 144
245937.31848145 3357633.04223633 14.82437229 56 61 67
245936.51403809 3357636.05322266 14.91758728 55 61 59
245936.43511963 3357638.86889648 15.20219517 88 109 126
245938.49395752 3357630.28424072 15.13368702 58 64 64
245938.28369141 3357635.20642090 14.57747078 53 60 68
245938.26397705 3357634.61285400 14.57135773 41 48 56
245936.38098145 3357640.76000977 14.73912907 155 162 168
245935.91693115 3357639.47698975 14.86540031 40 48 51
245937.41088867 3357631.82684326 14.94275665 49 59 48
245936.38421631 3357636.64843750 14.78040314 46 47 49
245936.44610596 3357640.41479492 14.77691460 49 58 65
245935.76342773 3357639.73022461 15.00323105 101 116 123
245938.85321045 3357631.96752930 14.82170868 27 32 38
245937.69921875 3357636.72125244 14.65955544 113 126 135
245937.37707520 3357633.49853516 14.79524899 83 94 98
245936.94830322 3357641.08380127 14.37717056 150 147 128
245937.71862793 3357632.85668945 14.72417927 34 49 54
245939.17651367 3357631.21057129 14.96284771 166 174 177
245935.56274414 3357641.51910400 15.04186440 149 144 151
245937.04571533 3357638.00225830 14.82552910 118 117 131
245937.43304443 3357634.18737793 14.63103867 15 24 33
245937.14831543 3357640.83197021 14.35829735 156 161 139
245936.68371582 3357637.41223145 14.51007557 94 104 116
245936.53179932 3357635.89562988 14.91473675 56 62 58
245935.90222168 3357640.19976807 14.80811405 18 25 31
245936.82073975 3357640.35668945 14.76693058 56 65 74
245937.46472168 3357637.59228516 14.46829891 121 131 140
245938.68432617 3357632.57928467 14.58664513 58 66 69
245939.25543213 3357631.18084717 14.82634544 63 73 75
245936.22979736 3357641.32342529 14.53356647 53 63 65
245935.49694824 3357641.81274414 14.87555313 64 69 65
245937.38146973 3357632.29077148 14.95274448 36 46 47
245937.32476807 3357632.88336182 14.79474163 61 66 69
245938.56127930 3357635.38751221 14.37295246 143 146 137
245936.23272705 3357637.44396973 14.74312973 50 55 58
245937.75909424 3357636.49774170 14.57624626 113 126 135
245938.75683594 3357632.00213623 14.86919117 21 30 39
245939.12347412 3357631.37329102 14.62622452 64 71 77
245938.49652100 3357634.63122559 14.50707817 53 60 68
245935.54296875 3357640.91345215 14.44497585 49 52 59
245939.22460938 3357631.10894775 14.81597519 50 55 59
245936.44567871 3357641.38275146 14.62508965 52 62 64
245936.88348389 3357634.94012451 14.64769077 55 63 66
245936.21533203 3357640.62402344 14.92741776 55 62 68
245937.35736084 3357631.81939697 14.97526550 66 77 61
245936.36163330 3357641.42498779 14.72301769 60 71 75
245937.44793701 3357633.57659912 14.73368073 31 42 48
245937.87054443 3357632.60516357 14.73338127 19 34 41
245937.17596436 3357634.60339355 14.70223618 38 46 49
245938.12579346 3357635.17358398 14.95395374 52 60 63
245938.83856201 3357631.17047119 14.98651123 31 42 44
245937.49249268 3357632.78771973 14.78877354 60 71 77
245936.29156494 3357640.61517334 14.95124912 19 28 33
245936.49273682 3357635.92547607 14.95261669 55 64 59
245936.87207031 3357637.52978516 14.48533726 103 116 125
245937.72375488 3357634.28442383 14.82226753 16 25 34
245937.99542236 3357635.99163818 14.68582249 74 79 82
245937.98675537 3357635.64801025 14.70300579 53 64 68
245938.07495117 3357630.75885010 14.64803028 35 44 49
245938.12176514 3357631.72344971 14.78379440 23 28 32
245936.31591797 3357639.88897705 14.84958363 21 34 43
245937.19396973 3357633.48059082 14.76851082 43 51 54
245938.57867432 3357631.10198975 14.90761757 36 46 47
245936.81445313 3357633.81127930 14.94027996 59 73 60
245937.10888672 3357638.65582275 14.69480801 46 50 59
245938.89782715 3357633.07904053 14.43021393 75 86 88
245937.62976074 3357637.02551270 14.77562428 140 145 148
245937.05377197 3357639.36950684 14.67214012 27 32 38
245936.15612793 3357639.04235840 15.05991364 53 56 63
245938.77099609 3357630.60272217 15.06556702 54 62 65
245936.99255371 3357634.25292969 14.46237564 99 104 108
245938.52252197 3357630.43719482 14.87682819 49 61 61
245937.50518799 3357636.98675537 14.86114693 26 33 41
245937.69549561 3357637.35150146 14.39538860 135 145 155
245935.73693848 3357641.44909668 14.92343903 30 40 52
245937.60223389 3357635.02923584 14.91489315 27 36 43
245936.12731934 3357639.72967529 15.09752941 46 57 63
245937.58007813 3357634.43981934 14.74164867 32 39 47
245938.33489990 3357630.97534180 15.21886063 45 52 58
245937.50598145 3357637.33081055 14.40840149 104 112 123
245936.24920654 3357638.58624268 14.98674011 13 18 24
245936.72393799 3357638.15856934 14.93038177 108 114 130
245937.31524658 3357639.06878662 14.58493805 48 51 56
245938.41912842 3357632.72705078 14.94642353 45 59 72
245937.90667725 3357634.54205322 14.68230152 42 47 51
245937.14849854 3357633.93292236 14.42071819 43 52 59
245936.10479736 3357642.21051025 14.65739727 117 123 123
245936.92596436 3357638.26904297 14.80914211 96 64 75
245935.88720703 3357641.66687012 14.77854538 170 169 177
245938.23046875 3357631.43457031 14.77989101 47 51 54
245935.87860107 3357638.79705811 14.86579704 42 52 54
245938.23431396 3357637.18853760 14.37168980 145 154 161
245938.12261963 3357631.67199707 14.71519756 39 42 47
245936.88598633 3357641.22052002 14.38026333 112 113 97
245936.10943604 3357641.50494385 14.82265759 114 125 129
245937.18572998 3357635.39428711 14.79333591 51 56 60
245936.97058105 3357640.97674561 14.38292599 123 122 104
245937.66522217 3357635.69580078 14.81034565 63 72 79
245936.40478516 3357642.43005371 14.38171196 81 89 91
245938.45904541 3357630.25494385 14.48423386 70 76 74
245938.86633301 3357632.82562256 14.45454597 67 78 84
245936.51586914 3357635.43975830 14.84367466 58 60 55
245937.56292725 3357635.13269043 14.83143997 34 44 53
245936.16864014 3357639.04046631 14.85861111 24 31 37
245936.56054688 3357639.39257813 15.03158092 174 190 205
245935.52581787 3357641.79125977 14.89626789 47 51 50
245935.72552490 3357642.23675537 14.75410271 73 72 70
245936.98754883 3357641.15258789 14.36800575 174 176 155
245937.94586182 3357635.57232666 14.68472958 69 80 82
245939.08764648 3357631.23980713 14.83087540 47 52 56
245936.90386963 3357633.97851563 14.54186630 48 51 44
245937.39581299 3357634.04846191 14.54953480 48 59 63
245937.11138916 3357637.12310791 14.77639008 33 42 51
245939.29504395 3357630.44812012 14.51958179 101 107 105
245936.85131836 3357640.86566162 14.43668175 73 78 82
245937.12243652 3357638.26043701 14.76806736 70 56 71
245936.41857910 3357637.97430420 15.10074711 123 129 141
245936.97790527 3357641.40496826 14.35564041 167 171 144
245938.11175537 3357634.30963135 14.62382698 27 36 41
245937.34942627 3357633.01043701 14.79626083 79 84 88
245937.34832764 3357633.43139648 14.86555767 19 27 30
245937.16156006 3357633.26165771 15.04206562 41 52 48
245938.64141846 3357630.39001465 15.11002922 45 49 48
245936.98510742 3357635.32141113 14.71687412 47 57 59
245935.95208740 3357639.78924561 15.12639236 85 97 109
245938.64642334 3357630.51623535 14.84009743 40 52 52
245937.97485352 3357630.94073486 14.68693447 55 56 61
245936.07257080 3357640.39685059 14.89291859 31 40 47
245938.41473389 3357636.06433105 14.37574577 155 161 151
245936.61022949 3357635.68054199 14.67812061 52 61 60
245937.34759521 3357633.45434570 14.83454895 14 24 26
245938.90301514 3357631.90295410 14.78592110 26 33 39
245937.10388184 3357638.72821045 14.72107601 51 55 64
245939.28472900 3357630.22265625 14.56091118 57 62 65
245937.11383057 3357636.48712158 15.07480526 166 176 201
245938.38470459 3357634.99536133 14.48578358 67 74 82
245938.34136963 3357634.90106201 14.54237175 63 70 78
245938.07586670 3357636.29254150 14.40546036 127 141 152
245936.30755615 3357636.57281494 14.82142162 30 33 26
245935.77423096 3357639.12792969 14.68748093 18 27 24
245939.02685547 3357631.70281982 14.63269424 60 67 75
245938.90899658 3357631.19848633 14.93625069 50 58 61
245936.23431396 3357640.81463623 14.60074806 47 52 58
245936.83264160 3357637.55456543 14.49052334 106 118 130
245936.35357666 3357639.05889893 15.26945114 174 192 204
245937.66540527 3357636.86865234 14.74482059 105 110 114
245936.71752930 3357641.03015137 14.42938042 68 78 80
245936.51074219 3357642.25073242 14.44258881 107 111 112
245936.01171875 3357641.53332520 14.82008553 30 39 46
245938.82623291 3357632.50799561 14.51946068 55 66 68
245936.63110352 3357640.11352539 14.80368900 65 75 85
245936.02624512 3357640.55517578 14.89294243 30 39 48
245937.47076416 3357637.99676514 14.61323452 117 125 138
245938.65246582 3357632.20300293 14.98786068 46 53 61
245937.10778809 3357638.82769775 14.74603367 44 53 58
245936.82135010 3357640.37347412 14.73380470 57 64 74
245936.24176025 3357641.92187500 14.69754791 58 66 69
245937.04980469 3357632.66644287 15.03616428 43 60 41
245935.96759033 3357638.90979004 14.93159962 35 42 48
245937.11779785 3357635.77630615 15.08886909 38 47 54
245937.77392578 3357636.85772705 14.58345699 108 118 128
245938.18487549 3357635.92706299 14.47137165 66 77 79
245936.00915527 3357639.69561768 15.09030437 117 126 141
245937.80816650 3357636.62969971 14.56565666 125 137 149
245938.39166260 3357630.22814941 14.83431530 40 54 55
245937.32861328 3357639.91290283 14.37730885 185 184 164
245938.14361572 3357633.28100586 14.70335388 55 62 70
245936.72888184 3357640.64959717 14.60302162 131 134 141
245938.38909912 3357630.30688477 15.16525745 70 78 80
245938.86718750 3357630.64050293 14.92278862 57 69 69
245936.75421143 3357638.23284912 14.86879444 99 95 112
245936.26440430 3357636.63610840 14.89337730 25 32 24
245935.32147217 3357642.15209961 14.64643669 84 86 85
245938.10882568 3357636.28009033 14.39874458 131 145 156
245936.66253662 3357635.18328857 14.60446644 69 79 71
245935.25811768 3357642.23370361 14.48586464 88 94 94
245936.65679932 3357639.76257324 14.88679028 42 54 68
245937.85375977 3357634.71636963 14.76041508 44 51 57
245937.14605713 3357637.12664795 14.78608322 26 36 45
245938.05389404 3357637.64208984 14.37239170 121 128 134
245937.15478516 3357635.33148193 14.77095985 51 54 59
245936.01605225 3357639.01483154 14.70189762 23 33 35
245936.48785400 3357640.53790283 14.85310745 34 41 51
245939.15924072 3357630.58343506 14.63274956 91 97 93
245936.95507813 3357634.44183350 14.62274742 66 70 71
245938.77392578 3357630.56817627 14.74135876 47 55 58
245937.54748535 3357634.69818115 14.79306698 39 46 52
245936.76062012 3357636.05065918 15.00127411 18 29 35
245936.91705322 3357639.85052490 14.79529953 94 103 110
245938.35015869 3357630.16687012 14.83685493 43 58 55
245937.48760986 3357634.57012939 14.72645473 48 52 61
245937.78503418 3357632.90795898 14.68249798 39 53 56
245937.79858398 3357636.82403564 14.56027603 109 119 129
245937.11578369 3357633.94647217 14.41074371 55 64 71
245938.19909668 3357634.27850342 14.56585407 21 30 37
245936.61859131 3357640.23370361 14.75088024 59 70 74
245938.95910645 3357631.22247314 14.87085152 54 59 62
245936.75714111 3357635.59722900 14.60480118 51 60 67
245935.33428955 3357641.35278320 14.56918526 59 63 66
245936.95434570 3357637.93603516 14.73791599 132 138 150
245937.68853760 3357634.17218018 14.84506226 39 46 56
245936.87469482 3357637.98272705 14.80963039 133 140 150
245938.30444336 3357630.27990723 14.55526733 39 49 48
245935.69927979 3357641.76367188 14.79148102 136 136 138
245937.19207764 3357634.68377686 14.74359798 40 48 51
245936.71978760 3357641.26336670 14.43065929 68 75 81
245937.25018311 3357640.02587891 14.39492702 178 177 159
245935.28161621 3357641.80749512 14.66995811 35 37 36
245936.76715088 3357641.12072754 14.41215324 72 77 81
245937.43035889 3357633.49511719 14.82966995 55 66 72
245938.23559570 3357636.79412842 14.37337780 152 154 153
245938.35656738 3357632.14019775 14.98648357 38 48 57
245935.89166260 3357641.91040039 14.74948215 64 70 70
245938.27459717 3357634.45544434 14.58004284 23 32 37
245937.33477783 3357639.99670410 14.37202835 184 183 163
245937.83422852 3357631.77185059 15.01248074 30 37 45
245938.24755859 3357632.51898193 14.94964981 36 43 49
245938.32562256 3357630.59222412 15.00697231 86 92 92
245939.14831543 3357631.27343750 14.72489929 69 76 82
245938.79681396 3357630.11291504 14.48044395 45 55 57
245938.76989746 3357630.84375000 14.83070564 27 35 38
245938.25848389 3357632.96136475 14.75675869 45 58 67
245936.69982910 3357637.48101807 14.50449371 107 117 129
245937.90167236 3357632.11047363 14.85054970 42 52 54
245935.59429932 3357642.22985840 14.82921791 62 61 57
245937.31469727 3357633.51147461 14.74254036 62 71 76
245937.05639648 3357640.43835449 14.41816807 62 71 68
245938.44848633 3357633.73504639 14.44184780 64 73 80
245937.07409668 3357640.60382080 14.40162086 122 124 110
245936.73065186 3357640.21728516 14.85337543 42 51 60
245935.94580078 3357640.19171143 14.78855324 27 34 40
245936.66290283 3357638.03924561 14.89941311 123 133 145
245936.11535645 3357641.84783936 14.71137333 127 132 138
245938.79101563 3357631.13458252 14.95753670 53 67 67
245936.51257324 3357639.11108398 15.16717052 165 184 201
245937.45513916 3357636.87390137 14.82943535 71 81 91
245937.87872314 3357631.15057373 14.98704433 77 78 80
245937.85083008 3357637.18261719 14.40167141 137 146 153
245937.94531250 3357637.54199219 14.38376713 177 181 180
245938.39038086 3357636.52172852 14.37168980 148 161 170
245937.95922852 3357635.47308350 14.63191414 69 79 81
245936.91210938 3357641.57037354 14.35583210 172 175 148
245936.38916016 3357636.42626953 14.71531963 35 35 35
245938.95330811 3357630.98968506 14.86898994 31 41 43
245937.44915771 3357636.44860840 14.68741894 38 48 57
245937.09674072 3357637.44665527 14.47270393 101 111 120
245937.27026367 3357638.47113037 14.58596420 29 36 44
245937.01354980 3357637.75982666 14.50589085 118 124 136
245938.29205322 3357633.37353516 14.70381927 57 66 75
245937.32788086 3357638.85791016 14.51098347 56 65 70
245937.98822021 3357632.55505371 14.74330330 22 31 36
245936.88165283 3357633.88513184 14.71782398 43 45 40
245938.63281250 3357630.12365723 14.46149349 42 49 55
245937.36840820 3357639.91174316 14.36691761 166 167 151
245936.82031250 3357635.80371094 14.86632633 45 49 52
245935.68920898 3357641.43536377 14.89467144 36 46 56
245938.03680420 3357631.54766846 14.77369404 40 49 58
245938.59912109 3357630.10449219 14.46339417 45 53 56
245937.81970215 3357635.82904053 14.81601524 49 58 63
245938.11767578 3357630.81750488 14.79286289 52 57 61
245937.33416748 3357639.50854492 14.40328693 107 105 90
245938.36077881 3357631.50830078 14.77720165 45 55 56
245935.55499268 3357642.43664551 14.50514221 80 83 90
245938.29461670 3357630.82739258 15.10857105 35 45 47
245936.91253662 3357634.15093994 14.51091766 70 77 70
245936.59570313 3357640.84124756 14.57868195 37 48 54
245938.37286377 3357632.86975098 14.91846561 112 127 134
245937.65594482 3357632.00439453 14.88686180 84 89 93
245938.94458008 3357631.19805908 14.95134258 75 83 86
245936.46258545 3357642.06256104 14.53247547 81 86 89
245937.90270996 3357634.24383545 14.72759724 21 28 36
245937.64715576 3357636.44958496 14.64775181 81 89 100
245936.42773438 3357637.43084717 14.58807755 69 81 93
245937.70721436 3357638.62744141 14.34623051 139 142 131
245936.29730225 3357640.55584717 14.95441628 38 47 56
245938.31567383 3357635.54913330 14.45876026 87 96 95
245938.09960938 3357632.03845215 14.88890553 38 49 53
245938.20153809 3357636.73608398 14.37355328 175 180 176
245939.20306396 3357631.24029541 14.83634090 66 73 79
245936.67462158 3357635.32531738 14.57324409 90 96 96
245938.21905518 3357633.85375977 14.56528664 34 45 47
245936.15881348 3357638.78118896 15.10605812 36 41 47
245936.77038574 3357634.01385498 14.89173985 36 47 30
245937.38433838 3357634.88385010 14.83257103 34 39 45
245937.78747559 3357633.35754395 14.84570599 23 33 35
245936.23657227 3357637.27722168 14.81807518 29 34 37
245936.51196289 3357635.75103760 14.90705967 47 57 48
245937.21392822 3357635.60858154 14.88309002 52 62 63
245936.58013916 3357635.71691895 14.76587200 56 56 56
245936.17871094 3357638.76080322 15.10062981 33 40 46
245937.52679443 3357635.62957764 14.82478237 49 58 63
245937.07196045 3357640.43316650 14.41145706 62 71 68
245938.87310791 3357633.34747314 14.41614246 83 93 94
245937.25823975 3357637.80163574 14.52503872 128 134 148
245937.59997559 3357635.07019043 14.88080692 33 42 49
245936.25292969 3357638.74102783 15.13717556 25 36 38
245938.08489990 3357636.30517578 14.40309525 127 141 152
245936.91998291 3357638.98742676 15.05917263 132 144 160
245935.75750732 3357640.87445068 14.52017021 38 43 49
245937.61022949 3357637.53686523 14.41107941 120 133 141
245938.13879395 3357630.75836182 14.77645969 35 40 44
245938.06671143 3357633.17388916 14.64745426 49 59 61
245937.18310547 3357632.21130371 15.04758072 76 91 70
245936.16949463 3357640.76770020 14.64188862 103 106 111
245937.60382080 3357637.23974609 14.44088840 86 94 105
245938.61956787 3357630.80145264 14.95281410 48 55 61
245938.69708252 3357631.21832275 14.82150173 71 81 83
245937.93450928 3357633.50408936 14.89917374 63 77 90
245938.85705566 3357630.75335693 14.78885078 48 56 59
245937.12194824 3357640.50134277 14.39281368 179 182 161
245936.58044434 3357640.89654541 14.51799965 47 56 61
245935.64086914 3357640.87078857 14.49065495 44 49 55
245938.11157227 3357633.81286621 14.79979706 31 36 40
245937.86523438 3357637.69415283 14.38725758 125 134 139
245936.39489746 3357639.02416992 15.24582577 24 40 55
245938.60095215 3357632.70733643 14.70534515 46 53 59
245936.47265625 3357639.86901855 14.93869305 42 61 76
245936.41845703 3357639.13885498 15.22411251 133 150 166
245937.23754883 3357639.61248779 14.44484997 83 88 92
245936.66864014 3357642.28112793 14.36749172 193 193 167
245937.23950195 3357640.47509766 14.36857891 156 159 140
245937.06237793 3357639.25524902 14.78226089 20 27 37
245938.07330322 3357635.18023682 15.02632904 55 64 71
245937.82720947 3357634.97009277 14.96945095 29 38 43
245937.72924805 3357638.71179199 14.33540535 101 104 95
245937.56695557 3357636.26971436 14.83349609 33 43 55
245936.65887451 3357640.76025391 14.61742687 62 66 75
245936.97760010 3357636.36779785 15.24874592 108 115 133
245937.25012207 3357640.35302734 14.37022495 185 187 163
245938.19061279 3357633.56976318 14.83975506 54 59 63
245938.13018799 3357630.73132324 14.73199558 30 38 41
245936.57922363 3357637.82379150 14.59597588 123 131 142
245938.37927246 3357630.20056152 14.97812748 46 55 50
245936.52490234 3357639.47210693 14.97479057 20 30 40
245936.63464355 3357637.89117432 14.64773464 138 147 156
245937.72253418 3357632.24261475 14.83310986 43 52 59
245938.91113281 3357631.21411133 14.88198471 79 88 87
245936.43969727 3357641.27825928 14.53650951 57 67 69
245937.57489014 3357634.75665283 14.82557487 37 44 50
245937.94445801 3357633.69354248 14.86189079 53 69 82
245936.77252197 3357636.36413574 14.90692616 25 23 37
245937.43963623 3357638.04205322 14.66872215 104 106 121
245937.04565430 3357638.02734375 14.84950447 123 117 129
245936.80303955 3357636.63281250 14.93541718 83 91 104
245938.54077148 3357634.29833984 14.47737503 36 43 51
245937.87438965 3357637.12280273 14.41374588 122 131 138
245936.61773682 3357637.30133057 14.56583595 69 79 89
245938.64343262 3357632.71618652 14.63468170 50 55 58
245937.79705811 3357632.30291748 14.80193901 53 62 67
245938.40338135 3357635.44549561 14.43728542 94 98 97
245937.61346436 3357637.03784180 14.78410912 105 110 113
245936.04675293 3357641.33441162 14.52753735 56 64 66
245936.13800049 3357637.64337158 14.86808681 44 50 50
245936.59246826 3357637.95605469 14.73701668 103 112 121
245939.13903809 3357630.18389893 14.52256489 47 54 60
245936.64648438 3357639.50421143 14.93038273 18 25 33
245935.89868164 3357640.95007324 14.48951912 49 57 60
245937.48193359 3357639.35321045 14.37384796 188 186 161
245937.14819336 3357637.96832275 14.71419621 128 131 146
245936.11163330 3357640.07568359 14.65464973 70 80 89
245937.51550293 3357638.81048584 14.40869713 77 80 71
245938.17279053 3357631.38031006 14.79298401 51 56 60
245936.76202393 3357637.75457764 14.52926636 111 123 135
245936.71697998 3357638.01092529 14.79856586 129 137 150
245937.10626221 3357634.20056152 14.46282005 48 59 63
245936.19500732 3357641.30493164 14.50228882 54 64 65
245936.04266357 3357637.84985352 14.91952419 70 79 74
245936.18817139 3357638.25897217 14.72143841 187 196 213
245938.35559082 3357630.17211914 14.78874683 42 58 58
245936.59954834 3357635.76525879 14.75398159 49 51 50
245938.10778809 3357635.53497314 14.59075451 68 77 84
245936.99493408 3357637.03826904 14.83275509 64 73 82
245935.92456055 3357642.26098633 14.63989639 86 84 87
245937.55084229 3357636.14190674 14.97638988 184 204 215
245938.11541748 3357632.79345703 14.78873634 94 111 121
245937.28472900 3357633.99444580 14.47872353 49 59 61
245938.00067139 3357636.02978516 14.66362286 117 125 128
245938.38970947 3357631.74761963 14.80935955 29 43 44
245937.28778076 3357635.27093506 14.77686024 50 57 63
245937.21838379 3357637.33343506 14.43830872 104 111 121
245935.39569092 3357642.06781006 14.86008930 82 84 83
245936.98944092 3357635.03369141 14.69440651 42 53 57
245937.88732910 3357638.25506592 14.35279560 65 69 72
245936.91601563 3357633.97741699 14.52770996 44 46 41
245937.54046631 3357631.46539307 14.92663193 48 58 50
245938.11633301 3357633.63018799 14.88139439 39 46 52
245936.77532959 3357640.75195313 14.52604485 38 43 49
245938.39965820 3357631.76489258 14.81775761 25 39 42
245939.02465820 3357631.87707520 14.67394161 77 80 85
245938.51544189 3357635.17547607 14.40804768 120 125 121
245936.84869385 3357638.28485107 14.81986809 52 32 44
245939.00164795 3357632.25103760 14.54864597 56 66 75
245936.81109619 3357641.86431885 14.36236191 179 182 153
245936.51831055 3357640.24206543 14.71616364 47 55 58
245939.17266846 3357630.61346436 14.64238930 78 84 82
245936.77648926 3357638.14385986 14.90277386 114 113 129
245937.66204834 3357637.06689453 14.64540291 98 107 112
245937.86303711 3357631.38983154 14.95074749 81 92 98
245936.78729248 3357634.07385254 14.79922581 45 57 45
245936.16430664 3357639.48596191 14.91569424 49 62 68
245938.57537842 3357633.82025146 14.41655350 73 80 88
245936.88067627 3357635.32696533 14.64648438 46 57 63
245938.91540527 3357633.36114502 14.41105270 77 86 85
245936.74053955 3357635.86010742 14.85707664 73 76 81
245938.51849365 3357632.13958740 15.03695107 47 56 63
245938.61834717 3357630.36114502 14.50616169 83 89 85
245936.07781982 3357640.96105957 14.48574066 45 52 58
245935.68688965 3357640.25848389 14.91946983 57 64 70
245938.27893066 3357636.78302002 14.37342072 144 149 152
245938.91992188 3357632.16357422 14.66017342 30 37 43
245935.90844727 3357638.94219971 14.75496292 25 35 34
245937.46325684 3357638.00195313 14.62547493 117 125 138
245936.95007324 3357639.97497559 14.78739929 77 84 94
245935.57434082 3357642.19488525 14.87755013 72 71 67
245939.27209473 3357630.46960449 14.52336216 121 126 122
245935.57427979 3357640.89501953 14.46199894 45 50 56
245937.66900635 3357631.43988037 14.89715290 34 38 41
245937.62213135 3357633.17553711 14.77866840 32 44 44
245938.75933838 3357631.05859375 14.93282890 53 64 66
245938.00366211 3357632.96417236 14.68698215 46 57 63
245936.28863525 3357640.69604492 14.82181835 75 83 85
245937.55108643 3357633.69128418 14.72904873 54 63 68
245935.40093994 3357641.16833496 14.42011356 42 47 51
245936.29272461 3357641.66137695 14.77208614 139 149 158
245935.77441406 3357640.57257080 14.74803638 159 166 172
245938.53656006 3357635.33789063 14.39319801 164 166 153
245936.12109375 3357639.90753174 15.02855206 37 48 54
245936.77508545 3357637.25903320 14.59106350 85 95 105
245936.95678711 3357639.15112305 14.97741508 6 13 31
245936.26892090 3357638.01226807 14.90685177 112 116 125
245939.06091309 3357632.27239990 14.51746750 51 65 68
245935.72857666 3357640.46466064 14.96400642 23 30 38
245936.71081543 3357635.47790527 14.56019688 102 110 121
245936.19238281 3357640.71099854 14.73954964 40 45 49
245938.16345215 3357630.71142578 14.78214359 39 44 48
245937.56127930 3357638.55938721 14.40494442 78 83 79
245935.42407227 3357642.37341309 14.50628281 86 88 100
245936.29028320 3357639.03094482 15.26230049 40 54 67
245938.47430420 3357634.37896729 14.51772976 37 41 52
245938.50366211 3357630.08825684 14.49042416 51 58 64
245935.76177979 3357642.11614990 14.83457851 125 129 130
245937.17504883 3357637.22570801 14.56201458 79 86 92
245936.66680908 3357635.71807861 14.69476128 70 76 76
245936.62652588 3357639.34667969 15.02955437 92 107 126
245937.06567383 3357641.01824951 14.36229610 165 168 147
245937.54046631 3357634.92529297 14.90704536 28 35 43
245936.94281006 3357634.56384277 14.72948456 69 70 72
245938.84082031 3357630.54406738 14.70233917 49 54 57
245938.80078125 3357630.57299805 14.92852974 41 46 49
245938.19824219 3357636.37762451 14.37991047 149 166 174
245937.91192627 3357635.84631348 14.79661655 51 60 65
245938.25433350 3357632.96905518 14.74565315 45 58 67
245938.72607422 3357630.34075928 14.48300648 115 120 113
245936.12420654 3357640.64764404 14.84601688 35 42 50
245936.84600830 3357634.94982910 14.68370819 72 80 83
245938.12951660 3357631.10961914 15.18806553 99 104 107
245937.75067139 3357638.85101318 14.33292675 83 92 89
245936.47363281 3357635.90655518 14.96512413 46 56 48
245938.70941162 3357632.96728516 14.54234219 59 62 69
245938.57360840 3357634.32928467 14.47789860 42 49 55
245936.75677490 3357640.19982910 14.86078835 34 43 52
245937.08636475 3357640.32177734 14.46505070 60 69 66
245936.94018555 3357640.11981201 14.73606396 50 57 63
245938.28887939 3357631.02264404 15.25461102 48 56 59
245937.50646973 3357635.88226318 14.94463634 50 55 58
245938.40777588 3357633.40551758 14.52761936 66 75 82
245935.89605713 3357642.16656494 14.75846100 98 102 103
245935.89343262 3357639.88537598 14.97200680 98 115 125
245938.42370605 3357631.00543213 15.04208469 36 41 44
245935.84973145 3357642.18347168 14.77263832 172 173 175
245937.88696289 3357630.61791992 14.44793701 68 78 79
245937.95526123 3357637.10491943 14.40574932 134 138 139
245939.05468750 3357630.48083496 14.59366035 111 116 110
245936.27679443 3357640.51135254 14.91028786 34 43 52
245938.87872314 3357631.48913574 14.83095837 51 60 65
245936.51153564 3357637.97711182 15.00172997 102 108 120
245938.11639404 3357633.42620850 14.80041122 47 52 58
245938.44750977 3357636.12554932 14.37107086 136 142 138
245937.01593018 3357638.05841064 14.87352753 126 118 129
245936.84094238 3357640.78814697 14.45630264 63 70 78
245938.11700439 3357630.47955322 14.60280800 26 35 42
245938.54614258 3357632.29797363 15.08638382 50 60 69
245936.82073975 3357640.85766602 14.44353962 69 76 82
245937.38372803 3357633.55541992 14.71504307 69 80 84
245936.18249512 3357639.06091309 15.18008518 9 15 27
245937.07977295 3357639.55657959 14.60791206 55 65 74
245937.54833984 3357632.04040527 14.87020588 52 56 59
245936.69305420 3357638.00354004 14.78847885 129 137 150
245938.37005615 3357630.52081299 15.10853672 125 130 123
245937.03582764 3357635.27429199 14.72640419 49 56 62
245938.26715088 3357635.25488281 14.58719921 93 100 108
245936.84533691 3357638.75372314 14.88741970 55 61 73
245936.66937256 3357637.06280518 14.82027435 168 175 185
245936.63372803 3357637.12255859 14.75004196 82 91 100
245938.53527832 3357635.78259277 14.36002159 83 90 83
245937.00311279 3357636.13232422 15.21218681 34 37 52
245938.38751221 3357630.33605957 14.71044827 43 55 53
245938.15356445 3357632.07226563 14.88355446 36 47 51
245938.22369385 3357631.20184326 14.94567776 38 48 49
245936.48260498 3357636.68164063 14.76872826 75 82 88
245937.62463379 3357637.96978760 14.44621849 137 151 162
245938.80859375 3357630.75012207 14.81330776 43 51 54
245938.65734863 3357633.19396973 14.45025730 65 72 82
245936.26708984 3357637.80163574 14.83908558 91 94 103
245937.12963867 3357633.75183105 14.41697025 76 87 91
245936.38385010 3357640.05255127 14.71426678 17 25 36
245936.56933594 3357642.40441895 14.37522507 136 137 119
245937.91552734 3357630.94134521 14.68620110 50 53 58
245938.43548584 3357630.29010010 14.88691044 30 44 45
245936.99902344 3357636.92089844 14.90881634 91 99 110
245936.95373535 3357640.51593018 14.45405769 58 68 77
245936.58392334 3357637.13409424 14.74111462 60 69 78
245938.66278076 3357634.75872803 14.40026569 159 162 153
245936.59375000 3357640.34875488 14.71853256 51 62 64
245938.87548828 3357631.57922363 14.82640457 50 57 63
245938.65936279 3357632.99438477 14.61837101 69 76 82
245936.52203369 3357641.53204346 14.72781181 184 195 199
245935.58392334 3357642.45074463 14.45175362 70 73 78
245936.53912354 3357639.23242188 15.11100578 140 161 180
245937.30932617 3357639.48242188 14.41510201 71 73 70
245936.35510254 3357636.28942871 14.93368816 39 49 40
245937.94494629 3357633.19378662 14.70438385 45 53 56
245938.31201172 3357636.32067871 14.37425327 141 156 159
245938.09466553 3357633.40612793 14.79242039 44 49 55
245938.26562500 3357631.39770508 14.78546715 46 51 54
245938.63775635 3357633.45800781 14.43284512 78 88 97
245936.90216064 3357638.71057129 14.83580494 28 32 43
245938.90283203 3357630.59704590 14.76547718 39 43 44
245938.05633545 3357630.76428223 14.61579895 31 41 43
245935.32641602 3357642.15472412 14.65487289 84 86 85
245937.42797852 3357632.06072998 14.92610645 47 54 47
245936.16741943 3357641.22027588 14.43440723 59 69 71
245936.84967041 3357635.75610352 14.84843731 38 42 41
245938.01116943 3357631.89385986 15.01788521 70 75 79
245937.29376221 3357633.54779053 14.67317009 88 99 103
245937.65399170 3357638.46142578 14.37709045 115 118 111
245938.33801270 3357630.17047119 14.70390320 28 42 43
245936.62371826 3357638.15936279 15.04396057 147 160 177
245937.08111572 3357636.14398193 15.17424107 86 83 110
245937.53015137 3357634.60766602 14.74793816 41 48 54
245937.57110596 3357632.27960205 14.86546898 74 83 88
245936.77014160 3357640.86926270 14.45130253 64 71 77
245937.44561768 3357636.34478760 14.74010086 25 35 45
245938.37145996 3357631.50347900 14.77975845 45 55 56
245937.96551514 3357631.87115479 15.13894463 48 51 56
245936.87908936 3357640.59143066 14.48289108 60 70 79
245937.20898438 3357634.83740234 14.82890511 36 41 44
245936.42834473 3357641.06530762 14.46060276 58 70 70
245937.46887207 3357636.01971436 14.99442577 112 122 134
245935.53088379 3357641.48712158 15.02823067 131 126 133
245937.77069092 3357635.42944336 14.68139744 43 52 59
245938.17211914 3357630.52557373 14.72818661 45 55 57
245936.72778320 3357641.85070801 14.40431404 106 104 89
245937.43457031 3357636.54315186 14.70254707 79 88 97
245937.66607666 3357637.84051514 14.43262291 135 148 156
245935.96673584 3357642.32519531 14.52186489 45 46 48
245937.09368896 3357637.05340576 14.91930199 46 59 67
245935.20391846 3357642.32061768 14.40741348 68 73 76
245938.02850342 3357631.75610352 14.95607376 28 37 44
245935.78369141 3357639.68090820 15.01272106 148 161 169
245935.92016602 3357638.89019775 14.83710861 29 39 40
245936.91510010 3357639.58862305 14.75219154 34 38 47
245937.82989502 3357638.52307129 14.33990479 75 81 81
245936.16333008 3357639.07104492 14.74966812 15 22 30
245938.46569824 3357631.35650635 14.80237293 70 80 81
245935.99151611 3357639.05529785 14.67774677 21 29 32
245937.69311523 3357635.91821289 14.89958477 50 55 61
245938.80517578 3357631.37805176 14.82025433 55 65 67
245936.34790039 3357641.43829346 14.75089073 61 72 76
245936.31481934 3357636.51763916 14.82502270 36 37 32
245936.32556152 3357637.79931641 14.73483562 119 126 136
245936.57751465 3357641.83776855 14.52364826 77 83 81
245936.55682373 3357637.99291992 14.96038055 64 70 82
245935.46417236 3357641.66101074 14.92223358 79 80 85
245938.29974365 3357631.80712891 14.82042027 34 45 51
245937.67053223 3357634.31091309 14.82926369 22 31 40
245937.53039551 3357632.41204834 14.91401577 60 71 75
245935.99340820 3357640.67095947 14.70195103 46 50 59
245936.22442627 3357641.22277832 14.45248222 57 68 70
245938.54888916 3357632.49963379 14.88402462 55 62 68
245938.64801025 3357630.42486572 14.59795952 62 71 68
245936.80029297 3357640.19360352 14.85923100 34 43 52
245935.86834717 3357640.72363281 14.61055660 79 78 83
245938.69793701 3357632.26867676 14.83915329 47 55 58
245937.68109131 3357636.75738525 14.69462776 106 114 125
245936.53112793 3357640.86175537 14.62827396 31 41 51
245938.05456543 3357631.39739990 14.81426811 41 50 57
245938.45629883 3357633.23150635 14.52988052 58 67 76
245937.07788086 3357635.10168457 14.71312618 55 66 68
245936.58551025 3357641.84765625 14.51376724 81 87 85
245935.92462158 3357639.05975342 14.66463661 17 25 27
245936.46014404 3357640.70660400 14.79150486 36 45 54
245938.16180420 3357634.16229248 14.56178284 34 43 50
245937.41638184 3357639.93072510 14.36685181 103 106 97
245937.05187988 3357637.99072266 14.80206871 119 121 136
245936.13549805 3357637.48724365 14.86300087 30 36 34
245935.45941162 3357640.91076660 14.42312241 45 50 54
245937.55505371 3357637.21990967 14.45734406 81 87 99
245936.64202881 3357636.20635986 14.90339851 33 38 44
245937.21514893 3357640.09631348 14.42189598 145 148 129
245938.27343750 3357632.09942627 14.91383553 38 49 53
245939.33929443 3357630.40380859 14.58922291 48 54 54
245937.39721680 3357639.57623291 14.38211060 183 181 156
245937.60229492 3357632.17913818 14.89148617 66 75 80
245937.97601318 3357634.27844238 14.67063522 27 34 42
245935.21112061 3357642.23681641 14.43582249 80 86 84
245937.08099365 3357632.51007080 15.03457642 70 88 62
245936.51885986 3357635.78082275 14.90622902 50 57 50
245939.14355469 3357631.28558350 14.71663094 69 76 82
245936.47692871 3357640.21472168 14.70232201 46 51 57
245937.88543701 3357632.74462891 14.69527531 48 65 75
245936.27581787 3357639.15081787 14.81171417 22 31 40
245935.71740723 3357642.33911133 14.50670528 68 74 72
245938.43945313 3357633.17498779 14.56818962 65 76 82
245937.04071045 3357633.14678955 15.04441833 45 57 45
245938.43200684 3357631.57977295 14.81937313 37 48 52
245936.56481934 3357638.23742676 15.08740139 143 151 170
245937.37713623 3357631.78387451 14.96903706 57 68 54
245938.94140625 3357631.16351318 15.00252056 101 109 112
245936.28991699 3357637.89660645 15.00736427 119 126 134
245936.86791992 3357634.83319092 14.87865162 82 92 94
245936.70404053 3357635.61523438 14.57470703 76 83 89
245936.62493896 3357636.70153809 14.82265568 92 101 110
245935.28869629 3357642.34387207 14.43741798 48 52 55
245937.67999268 3357631.10559082 14.98128414 51 61 53
245937.98425293 3357633.67578125 14.90619564 58 75 83
245938.29138184 3357632.90081787 14.86189842 70 84 95
245938.63604736 3357632.47174072 14.69730759 50 59 66
245936.40863037 3357641.22595215 14.49303722 57 68 70
245935.89868164 3357641.52276611 14.87051678 17 24 34
245936.16650391 3357642.01843262 14.71507454 49 57 59
245936.44403076 3357637.91467285 14.88732624 141 148 158
245937.18670654 3357632.34112549 15.03178310 50 67 49
245937.57696533 3357638.01507568 14.47832012 135 149 160
245937.38018799 3357634.48010254 14.67419243 51 59 62
245938.20410156 3357634.43609619 14.59578896 24 33 38
245938.00018311 3357635.06024170 14.98754787 33 42 49
245935.99554443 3357641.89318848 14.73244095 60 68 71
245938.75805664 3357630.58862305 15.08657265 54 62 65
245937.21716309 3357639.58392334 14.47212219 75 82 88
245936.29266357 3357640.01708984 14.68852901 79 89 98
245936.98828125 3357634.77374268 14.85529137 37 45 48
245936.16937256 3357639.95953369 14.74097061 162 175 183
245937.11181641 3357634.66772461 14.74873734 39 46 52
245936.81231689 3357638.68341064 14.85813522 22 26 37
245938.33917236 3357633.18292236 14.60898018 56 67 73
245939.04296875 3357630.45178223 14.57825375 125 128 121
245937.71978760 3357632.39892578 14.79649067 35 50 55
245937.27374268 3357637.62597656 14.48622704 118 126 137
245937.55444336 3357635.85784912 14.92129803 55 65 64
245938.42773438 3357633.82330322 14.44215488 62 71 78
245938.25506592 3357634.15441895 14.51954174 38 47 52
245938.50360107 3357630.22698975 14.45780373 29 33 32
245938.39898682 3357635.19036865 14.45691967 72 80 83
245936.83172607 3357634.06872559 14.63601208 44 51 44
245939.03149414 3357632.67010498 14.43502045 71 81 83
245937.16998291 3357638.19958496 14.78407669 66 45 60
245937.74633789 3357636.82220459 14.64500904 107 117 127
245937.72888184 3357637.09991455 14.45563984 90 99 108
245938.94805908 3357632.52630615 14.48235321 56 67 71
245936.33129883 3357639.18432617 14.88520432 6 16 28
245938.57812500 3357634.06109619 14.40666580 65 73 76
245936.78918457 3357636.59240723 14.89265823 71 79 90
245936.56823730 3357639.08502197 15.12345314 164 187 203
245938.25164795 3357634.86230469 14.61355019 65 70 74
245937.63110352 3357635.08764648 14.90535545 35 44 51
245937.94415283 3357633.66711426 14.90213013 43 61 73
245937.58251953 3357633.59063721 14.81760216 41 50 59
245936.73388672 3357634.27899170 14.77262211 34 51 35
245938.32781982 3357632.45080566 15.03060436 42 47 53
245937.03894043 3357639.27258301 14.78056908 8 15 25
245938.84393311 3357631.56689453 14.85025597 55 64 71
245936.44561768 3357637.37646484 14.58111000 75 85 97
245938.35797119 3357630.29400635 15.13048840 79 89 91
245937.66387939 3357631.84136963 14.89598274 54 60 60
245937.33380127 3357636.62658691 14.74002934 81 89 100
245937.67840576 3357637.03845215 14.63415432 113 122 127
245937.80297852 3357638.24456787 14.36291504 167 168 162
245935.84387207 3357641.36578369 14.73088837 27 33 45
245939.06964111 3357632.12823486 14.58324814 39 49 51
245936.87164307 3357637.66192627 14.48853588 104 114 126
245938.41625977 3357630.24407959 14.86550236 41 55 56
245939.02465820 3357632.09063721 14.64305401 45 50 53
245935.69689941 3357639.75646973 14.97151661 80 93 99
245936.62310791 3357641.33154297 14.50564861 62 70 72
245937.63134766 3357637.19549561 14.45003033 74 82 93
245937.58380127 3357631.94384766 14.87115765 53 57 58
245938.16687012 3357630.34179688 14.75769520 71 75 78
245936.94470215 3357637.03515625 14.77984333 55 65 74
245938.42120361 3357632.19055176 15.06362915 44 53 60
245939.08087158 3357630.10076904 14.49280167 36 43 49
245937.10083008 3357632.81329346 14.99178505 51 68 52
245938.07000732 3357630.66656494 14.59443951 28 37 42
245935.44659424 3357641.97564697 14.88784981 65 67 64
245937.46075439 3357639.30279541 14.38120174 186 181 159
245936.27557373 3357637.25494385 14.78319168 39 44 50
245936.86505127 3357640.04620361 14.84440804 61 69 82
245937.34844971 3357633.42993164 14.86904716 19 27 30
245936.94207764 3357638.30175781 14.78801060 71 49 61
245937.10076904 3357637.55529785 14.47252274 112 121 130
245938.29119873 3357635.39764404 14.50136280 72 83 87
245938.14599609 3357630.97583008 15.18631268 52 56 65
245936.46972656 3357640.18457031 14.70207500 42 47 53
245937.30957031 3357635.07342529 14.79270363 61 71 80
245938.06628418 3357634.85137939 14.75577164 50 58 61
245937.47991943 3357637.40191650 14.42263889 115 124 133
245938.12969971 3357631.73968506 14.80314445 22 27 31
245936.34075928 3357641.59643555 14.80379486 139 150 156
245936.07049561 3357640.24792480 14.73195267 40 49 56
245938.99334717 3357630.87567139 14.81787586 14 24 26
245936.00433350 3357639.57257080 14.96170044 87 95 108
245938.46795654 3357634.83746338 14.48168564 65 72 80
245937.59289551 3357636.18402100 14.92563820 86 102 117
245937.50592041 3357632.33856201 14.92081070 48 57 64
245938.60070801 3357633.06860352 14.52531147 64 71 81
245936.73144531 3357640.93408203 14.44473839 65 75 77
245937.00085449 3357639.82403564 14.65330410 46 53 63
245938.35595703 3357634.92156982 14.52281761 63 70 78
245935.83624268 3357641.48089600 14.91291809 0 8 21
245936.11297607 3357640.73687744 14.66362095 57 62 68
245937.26818848 3357636.28912354 14.95290375 69 80 108
245938.11053467 3357634.51727295 14.63182163 46 56 58
245937.33441162 3357637.51409912 14.46881390 120 127 137
245939.10491943 3357630.98181152 14.83512497 31 36 40
245937.64001465 3357633.37518311 14.88175869 19 27 29
245937.05578613 3357636.24774170 15.23141384 80 79 110
245936.12658691 3357642.01660156 14.72095394 48 58 60
245938.47058105 3357630.08959961 14.50497055 51 60 65
