245976.32513428 3357695.73309326 14.12906551 30 33 38
245976.64611816 3357698.78839111 13.84908199 35 39 42
245975.43548584 3357704.07067871 13.88208580 81 83 78
245976.21716309 3357701.64398193 13.92692757 144 142 147
245975.10711670 3357701.31561279 14.43424988 157 157 159
245976.43218994 3357696.69586182 13.82434177 134 134 142
245975.22302246 3357700.43078613 14.29874134 32 43 65
245977.18078613 3357695.44317627 14.13482189 53 56 73
245975.74047852 3357701.24041748 13.84159279 12 19 29
245977.41674805 3357695.86553955 13.66630173 160 165 169
245975.02239990 3357701.20983887 14.51566601 182 182 184
245974.85150146 3357704.68829346 13.91376495 68 70 67
245976.92718506 3357698.75323486 13.87170029 45 46 48
245977.90106201 3357694.65270996 13.88770580 35 40 43
245976.38165283 3357695.56427002 14.26921177 36 43 53
245977.31005859 3357696.91961670 13.63609219 166 165 163
245975.56127930 3357702.59143066 13.84519386 52 52 54
245976.99017334 3357695.39959717 14.17081547 34 48 61
245975.02014160 3357701.28985596 14.42955112 89 87 88
245976.09466553 3357695.93566895 13.94899464 7 16 13
245974.67285156 3357703.24670410 13.68987179 41 41 41
245976.16241455 3357701.71276855 13.91096878 0 0 4
245976.66101074 3357695.46276855 13.95650482 103 110 120
245975.58050537 3357704.19226074 13.65421677 100 103 96
245976.50524902 3357699.52227783 13.76318741 36 40 41
245977.10894775 3357694.64953613 14.03173161 131 113 125
245976.55255127 3357695.08721924 13.69220448 92 94 89
245976.43865967 3357699.59918213 13.79845905 38 42 43
245975.67193604 3357699.09167480 13.61907291 184 171 137
245976.43963623 3357700.65924072 14.09302711 8 15 23
245976.00640869 3357702.22985840 13.70355988 95 94 92
245976.23114014 3357699.39337158 13.88728523 43 42 47
245975.27508545 3357701.47528076 14.12271309 79 83 86
245975.18176270 3357701.42169189 13.92140007 76 80 81
245975.90100098 3357702.38806152 13.61888599 56 55 53
245975.71777344 3357701.33618164 13.89335346 127 136 151
245975.27313232 3357701.77270508 13.92489147 38 42 45
245974.94982910 3357703.07458496 13.96190929 27 28 30
245975.18774414 3357701.47387695 13.94187164 42 46 49
245975.20434570 3357700.32104492 14.02646542 45 56 76
245976.25958252 3357695.90148926 13.91165829 14 18 19
245976.35980225 3357700.92260742 13.99162865 74 77 82
245976.41485596 3357695.84570313 13.92881584 27 29 28
245976.73608398 3357697.68853760 13.66245365 86 89 96
245974.54028320 3357704.12701416 13.89851952 36 38 37
245977.05346680 3357697.04724121 13.64383411 169 168 164
245975.41906738 3357701.31671143 14.23609924 122 134 150
245975.18176270 3357704.91119385 13.55198002 80 80 82
245975.65362549 3357701.54107666 14.12541962 36 40 43
245974.65618896 3357704.32946777 13.98226357 97 97 99
245974.69879150 3357704.54187012 13.88301182 61 63 58
245977.01007080 3357694.59313965 13.94064045 56 29 34
245975.40850830 3357702.84240723 13.75434113 18 19 21
245975.05633545 3357700.82824707 13.77051735 163 159 134
245976.87597656 3357694.87805176 14.15611172 98 98 110
245974.39428711 3357704.79284668 14.12152863 73 58 61
245975.06115723 3357704.86730957 13.58589172 42 43 47
245975.10717773 3357701.06768799 14.14158916 32 32 30
245977.50189209 3357695.19848633 13.85183716 62 60 63
245975.08422852 3357701.42895508 13.68983269 45 36 31
245975.83056641 3357702.96002197 13.55932426 53 58 61
245975.51367188 3357704.00103760 14.00073147 34 38 37
245974.87213135 3357702.54620361 13.68430805 52 50 51
245975.12377930 3357701.17224121 13.67896843 133 123 111
245976.45532227 3357695.71026611 14.10460949 26 29 36
245976.69348145 3357698.03961182 13.66137695 101 104 111
245977.27856445 3357695.29693604 14.15506744 32 32 40
245975.79608154 3357702.87548828 13.57811165 39 43 44
245976.09350586 3357701.78802490 13.86068439 156 161 165
245977.94989014 3357694.44329834 13.60053921 33 35 34
245977.81976318 3357695.35394287 13.56609821 111 111 109
245977.09625244 3357695.25817871 14.13807869 6 13 21
245975.81579590 3357698.13482666 13.65414238 159 157 158
245976.29260254 3357695.93652344 13.85275269 55 55 55
245975.94952393 3357698.44464111 13.75886631 90 91 96
245976.61077881 3357695.24066162 13.67997837 82 84 73
245975.10479736 3357704.47186279 13.74644566 46 47 49
245976.61474609 3357697.92419434 13.67511845 106 109 114
245977.65502930 3357694.56713867 13.82395744 32 32 34
245975.53515625 3357702.14190674 13.90908432 16 19 24
245976.86566162 3357696.54541016 13.87604618 110 106 105
245974.40734863 3357704.50347900 13.89426517 45 41 40
245974.75115967 3357702.67913818 13.60112858 78 75 60
245976.50415039 3357699.54864502 13.75811005 34 38 39
245975.75653076 3357703.33355713 14.23753643 24 24 26
245977.39099121 3357696.06958008 13.62153625 44 48 51
245974.72406006 3357703.01892090 13.71354485 39 40 42
245977.04309082 3357695.84722900 13.82488060 89 92 97
245975.55004883 3357702.53515625 13.90345287 53 54 56
245977.57849121 3357694.84295654 14.33141136 162 51 68
245976.24731445 3357695.64544678 14.25347805 40 48 59
245974.93707275 3357703.95336914 14.18811321 35 36 40
245976.73406982 3357696.48059082 13.90848160 69 74 78
245974.72930908 3357704.82904053 14.15948200 97 96 92
245977.66931152 3357694.98059082 14.23801899 50 28 30
245974.94866943 3357701.22747803 14.49546337 102 102 100
245975.59808350 3357701.14318848 13.84612560 27 31 34
245976.05303955 3357695.94470215 13.96784878 12 18 18
245975.88916016 3357700.68255615 14.01042557 25 30 36
245974.86303711 3357702.32336426 13.66459274 62 59 50
245976.52923584 3357700.30072021 13.71953201 75 78 83
245976.28515625 3357700.19586182 13.95944500 36 41 47
245976.23901367 3357696.90069580 13.73544121 127 126 122
245976.36401367 3357696.64300537 13.84018803 109 112 119
245977.63360596 3357695.30755615 13.63005257 53 53 53
245976.65844727 3357696.15667725 13.87073517 36 46 56
245975.67248535 3357700.57159424 14.05864048 36 41 44
245976.35998535 3357695.61120605 14.25869656 33 40 50
245977.44213867 3357696.82806396 13.62386799 88 88 90
245976.34820557 3357695.46997070 14.25910473 38 46 57
245976.00775146 3357702.19403076 14.19765854 35 39 40
245977.48718262 3357695.08782959 14.20129204 32 22 21
245975.78015137 3357699.32537842 13.70868397 72 70 73
245975.99328613 3357698.25115967 13.77207661 126 126 128
245977.39544678 3357694.77191162 14.27007675 94 83 89
245974.86889648 3357702.78198242 13.76418495 122 133 135
245975.10833740 3357702.99072266 14.02948856 75 76 80
245975.97509766 3357701.45391846 14.02746964 88 89 91
245975.96502686 3357696.95013428 13.78651524 102 102 104
245976.46990967 3357696.07879639 13.84294415 60 64 67
245976.71667480 3357696.96234131 13.72467232 116 117 119
245975.32409668 3357704.15332031 13.71881866 39 39 37
245976.88061523 3357696.38317871 14.11476135 64 73 82
245975.95751953 3357698.48260498 13.75132656 88 87 95
245976.30230713 3357695.08843994 13.68208027 24 28 31
245975.99591064 3357702.20001221 14.27091599 47 52 55
245977.41284180 3357697.11584473 13.59972095 134 134 132
245975.66809082 3357703.77252197 13.94458771 54 63 58
245976.65747070 3357694.47039795 13.67037201 172 168 141
245974.60479736 3357703.77868652 13.88890553 33 36 41
245974.33074951 3357704.60083008 14.04881382 94 65 70
245977.34802246 3357696.18798828 13.61557961 35 34 39
245975.46624756 3357699.28973389 13.59489059 100 104 87
245975.76342773 3357702.48059082 13.70287228 52 53 55
245977.48767090 3357696.59588623 13.58572197 112 113 117
245976.06994629 3357702.37670898 13.67860699 71 68 63
245976.05798340 3357702.39379883 13.89479828 51 54 45
245975.23980713 3357704.87915039 13.53791046 82 82 82
245977.22460938 3357694.29571533 13.82136822 40 44 47
245974.10797119 3357705.36785889 14.05213642 87 87 89
245977.13037109 3357697.42633057 13.61723423 65 66 68
245975.05920410 3357704.78424072 13.60517120 30 31 33
245975.33428955 3357701.23736572 14.24808788 149 161 175
245974.79205322 3357704.30932617 14.10422707 91 91 93
245977.90252686 3357695.02520752 13.63019276 111 113 108
245975.43646240 3357703.59124756 13.83871746 30 34 37
245975.04705811 3357700.89990234 13.82660007 79 77 64
245975.13659668 3357701.46185303 13.86620140 24 23 21
245977.55224609 3357695.16809082 13.74759102 60 58 59
245977.48382568 3357695.08679199 14.20793915 40 26 26
245977.19653320 3357697.59783936 13.60179996 69 73 76
245975.47497559 3357704.14544678 13.69731045 17 18 12
245975.23919678 3357701.13513184 13.91122627 55 58 63
245975.07440186 3357701.27398682 13.63138485 97 89 70
245975.69891357 3357701.13159180 13.82496548 31 34 39
245976.36126709 3357697.85009766 13.70210552 93 96 103
245976.91760254 3357697.50311279 13.65482807 59 60 64
245976.98175049 3357695.46618652 14.54338646 70 77 93
245976.77093506 3357694.71289063 14.07364082 116 94 106
245974.93865967 3357703.95135498 14.18754101 35 36 40
245976.74304199 3357696.09625244 13.82090282 18 26 29
245976.46051025 3357698.61285400 13.85153389 43 48 51
245977.48358154 3357694.69805908 14.10012341 117 94 104
245976.81677246 3357695.24670410 13.88774300 19 22 27
245976.01501465 3357702.01824951 14.26646137 5 11 11
245977.06628418 3357696.89099121 13.67409992 196 189 179
245976.61163330 3357699.76318359 13.64617538 34 38 39
245975.13684082 3357702.15063477 13.82468700 12 13 17
245975.35565186 3357703.11578369 13.90997219 19 20 25
245976.02819824 3357700.02722168 13.92011547 44 49 52
245976.49884033 3357700.02709961 13.70245552 45 50 54
245975.56433105 3357703.15576172 13.75041866 18 22 25
245976.72711182 3357695.51507568 14.10675526 87 90 99
245977.21612549 3357696.97967529 13.63017464 182 179 174
245976.48925781 3357699.87738037 13.71281147 34 39 43
245976.70965576 3357698.74114990 13.87614441 23 27 28
245975.93841553 3357700.05090332 13.93315601 43 48 51
245977.67785645 3357694.90667725 14.27568054 99 58 64
245977.10662842 3357697.97015381 13.60395813 99 102 107
245976.46307373 3357699.42169189 13.80667114 38 39 43
245974.76000977 3357704.72924805 13.98997021 104 105 100
245976.03814697 3357700.91418457 13.90526867 26 29 34
245977.21221924 3357696.13690186 13.65620232 36 40 43
245974.70056152 3357704.78149414 14.10299683 98 88 87
245975.26623535 3357701.84057617 13.91986942 135 144 143
245977.63763428 3357696.21252441 13.59328747 122 120 123
245977.30187988 3357694.33239746 13.83098984 36 40 43
245975.37597656 3357701.26708984 14.24415398 134 146 162
245975.25067139 3357703.95819092 14.13773346 113 117 118
245976.36578369 3357698.80145264 13.83067226 36 40 41
245976.33532715 3357699.16442871 13.89599037 41 42 44
245974.93054199 3357700.98999023 14.24135971 139 145 145
245975.93798828 3357702.61206055 13.53453350 65 66 70
245974.73345947 3357704.68994141 13.95740414 99 100 94
245977.98773193 3357694.47650146 13.59426594 43 44 46
245975.75006104 3357700.28259277 14.00823212 26 34 37
245975.10064697 3357701.24139404 14.19831371 58 58 58
245976.68713379 3357695.46020508 13.96107006 185 194 203
245976.38702393 3357700.15191650 13.84697437 37 45 47
245977.11260986 3357697.16876221 13.60820866 57 56 52
245975.57263184 3357699.35845947 13.60727692 181 172 139
245977.07147217 3357695.50415039 14.33582401 43 55 69
245976.88775635 3357698.79840088 13.81669044 35 37 36
245977.21093750 3357694.65289307 14.05792999 89 86 97
245977.43383789 3357695.12268066 14.21982098 32 26 26
245977.47308350 3357694.22454834 13.82247543 29 33 36
245975.03826904 3357700.86169434 14.10202885 91 88 79
245976.69213867 3357699.64739990 13.62246990 53 57 58
245975.08508301 3357703.35736084 13.94432354 30 31 33
245977.03588867 3357695.87072754 13.80006886 63 66 71
245976.38433838 3357698.54132080 13.84459877 52 58 58
245976.52893066 3357696.32702637 13.89628124 38 45 51
245976.14581299 3357699.72747803 13.86783123 45 51 51
245975.41003418 3357702.50836182 13.97290611 43 44 46
245975.52313232 3357700.91082764 13.80113029 40 41 45
245975.62158203 3357702.13281250 13.92824554 14 15 19
245977.00451660 3357695.43475342 14.25521660 40 53 70
245976.87390137 3357695.96032715 13.78350544 34 35 37
245975.14495850 3357701.54296875 13.87430286 40 40 42
245975.12200928 3357704.34790039 13.83021736 50 50 50
245975.05145264 3357700.87255859 13.82635498 124 121 104
245975.22631836 3357701.13732910 14.10529232 67 72 78
245976.09899902 3357701.94946289 14.02706242 62 65 70
245977.74206543 3357694.60473633 13.82867146 26 31 34
245976.03076172 3357701.86737061 13.91915226 26 31 34
245974.37902832 3357705.00244141 14.12227154 166 167 172
245975.03961182 3357701.58782959 13.73921299 46 38 35
245976.69952393 3357697.59698486 13.67854214 91 94 99
245977.42919922 3357695.32208252 13.84756660 49 46 53
245977.63214111 3357694.66290283 13.99258327 30 15 18
245974.39575195 3357704.27307129 13.77048016 44 44 42
245976.47845459 3357699.17791748 13.83290577 40 41 43
245976.80706787 3357697.80725098 13.63736248 89 94 100
245976.78961182 3357695.22320557 13.86011600 12 15 20
245975.57519531 3357703.41894531 14.07642460 55 59 60
245977.48315430 3357695.21710205 13.86464977 63 61 64
245975.45556641 3357701.57836914 14.05923080 27 30 35
245975.76702881 3357701.98846436 14.05151176 26 27 29
245975.16430664 3357701.21215820 13.94210911 59 61 60
245976.43914795 3357697.80859375 13.70888233 88 88 96
245976.59429932 3357695.37640381 13.70923042 35 37 36
245975.12634277 3357701.17785645 13.68407249 108 100 89
245974.20507813 3357704.72937012 13.91954899 104 100 99
245975.74389648 3357699.06994629 13.64820671 46 44 32
245976.63964844 3357698.05541992 13.68892574 99 99 107
245975.52050781 3357704.46746826 13.53676701 87 87 85
245976.79986572 3357699.32037354 13.59674168 53 53 55
245974.92395020 3357704.54803467 13.90221691 84 82 83
245976.57440186 3357695.53326416 14.23172760 25 34 41
245976.23699951 3357695.41497803 13.97554398 15 32 52
245975.68609619 3357700.10687256 13.87849522 47 50 55
245975.22900391 3357701.12512207 14.05128288 85 88 95
245975.51647949 3357702.75592041 13.73061657 47 47 49
245977.20550537 3357696.47991943 13.61457825 78 81 86
245975.76293945 3357700.99536133 13.82335091 32 38 38
245975.58483887 3357701.55413818 14.13473415 38 42 45
245977.33703613 3357695.70202637 13.79305077 34 37 44
245976.17779541 3357695.41979980 13.95049477 7 22 43
245977.60333252 3357695.28375244 13.65488243 64 66 65
245974.49566650 3357704.19818115 13.83462238 36 38 37
245975.71282959 3357701.74249268 13.91665459 172 183 189
245975.65258789 3357702.97662354 13.64795017 30 31 33
245977.45996094 3357694.77502441 14.28461933 131 91 99
245975.92559814 3357702.60729980 13.53899860 65 66 70
245976.68371582 3357698.84210205 13.81500149 27 27 29
245975.28002930 3357704.64739990 13.53523445 111 110 115
245975.50933838 3357701.09265137 13.80067253 19 20 24
245975.56671143 3357704.50494385 13.58753204 43 45 42
245975.32714844 3357701.17639160 14.00542164 126 135 142
245976.77197266 3357697.80480957 13.64294147 86 91 97
245976.71447754 3357696.64807129 13.85566807 138 138 140
245977.08673096 3357695.48388672 14.29844379 30 42 58
245975.11242676 3357701.39013672 13.72315502 32 28 25
245977.24157715 3357694.39611816 13.85108757 46 50 51
245975.30236816 3357701.74719238 13.93273449 20 23 28
245976.79467773 3357696.09027100 13.80934811 24 28 29
245975.40539551 3357699.56207275 13.59231281 128 130 106
245975.27239990 3357702.68798828 13.85672092 28 28 30
245976.42169189 3357695.50170898 14.24540806 36 45 52
245976.31945801 3357698.40966797 13.81216145 44 45 50
245976.22802734 3357699.16900635 13.93564892 44 45 47
245974.23468018 3357705.01861572 14.14315414 176 183 189
245976.39660645 3357700.45776367 14.13122177 37 44 52
245975.10424805 3357700.70275879 13.83833981 77 68 53
245974.25842285 3357704.97674561 14.10020447 152 156 165
245974.94573975 3357702.33276367 13.78037930 96 102 102
245976.28057861 3357700.27911377 14.05829144 24 29 33
245975.31286621 3357704.92376709 13.57627010 59 61 60
245975.61083984 3357704.34692383 13.59800148 68 68 66
245974.51599121 3357704.02392578 13.88534832 28 28 28
245975.05340576 3357702.84722900 13.87154102 51 54 59
245974.90148926 3357704.86914063 13.99822140 40 40 40
245975.62615967 3357699.63104248 13.64593315 52 48 37
245975.34844971 3357704.07000732 13.98785496 67 67 65
245977.09124756 3357698.38232422 13.60977364 53 53 55
245975.81994629 3357698.05761719 13.63623714 155 153 154
245975.08300781 3357703.79345703 14.00277805 36 45 44
245977.25775146 3357695.02465820 14.28244591 26 19 26
245975.71337891 3357700.71014404 13.97224712 26 29 34
245976.38922119 3357697.93054199 13.70850277 130 130 138
245976.46966553 3357695.48590088 14.17711353 44 51 57
245974.68701172 3357703.26196289 13.69566345 41 41 41
245976.37854004 3357699.77600098 13.83098316 32 38 38
245976.70019531 3357696.10253906 13.83809376 15 22 28
245975.10455322 3357703.67382813 13.90480900 26 30 33
245977.63146973 3357695.69940186 13.62060356 54 56 53
245975.69702148 3357702.06396484 13.99179935 28 28 30
245977.65161133 3357695.12292480 13.68063068 59 59 59
245974.91925049 3357704.62072754 13.88415623 58 56 57
245977.18310547 3357697.59429932 13.60403156 69 73 76
245978.05664063 3357694.36431885 13.60800457 69 69 67
245976.11022949 3357702.30749512 13.77618980 54 54 44
245975.56823730 3357703.16198730 13.75068569 18 22 25
245974.89257813 3357702.14916992 13.66887856 56 52 41
245976.29467773 3357695.30450439 13.69537735 30 33 40
245976.29980469 3357699.81024170 13.85334492 42 47 50
245975.00018311 3357701.59832764 13.64184475 85 71 58
245975.25012207 3357701.12872314 13.77131748 10 11 16
245974.86968994 3357704.37725830 14.08160686 94 94 96
245974.67645264 3357703.55578613 13.68901348 33 36 41
245977.09808350 3357695.80987549 13.84999084 112 115 120
245976.42120361 3357699.30926514 13.84920120 39 40 42
245977.15985107 3357694.69598389 14.10161877 87 80 96
245974.49822998 3357703.63012695 13.69267941 37 39 38
245976.68981934 3357697.54687500 13.68603420 89 92 97
245974.84490967 3357703.24255371 13.81113434 31 35 34
245976.05072021 3357700.57629395 14.05085087 30 35 41
245974.29101563 3357704.60607910 14.11990452 63 43 45
245976.56561279 3357697.02795410 13.74719906 76 76 78
245975.59869385 3357700.85614014 13.86255741 39 40 45
245976.08569336 3357701.15051270 13.81011581 45 49 52
245974.39556885 3357704.90875244 14.12585926 96 95 100
245976.60601807 3357698.53778076 13.89972687 26 29 34
245976.69818115 3357699.13122559 13.69824028 43 43 45
245976.37646484 3357696.72515869 13.81026936 130 133 140
245977.60479736 3357695.56817627 13.62794781 92 94 91
245975.46557617 3357701.85528564 13.94703293 138 153 160
245976.49096680 3357698.13549805 13.71923733 113 116 123
245977.07360840 3357698.02374268 13.60558701 94 97 104
245976.26654053 3357700.83105469 14.06098747 11 16 20
245976.99053955 3357695.41619873 14.19908142 42 55 71
245976.10577393 3357702.49664307 13.70231342 50 50 42
245974.67388916 3357704.36743164 13.96152973 100 100 100
245976.28417969 3357700.35864258 14.12673092 16 21 24
245975.98437500 3357700.12902832 13.99975586 42 47 51
245976.05541992 3357695.51544189 14.18244553 20 38 58
245975.59783936 3357703.50073242 13.97708035 68 69 71
245975.35571289 3357704.26531982 13.63259983 39 38 36
245976.19946289 3357697.13104248 13.80434418 54 51 46
245976.94445801 3357697.19122314 13.66301537 63 65 62
245974.74499512 3357704.38824463 13.99211121 60 60 60
245977.03314209 3357694.87329102 14.17596054 45 42 51
245976.16351318 3357701.27618408 13.92825985 29 32 37
245975.80755615 3357699.81762695 13.77966309 48 52 53
245975.29229736 3357700.40802002 14.20697021 62 66 77
245974.84448242 3357702.27252197 13.63303185 69 65 54
245976.77105713 3357696.02508545 13.80583477 31 35 38
245976.75885010 3357695.54364014 14.24610710 32 34 46
245977.23278809 3357697.17572021 13.58337307 83 82 78
245976.23205566 3357696.25549316 13.95602322 42 43 48
245974.58050537 3357703.38873291 13.64039421 36 33 28
245974.50396729 3357703.61645508 13.68546295 37 39 38
245976.94836426 3357695.04907227 14.09429932 24 24 32
245975.57513428 3357703.19079590 13.79634666 18 21 26
245977.58776855 3357695.07049561 14.14237309 40 30 28
245975.58776855 3357702.87396240 13.68444538 35 35 37
245976.97393799 3357694.75506592 14.14359951 49 52 61
245977.66027832 3357694.73345947 14.16650295 98 26 38
245974.82391357 3357703.62884521 13.80321503 58 59 64
245975.58526611 3357699.56518555 13.61802959 91 79 55
245974.73455811 3357703.27752686 13.72035503 40 42 41
245976.24639893 3357699.27301025 13.93294430 43 44 46
245975.73931885 3357703.64135742 14.10130787 31 33 28
245975.96636963 3357702.33288574 13.62518311 65 64 62
245976.99499512 3357696.30999756 13.97970963 112 117 123
245977.50500488 3357694.45617676 13.80742645 27 31 32
245974.22686768 3357704.65118408 13.97731209 82 72 70
245975.13885498 3357703.66503906 13.89947414 29 33 36
245975.33587646 3357704.52740479 13.55014133 43 43 43
245974.92303467 3357704.37536621 14.08886719 115 113 116
245975.30261230 3357703.22033691 14.02168846 32 33 35
245976.38934326 3357699.28881836 13.86996269 39 40 42
245975.13446045 3357705.01348877 13.70373535 35 38 43
245977.22039795 3357696.84008789 13.66302013 178 174 171
245974.03454590 3357705.14581299 14.27728653 82 79 86
245975.98577881 3357699.30731201 13.87736034 46 47 51
245977.52117920 3357694.68121338 14.06292629 110 87 97
245975.73510742 3357702.66473389 13.65434551 50 54 53
245976.51354980 3357695.42950439 13.91911221 17 20 29
245976.13116455 3357700.00360107 13.90308285 45 50 53
245975.38824463 3357701.09222412 13.76502037 21 22 26
245975.84301758 3357701.71624756 13.98441696 74 84 86
245976.42315674 3357694.72766113 13.76865959 128 127 123
245977.37249756 3357696.19244385 13.60842037 33 32 37
245975.17022705 3357704.17822266 13.96519089 52 54 49
245975.48919678 3357700.04498291 13.65581322 68 59 54
245977.15612793 3357697.81005859 13.60167599 72 77 83
245976.53002930 3357699.10888672 13.80975151 59 59 61
245976.73101807 3357695.54937744 14.40398693 95 102 112
245976.00494385 3357697.09454346 13.73880959 114 115 109
245974.85137939 3357702.94433594 13.82692623 88 93 96
245975.44464111 3357700.62957764 13.98362446 52 54 53
245975.17327881 3357701.23065186 13.91008759 137 141 142
245975.62359619 3357703.31091309 14.28226948 149 153 156
245976.58972168 3357700.00738525 13.61793995 58 59 61
245976.41033936 3357699.58074951 13.82363224 37 43 43
245976.43182373 3357696.53070068 13.87080002 100 101 105
245977.30194092 3357697.08538818 13.59734726 62 63 58
245976.64660645 3357699.07794189 13.76556110 43 43 43
245976.17730713 3357701.85003662 13.86262131 100 105 109
245975.57775879 3357704.73284912 13.76655579 38 40 29
245975.10443115 3357702.78942871 13.84235954 21 25 28
245974.65502930 3357704.39837646 13.92647076 87 87 89
245977.56195068 3357694.45745850 13.78520203 28 29 31
245975.19689941 3357704.55993652 13.60035801 47 48 50
245976.34039307 3357698.86450195 13.82216549 45 49 50
245975.63897705 3357703.15710449 13.71534348 22 27 31
245977.63421631 3357694.74621582 14.20117950 117 35 49
245975.42816162 3357701.27398682 14.19267082 93 103 113
245975.86730957 3357702.43542480 13.61598682 56 58 57
245975.75793457 3357699.22198486 13.68472099 55 55 55
245974.86291504 3357703.92779541 14.17560291 31 32 36
245976.15722656 3357695.57568359 14.23607063 29 41 55
245976.90673828 3357695.74963379 14.20319939 112 113 118
245976.52770996 3357698.79779053 13.84987736 33 41 43
245975.08520508 3357704.99981689 13.72824669 38 39 43
245975.94500732 3357699.05548096 13.85728455 69 71 70
245975.95593262 3357702.10754395 14.35947514 71 78 84
245976.26348877 3357696.36267090 13.91101360 33 34 39
245975.95764160 3357696.65136719 13.73419762 120 122 135
245976.82116699 3357698.46667480 14.06203938 31 32 34
245976.70391846 3357694.18145752 13.63936329 161 161 137
245977.39501953 3357695.03393555 14.32048321 30 18 20
245976.38708496 3357696.44909668 13.88836956 74 75 80
245975.08862305 3357701.31597900 14.32295513 84 84 84
245974.86297607 3357702.42053223 13.66692162 48 47 43
245975.66156006 3357704.41961670 13.68456745 39 42 33
245975.00421143 3357702.58374023 13.86933517 64 65 69
245977.48339844 3357694.48999023 13.83965492 34 35 37
245975.11749268 3357701.55810547 13.84099197 49 48 46
245974.91076660 3357701.18841553 14.50351620 101 101 99
245975.08807373 3357700.36810303 14.32555199 32 54 93
245975.39569092 3357699.98999023 13.61250782 173 161 135
245976.40380859 3357700.56964111 14.12360573 5 12 20
245975.49139404 3357702.50024414 13.97241211 45 49 50
245976.32983398 3357698.59552002 13.83492184 64 68 67
245975.58715820 3357701.38909912 14.05513382 85 87 99
245975.99310303 3357698.87225342 13.79255390 52 50 53
245974.93005371 3357704.64318848 13.87975216 91 91 89
245976.09960938 3357702.41064453 13.75057983 43 43 33
245976.05346680 3357698.84350586 13.80455685 43 41 46
245976.34442139 3357696.44738770 13.88749695 86 87 92
245977.00659180 3357696.34741211 14.02310371 118 123 129
245976.73547363 3357697.36328125 13.76217556 92 93 97
245975.21008301 3357703.03125000 13.95487881 58 59 64
245975.53991699 3357700.99542236 13.77949047 32 33 37
245976.69451904 3357700.13684082 13.67830563 66 66 68
245975.03698730 3357700.80273438 14.06136703 93 86 80
245977.49877930 3357694.43310547 13.80915642 26 27 29
245977.49920654 3357695.13775635 14.06527424 41 37 38
245975.98504639 3357701.64666748 14.10268593 129 135 133
245976.01055908 3357698.01440430 13.65683174 129 128 133
245974.94934082 3357701.05169678 14.44343662 39 44 47
245974.98370361 3357702.16656494 13.74335384 29 30 32
245976.63854980 3357696.68804932 13.83737850 135 136 140
245975.59985352 3357702.61907959 13.79332733 51 51 53
245974.69458008 3357703.74658203 13.95085430 26 29 34
245975.92883301 3357698.40734863 13.76028442 89 88 94
245976.50250244 3357694.89978027 13.75044155 24 27 20
245976.21624756 3357696.64428711 13.81972694 119 121 120
245976.83483887 3357695.59808350 14.54866505 91 95 104
245974.52423096 3357703.72198486 13.75832939 29 32 37
245976.05310059 3357697.20385742 13.70428371 186 179 153
245975.35925293 3357704.14044189 13.69769955 31 30 28
245974.93487549 3357703.82452393 14.09241676 33 34 38
245976.76977539 3357696.32379150 14.01329994 42 55 63
245976.42730713 3357698.88879395 13.83015919 43 47 46
245976.56207275 3357694.61212158 13.66721725 75 73 61
245975.14001465 3357702.67297363 13.87699223 22 26 29
245975.07897949 3357704.99127197 13.71962833 38 39 43
245976.48211670 3357699.74200439 13.73766994 38 42 43
245976.44781494 3357697.88159180 13.70757771 90 91 96
245977.47552490 3357695.80895996 13.65732098 35 36 40
245975.53845215 3357704.59796143 13.56833649 40 40 38
245975.96026611 3357697.39611816 13.65496826 152 152 128
245976.42700195 3357696.91345215 13.72467613 114 114 116
245976.40100098 3357698.55377197 13.84644032 47 52 55
245976.01660156 3357701.95599365 14.13085938 93 94 99
245976.11596680 3357702.17675781 13.77508545 73 74 69
245976.07470703 3357698.09893799 13.67600346 156 153 160
245976.57830811 3357700.02447510 13.62214184 43 47 50
245975.26531982 3357701.14544678 13.85821152 11 14 19
245974.70550537 3357703.72863770 13.94204521 26 29 34
245975.57617188 3357703.17736816 13.76330376 15 18 23
245975.14190674 3357702.49133301 13.96488476 28 27 32
245975.38385010 3357704.68395996 13.51920605 79 79 79
245975.05670166 3357700.71533203 13.93517494 71 61 49
245975.87292480 3357702.26892090 13.74603271 50 50 52
245974.45404053 3357704.86340332 14.14065170 67 55 57
245976.83245850 3357697.30291748 13.71434498 83 84 86
245976.27581787 3357698.64465332 13.82622910 45 51 51
245975.21606445 3357704.15826416 13.88715363 54 54 52
245975.47039795 3357701.98992920 13.93346786 35 36 41
245976.98907471 3357697.02874756 13.65976524 184 183 179
245975.53454590 3357700.29876709 13.94510555 33 40 48
245975.21594238 3357700.44567871 14.30191135 22 30 49
245975.38958740 3357701.16809082 13.81685543 14 15 20
245976.18920898 3357701.74212646 13.90117455 2 2 4
245975.96649170 3357698.60589600 13.72526455 49 48 53
245976.48168945 3357696.09667969 13.84306908 66 71 75
245975.16479492 3357701.16717529 13.91351223 79 81 80
245975.62762451 3357702.87597656 13.66486645 37 38 40
245975.14990234 3357705.02111816 13.70087433 30 33 38
245977.14837646 3357696.20666504 13.67343616 32 36 39
245975.85882568 3357701.58233643 14.08868027 77 78 83
245975.00592041 3357701.88537598 13.73493385 69 69 59
245975.91589355 3357701.04376221 13.81073380 32 36 39
245976.05041504 3357695.96533203 13.95776844 14 20 20
245976.14636230 3357700.68261719 14.06996155 28 31 36
245976.42120361 3357700.26898193 13.90958309 33 36 41
245976.00665283 3357698.22351074 13.75294876 164 162 165
245974.82598877 3357704.74951172 13.97805023 87 87 85
245977.41851807 3357696.80957031 13.61650944 112 113 115
245974.82104492 3357704.02886963 14.21832085 108 109 114
245976.03161621 3357700.45343018 14.06635952 22 27 33
245975.71130371 3357700.12573242 13.91749382 44 49 53
245976.39312744 3357698.46826172 13.85361576 41 45 48
245976.55725098 3357696.59820557 13.86602116 54 58 61
245975.17346191 3357701.70471191 13.89612865 33 31 34
245975.49871826 3357702.00384521 13.93590260 42 43 48
245975.05102539 3357705.04382324 14.08506298 14 18 27
245976.91467285 3357698.41693115 13.78926277 32 33 35
245976.93969727 3357697.07006836 13.66036606 121 122 117
245976.83050537 3357695.65325928 14.52338982 71 75 84
245976.21234131 3357700.58294678 14.10626793 32 37 43
245977.96154785 3357694.53009033 13.64471722 50 54 55
245976.47381592 3357695.97674561 13.83090305 79 80 82
245975.57250977 3357704.75280762 13.76940250 46 48 37
245976.73297119 3357695.44793701 13.95538998 208 219 225
245975.34857178 3357701.10430908 13.76122093 17 18 23
245976.76837158 3357695.81970215 13.82234573 36 40 41
245975.26287842 3357703.08636475 13.97434711 30 31 35
245976.26776123 3357701.50860596 13.95207024 166 169 178
245975.49041748 3357700.74926758 13.88843441 31 30 35
245977.96600342 3357694.47235107 13.58114243 41 42 44
245976.84558105 3357696.29199219 14.02630138 55 64 71
245976.36492920 3357700.47540283 14.15631580 31 38 46
245974.62707520 3357704.74261475 14.09518623 112 98 97
245975.70489502 3357698.94989014 13.63387489 154 141 106
245975.71630859 3357702.62554932 13.67983723 53 57 58
245976.18811035 3357696.41040039 13.87808514 39 42 47
245975.00872803 3357703.84271240 14.09651279 40 46 46
245975.54138184 3357700.74084473 13.92602253 33 34 38
245976.87255859 3357695.76837158 14.00086594 113 116 123
245975.23748779 3357704.13714600 13.87401390 49 49 47
245976.83508301 3357696.44158936 14.01774979 125 132 140
245974.80096436 3357704.73303223 13.97949314 113 114 109
245976.79034424 3357695.45104980 13.98466969 211 222 226
245976.18859863 3357697.84765625 13.68236160 89 90 95
245975.84063721 3357701.69702148 13.99867916 57 65 68
245977.27233887 3357697.28424072 13.57140064 113 112 108
245975.16510010 3357701.35235596 14.09953403 63 63 61
245975.64422607 3357700.23400879 13.94463825 71 74 79
245977.93121338 3357694.51910400 13.66250324 29 33 32
245975.75830078 3357699.70678711 13.73249817 46 50 51
245975.57177734 3357699.39385986 13.60869217 182 171 141
245977.46923828 3357696.12365723 13.59382057 47 48 50
245976.18280029 3357699.69067383 13.87431717 43 49 49
245976.36383057 3357701.39208984 13.76907253 70 71 73
245974.95452881 3357703.55249023 13.80498600 31 35 38
245976.07202148 3357702.18151855 13.87865448 60 62 57
245976.60253906 3357695.45721436 13.95572376 12 16 27
245976.11938477 3357698.98205566 13.89260197 47 47 45
245977.63421631 3357695.06646729 13.92381763 35 34 32
245976.41302490 3357696.30035400 13.91308689 29 32 37
245975.21380615 3357701.29296875 14.32002831 115 119 130
245976.42517090 3357699.88146973 13.77379417 33 38 41
245975.06738281 3357704.25640869 14.03815460 86 86 86
245976.95574951 3357696.11968994 13.76999569 45 44 50
245976.23382568 3357697.04370117 13.80043125 49 48 43
245976.87683105 3357695.74786377 14.14749050 88 89 94
245975.34625244 3357700.49835205 14.16027546 82 81 86
245975.30114746 3357701.14337158 13.78844166 11 14 19
245976.21667480 3357697.40844727 13.71845055 102 101 99
245975.49896240 3357702.90496826 13.71380520 26 26 28
245975.88165283 3357697.46459961 13.63388824 112 113 108
245975.62084961 3357703.19647217 13.77097034 22 30 33
245975.04992676 3357700.74688721 14.15606880 57 58 62
245977.02435303 3357695.38153076 14.18120193 51 65 78
245976.91278076 3357698.30541992 13.66425800 56 55 60
245976.91418457 3357695.45800781 14.46483707 104 111 121
245976.96221924 3357694.47576904 13.82205868 39 38 36
245975.76556396 3357702.41094971 13.74109268 51 53 52
245976.78479004 3357696.77105713 13.77184391 154 152 153
245976.35882568 3357699.66601563 13.83767700 43 49 49
245975.57354736 3357704.72808838 13.73909569 38 39 31
245975.65264893 3357699.95947266 13.76879883 53 53 55
245975.01873779 3357700.56970215 14.35236549 62 81 98
245977.70788574 3357694.65032959 13.93647957 29 27 28
245974.80108643 3357704.03417969 14.22325039 122 121 127
245975.77661133 3357702.01647949 14.05001354 24 28 29
245974.43634033 3357704.35650635 13.84807682 39 38 43
245976.48937988 3357694.56823730 13.64272594 59 64 58
245974.88555908 3357701.09387207 14.31790066 65 66 68
245975.21490479 3357701.11181641 13.75490761 33 33 33
245976.71484375 3357696.91632080 13.73463917 139 140 142
245975.92730713 3357702.13928223 14.05231476 30 35 31
245977.21020508 3357694.63940430 14.03397274 91 83 96
245974.62145996 3357703.75549316 13.87152004 31 32 37
245976.32446289 3357695.45782471 14.25788403 37 45 58
245977.01721191 3357695.46978760 14.46026134 88 95 113
245974.81408691 3357705.01434326 14.19441223 28 28 30
245974.53472900 3357704.99682617 14.16237354 30 31 33
245975.10766602 3357701.22644043 14.15887642 57 57 55
245977.02038574 3357697.66729736 13.62275505 49 54 60
245975.16583252 3357704.11590576 14.05941010 34 34 32
245976.35516357 3357696.42254639 13.89358425 46 49 54
245976.49938965 3357694.50561523 13.62918472 68 73 67
245975.36834717 3357703.46032715 13.90573978 34 35 39
245976.73681641 3357697.59942627 13.67348480 87 90 97
245975.38513184 3357700.74859619 13.82863808 18 19 21
245975.88739014 3357698.43994141 13.73268414 82 81 86
245975.83276367 3357698.24090576 13.70975685 109 109 109
245975.86883545 3357701.48181152 13.99654961 104 107 112
245975.41003418 3357701.44927979 14.22504044 133 140 148
245976.51684570 3357700.12109375 13.70037842 39 40 44
245977.71807861 3357694.94940186 14.25830364 59 29 31
245975.92706299 3357699.57696533 13.82318020 46 50 53
245975.41113281 3357701.19036865 13.85307026 43 46 53
245974.48950195 3357704.13018799 13.82792854 50 50 50
245976.41931152 3357698.57916260 13.84727859 46 51 54
245975.52117920 3357700.21380615 13.83084774 66 69 74
245975.71563721 3357699.97454834 13.81826496 51 52 54
245976.39324951 3357699.28045654 13.86905384 38 39 41
245976.65051270 3357699.01751709 13.78060246 42 42 42
245977.72705078 3357695.09692383 13.62409782 46 48 45
245976.77124023 3357698.43847656 14.07715321 21 22 26
245977.80206299 3357694.96612549 13.68102741 27 27 27
245976.40557861 3357696.15417480 13.85970020 12 17 21
245977.44927979 3357695.37536621 13.78693867 42 43 48
245975.27532959 3357700.55657959 14.08493328 53 51 56
245976.59722900 3357695.58343506 14.21866035 31 35 44
245976.71594238 3357696.96643066 13.72396851 116 117 119
245975.39440918 3357702.10522461 13.90234470 26 25 30
245974.91271973 3357701.00286865 14.29200649 143 152 151
245976.10589600 3357698.96789551 13.88871956 55 55 55
245976.85089111 3357698.88647461 13.77637959 20 21 23
245976.18176270 3357696.83447266 13.78314972 151 152 134
245975.86236572 3357698.72625732 13.67575169 36 32 33
245975.13836670 3357701.57373047 13.86568451 51 49 50
245976.24475098 3357698.40112305 13.82496834 38 39 43
245974.89831543 3357704.45391846 13.98260307 46 46 46
245975.51068115 3357700.70727539 13.94170856 32 33 37
245976.34124756 3357699.70068359 13.84243298 41 47 47
245974.84875488 3357704.38189697 14.06386471 94 94 96
245974.22674561 3357704.62762451 14.03436279 55 44 42
245975.95361328 3357697.28540039 13.66427326 95 97 86
245975.49365234 3357700.59429932 14.04290771 47 48 52
245977.17047119 3357695.21185303 14.15927792 27 30 35
245975.49035645 3357701.22595215 13.90284157 97 101 112
245977.64581299 3357695.05908203 13.90082455 35 34 32
245977.81774902 3357694.70343018 14.04238605 28 21 28
245976.36859131 3357695.46337891 14.21855736 31 39 50
245975.62017822 3357704.15496826 13.83282852 76 82 68
245975.21826172 3357703.70751953 13.89674664 27 31 34
245976.25622559 3357697.93029785 13.69396496 141 142 147
245975.37384033 3357703.62152100 13.82966328 31 32 34
245975.35839844 3357704.13153076 13.71103954 28 28 26
245975.22064209 3357703.97308350 14.16790295 98 102 101
245976.05438232 3357695.93768311 13.97100830 12 18 18
245975.05963135 3357701.42590332 13.64686203 95 82 65
245975.03643799 3357701.13055420 14.19819164 87 92 88
245977.22717285 3357696.19433594 13.65065479 25 29 30
245976.22119141 3357695.50054932 14.25868225 29 42 58
245976.29370117 3357696.42309570 13.89162540 64 65 70
245975.39855957 3357703.09613037 13.84326172 12 13 17
245976.77282715 3357695.54565430 14.51303291 199 206 216
245975.24731445 3357701.13293457 14.05561352 85 88 95
245975.10168457 3357701.30358887 13.67861938 80 71 54
245975.28497314 3357700.62078857 13.98039055 42 44 41
245975.05609131 3357702.56225586 13.93572903 65 66 70
245977.24615479 3357695.26361084 14.22361851 32 33 38
245975.76544189 3357699.87902832 13.79321861 43 44 46
245975.01416016 3357701.45361328 13.60022068 131 116 95
245976.71484375 3357697.07696533 13.74471092 82 83 85
245976.20074463 3357700.72021484 14.08209419 18 21 26
245974.48474121 3357704.06695557 13.83677578 45 45 45
245976.02111816 3357700.11816406 13.99832439 41 46 50
245976.09942627 3357695.60534668 14.21444130 21 33 45
245975.18994141 3357702.11163330 13.85084057 19 19 21
245975.10418701 3357700.56359863 14.34789276 67 104 131
245977.29699707 3357694.93646240 14.32554626 45 32 39
245975.15692139 3357700.60180664 14.19409180 20 29 44
245976.34954834 3357698.19592285 13.71191406 134 135 140
245976.30291748 3357700.11279297 13.89842796 35 38 43
245976.05328369 3357701.96417236 14.10762215 94 95 100
245975.18847656 3357701.38555908 13.93508244 103 107 108
245975.65936279 3357698.58435059 13.64600658 52 53 55
245975.77563477 3357702.48010254 13.68789864 52 53 55
245975.89654541 3357701.68206787 14.04410744 80 90 92
245976.88195801 3357698.33807373 13.72497940 34 33 38
245976.13330078 3357700.48913574 14.09442616 22 27 33
245976.28466797 3357701.21368408 13.74989033 64 68 71
245976.14501953 3357697.00012207 13.82274628 69 69 57
245974.36169434 3357704.27197266 13.73478508 41 37 36
245977.04083252 3357698.28717041 13.61472511 66 66 68
245977.65344238 3357695.02777100 14.16983795 26 12 11
245975.56732178 3357701.93225098 13.95434189 26 34 37
245976.34667969 3357696.11315918 13.84825611 58 62 65
245974.98291016 3357705.06195068 14.14292717 31 34 41
245975.60607910 3357703.31250000 14.18381023 68 73 76
245975.12561035 3357704.32543945 13.84858227 53 53 53
245976.37402344 3357700.19287109 13.89030361 34 39 42
245975.38494873 3357704.26495361 13.61684418 39 35 34
245975.03955078 3357701.13476563 14.19662380 87 92 88
245974.97277832 3357702.62353516 13.80924034 37 43 43
245977.32586670 3357697.03747559 13.60661793 97 98 93
245975.56585693 3357700.35296631 14.04125500 31 38 46
245974.59350586 3357704.75964355 14.15480137 129 111 109
245975.16107178 3357701.27587891 13.98048115 64 66 63
245976.84228516 3357697.59301758 13.65882587 77 80 85
245974.95983887 3357704.77160645 13.81017017 76 78 75
245977.29669189 3357695.41271973 14.01275444 40 42 55
245974.86694336 3357703.86633301 14.14712620 37 38 42
245975.77026367 3357697.80950928 13.58040047 121 125 126
245975.62109375 3357702.16784668 13.91013527 33 32 37
245975.55047607 3357704.51678467 13.57000732 47 47 45
245977.11120605 3357696.07659912 13.69213295 43 44 48
245976.09710693 3357698.57434082 13.79241085 74 77 84
245975.18243408 3357700.99487305 13.68727207 102 102 92
245977.21807861 3357695.07397461 14.22504330 26 27 31
245976.39288330 3357697.68890381 13.69885540 83 86 93
245975.29095459 3357704.85626221 13.52689171 77 77 77
245976.91174316 3357694.21704102 13.72211075 40 37 32
245977.46807861 3357696.08026123 13.60324764 47 51 54
245977.68817139 3357695.04235840 13.94714832 35 36 31
245976.85418701 3357696.37658691 14.09006405 64 73 82
245975.26544189 3357704.57965088 13.56507301 39 39 39
245974.77966309 3357704.77404785 14.03085518 65 64 60
245975.97650146 3357702.04931641 14.36334515 48 56 59
245976.50524902 3357695.67492676 14.13125038 25 30 36
245976.54138184 3357698.89575195 13.83874512 46 50 49
245974.79449463 3357702.51184082 13.61102295 88 82 70
245975.63580322 3357704.17486572 13.82880020 76 82 68
245975.62121582 3357699.22625732 13.60949612 162 148 122
245975.02618408 3357704.98156738 13.84773350 49 53 56
245976.52905273 3357696.39752197 13.89603043 13 18 22
245976.09942627 3357695.56195068 14.21252537 18 31 48
245974.65985107 3357704.24511719 14.05960083 83 84 88
245976.47320557 3357695.42376709 13.90237617 15 19 30
245976.05761719 3357700.00335693 13.90542984 45 51 51
245976.38262939 3357697.26159668 13.80855370 74 75 77
245975.47534180 3357703.10424805 13.77196693 14 15 17
245974.84967041 3357704.14489746 14.17962551 130 129 135
245976.98059082 3357694.83563232 14.16972065 110 108 121
245976.78613281 3357696.29156494 14.03104210 83 96 104
245977.30377197 3357696.96417236 13.62603378 159 158 154
245975.14410400 3357703.66711426 13.90291691 29 33 36
245975.23236084 3357702.73516846 13.82932091 24 25 27
245975.92889404 3357702.46917725 13.57591629 59 59 59
245977.69757080 3357694.60937500 13.85098457 27 31 34
245976.96887207 3357695.23608398 14.02704525 28 36 39
245975.18145752 3357704.17358398 13.94564056 54 56 51
245975.98205566 3357698.23522949 13.75942802 152 150 153
245975.63928223 3357699.83465576 13.68243694 53 55 54
245975.64007568 3357698.88214111 13.62722397 195 186 147
245975.19207764 3357702.13781738 13.84624672 17 18 23
245976.83453369 3357697.50213623 13.67024231 72 73 77
245975.98071289 3357702.13073730 13.94443607 16 18 15
245975.73229980 3357701.68450928 13.96413231 67 70 77
245974.20025635 3357704.97186279 14.02182102 136 139 146
245974.67669678 3357705.14697266 14.15464592 34 34 36
245975.51477051 3357704.13684082 13.71847248 18 21 14
245976.59252930 3357694.57049561 13.65989876 119 114 94
245975.84777832 3357697.84338379 13.60001469 110 112 111
245974.96862793 3357702.30487061 13.78273964 113 119 119
245977.49841309 3357695.29669189 13.74344063 55 56 58
245977.36480713 3357696.22521973 13.61030197 30 29 34
245976.78607178 3357699.55017090 13.59584236 102 103 105
245975.12249756 3357704.10235596 14.10892773 29 31 28
245974.52795410 3357705.09484863 14.13895512 20 21 23
245975.82861328 3357697.85870361 13.59598160 116 116 114
245976.61791992 3357696.43341064 13.89635658 28 33 39
245974.58813477 3357704.42797852 13.91403675 68 68 68
245975.48059082 3357704.89593506 13.63358688 63 64 59
245975.53613281 3357701.54016113 14.14277935 51 55 56
245976.40197754 3357700.22686768 13.89191723 29 34 38
245976.60174561 3357699.85980225 13.63115883 35 39 42
245975.38854980 3357700.65185547 13.93117619 43 45 44
245975.14398193 3357703.38269043 13.94289780 30 31 33
245976.39965820 3357697.85540771 13.70651436 92 95 100
245975.60357666 3357701.31524658 13.94447327 99 107 120
245976.21301270 3357700.96490479 13.89663029 70 75 81
245976.02642822 3357701.78771973 13.89914799 10 15 21
245975.09051514 3357700.56750488 14.35273743 67 104 131
245976.40966797 3357700.29022217 13.97051239 31 36 40
245976.13464355 3357699.22650146 13.94503689 45 46 48
245976.27557373 3357698.72473145 13.82367611 44 48 51
245976.65972900 3357698.79901123 13.84216976 27 28 30
245976.88610840 3357695.86456299 13.84724712 105 104 110
245975.41778564 3357704.08209229 13.84557724 94 95 90
245976.05108643 3357702.01190186 14.20247078 9 10 12
245976.83532715 3357695.13928223 13.94102764 68 68 66
245975.43896484 3357701.24078369 14.06820679 97 104 114
245975.93511963 3357702.12823486 13.99345207 10 14 13
245975.38043213 3357704.55493164 13.53548717 43 45 42
245975.47064209 3357704.33074951 13.56516266 67 67 65
245975.95642090 3357699.94604492 13.87240219 41 47 47
245976.51281738 3357697.05767822 13.79375362 39 39 39
245976.24035645 3357698.40295410 13.82824516 34 35 40
245975.90002441 3357698.19598389 13.70059395 127 126 124
245976.39624023 3357699.31823730 13.86172009 39 40 42
245975.21893311 3357700.67504883 13.83963680 67 69 58
245975.92755127 3357703.01007080 13.61616039 62 66 67
245975.60711670 3357702.60778809 13.79998589 51 51 53
245976.55517578 3357698.94470215 13.81925392 52 54 53
245975.89349365 3357701.12792969 13.80734444 26 30 33
245976.19555664 3357701.37707520 13.99252605 126 126 138
245975.01806641 3357704.99279785 13.96819401 56 57 62
245977.67437744 3357694.63073730 13.90341568 32 30 33
245974.29315186 3357705.28570557 14.10402966 36 37 39
245976.81329346 3357698.51660156 14.08770084 78 79 81
245977.54870605 3357696.23687744 13.58130550 66 68 67
245977.14123535 3357696.17810059 13.67581081 30 33 38
245975.38250732 3357703.86560059 13.94947052 48 54 54
245974.38446045 3357704.16088867 13.72121143 42 44 41
245974.95574951 3357704.24890137 14.13665295 67 67 69
245975.91986084 3357700.34863281 14.05395031 21 26 30
245977.62567139 3357695.07421875 13.82223129 48 47 45
245976.04156494 3357696.92431641 13.79992867 140 137 130
245974.85076904 3357704.95996094 14.12681007 88 92 93
245977.67529297 3357694.88110352 14.28110123 98 53 58
245975.36517334 3357704.78735352 13.50837803 89 88 93
245975.06811523 3357703.36877441 13.93495464 32 33 35
245976.77874756 3357694.63885498 13.93343163 42 16 19
245976.90258789 3357695.76519775 14.01882362 104 107 114
245975.56518555 3357700.51391602 14.06209660 48 49 54
245977.47454834 3357695.26379395 13.79416752 50 49 54
245974.21527100 3357704.71392822 13.93796349 98 94 91
245974.73834229 3357703.62286377 13.76663971 25 26 28
245976.67633057 3357696.64019775 13.85664558 140 141 145
245977.60021973 3357695.08453369 14.08633614 45 37 35
245976.95935059 3357698.86297607 13.79153633 98 98 100
245977.54376221 3357695.86834717 13.62215233 39 41 40
245975.61553955 3357700.81109619 13.88430786 35 36 41
245975.44293213 3357701.44378662 14.22866535 141 144 151
245976.20721436 3357700.18206787 14.01049137 27 32 36
245976.71801758 3357696.27331543 13.96484566 37 47 57
245977.07995605 3357696.66162109 13.71948814 149 144 140
245975.15887451 3357704.67803955 13.57593060 128 127 132
245975.51068115 3357699.81158447 13.61809254 110 97 78
245975.12811279 3357703.72497559 13.94321918 24 29 32
245975.93109131 3357700.16876221 14.01494122 41 46 50
245974.24975586 3357704.95495605 14.05309677 155 160 166
245975.73504639 3357698.14666748 13.64055634 163 164 158
245976.08502197 3357702.17486572 13.86568546 66 68 63
245974.75274658 3357702.75109863 13.63452339 55 55 47
245975.31579590 3357701.17205811 13.83873844 50 55 59
245975.18176270 3357704.15838623 13.97486115 52 54 49
245975.75030518 3357702.71307373 13.64039135 49 53 52
245976.72485352 3357695.61145020 14.39923954 115 120 126
245976.50091553 3357698.37573242 13.83408546 40 44 43
245975.87304688 3357700.98522949 13.83109283 35 39 42
245975.51043701 3357701.51660156 14.17170906 66 70 71
245975.05718994 3357701.80426025 13.79874039 77 79 76
245976.07141113 3357702.41271973 13.65766525 58 55 48
245976.67517090 3357697.83599854 13.65179729 80 85 91
245976.32629395 3357700.03088379 13.86946964 44 50 50
245975.61431885 3357699.54101563 13.62633419 57 45 29
245974.29241943 3357705.21166992 14.14015865 35 36 38
245976.14031982 3357696.19415283 13.94801426 17 25 28
245975.45428467 3357704.21032715 13.63504696 34 33 31
245977.23767090 3357695.68469238 13.89737701 18 21 30
245975.39318848 3357703.57806396 13.84107971 38 39 41
245977.30645752 3357697.15258789 13.58235931 64 63 59
245976.33068848 3357700.19354248 13.91561890 32 37 41
