245753.43353271 3357646.83679199 16.47839165 7 15 17
245754.49780273 3357641.62139893 16.86538887 73 66 74
245753.48437500 3357643.75628662 16.56912613 16 20 31
245754.50048828 3357641.33868408 16.46359825 43 48 54
245754.13977051 3357642.15954590 16.50588608 51 66 69
245754.48620605 3357642.92828369 16.51235962 19 24 28
245753.21197510 3357646.44561768 16.69890213 14 22 25
245753.04730225 3357646.34033203 16.27921867 49 60 66
245755.38940430 3357641.76879883 16.38944626 4 10 10
245753.84082031 3357643.01983643 16.53762245 42 51 58
245754.06091309 3357640.03106689 16.41212273 40 48 51
245753.59155273 3357644.74835205 16.60146332 0 8 21
245754.37670898 3357640.48895264 16.57276726 2 11 20
245753.27996826 3357645.84466553 16.61740303 34 42 45
245754.36975098 3357646.83636475 16.72318459 0 0 4
245753.47137451 3357639.89367676 16.36486626 64 67 72
245754.53179932 3357642.91247559 16.60486031 17 22 26
245753.66833496 3357643.63116455 16.69918251 41 48 58
245753.69067383 3357643.94244385 16.68053246 13 22 31
245753.50878906 3357644.66387939 16.57857704 1 5 17
245754.59863281 3357640.12780762 16.38512039 53 60 66
245753.55822754 3357647.01574707 16.62619972 14 19 25
245752.92553711 3357647.31488037 16.19146919 65 74 79
245755.12628174 3357640.56298828 16.58300972 38 41 46
245753.32659912 3357644.96875000 16.74059105 27 49 73
245754.68261719 3357641.26245117 16.42096138 36 44 47
245753.35260010 3357641.74060059 16.62384033 51 53 66
245753.15856934 3357645.11041260 16.47084999 4 12 15
245754.03027344 3357646.88439941 16.46137619 17 25 28
245753.54327393 3357641.59161377 16.73835754 17 17 27
245753.76464844 3357642.58398438 16.57200432 5 12 20
245754.75286865 3357641.70385742 16.83571053 17 27 28
245754.26263428 3357645.58306885 16.86333656 23 33 35
245754.24237061 3357642.03027344 16.55627441 40 51 53
245753.90972900 3357647.51629639 16.38942528 121 139 153
245754.79864502 3357640.85473633 16.73711586 52 57 61
245753.11016846 3357646.87951660 16.32460785 25 28 33
245753.51635742 3357641.98895264 16.95551872 61 54 61
245754.22204590 3357646.14501953 16.79518127 11 18 24
245753.52282715 3357647.92840576 16.22732353 50 54 63
245754.11779785 3357646.32843018 16.58381462 13 22 31
245753.89703369 3357640.97448730 16.48620987 44 54 63
245753.62445068 3357641.78686523 17.01932144 27 24 35
245753.28338623 3357645.95770264 16.67891121 38 43 47
245754.42529297 3357643.23852539 16.48132896 5 8 13
245753.92370605 3357641.52117920 16.71400833 21 22 27
245753.20306396 3357645.95635986 16.60935211 39 46 52
245754.03363037 3357641.31207275 16.51813507 47 55 58
245755.29040527 3357641.80438232 16.42232704 7 16 15
245753.12359619 3357646.38104248 16.65610886 26 29 36
245753.32348633 3357645.95916748 16.66772842 38 43 47
245754.52337646 3357647.28100586 16.64728928 31 40 47
245753.79754639 3357643.35650635 16.62253761 12 19 25
245754.77746582 3357640.88385010 16.72790909 51 56 62
245755.46856689 3357641.45898438 16.35222626 3 12 11
245753.97155762 3357644.48413086 16.93647385 80 108 109
245754.66082764 3357640.92730713 16.69781303 56 64 67
245755.09588623 3357640.86981201 16.72834206 45 50 53
245753.04998779 3357644.56396484 16.53328323 88 87 92
245754.79022217 3357641.53466797 16.59666443 25 39 39
245753.78009033 3357645.25708008 16.80434799 2 15 31
245753.43029785 3357644.80169678 16.65612221 5 17 33
245753.10162354 3357644.42285156 16.44855118 21 24 29
245753.98095703 3357645.90307617 16.54854965 14 23 32
245753.80554199 3357640.12451172 16.34372330 60 65 69
245753.97985840 3357644.54644775 16.92398453 58 79 82
245753.26855469 3357642.24279785 16.44756317 56 63 71
245754.53851318 3357640.47973633 16.57667732 29 37 40
245753.94982910 3357643.70574951 16.80697060 19 23 34
245754.20397949 3357645.70666504 16.88932610 13 24 30
245754.21032715 3357645.41754150 16.85485840 8 15 21
245753.14459229 3357644.44879150 16.47709465 12 13 18
245753.22900391 3357647.44256592 16.40217018 84 103 117
245753.80810547 3357639.72528076 16.59004974 21 29 32
245753.88903809 3357644.65277100 16.80918884 106 135 131
245752.82635498 3357647.31225586 16.14854813 64 73 82
245753.11065674 3357647.23913574 16.42955208 3 10 16
245753.83483887 3357641.12646484 16.50691032 46 55 64
245753.97943115 3357642.74438477 16.61405563 25 34 39
245752.98931885 3357646.38470459 16.21623802 57 67 76
245753.74560547 3357640.05389404 16.35571861 65 70 76
245753.40679932 3357639.89562988 16.36041260 62 67 73
245753.99871826 3357645.71813965 16.49502945 121 131 141
245753.15374756 3357646.90728760 16.35966110 15 18 23
245754.60247803 3357642.96636963 16.58411026 7 12 16
245753.85650635 3357641.96014404 16.77884102 36 47 53
245754.54772949 3357641.05834961 16.55212975 50 54 63
245754.84503174 3357641.26391602 16.37646675 31 39 42
245753.76220703 3357645.51940918 16.41806030 31 40 45
245754.18066406 3357645.60876465 16.80782509 15 24 29
245753.28540039 3357642.59991455 16.52034569 65 68 73
245753.29968262 3357642.30841064 16.44229126 54 61 69
245754.22406006 3357647.43298340 16.52012825 24 33 38
245752.91412354 3357646.40332031 16.16860008 50 64 73
245753.06170654 3357643.73754883 16.32645607 16 20 29
245753.80322266 3357644.90313721 16.86682320 3 32 62
245753.54956055 3357644.14471436 16.39826584 48 52 61
245754.32080078 3357642.89868164 16.45966911 21 29 32
245754.23809814 3357646.92028809 16.62669563 3 4 8
245752.84899902 3357646.13085938 16.18060684 46 59 68
245754.08483887 3357648.05621338 16.05317307 51 58 64
245753.57763672 3357639.68109131 16.51900864 14 19 23
245754.06451416 3357643.13787842 16.46581268 31 36 39
245754.29931641 3357646.42285156 16.73994637 22 32 34
245754.04339600 3357644.16674805 16.74673271 27 27 35
245752.97998047 3357647.89654541 16.04014778 48 61 69
245754.22277832 3357646.01470947 16.88527107 8 17 22
245752.89923096 3357645.84112549 16.29981804 55 65 74
245754.54125977 3357641.84765625 16.77179337 43 44 49
245753.08441162 3357644.56732178 16.54849434 44 45 47
245753.68225098 3357647.04211426 16.56225967 16 21 25
245753.55749512 3357641.55810547 16.69793129 18 21 28
245755.05615234 3357641.64959717 16.43378830 14 24 23
245752.83111572 3357647.08465576 16.16012192 55 68 76
245753.13293457 3357639.58666992 16.45662308 34 42 44
245753.46624756 3357642.07092285 16.78660011 64 67 74
245754.64263916 3357640.54333496 16.70617485 21 29 31
245754.62811279 3357640.53924561 16.69599533 35 43 45
245753.64434814 3357646.97100830 16.57218552 10 15 19
245754.38317871 3357643.51708984 16.71828270 12 16 19
245754.01269531 3357641.62969971 16.74151421 5 8 15
245753.61950684 3357643.82220459 16.68763542 5 12 20
245753.76831055 3357646.49517822 16.47056389 35 48 57
245755.27575684 3357641.27795410 16.36525726 24 33 32
245753.20513916 3357645.06274414 16.62566757 5 17 29
245755.04290771 3357642.32318115 16.42698288 8 12 13
245753.08416748 3357646.09704590 16.43227386 42 51 58
245753.04150391 3357646.08489990 16.30330276 45 55 64
245753.68865967 3357642.53515625 16.54662895 0 7 15
245753.11071777 3357646.32586670 16.76487350 35 38 43
245754.31506348 3357642.26556396 16.50696754 25 33 36
245753.82153320 3357645.29364014 16.77886391 4 17 26
245754.54791260 3357640.71917725 16.83574867 141 146 150
245753.88824463 3357643.15484619 16.55119133 27 34 40
245754.60375977 3357640.54986572 16.70753288 22 27 30
245754.47985840 3357641.86053467 16.73249435 40 43 50
245753.10192871 3357646.41442871 16.36885643 34 43 50
245753.59808350 3357644.94549561 16.74717522 15 39 73
245754.08227539 3357647.42645264 16.44803238 34 43 52
245753.54248047 3357643.25921631 16.51433372 7 16 25
245754.76696777 3357641.49169922 16.51654243 14 26 26
245753.23583984 3357645.84094238 16.60107613 29 39 41
245753.55908203 3357644.33007813 16.37878799 20 29 36
245753.07891846 3357642.94763184 16.31298828 59 72 80
245755.50354004 3357641.72882080 16.36843872 13 19 19
245753.11187744 3357643.46856689 16.30578423 60 67 77
245753.06341553 3357644.58837891 16.54824066 88 87 92
245753.88757324 3357642.76110840 16.60296822 25 34 41
245753.75646973 3357643.93121338 16.71742439 43 50 58
245754.31518555 3357640.41699219 16.49715614 27 32 38
245753.32299805 3357643.38848877 16.39375687 39 48 55
245753.48767090 3357643.85058594 16.56998253 13 20 30
245753.18463135 3357643.87774658 16.36381149 13 20 28
245755.43731689 3357641.46197510 16.35429955 6 12 12
245753.81597900 3357646.85778809 16.44848442 0 5 11
245753.41467285 3357643.57238770 16.49913788 21 25 34
245753.59576416 3357641.90985107 17.03890038 27 22 29
245754.20617676 3357642.35778809 16.54740143 20 29 34
245754.67565918 3357643.09881592 16.48419571 18 23 27
245753.59027100 3357644.40655518 16.42197609 2 13 19
245753.89569092 3357645.89135742 16.49591446 17 24 34
245753.76501465 3357647.68133545 16.35765076 109 127 141
245753.33117676 3357647.72595215 16.36816406 133 143 155
245753.73553467 3357639.82025146 16.47780609 41 49 52
245753.44879150 3357645.18286133 16.72661591 12 36 70
245753.42010498 3357646.55584717 16.48461342 33 44 50
245754.44250488 3357642.83593750 16.64564323 16 24 26
245755.12268066 3357640.33715820 16.44169807 50 58 61
245753.94989014 3357641.96337891 16.69840813 36 49 55
245753.59191895 3357643.17010498 16.52595520 11 21 30
245754.67639160 3357641.76989746 16.86254692 29 34 38
245752.98651123 3357646.36090088 16.21483994 56 66 75
245753.53601074 3357647.03302002 16.64199829 17 22 28
245754.46112061 3357647.30541992 16.64353371 35 44 49
245753.64581299 3357644.47540283 16.46333504 0 9 16
245755.24023438 3357641.49267578 16.34226990 18 24 24
245753.73999023 3357646.52008057 16.46130943 34 44 53
245753.90014648 3357644.90356445 16.93732071 8 35 56
245753.67205811 3357648.06164551 16.00645065 38 43 47
245754.23693848 3357643.01953125 16.42955399 4 14 16
245753.39099121 3357646.20166016 16.75726318 0 5 9
245753.96826172 3357645.38983154 16.68653107 6 19 25
245755.34002686 3357641.65301514 16.39125443 10 16 16
245754.22772217 3357647.44458008 16.51326180 24 33 38
245753.42633057 3357646.71899414 16.38517189 47 56 65
245754.46295166 3357641.70129395 16.79454994 112 107 114
245753.95703125 3357644.35736084 16.90235138 95 115 116
245753.61090088 3357643.96893311 16.58873367 18 27 34
245754.53234863 3357642.31079102 16.48489571 18 28 30
245754.28930664 3357642.22344971 16.50322914 53 63 65
245754.14038086 3357641.42779541 16.54296303 30 38 40
245754.41882324 3357642.14361572 16.49429512 41 51 53
245753.79132080 3357644.20507813 16.58114815 42 51 60
245753.39251709 3357641.74481201 16.93222046 138 125 145
245754.52929688 3357641.82263184 16.82534599 59 60 65
245754.70233154 3357641.06665039 16.55364227 62 67 73
245753.44604492 3357639.84698486 16.37194061 62 70 73
245753.72521973 3357644.32836914 16.48358345 14 23 30
245753.69702148 3357644.19696045 16.50795174 59 68 77
245753.92742920 3357641.06933594 16.48966789 42 51 56
245754.96490479 3357641.37036133 16.32553482 21 31 32
245753.83416748 3357646.93731689 16.49068832 6 11 17
245754.30633545 3357646.81085205 16.62177658 8 13 17
245755.05163574 3357640.90802002 16.67109489 49 55 55
245753.62799072 3357642.01239014 16.88302231 58 55 62
245754.86614990 3357640.78662109 16.74277496 54 62 64
245753.91015625 3357645.72045898 16.43763161 75 83 94
245755.02606201 3357640.90942383 16.65858841 48 53 56
245753.71282959 3357646.00347900 16.56182480 2 7 11
245753.53698730 3357643.66064453 16.61301422 11 17 29
245753.55133057 3357641.27435303 16.46909332 45 52 60
245753.62658691 3357642.84350586 16.57199478 43 50 58
245753.84356689 3357645.24902344 16.84362984 11 23 37
245753.06445313 3357643.20629883 16.28947258 14 24 26
245753.77453613 3357647.56402588 16.35982132 120 142 156
245753.90026855 3357643.78887939 16.81147575 16 23 31
245753.85449219 3357644.42810059 16.68511391 74 94 101
245754.14025879 3357647.38024902 16.50485802 29 38 45
245754.11145020 3357645.83593750 16.81121826 54 63 72
245753.39373779 3357641.43420410 16.39114380 46 53 59
245754.67144775 3357642.48199463 16.63515663 5 10 13
245754.11950684 3357643.84680176 16.80623817 19 20 25
245754.14129639 3357646.90698242 16.54384232 6 11 15
245754.32495117 3357640.40930176 16.49371147 27 32 38
245754.39727783 3357646.68609619 16.75544548 20 30 32
245754.86456299 3357640.69482422 16.73796654 55 63 66
245753.91461182 3357640.93719482 16.48081398 44 55 61
245755.35675049 3357641.98638916 16.39665031 3 12 9
245754.36749268 3357647.29913330 16.65046883 45 56 60
245753.46087646 3357642.04498291 16.84713364 54 53 61
245754.78991699 3357642.45666504 16.59646988 4 9 12
245753.69384766 3357647.46514893 16.34724045 68 87 102
245754.39239502 3357642.88452148 16.49476624 17 22 26
245753.08416748 3357645.82354736 16.49123764 49 54 58
245753.87921143 3357646.81835938 16.42706108 11 16 22
245752.92724609 3357645.80157471 16.33205223 59 69 71
245753.38464355 3357647.83117676 16.34503174 68 77 82
245753.94055176 3357646.50262451 16.41826630 44 55 61
245753.79400635 3357646.36761475 16.55541611 15 25 34
245755.36077881 3357641.02758789 16.58429527 30 36 36
245753.63037109 3357643.62310791 16.67123222 52 59 69
245755.46337891 3357641.95269775 16.39215660 8 14 12
245753.41760254 3357644.11462402 16.34839439 48 57 66
245753.47552490 3357640.00335693 16.34644318 66 71 77
245754.00042725 3357643.96148682 16.76212311 38 41 48
245754.47625732 3357641.50976563 16.61731339 122 112 121
245754.25769043 3357646.98937988 16.67878914 3 4 8
245754.35852051 3357642.46612549 16.61407471 7 15 17
245754.07128906 3357641.01873779 16.46143150 43 52 59
245754.17913818 3357647.08709717 16.63236237 9 12 17
245754.03863525 3357640.78991699 16.47514153 56 67 71
245755.10644531 3357641.18005371 16.38016319 27 32 35
245754.85144043 3357641.44427490 16.41369438 38 52 52
245754.19598389 3357642.86761475 16.50071526 22 27 31
245753.16479492 3357643.62182617 16.33837700 34 41 47
245753.60345459 3357644.76959229 16.60985947 0 10 24
245753.24334717 3357645.86895752 16.59845734 40 49 54
245754.05932617 3357641.71826172 16.74005127 5 13 16
245753.07568359 3357643.09790039 16.32067871 59 68 75
245753.01068115 3357647.20404053 16.29479790 21 26 32
245753.99438477 3357644.76336670 16.95567894 109 134 141
245754.10516357 3357640.53625488 16.53567886 71 85 86
245754.40008545 3357642.89276123 16.49107552 23 28 32
245753.55877686 3357643.98962402 16.52626991 20 29 34
245754.20678711 3357640.42858887 16.48160553 18 23 26
245754.28704834 3357640.11596680 16.36283684 62 69 75
245754.12249756 3357645.72900391 16.80980682 76 86 95
245753.31433105 3357643.20739746 16.41000366 18 25 35
245753.22821045 3357646.50378418 16.52992439 30 39 44
245754.25915527 3357641.37750244 16.47439575 34 41 47
245753.74267578 3357642.16192627 16.53148842 58 67 74
245754.49456787 3357640.53790283 16.66344833 54 61 67
245753.94525146 3357644.23797607 16.78924179 36 51 54
245753.29016113 3357643.15856934 16.41006088 17 24 32
245754.63604736 3357640.56341553 16.73758698 9 17 19
245753.28417969 3357643.09741211 16.40915871 45 53 56
245754.70013428 3357640.59197998 16.77314949 2 12 14
245753.62182617 3357641.92608643 17.00969505 41 40 46
245754.70385742 3357640.30505371 16.45256805 35 46 48
245753.88903809 3357643.16644287 16.55543327 15 22 28
245753.07592773 3357645.51593018 16.36349297 32 41 48
245752.77825928 3357647.31829834 16.13277245 60 70 80
245754.15307617 3357643.74426270 16.82128716 13 16 21
245753.66278076 3357643.70745850 16.72334480 5 14 21
245753.62249756 3357646.79766846 16.44438744 14 25 27
245753.98510742 3357645.63940430 16.48988724 80 90 102
245753.20697021 3357644.87158203 16.65211105 11 21 31
245753.45666504 3357646.87615967 16.52737808 7 15 18
245754.00579834 3357642.34307861 16.51685333 13 22 27
245753.30316162 3357647.99621582 16.10596657 49 56 62
245753.34692383 3357646.50531006 16.53620720 25 38 44
245754.39501953 3357640.79760742 16.71671677 52 59 67
245753.84259033 3357640.88006592 16.46816826 46 59 65
245753.40814209 3357646.83599854 16.46606827 10 15 18
245753.50622559 3357641.24310303 16.44121170 46 53 61
245754.46069336 3357640.09112549 16.37600327 49 59 61
245753.97631836 3357645.33697510 16.80096436 10 19 28
245754.06896973 3357642.92578125 16.48234749 44 52 55
245754.12591553 3357643.31921387 16.55245590 37 42 46
245754.09033203 3357641.28021240 16.48628044 41 49 52
245753.55401611 3357643.88952637 16.59917259 8 17 24
245755.47222900 3357641.32611084 16.37600708 15 21 21
245753.54431152 3357641.72363281 17.03574562 77 65 77
245753.96679688 3357644.15258789 16.70092773 17 20 27
245753.58325195 3357644.46459961 16.45771790 0 9 18
245753.56738281 3357647.27954102 16.48859024 47 53 67
245754.17553711 3357646.14044189 16.71193314 25 29 38
245753.10894775 3357643.35229492 16.29985809 32 41 48
245753.96685791 3357645.77026367 16.47530365 17 25 36
245753.02587891 3357643.33618164 16.27739716 26 33 39
245753.74566650 3357642.41766357 16.50034904 6 13 19
245753.74060059 3357642.21801758 16.46625519 52 61 66
245753.18548584 3357646.96472168 16.46500587 7 8 12
245752.91833496 3357639.57403564 16.45057869 31 33 30
245753.57598877 3357644.42919922 16.43700981 2 12 21
245754.16546631 3357644.01232910 16.75404358 13 16 21
245754.54516602 3357640.40722656 16.52031708 32 42 44
245753.05920410 3357647.53070068 16.15804482 70 88 98
245755.36566162 3357640.60510254 16.54271889 33 39 39
245753.28820801 3357647.81408691 16.28075600 105 118 127
245753.83099365 3357641.51318359 16.71029091 14 17 22
245753.46990967 3357643.37384033 16.50748253 21 28 36
245755.06542969 3357641.74401855 16.50444221 13 23 22
245753.40618896 3357643.59967041 16.49269867 21 25 34
245753.35614014 3357644.70111084 16.61870766 1 7 19
245754.04132080 3357642.98217773 16.45724106 38 48 50
245753.44049072 3357642.43621826 16.57162285 12 19 25
245754.51593018 3357647.33349609 16.57758522 40 49 54
245753.00939941 3357645.04840088 16.23875809 50 59 66
245753.60858154 3357644.87786865 16.69717407 11 35 61
245753.47247314 3357647.59002686 16.41889381 98 106 119
245752.77062988 3357647.23187256 16.14606667 56 69 78
245754.02954102 3357641.26672363 16.50046539 47 55 58
245754.83721924 3357641.53704834 16.51309586 21 38 32
245753.77697754 3357641.08624268 16.49927139 43 52 61
245754.03198242 3357642.58697510 16.63825226 10 17 25
245753.37188721 3357647.78857422 16.35934448 123 132 139
245753.80603027 3357641.64166260 16.86057663 17 18 23
245755.30700684 3357641.36828613 16.35132599 3 12 11
245753.09442139 3357645.41601563 16.32005692 44 53 62
245753.75946045 3357646.36523438 16.56337738 14 23 32
245754.94769287 3357641.70483398 16.57824898 29 43 43
245753.75244141 3357646.04132080 16.56640434 2 2 10
245753.05767822 3357643.39080811 16.28815842 52 61 68
245754.67205811 3357641.10473633 16.52051163 53 58 64
245753.80517578 3357642.45678711 16.51871109 12 20 23
245753.24523926 3357644.30133057 16.36424446 41 48 56
245754.08203125 3357646.28204346 16.57972908 10 17 27
245754.88879395 3357642.32421875 16.43851280 3 8 11
245753.16149902 3357645.33850098 16.38559341 45 52 60
245753.72698975 3357648.08874512 15.95968819 41 49 51
245754.94927979 3357640.95324707 16.62628746 42 47 51
245753.80621338 3357642.40356445 16.49154663 9 17 20
245753.53479004 3357642.12054443 16.72272110 54 58 67
245753.77789307 3357644.33959961 16.53716469 114 133 140
245754.15252686 3357646.51684570 16.48161697 35 44 51
245753.95013428 3357641.73663330 16.80382919 5 15 16
245754.36938477 3357642.84625244 16.53928375 15 20 24
245753.87921143 3357639.75201416 16.61238861 25 30 34
245754.66925049 3357641.90631104 16.67620087 25 30 34
245753.50439453 3357641.25732422 16.44198418 46 53 61
245754.10180664 3357644.01397705 16.75015068 15 16 21
245753.59954834 3357644.21398926 16.40653038 44 51 59
245754.35461426 3357642.09747314 16.50719833 34 45 49
245753.32629395 3357646.77783203 16.38468361 35 40 46
245753.93371582 3357639.93029785 16.48765945 80 87 93
245753.38159180 3357644.61755371 16.57562828 0 6 14
245755.08935547 3357641.54089355 16.36382866 19 28 27
245753.66357422 3357645.54168701 16.43870544 42 47 51
245753.51080322 3357641.85217285 17.07781792 27 13 26
245753.12542725 3357644.31585693 16.35725403 46 50 59
245753.18395996 3357644.89733887 16.63798523 1 11 21
245754.14013672 3357640.03753662 16.39280319 51 56 62
245754.58081055 3357641.46557617 16.64540482 6 3 12
245754.96044922 3357642.03063965 16.43463898 13 22 21
245754.48321533 3357642.62292480 16.77676773 14 23 22
245753.21618652 3357643.52130127 16.33712769 24 29 35
245754.46948242 3357640.79724121 16.77080154 79 83 92
245752.87426758 3357647.18597412 16.18725586 55 66 72
245753.34857178 3357647.76538086 16.35850906 130 140 150
245753.59057617 3357644.16064453 16.42910576 47 51 60
245752.98901367 3357647.44934082 16.16872406 57 70 78
245754.08782959 3357645.97253418 16.64743996 8 16 27
245753.48187256 3357647.81622314 16.33956718 42 49 57
245753.03161621 3357643.46551514 16.28509521 57 66 73
245755.37371826 3357642.01141357 16.39739037 6 12 12
245753.36706543 3357642.05908203 16.72459030 48 53 59
245753.09222412 3357646.16821289 16.41609192 83 92 99
245753.58380127 3357646.40643311 16.59239006 30 39 48
245754.04553223 3357643.70739746 16.82351875 22 27 33
245753.58605957 3357646.99554443 16.60458755 12 17 21
245753.83331299 3357641.70910645 16.88255501 7 10 17
245754.75732422 3357641.55645752 16.69666100 27 41 41
245753.25854492 3357646.69226074 16.35694885 57 66 75
245753.21966553 3357644.10144043 16.29760551 50 59 68
245755.24542236 3357640.63702393 16.63122940 30 36 36
245754.46820068 3357641.62603760 16.78208542 94 88 98
245755.11749268 3357641.44781494 16.32151604 29 38 37
245754.05468750 3357644.24530029 16.86399269 42 52 54
245753.89715576 3357644.93914795 16.94561005 13 37 63
245753.22479248 3357639.80554199 16.37020683 40 45 49
245754.84124756 3357641.05578613 16.54684448 43 48 54
245755.41271973 3357641.51361084 16.35874748 5 11 11
245753.75842285 3357643.10748291 16.54471970 18 22 33
245753.21954346 3357643.33209229 16.33808517 11 20 27
245755.24121094 3357640.51922607 16.51203346 41 46 49
245754.42950439 3357641.53393555 16.58168221 101 95 109
245753.16583252 3357643.18389893 16.33085060 6 16 18
245753.12597656 3357646.44842529 16.38937187 38 45 53
245754.87420654 3357642.34619141 16.45507622 3 8 11
245753.48559570 3357643.15045166 16.48957825 16 25 34
245755.37426758 3357642.15936279 16.40167618 5 11 11
245753.24029541 3357647.43707275 16.41625404 73 92 106
245753.16589355 3357644.63922119 16.58222771 12 13 18
245753.38269043 3357643.86639404 16.47052383 7 16 23
245753.11230469 3357647.72985840 16.12959099 55 73 83
245753.03662109 3357644.89465332 16.32104683 32 36 45
245753.36633301 3357641.72454834 16.64543152 78 77 91
245753.71209717 3357646.02221680 16.56762505 2 7 11
245754.01470947 3357646.88574219 16.46209335 12 19 25
245755.04248047 3357642.12585449 16.41907120 7 16 15
245754.15423584 3357639.96142578 16.43035126 42 49 55
245754.97235107 3357640.53009033 16.59212685 33 38 41
245753.82189941 3357645.49194336 16.43770790 33 42 47
245753.75109863 3357647.71704102 16.36335564 84 100 113
245753.09185791 3357647.75885010 16.10199928 51 68 76
245753.77404785 3357647.08386230 16.53968811 11 18 24
245753.78552246 3357639.89642334 16.42664909 34 39 45
245753.63458252 3357641.10760498 16.48476601 43 50 60
245754.65209961 3357640.47320557 16.59325790 29 39 41
245753.97546387 3357644.20019531 16.76843452 29 36 44
245753.50878906 3357644.42211914 16.44339752 0 9 18
245753.70861816 3357643.35803223 16.61711502 9 18 25
245753.63543701 3357645.96929932 16.57481003 16 21 25
245752.99017334 3357647.52087402 16.12847900 57 71 80
245754.55767822 3357641.74023438 16.93595505 45 46 51
245753.96368408 3357647.31793213 16.43779564 30 43 52
245753.65905762 3357647.17822266 16.54317093 13 24 30
245754.53613281 3357640.95806885 16.64463615 43 52 59
245753.39196777 3357644.79425049 16.65822983 9 18 33
245753.17230225 3357644.30828857 16.35797691 44 48 59
245753.80242920 3357646.67999268 16.38336182 38 49 55
245753.64367676 3357641.90936279 17.00235176 45 45 53
245753.21386719 3357647.83581543 16.15908432 60 73 82
245753.77587891 3357642.09649658 16.67253494 52 56 65
245754.06872559 3357645.50006104 16.68038368 20 27 35
245754.63421631 3357640.20037842 16.40886879 55 64 69
245753.02490234 3357647.60003662 16.11166382 73 90 100
245753.14447021 3357644.67126465 16.58422852 11 15 18
245753.27508545 3357643.73986816 16.40789223 19 22 27
245753.60217285 3357643.66638184 16.66988182 20 27 35
245754.29028320 3357640.67218018 16.71914673 137 142 148
245753.74945068 3357646.85925293 16.46084023 1 6 10
245753.84454346 3357647.53509521 16.37267113 124 143 160
245753.11730957 3357643.82067871 16.35006332 26 33 41
245753.83178711 3357640.15386963 16.33992767 69 74 78
245752.81610107 3357646.74493408 16.11616516 60 73 82
245753.64477539 3357644.63122559 16.55086136 0 0 9
245753.72082520 3357644.10943604 16.57990074 43 51 62
245753.91809082 3357641.31542969 16.54788017 42 49 55
245754.64068604 3357640.73718262 16.85070801 12 22 23
245753.62115479 3357644.63842773 16.55695915 0 1 10
245753.04272461 3357644.24285889 16.28130531 44 53 62
245754.48431396 3357640.29504395 16.43469238 46 55 62
245754.29150391 3357643.63037109 16.78082275 24 27 32
245754.03570557 3357645.04620361 17.01445389 44 56 72
245754.17254639 3357646.70172119 16.46424675 28 35 41
245754.77490234 3357641.72106934 16.80888748 19 29 30
245753.96276855 3357647.24914551 16.47197533 38 48 57
245753.97033691 3357640.06988525 16.38036156 45 50 56
245753.33703613 3357645.58276367 16.53265953 56 63 69
245755.06256104 3357642.20184326 16.41145515 7 13 13
245754.39337158 3357642.85552979 16.55001068 22 27 31
245752.88836670 3357647.09112549 16.17795372 56 65 72
245754.59472656 3357642.14031982 16.45930290 30 38 41
245753.42462158 3357644.83508301 16.68136787 9 21 43
245753.63348389 3357639.65356445 16.60843468 46 51 57
245753.76202393 3357643.70593262 16.78421402 8 16 27
245753.60314941 3357647.46697998 16.37532425 26 40 51
245754.36279297 3357646.85223389 16.71626282 0 0 4
245754.19769287 3357645.55175781 16.79653549 16 25 30
245753.71179199 3357648.08666992 15.96532249 44 49 52
245754.20471191 3357647.42852783 16.51645088 24 33 38
245753.24694824 3357646.98962402 16.55643082 6 7 12
245754.10693359 3357642.85479736 16.51708031 36 44 47
245753.06835938 3357644.00366211 16.28247833 52 61 70
245753.64758301 3357643.13757324 16.54376793 2 11 20
245753.65942383 3357640.13061523 16.34314156 71 76 82
245754.99511719 3357640.45452881 16.52076340 40 48 50
245752.98150635 3357646.48028564 16.21096039 56 66 75
245754.05255127 3357642.18652344 16.51298714 39 53 56
245753.97619629 3357641.01928711 16.47714424 45 56 62
245753.09826660 3357645.56274414 16.41510010 13 20 26
245753.29223633 3357641.90124512 16.59240913 48 50 62
245754.85211182 3357641.58624268 16.57262421 32 48 47
245753.24957275 3357646.92187500 16.49715614 7 10 15
245754.40490723 3357640.24566650 16.40464020 53 60 68
245754.12664795 3357640.34149170 16.39808846 52 59 65
245752.94635010 3357639.62451172 16.44842148 39 43 42
245753.51568604 3357645.79492188 16.56735611 3 6 11
245753.64819336 3357643.61419678 16.67822647 52 59 69
245752.80029297 3357646.49334717 16.10399628 56 69 78
245753.38916016 3357642.24255371 16.55408096 46 56 65
245754.00640869 3357642.72369385 16.62335968 27 38 44
245754.32763672 3357643.04937744 16.40804672 10 18 21
245753.55963135 3357640.07330322 16.33989143 64 67 72
245754.80108643 3357641.48486328 16.46003342 13 28 25
245753.70690918 3357646.88836670 16.49536324 2 7 11
245754.80468750 3357640.53601074 16.66176224 16 26 28
245754.57299805 3357640.95367432 16.66764832 49 58 65
245754.08605957 3357641.26867676 16.48283577 46 54 57
245753.87475586 3357646.42437744 16.48868179 33 46 52
245753.61907959 3357642.84838867 16.57036018 43 50 58
245753.63287354 3357642.12420654 16.68054962 63 70 78
245753.57391357 3357639.99072266 16.35487938 59 62 67
245753.82098389 3357647.50463867 16.36902046 105 124 139
245754.24676514 3357641.82550049 16.62634850 28 37 44
245753.56408691 3357647.59814453 16.39198685 25 38 47
245755.06451416 3357641.76574707 16.51540947 13 23 22
245752.89202881 3357647.56018066 16.10750771 56 69 77
245754.40747070 3357640.74285889 16.77528000 140 144 153
245753.01580811 3357643.55493164 16.28534126 54 63 70
245753.58929443 3357647.20489502 16.54918289 16 25 34
245755.21435547 3357640.44573975 16.47371292 44 52 54
245755.58294678 3357641.07318115 16.48159027 17 26 23
245753.82122803 3357640.00946045 16.40427780 47 54 60
245754.90020752 3357641.45312500 16.39166069 36 51 48
245754.05645752 3357645.31787109 16.85544777 17 24 30
245752.82263184 3357647.31958008 16.14609909 64 73 82
245753.90093994 3357644.03558350 16.73415565 18 23 26
245753.81719971 3357640.05499268 16.36679840 57 62 68
245754.09381104 3357640.94885254 16.47993279 46 57 61
245753.93341064 3357640.94805908 16.48294258 43 54 60
245753.76379395 3357643.25549316 16.58742332 10 17 25
245754.05865479 3357641.00048828 16.46696663 43 52 59
245752.85498047 3357646.50891113 16.12752342 55 68 77
245753.52014160 3357643.07073975 16.50160789 17 26 33
245753.31079102 3357646.60760498 16.42568779 51 60 69
245753.96588135 3357645.25610352 16.89272499 9 15 27
245753.94836426 3357644.70202637 16.90921402 110 138 141
245753.94476318 3357647.90277100 16.26981926 58 67 72
245753.98498535 3357645.27258301 16.88228989 13 20 30
245753.83276367 3357647.67211914 16.36889458 127 146 160
245755.37426758 3357641.38354492 16.35366631 10 16 16
245753.91552734 3357645.82861328 16.47943878 10 16 28
245753.99389648 3357641.80517578 16.75391769 7 15 18
245754.06317139 3357643.18267822 16.48735809 29 34 37
245753.23815918 3357648.02087402 16.06912804 56 65 72
245753.44903564 3357642.44232178 16.57156181 12 19 25
245753.34997559 3357642.78826904 16.50535965 50 60 62
245754.74096680 3357640.33435059 16.47380066 36 47 49
245754.74224854 3357641.61743164 16.79821396 33 44 46
245753.97772217 3357641.20361328 16.49096298 39 46 54
245754.41290283 3357642.52270508 16.67514229 9 15 15
245754.34808350 3357640.62628174 16.74580193 156 160 169
245753.38702393 3357639.72180176 16.42005539 29 32 39
245754.27325439 3357643.81768799 16.80464935 26 29 34
245754.47900391 3357641.67724609 16.84716988 121 114 122
245753.11016846 3357646.93988037 16.34400749 28 27 32
245754.23638916 3357646.63940430 16.48314857 35 45 47
245754.69970703 3357640.56793213 16.74950600 11 21 23
245753.92785645 3357641.42156982 16.61789703 28 31 38
245753.76409912 3357646.05139160 16.56648445 2 2 10
245753.37939453 3357648.05224609 16.06596375 55 60 64
245753.34729004 3357647.33068848 16.54845810 41 49 60
245753.61364746 3357642.16687012 16.61105728 58 67 76
245755.16253662 3357641.91876221 16.47680092 16 25 24
245753.01062012 3357646.99786377 16.26258278 36 37 42
245753.66351318 3357644.87139893 16.69487953 8 32 58
245754.85058594 3357640.72320557 16.75829315 39 46 52
245754.57922363 3357642.97534180 16.53032112 15 20 24
245755.14855957 3357640.84967041 16.76774025 40 46 46
245754.34033203 3357646.50274658 16.70875931 30 40 42
245753.90667725 3357643.32604980 16.61382294 38 45 53
245754.00781250 3357645.78009033 16.51199341 36 46 56
245754.29693604 3357646.44091797 16.71432114 17 24 30
245753.52380371 3357642.58911133 16.59454155 7 11 20
245754.09899902 3357641.97363281 16.61841965 38 48 57
245753.60900879 3357647.27044678 16.48068047 40 48 59
245753.29296875 3357645.40960693 16.44299316 32 43 49
245753.95495605 3357643.96093750 16.76045990 31 34 41
245752.92645264 3357647.54333496 16.11447906 59 72 80
245753.88891602 3357642.98339844 16.53348923 38 49 53
245753.79418945 3357645.46063232 16.44754219 19 26 34
245753.72796631 3357639.69378662 16.61400986 34 39 43
245754.26379395 3357640.10675049 16.36271477 62 69 75
245753.54913330 3357646.23382568 16.65098190 8 12 21
245754.75500488 3357647.41839600 16.39319992 39 47 50
245754.67346191 3357641.36145020 16.41289711 38 43 47
245753.88323975 3357645.24822998 16.86323929 16 26 38
245753.30395508 3357642.55487061 16.57366562 92 91 99
245753.61437988 3357644.25775146 16.40109444 43 50 58
245753.33264160 3357642.08178711 16.66911125 56 60 69
245754.84246826 3357642.25012207 16.39692497 26 34 37
245752.99499512 3357647.91888428 16.04043388 43 56 64
245755.07635498 3357640.45050049 16.50056267 44 52 54
245753.34991455 3357641.94781494 16.77562714 57 55 68
245752.91284180 3357647.45080566 16.13959694 63 74 80
245753.51361084 3357645.15942383 16.76807404 23 47 85
245753.56701660 3357642.24621582 16.55100822 43 54 60
245753.52166748 3357644.91271973 16.72744942 11 34 66
245753.52954102 3357647.15850830 16.61541557 11 15 26
245754.67114258 3357641.42626953 16.50896835 16 20 23
245753.35516357 3357641.99230957 16.77020645 56 56 66
