245967.15991211 3357373.04052734 16.36373520 227 222 202
245984.28796387 3357375.66821289 16.29345512 65 65 65
245967.33093262 3357373.12704468 16.43244553 51 53 48
245969.17907715 3357373.74957275 16.56798172 86 85 81
245976.77215576 3357372.91452026 16.13482285 90 90 90
245984.96563721 3357377.00863647 16.24309158 69 69 69
245977.21777344 3357373.76666260 16.33305550 95 95 93
245965.28387451 3357373.66848755 16.16399956 190 186 177
245984.74926758 3357374.06018066 16.54692078 80 75 72
245984.65869141 3357374.01065063 16.41667366 94 83 81
245971.31250000 3357373.81723022 16.34404945 10 10 8
245973.00537109 3357372.82241821 16.31416512 252 245 237
245973.17517090 3357372.94519043 16.43126297 52 52 52
245984.74847412 3357375.39056396 16.47413063 32 33 35
245972.83331299 3357373.81420898 16.51922417 153 148 152
245985.10162354 3357374.97973633 16.19249725 117 116 121
245971.00482178 3357373.11123657 16.20149422 182 179 172
245985.10961914 3357378.31387329 16.25824928 44 45 40
245977.10583496 3357373.67211914 16.32765770 107 106 104
245981.19030762 3357373.41271973 16.45033646 23 24 26
245974.08868408 3357373.42633057 16.08989143 146 145 140
245974.47717285 3357373.84997559 16.10062027 92 92 90
245980.88781738 3357372.89389038 16.10455894 94 96 95
245973.07513428 3357373.59390259 16.43216705 128 130 125
245968.23168945 3357373.76928711 16.57379532 29 31 30
245981.96478271 3357373.81744385 16.14655304 83 83 81
245983.86267090 3357374.27044678 16.67586517 57 56 54
245984.47198486 3357375.20825195 16.52494431 78 79 83
245982.52484131 3357373.91857910 16.12081146 86 85 81
245978.90856934 3357373.11868286 16.09746742 142 139 132
245984.03442383 3357373.68688965 16.29456329 129 122 116
245983.53430176 3357374.00003052 16.12166023 142 135 127
245976.84558105 3357373.24789429 16.09586525 77 77 75
245973.50872803 3357373.35913086 16.15761757 73 73 71
245965.59014893 3357375.59518433 16.17811775 105 107 104
245973.86907959 3357373.73291016 16.13616753 163 162 157
245977.15344238 3357372.83670044 16.20497894 71 71 71
245979.66613770 3357373.58145142 16.52700043 88 88 86
245968.10314941 3357373.34515381 16.32197189 84 84 82
245984.56195068 3357376.32022095 16.59468842 196 167 137
245981.91284180 3357373.88327026 16.57285690 48 48 40
245984.49505615 3357376.46093750 16.60627747 148 140 137
245984.88787842 3357375.63473511 16.13879013 110 110 110
245978.06463623 3357373.19458008 16.11744499 135 140 133
245979.09173584 3357373.14526367 16.10198593 75 76 71
245982.15447998 3357373.30471802 16.19783211 87 86 81
245966.81280518 3357373.73098755 16.23953247 157 150 140
245979.97534180 3357372.97662354 16.40405083 191 194 187
245966.63317871 3357373.48590088 16.17720413 156 149 141
245984.04992676 3357373.23446655 16.37218475 128 121 115
245982.27362061 3357372.93310547 16.15984535 131 126 120
245978.72241211 3357373.70172119 16.08354568 128 125 118
245984.32543945 3357375.23202515 16.76731491 63 64 66
245984.48229980 3357378.00469971 16.25155640 84 88 89
245980.42559814 3357372.82788086 16.28079605 75 73 74
245973.25909424 3357372.65579224 16.15464592 159 155 144
245984.48724365 3357376.59671021 16.77310371 107 108 110
245984.15698242 3357373.74749756 16.20383263 125 120 116
245967.86602783 3357373.31039429 16.22712898 156 158 147
245965.35894775 3357375.43188477 16.16757393 154 155 150
245977.06945801 3357373.72470093 16.45068169 51 50 45
245984.74572754 3357376.06604004 16.56667900 92 96 97
245977.83337402 3357373.03405762 16.08219910 99 99 97
245965.42614746 3357373.72140503 16.20830536 179 175 166
245984.77227783 3357377.18444824 16.31122589 64 66 65
245975.03344727 3357373.68725586 16.44321251 203 205 202
245968.50451660 3357373.70852661 16.67139053 8 8 6
245984.24853516 3357377.52389526 16.15379143 81 82 86
245975.80267334 3357373.35174561 16.27426910 86 86 84
245965.67846680 3357375.61752319 16.18979645 90 90 88
245973.34338379 3357373.55429077 16.18757057 78 80 77
245968.71075439 3357373.05575562 16.38094139 60 60 58
245975.53027344 3357373.14434814 16.06766510 91 90 86
245968.97766113 3357373.72625732 16.70447540 114 116 129
245976.84759521 3357373.65878296 16.16725349 138 138 136
245983.57299805 3357373.76666260 16.18647766 100 93 85
245979.70117188 3357373.01052856 16.38958168 58 58 56
245975.25366211 3357373.69052124 16.19539833 65 65 63
245969.55700684 3357373.49111938 16.16990471 90 85 81
245981.81488037 3357373.08142090 16.31713486 47 49 48
245979.20220947 3357373.04776001 16.14130211 74 76 75
245966.07159424 3357373.69476318 16.37627602 147 134 128
245965.34472656 3357376.12725830 16.14927673 139 139 137
245984.96209717 3357376.23934937 16.54438972 41 37 38
245970.83465576 3357373.57077026 16.15676880 109 106 101
245967.10296631 3357373.49191284 16.48554420 151 147 138
245971.89038086 3357373.78396606 16.29861450 151 150 148
245977.00891113 3357373.79418945 16.46696854 65 64 59
245969.54260254 3357373.61221313 16.19478416 155 150 146
245974.77844238 3357373.50906372 16.13927841 89 90 85
245970.48596191 3357373.23977661 16.12800789 90 90 88
245967.92980957 3357373.96932983 16.50217628 39 40 35
245975.35528564 3357373.86062622 16.24207497 78 77 72
245976.16973877 3357373.60311890 16.36830330 66 66 64
245974.27905273 3357372.74371338 16.08973312 182 175 165
245975.01446533 3357372.99829102 16.24246979 208 207 203
245966.22668457 3357373.90103149 16.51362038 114 80 78
245983.37292480 3357373.66012573 16.17316437 125 120 114
245965.76617432 3357373.50354004 16.29132080 168 161 155
245968.87390137 3357373.35861206 16.42096710 45 45 45
245974.59436035 3357373.00897217 16.13409424 140 133 123
245973.07983398 3357373.49575806 16.41281509 79 79 77
245985.11529541 3357375.40130615 16.31372261 107 97 88
245967.76806641 3357373.19958496 16.18731117 147 146 141
245983.30499268 3357373.30148315 16.16163063 116 113 106
245965.91589355 3357375.25549316 16.45017624 93 97 96
245965.42645264 3357375.60009766 16.17353821 137 137 135
245976.40869141 3357372.76028442 16.13912201 94 93 88
245967.07952881 3357373.38833618 16.51411057 144 141 134
245980.61474609 3357373.39434814 16.21092606 55 55 55
245970.03393555 3357373.25372314 16.30772972 26 27 29
245977.72064209 3357373.54669189 16.21726990 127 129 126
245970.16577148 3357373.79772949 16.21755409 77 79 78
245972.98132324 3357372.90957642 16.30877113 133 130 123
245966.04437256 3357374.45809937 16.40800476 163 169 169
245984.93627930 3357376.29501343 16.54143524 65 50 53
245984.14941406 3357375.86389160 16.31978226 36 38 37
245967.71038818 3357373.62426758 16.31538200 146 158 148
245968.21069336 3357373.77917480 16.55883980 34 34 34
245982.01153564 3357373.71582031 16.13897324 81 81 79
245974.14178467 3357373.36056519 16.08570099 122 121 116
245965.29284668 3357373.64346313 16.16406441 183 179 170
245971.38269043 3357373.31338501 16.22793007 23 23 23
245965.75726318 3357375.14196777 16.23659325 76 76 76
245984.14776611 3357374.80694580 16.59962463 74 73 78
245968.65045166 3357372.77847290 16.34438324 72 73 68
245973.84082031 3357373.52850342 16.11776161 108 107 103
245973.84057617 3357373.53204346 16.11710739 108 107 103
245984.88269043 3357378.27661133 16.29454613 66 66 66
245965.79125977 3357375.06179810 16.32560158 70 74 75
245984.81951904 3357375.47375488 16.21315193 47 48 50
245968.77508545 3357373.65042114 16.59200668 38 40 39
245976.14562988 3357373.68881226 16.47570038 64 67 60
245972.27648926 3357372.72372437 16.11713409 156 151 145
245970.70831299 3357372.87997437 16.12396049 176 169 159
245965.93078613 3357373.78887939 16.46144867 138 125 117
245966.15863037 3357374.64044189 16.85108948 234 232 235
245972.14367676 3357372.54858398 16.08580780 171 163 152
245985.22912598 3357378.17901611 16.01136589 124 125 120
245969.85705566 3357373.75292969 16.26443100 52 51 49
245970.90051270 3357373.89511108 16.24539566 119 118 114
245972.91229248 3357373.19348145 16.20346642 96 97 92
245984.73004150 3357375.26965332 16.43650246 82 86 87
245966.28369141 3357374.24118042 16.80567360 121 123 118
245984.17883301 3357376.99063110 16.43889236 69 70 74
245965.88043213 3357375.22375488 16.40841103 65 71 71
245973.35266113 3357372.90573120 16.29241180 81 82 77
245972.03161621 3357373.20648193 16.15507317 61 61 61
245984.89697266 3357377.91067505 16.20806694 176 170 154
245971.21636963 3357373.80178833 16.54638100 19 23 24
245984.79144287 3357374.01791382 16.32773972 188 185 180
245982.53808594 3357373.87911987 16.11767960 90 89 85
245983.90551758 3357373.91232300 16.32725143 150 143 137
245972.07983398 3357373.24490356 16.18729401 29 29 29
245979.29455566 3357372.82363892 16.18734741 128 127 125
245975.42553711 3357373.40420532 16.09397316 91 90 88
245968.14978027 3357373.68685913 16.38393593 76 81 77
245981.37658691 3357373.10897827 16.28212166 30 30 28
245973.04998779 3357373.03463745 16.45802879 180 179 177
245982.04522705 3357373.68469238 16.13694763 81 83 78
245970.36083984 3357373.49124146 16.16696167 82 81 79
245983.80535889 3357374.10821533 16.47578239 189 185 176
245980.60815430 3357373.17761230 16.29599190 58 58 58
245969.52502441 3357373.59744263 16.19500732 161 154 148
245984.81640625 3357376.54129028 16.59459877 62 27 33
245965.68463135 3357374.15103149 16.40228844 40 36 35
245970.37255859 3357373.55654907 16.16038513 82 81 79
245971.06225586 3357373.91040039 16.36985207 42 42 40
245965.54010010 3357375.69696045 16.17771339 110 112 109
245984.47418213 3357375.38092041 16.58236504 63 64 66
245975.08093262 3357373.74078369 16.40427589 62 64 63
245973.01477051 3357373.78036499 16.68679619 126 130 133
245984.72503662 3357374.01034546 16.30774689 200 197 192
245985.17297363 3357376.32623291 16.38429642 103 97 97
245966.97039795 3357373.30746460 16.37553596 143 136 126
245969.01171875 3357373.22973633 16.41712189 60 60 60
245968.66918945 3357373.29992676 16.36145973 37 39 38
245976.32159424 3357373.78195190 16.36292076 59 57 58
245980.15576172 3357373.11462402 16.30035210 46 46 44
245983.41558838 3357374.08981323 16.14046097 139 130 121
245981.63159180 3357373.09750366 16.35427475 40 40 38
245968.95062256 3357373.71307373 16.69381142 65 67 79
245982.95202637 3357373.94567871 16.28405571 135 135 125
245977.97656250 3357373.30227661 16.11891747 97 99 94
245976.67242432 3357372.99087524 16.13448906 97 99 98
245974.02368164 3357373.40838623 16.10997772 153 152 147
245968.00744629 3357373.80584717 16.37053680 45 47 44
245974.00231934 3357372.87911987 16.13814163 140 139 134
245970.68841553 3357372.57986450 16.10887718 169 165 153
245965.54168701 3357374.06430054 16.33047104 222 205 185
245984.26995850 3357377.43008423 16.16731071 84 88 91
245967.11260986 3357373.44796753 16.51743889 153 150 143
245980.31903076 3357373.51663208 16.46039581 73 69 68
245975.00732422 3357373.00488281 16.23791122 208 207 203
245975.18426514 3357373.71591187 16.22133446 41 43 40
245983.85253906 3357373.31460571 16.31950951 132 129 124
245970.19842529 3357372.77175903 16.17755318 105 100 94
245981.45092773 3357373.37402344 16.98331261 73 73 73
245970.65893555 3357373.62796021 16.10691452 124 123 118
245970.65051270 3357372.83349609 16.10984421 174 165 156
245984.13348389 3357377.16589355 16.39926910 65 69 72
245984.15887451 3357377.09204102 16.41087532 69 68 73
245969.82867432 3357373.44564819 16.24184990 79 79 79
245967.52404785 3357373.52221680 16.40108109 186 200 183
245981.15301514 3357373.22784424 16.22952843 45 45 45
245970.45159912 3357372.92321777 16.14818764 134 129 123
245968.80883789 3357372.76708984 16.26148224 90 87 82
245979.42047119 3357373.47885132 16.41166115 41 42 44
245976.37036133 3357373.55984497 16.17710495 99 99 97
245972.70849609 3357373.17031860 16.11135864 107 106 102
245968.10021973 3357372.96594238 16.42812729 90 91 86
245981.62316895 3357373.26278687 16.72678757 77 78 80
245985.13134766 3357376.90188599 16.20404053 96 97 92
245981.26208496 3357373.14773560 16.48431778 147 145 146
245982.37854004 3357373.60394287 16.11237526 114 113 108
245981.39697266 3357373.81030273 16.78310585 56 61 41
245967.20794678 3357373.13433838 16.54084969 199 198 193
245979.75482178 3357372.82443237 16.47706223 55 55 53
245969.69293213 3357373.45932007 16.18973160 82 81 77
245984.69274902 3357375.17605591 16.21093369 76 80 81
245984.59375000 3357374.04196167 16.57155800 186 171 168
245984.27917480 3357377.00689697 16.40006638 71 72 74
245969.19085693 3357373.69461060 16.53263664 130 129 125
245975.01391602 3357373.12149048 16.26315308 149 145 142
245984.36639404 3357375.07861328 16.38448906 81 82 86
245968.22149658 3357373.40103149 16.36303139 30 30 30
245973.05603027 3357372.98733521 16.47379684 177 176 174
245980.15539551 3357373.48129272 16.57955360 65 64 60
245984.77728271 3357377.55218506 16.11421585 120 116 113
245974.26104736 3357373.64785767 16.07469177 150 143 135
245978.95416260 3357372.84280396 16.11585426 100 100 98
245981.00677490 3357373.78472900 16.23380089 165 164 162
245976.58532715 3357373.84735107 16.31908035 63 63 61
245984.46380615 3357376.39123535 16.48572731 51 38 29
245969.82714844 3357373.21499634 16.25518799 88 89 84
245980.11456299 3357372.77151489 16.32877350 91 92 87
245968.16925049 3357373.20361328 16.37633514 87 89 88
245969.25115967 3357373.43328857 16.38707161 51 45 45
245971.12237549 3357373.82727051 16.36351204 39 40 42
245970.20306396 3357373.48168945 16.24264526 41 36 40
245967.31439209 3357373.25088501 16.58926392 145 150 144
245981.55621338 3357373.72799683 16.84227562 95 98 89
245984.38195801 3357376.31411743 16.30202484 75 71 68
245976.65301514 3357373.20532227 16.10947609 88 88 88
245968.64416504 3357373.64141846 16.57821083 73 73 73
245970.98901367 3357373.86190796 16.27024841 103 101 102
245968.23004150 3357373.81848145 16.70564270 87 92 88
245968.78015137 3357373.31292725 16.38471603 82 82 82
245970.38562012 3357372.94168091 16.16578674 92 89 84
245967.37890625 3357373.62570190 16.68025589 143 144 138
245985.06085205 3357377.59576416 16.02755356 140 139 134
245968.52215576 3357373.07656860 16.49547768 65 69 72
245978.06506348 3357373.38751221 16.30505943 113 115 110
245980.62658691 3357373.81781006 16.39182472 44 43 39
245984.35833740 3357374.62228394 16.28423500 14 18 21
245967.16394043 3357373.88037109 16.31782913 162 158 149
245984.06402588 3357377.98464966 16.36784363 64 65 70
245970.33160400 3357372.69781494 16.11503792 168 159 150
245984.83282471 3357375.97702026 16.45424843 45 45 43
245983.05828857 3357373.37103271 16.15744209 170 166 157
245970.20007324 3357372.87216187 16.22501183 68 67 65
245979.16961670 3357373.77282715 16.36029625 123 120 113
245984.94641113 3357373.97488403 16.10135651 133 130 125
245984.85351563 3357374.12393188 16.29371262 122 114 112
245968.85949707 3357372.80526733 16.26040649 91 88 83
245978.55566406 3357373.85647583 16.12245941 149 146 137
245983.22790527 3357373.26739502 16.12463379 109 106 99
245970.28253174 3357373.70181274 16.17624855 72 72 70
245976.02709961 3357373.47244263 16.51468277 19 19 19
245971.84167480 3357373.44226074 16.14570618 83 83 81
245966.30303955 3357374.33267212 16.84162140 68 72 71
245984.24511719 3357375.73275757 16.30093575 67 69 68
245970.14508057 3357373.04064941 16.30867004 54 55 50
245981.20812988 3357373.29455566 16.42268944 20 21 23
245978.13781738 3357373.50637817 16.44992828 150 153 146
245981.75085449 3357373.46154785 16.67849159 25 26 28
245984.70758057 3357375.12829590 16.18039894 82 83 87
245975.72735596 3357373.45724487 16.26441765 103 104 98
245981.81939697 3357373.62664795 16.31745529 42 43 45
245970.13110352 3357372.90158081 16.31296921 40 39 34
245972.24658203 3357373.37176514 16.22612572 57 59 58
245981.94158936 3357373.21691895 16.30107689 85 84 82
245965.26129150 3357373.55151367 16.16395378 173 169 160
245984.79833984 3357376.70080566 16.55474472 70 64 66
245981.23199463 3357373.20828247 16.51824570 106 108 107
245970.39666748 3357373.31414795 16.14526176 91 90 86
245981.03692627 3357373.06890869 16.09893417 115 114 112
245984.56890869 3357378.01422119 16.25429916 86 87 89
245979.95996094 3357372.90798950 16.43565750 165 170 163
245981.31402588 3357372.90414429 16.06741142 114 110 101
245984.66510010 3357373.91705322 16.10288239 104 103 98
245973.54650879 3357373.59945679 16.14171791 201 203 198
245976.23437500 3357373.48080444 16.24174118 59 59 57
245972.91839600 3357372.66436768 16.17347145 152 148 136
245984.38403320 3357376.74816895 16.63043785 65 66 68
245983.71826172 3357374.09796143 16.31067085 145 138 130
245980.67443848 3357372.99737549 16.25297546 128 128 126
245965.81665039 3357375.70880127 16.26637459 101 103 100
245976.26348877 3357373.68902588 16.33084869 67 67 67
245972.00494385 3357373.34918213 16.18057442 43 43 43
245977.56762695 3357373.79724121 16.19727325 87 89 86
245983.95269775 3357373.27081299 16.33493233 111 104 98
245984.77856445 3357374.12484741 16.50929642 67 66 62
245984.31939697 3357374.30944824 16.45883560 77 77 79
245966.18579102 3357373.49743652 16.16184425 176 171 165
245984.25579834 3357375.46334839 16.63199425 41 42 44
245977.09301758 3357373.22924805 16.17431831 96 97 92
245982.12341309 3357374.02905273 16.10921860 54 55 50
245973.05017090 3357373.70794678 16.56142235 156 158 157
245969.54486084 3357372.92614746 16.15017509 147 147 139
245968.02227783 3357373.41702271 16.29092026 122 123 118
245984.20446777 3357376.36331177 16.96360779 160 162 159
245966.09655762 3357374.36721802 16.37780762 116 118 117
245967.41607666 3357373.33099365 16.52966309 178 192 177
245965.86035156 3357373.81454468 16.42344666 159 150 145
245970.45458984 3357373.13775635 16.14147377 90 88 89
245984.56451416 3357375.54592896 16.17830658 49 51 50
245967.82141113 3357373.60394287 16.25663567 56 61 55
245973.48608398 3357373.20986938 16.19415855 72 72 70
245975.21893311 3357373.62414551 16.17523766 74 74 72
245976.76013184 3357373.42431641 16.08110809 102 102 102
245969.16015625 3357373.08688354 16.26981544 61 62 57
245984.65270996 3357374.18664551 16.52782822 57 55 56
245972.64367676 3357373.16357422 16.10426521 97 96 92
245984.80816650 3357377.72848511 16.14955711 133 130 123
245978.40979004 3357373.62768555 16.14205170 102 103 98
245966.20922852 3357374.07369995 16.67115784 223 203 205
245978.59936523 3357373.75448608 16.09116936 101 100 95
245983.99328613 3357373.95117188 16.53082275 143 138 134
245980.48693848 3357373.69403076 16.41602516 14 14 14
245980.53997803 3357373.52612305 16.25878143 50 50 50
245980.08514404 3357373.03060913 16.30623627 113 114 109
245984.24060059 3357376.19338989 16.28207970 34 35 37
245976.08435059 3357373.50888062 16.44625854 17 17 17
245973.25305176 3357373.29797363 16.24234581 74 75 77
245980.90771484 3357373.84094238 16.52859116 65 66 58
245984.03009033 3357376.67727661 16.67715263 67 67 69
245983.94152832 3357374.90542603 16.65675163 50 50 48
245972.79351807 3357373.85583496 16.50656509 153 149 150
245981.72467041 3357373.39596558 16.47426224 33 32 37
245972.35101318 3357373.20153809 16.19042969 50 50 48
245968.90948486 3357373.60586548 16.59620667 54 53 61
245979.12915039 3357373.36422729 16.12854385 118 117 113
245981.91381836 3357373.59497070 16.18053246 70 70 68
245976.21600342 3357372.90814209 16.18910599 107 106 101
245977.49102783 3357373.12927246 16.16095734 81 81 79
245969.70562744 3357373.55908203 16.18671989 112 111 107
245981.74841309 3357373.30618286 16.39340782 39 41 40
245974.30975342 3357372.97891235 16.11341858 121 121 113
245981.27001953 3357373.07901001 16.14100075 72 72 70
245966.24639893 3357374.30767822 16.66148567 55 55 55
245967.89379883 3357373.84921265 16.34201050 50 50 48
245985.24615479 3357377.83666992 15.98516560 134 135 130
245970.83056641 3357372.51409912 16.14175797 161 155 143
245966.31158447 3357374.00610352 16.51173210 161 136 131
245982.02978516 3357372.95223999 16.24876595 118 115 110
245968.85943604 3357373.64437866 16.60742569 61 60 68
245981.26452637 3357372.97119141 16.09654617 67 64 59
245975.03802490 3357373.49676514 16.30599976 84 83 79
245984.95062256 3357378.29824829 16.34247780 83 83 83
245984.61077881 3357376.76568604 16.62815666 75 76 78
245984.09881592 3357374.19653320 16.52548981 188 184 181
245967.41137695 3357374.02154541 16.65410614 141 141 133
245966.16741943 3357374.62222290 16.67334747 78 79 81
245967.42474365 3357373.43310547 16.56748962 160 168 155
245971.96966553 3357372.77008057 16.12052345 134 131 126
245968.34576416 3357373.45874023 16.39532661 138 138 138
245975.93579102 3357373.71557617 16.68735504 163 162 157
245975.96459961 3357372.99124146 16.24110031 105 102 97
245965.48052979 3357375.94552612 16.17687225 116 118 117
245966.62512207 3357373.23559570 16.16883850 157 150 142
245985.39703369 3357377.72940063 15.95590115 167 167 159
245979.12615967 3357372.79913330 16.10934448 124 125 119
245976.92816162 3357373.46643066 16.12194633 135 136 130
245968.26110840 3357373.63739014 16.42078018 90 90 88
245984.24194336 3357375.34024048 16.71556854 70 71 73
245968.63995361 3357373.37667847 16.38425827 38 40 39
245981.59771729 3357373.26916504 16.80003929 57 58 62
245985.13391113 3357374.45260620 16.26268387 89 90 92
245981.73010254 3357373.27584839 16.42825508 34 38 37
245966.26910400 3357374.44479370 16.72311020 35 33 34
245973.22308350 3357372.63397217 16.15250206 158 151 141
245978.83068848 3357373.27575684 16.08908844 159 156 149
245967.89178467 3357373.01669312 16.26168251 154 155 149
245984.56726074 3357373.99075317 16.23176956 59 51 48
245968.88629150 3357373.42553711 16.45325470 58 56 57
245973.23730469 3357373.09265137 16.35008812 100 100 98
245979.97875977 3357373.08789063 16.37014008 189 190 184
245983.12988281 3357373.72644043 16.20695496 174 168 154
245969.63214111 3357373.72052002 16.22234535 158 155 150
245971.33093262 3357373.03067017 16.35384560 34 36 33
245984.19042969 3357375.42370605 16.65045357 33 35 34
245984.12359619 3357375.02886963 16.63206100 158 150 147
245965.51007080 3357374.93231201 16.17042732 80 78 79
245967.69348145 3357373.93527222 16.56110001 103 109 99
245966.10931396 3357374.72781372 16.72187424 227 226 231
245984.22161865 3357375.83001709 16.27748299 42 44 43
245965.91424561 3357373.83139038 16.46700859 159 148 144
245972.21374512 3357372.99911499 16.17501259 18 20 17
245979.06658936 3357373.82571411 16.20959663 131 127 118
245984.60095215 3357376.93435669 16.43952560 87 87 89
245970.38763428 3357373.57843018 16.15076828 87 86 82
245980.72106934 3357373.67056274 16.16875839 47 47 47
245977.91497803 3357373.77279663 16.37765694 78 80 75
245983.76611328 3357374.19812012 16.48647881 49 48 44
245981.13482666 3357373.25518799 16.21197510 52 52 52
245967.05664063 3357373.06216431 16.33511734 154 146 127
245973.97564697 3357373.45193481 16.10723495 156 153 146
245980.90374756 3357373.84197998 16.52398682 65 66 58
245984.94299316 3357373.75131226 16.02794456 161 158 153
245972.58331299 3357372.89672852 16.13818741 73 74 68
245965.45721436 3357375.52764893 16.17268562 143 143 141
245985.01660156 3357375.88977051 16.27656555 82 81 79
245985.58428955 3357378.16290283 15.96383953 155 153 141
245974.36175537 3357372.69284058 16.08834648 135 127 116
245981.87927246 3357373.54336548 16.20296860 63 68 64
245971.47955322 3357373.42413330 16.18374252 62 62 60
245984.29638672 3357376.45996094 16.44408798 45 46 41
245976.06475830 3357373.69274902 16.60482788 90 91 85
245971.82440186 3357373.89285278 16.30348206 111 103 101
245979.32006836 3357373.30694580 16.25674248 67 67 65
245975.83264160 3357373.44699097 16.47343826 38 39 34
245984.14068604 3357376.73126221 16.64514732 60 60 60
245973.92297363 3357373.89959717 16.15041924 108 105 100
245980.92181396 3357373.25115967 16.10282135 75 75 75
245971.52984619 3357372.74368286 16.38961792 28 28 28
245984.23217773 3357376.49423218 16.90561676 65 67 66
245970.54498291 3357373.22830200 16.12124252 94 93 89
245972.48492432 3357373.46261597 16.14049530 83 84 79
245984.38439941 3357375.64700317 16.17924690 71 73 72
245973.01770020 3357373.75549316 16.65464592 107 111 114
245965.32733154 3357373.56002808 16.16956329 171 167 158
245984.45880127 3357374.90704346 16.21331024 78 79 84
245966.35919189 3357373.45050049 16.14113426 175 168 158
245973.94201660 3357372.84573364 16.17399597 112 111 106
245972.14147949 3357372.81164551 16.12872124 75 70 66
245984.56347656 3357374.58557129 16.27064323 52 53 57
245978.71258545 3357372.83889771 16.16376495 90 91 85
245968.58239746 3357373.17105103 16.42001343 121 122 124
245981.87408447 3357373.77984619 16.38192177 75 76 71
245975.82135010 3357373.56539917 16.63834953 153 153 145
245971.56982422 3357373.13845825 16.20873070 67 67 67
245984.32238770 3357375.62045288 16.28839493 61 65 64
245984.46051025 3357377.90951538 16.23250771 85 89 92
245974.97119141 3357373.52993774 16.21700096 78 77 75
245970.09967041 3357373.71112061 16.23676300 87 91 94
245980.21661377 3357373.21179199 16.31445694 51 51 49
245984.02185059 3357373.57165527 16.26993752 133 129 120
245966.19738770 3357374.54479980 16.60601616 14 14 16
245972.24066162 3357372.70135498 16.11093521 163 159 150
245985.06225586 3357374.40429688 16.31700897 48 52 55
245985.02282715 3357373.99215698 16.03710175 153 150 145
245968.39648438 3357372.86248779 16.67591286 196 198 197
245979.79840088 3357372.99533081 16.42940140 65 65 63
245973.98004150 3357373.13903809 16.17010498 124 123 118
245981.59185791 3357373.02282715 16.16250038 46 48 45
245984.78991699 3357374.22869873 16.47546005 38 40 39
245971.21807861 3357373.71212769 16.36947441 33 38 34
245973.42333984 3357373.79998779 16.25818062 115 115 113
245976.74047852 3357373.46908569 16.07774925 93 93 91
245983.36199951 3357373.83645630 16.15429497 146 137 128
245968.34765625 3357373.60897827 16.45304680 81 83 82
245965.94409180 3357373.99493408 16.46406937 124 119 113
245984.70385742 3357375.12777710 16.18089867 82 83 87
245973.84082031 3357373.74380493 16.14736748 153 152 147
245971.61938477 3357372.71002197 16.30984116 59 59 57
245976.84466553 3357373.65029907 16.15917015 144 144 142
245966.18823242 3357374.58749390 16.73957634 80 80 82
245976.48297119 3357373.01589966 16.12438965 108 108 108
245974.78167725 3357373.74026489 16.15478516 113 114 109
245977.96417236 3357373.09646606 16.07702446 114 114 112
245973.55181885 3357373.16336060 16.24509811 66 67 62
245984.28118896 3357373.41464233 16.12899590 136 127 120
245981.17138672 3357373.53536987 16.34744453 25 26 28
245978.48754883 3357373.34503174 16.14766884 96 98 93
245980.78271484 3357373.15069580 16.13155174 67 65 66
245979.18621826 3357372.83612061 16.12660217 104 103 99
245984.24578857 3357376.70812988 16.67141914 61 61 63
245968.17999268 3357373.88201904 16.71352577 124 125 120
245983.21771240 3357373.98101807 16.20833588 145 136 127
245984.06457520 3357377.51358032 16.36595917 65 68 75
245983.89703369 3357373.44155884 16.38763046 90 87 80
245976.54064941 3357373.58895874 16.10044289 36 36 34
245979.89843750 3357372.79043579 16.50254631 220 222 219
245965.33496094 3357373.57797241 16.17329407 181 176 170
245985.08239746 3357377.92800903 16.06491661 96 97 92
245976.78924561 3357373.84429932 16.38292503 107 106 101
245984.63378906 3357376.82128906 16.55908203 82 82 84
245982.52807617 3357373.97271729 16.14162445 75 74 70
245985.24591064 3357376.61901855 16.30734253 162 164 163
245980.86541748 3357373.54559326 16.12176132 54 56 55
245983.14807129 3357373.14163208 16.06092453 106 106 98
245985.19177246 3357377.90155029 15.99440289 123 124 118
245966.58831787 3357374.30581665 16.63635826 68 64 61
245978.11688232 3357373.63027954 16.47590637 92 92 84
245984.30651855 3357377.33773804 16.16710281 81 85 88
245984.99102783 3357376.25500488 16.52195549 53 49 50
245984.33422852 3357374.90371704 16.25182343 74 75 79
245984.54974365 3357377.24517822 16.25633430 85 86 90
245965.96112061 3357374.84509277 16.50506783 223 227 226
245970.86627197 3357373.39843750 16.16806602 178 171 163
245981.54461670 3357373.23034668 16.83135986 51 52 54
245974.89355469 3357372.97421265 16.15074539 241 238 233
245967.84570313 3357373.01913452 16.23863983 167 164 157
245984.59185791 3357373.85256958 16.09124184 98 97 92
245965.35321045 3357374.31466675 16.20377731 150 145 139
245979.21563721 3357373.73504639 16.42561531 221 216 213
245980.91601563 3357373.82919312 16.48444939 64 65 59
245982.15264893 3357373.77276611 16.09440422 88 88 86
245967.02984619 3357373.60687256 16.35603714 149 145 134
245967.60510254 3357373.91714478 16.64844513 149 151 146
245985.28515625 3357376.62786865 16.28911591 120 120 120
245983.04418945 3357373.97796631 16.30549240 127 123 114
245984.19732666 3357376.07778931 16.28569984 22 22 22
245971.19110107 3357372.65539551 16.26458549 130 125 119
245980.87469482 3357373.84533691 16.46996307 68 69 63
245979.91345215 3357372.99197388 16.41849899 124 126 121
245969.45855713 3357372.81320190 16.15227509 162 155 149
245966.25396729 3357373.90155029 16.47156334 67 39 36
245970.54644775 3357373.89590454 16.14539146 165 161 160
245979.19561768 3357373.74215698 16.38620567 171 166 163
245980.55712891 3357373.73031616 16.31202126 18 20 19
245981.13763428 3357373.62057495 16.39407158 36 36 34
245984.43164063 3357375.51400757 16.34404182 41 43 42
245984.18341064 3357374.64443970 16.45946503 40 39 45
245981.33032227 3357373.11233521 16.50974846 78 78 78
245984.20550537 3357374.70544434 16.39671326 18 17 22
245984.04852295 3357373.85333252 16.44736671 175 168 162
245965.66119385 3357374.07067871 16.36882973 53 43 34
245979.55041504 3357373.59500122 16.44916534 41 43 38
245969.91534424 3357372.94134521 16.31532669 161 154 144
245980.45281982 3357373.07345581 16.35871315 80 82 81
245985.33245850 3357376.30725098 16.15939140 67 66 64
245977.28100586 3357372.99667358 16.26038361 39 40 35
245966.58215332 3357373.49136353 16.16697884 161 154 144
245971.49316406 3357373.52423096 16.16669655 65 65 63
245966.19042969 3357373.41207886 16.15174484 170 167 158
245981.27239990 3357373.69732666 16.76415062 43 44 39
245973.45947266 3357373.39581299 16.16423607 80 80 78
245972.14965820 3357373.34957886 16.22966957 58 60 59
245980.11260986 3357373.68179321 16.66204453 75 69 69
245984.47576904 3357378.04083252 16.25535583 83 87 88
245965.73699951 3357373.33346558 16.20649529 180 177 168
245968.33709717 3357373.85058594 16.81283951 137 141 142
245984.90545654 3357374.30264282 16.22598267 59 59 59
245976.40087891 3357372.98904419 16.14214897 89 90 85
245977.40155029 3357372.76892090 16.26000023 42 41 39
245969.25122070 3357373.79412842 16.49053764 80 77 72
245969.61456299 3357373.08789063 16.17003250 96 93 88
245976.55926514 3357373.09503174 16.12725258 94 94 92
245971.73571777 3357372.69079590 16.21988487 70 69 65
245984.79785156 3357373.84841919 16.07942390 189 185 182
245978.48840332 3357372.98117065 16.21106148 182 192 184
245982.68072510 3357373.27410889 16.13514328 87 86 81
245965.70031738 3357375.79858398 16.19815254 105 107 104
245977.80541992 3357373.06649780 16.08311272 99 101 98
245969.08557129 3357373.32788086 16.50181580 46 45 43
245984.61773682 3357375.41683960 16.42340279 68 69 71
245974.33105469 3357372.70114136 16.08942986 148 139 130
245974.39874268 3357372.92108154 16.11358452 157 154 145
245975.82238770 3357373.07873535 16.17648125 100 96 93
245969.13861084 3357373.19512939 16.36701202 102 103 98
245967.44891357 3357373.87167358 16.64370537 144 141 134
245984.89202881 3357375.36343384 16.50139809 45 50 53
245965.67315674 3357373.70965576 16.26772881 175 168 162
245965.97302246 3357373.48339844 16.23672485 84 81 74
245984.94372559 3357373.68634033 16.03063774 166 162 159
245984.57696533 3357375.61309814 16.12696457 80 80 80
245965.55670166 3357375.00381470 16.18828392 65 65 65
245980.43652344 3357372.87753296 16.30028725 79 79 79
245971.84930420 3357373.08618164 16.13336754 78 79 74
245985.17401123 3357375.72177124 16.14702034 132 131 127
245981.74615479 3357373.45849609 16.68950081 36 36 38
245971.50488281 3357373.00540161 16.31611252 52 52 52
245977.51123047 3357372.81506348 16.18047714 85 85 83
245981.59582520 3357373.62490845 16.86995316 135 135 133
245984.73553467 3357377.75695801 16.17048836 133 132 128
245968.09191895 3357373.91491699 16.60866928 80 82 77
245980.81048584 3357373.87319946 16.44922066 54 55 50
245971.12756348 3357372.97390747 16.26018524 113 113 111
245984.05108643 3357377.71002197 16.40242958 63 66 71
245984.07116699 3357375.68811035 16.46995926 46 47 49
245975.53643799 3357372.95043945 16.07110977 87 86 81
245967.70465088 3357373.89971924 16.48173714 145 150 144
245970.16339111 3357373.77160645 16.21315384 77 79 78
245968.77203369 3357373.43951416 16.41997147 56 56 56
245981.53918457 3357373.66262817 16.87009239 86 85 81
245978.69824219 3357373.22103882 16.09419632 93 94 89
245985.15325928 3357377.26739502 16.05031204 102 101 99
245979.50610352 3357373.74942017 16.49743843 67 64 59
245984.72052002 3357373.91491699 16.10605431 103 100 95
245965.54003906 3357373.58871460 16.24279594 171 168 159
245983.80041504 3357373.59548950 16.37285805 122 118 109
245966.50482178 3357374.07186890 16.29126740 136 128 125
245974.53814697 3357373.87176514 16.10471725 92 92 90
245985.06420898 3357375.21984863 16.40484619 101 99 100
245981.59820557 3357373.23092651 16.74462128 42 43 47
245984.82598877 3357374.27410889 16.42625237 26 30 31
245980.17425537 3357372.82839966 16.29313469 66 67 62
245965.91137695 3357374.77609253 16.41285706 97 101 102
245981.10504150 3357373.68325806 16.55800056 26 25 23
245983.95593262 3357375.62097168 16.56779099 53 55 54
245981.18121338 3357373.60482788 16.73770714 54 54 52
245967.04840088 3357373.20877075 16.45950890 136 127 122
245967.95520020 3357373.11410522 16.28695297 121 120 116
245981.96868896 3357373.86175537 16.18848419 88 87 83
245981.65875244 3357373.53186035 16.87391663 89 88 86
245985.42102051 3357377.38296509 15.98074150 134 131 126
245981.29711914 3357373.11975098 16.45578575 107 107 107
245980.98046875 3357373.80545044 16.23623085 131 131 129
245972.85943604 3357372.77102661 16.15724754 122 118 106
245985.32452393 3357377.77294922 15.96874142 154 153 148
245966.33020020 3357374.06378174 16.63090324 209 185 185
245985.04211426 3357374.54174805 16.30093956 87 88 90
245985.29925537 3357376.65887451 16.27296257 59 59 57
245972.26409912 3357373.82980347 16.29454422 52 51 49
245965.87475586 3357374.59634399 16.34719849 38 44 40
245974.79333496 3357373.01760864 16.13932419 178 169 160
245974.93969727 3357373.16436768 16.21931076 214 206 204
245984.24597168 3357377.61325073 16.13960266 84 85 89
245966.97753906 3357373.14489746 16.32510757 155 145 133
245976.56146240 3357373.73355103 16.17557526 72 74 73
245976.28503418 3357373.82135010 16.42612839 67 70 63
245973.13769531 3357372.89288330 16.47208405 61 60 56
245984.54040527 3357375.51812744 16.21706200 38 42 41
245985.10443115 3357377.71572876 16.02957916 154 153 151
245985.18457031 3357376.20956421 16.30310059 39 39 39
245965.51873779 3357375.79605103 16.17743874 124 124 124
245974.97595215 3357373.69265747 16.45682144 163 168 164
245974.70654297 3357372.99612427 16.13709831 182 174 163
245981.34643555 3357373.70751953 16.80182266 57 59 54
245984.36273193 3357376.68621826 16.70554733 64 64 66
245984.22729492 3357377.88150024 16.24800873 77 78 83
245968.50769043 3357373.34552002 16.41107368 45 46 48
245965.44567871 3357373.53469849 16.20759964 182 178 169
245972.36010742 3357373.62490845 16.16589165 51 53 52
245966.92413330 3357373.66320801 16.29854202 163 157 145
245978.00408936 3357373.08447266 16.07562256 153 155 150
245966.10101318 3357374.64181519 16.49273109 200 204 205
245965.89642334 3357373.59826660 16.38337708 95 75 76
245984.31054688 3357375.67166138 16.24999237 66 66 66
245984.13140869 3357374.39532471 16.56282997 106 104 105
245969.15570068 3357373.04513550 16.25683784 54 55 50
245984.84057617 3357373.97503662 16.19075203 185 182 177
245977.54394531 3357373.03353882 16.13584709 87 89 84
245980.49902344 3357373.40322876 16.27992249 99 101 100
245978.19244385 3357373.53131104 16.41192818 136 137 131
245966.14990234 3357374.89465332 16.79757118 52 50 51
245984.62719727 3357374.07498169 16.58032799 193 179 178
245966.53710938 3357373.20068359 16.16481018 159 155 146
245984.90228271 3357377.24472046 16.21558189 81 81 79
245981.21087646 3357373.27511597 16.42167664 49 50 52
245982.96234131 3357373.20959473 16.08479691 198 195 188
245984.28955078 3357376.06130981 16.24176598 23 25 22
245968.93811035 3357373.38235474 16.45823669 63 61 62
245979.33123779 3357373.33251953 16.28868866 63 63 63
245982.30645752 3357373.11645508 16.15877724 113 110 105
245976.23663330 3357372.88269043 16.18128777 79 78 73
245984.99780273 3357376.57714844 16.39773369 115 106 107
245976.54467773 3357373.53372192 16.09199524 44 44 42
245983.96704102 3357377.99224854 16.52452850 45 49 52
245973.34973145 3357373.49822998 16.18992424 82 82 82
245984.01733398 3357373.90408325 16.53255272 147 142 138
245970.89624023 3357372.92700195 16.18272209 179 173 161
245977.53247070 3357372.93713379 16.15035629 87 87 85
245965.38970947 3357373.62329102 16.19464493 184 179 173
245980.65692139 3357373.79745483 16.30032539 39 39 37
245980.63024902 3357373.83859253 16.47340202 64 66 61
245970.30792236 3357372.99874878 16.19594574 79 78 76
245980.23394775 3357373.39739990 16.38670921 73 72 68
245984.17877197 3357374.56628418 16.46271896 67 67 75
245984.54357910 3357376.46484375 16.68145370 127 119 117
245981.31262207 3357373.10894775 16.23244095 32 30 31
245971.52813721 3357373.94506836 16.22759056 44 44 42
245970.85394287 3357373.65081787 16.16314888 108 107 102
245984.62683105 3357375.64831543 16.11397171 99 99 99
245972.96197510 3357373.55685425 16.28929710 82 84 81
245974.18646240 3357372.91177368 16.10031700 101 98 91
245970.41717529 3357372.88796997 16.15636635 128 123 117
245973.08410645 3357373.42892456 16.40079308 141 142 137
245984.79455566 3357375.48678589 16.19704437 59 60 62
245966.06805420 3357373.68228149 16.36150360 147 134 128
245971.43768311 3357373.16754150 16.25845337 81 81 81
245975.66436768 3357373.60461426 16.44202614 122 123 118
245970.13568115 3357372.79388428 16.19939804 89 84 78
245978.59454346 3357373.16763306 16.13674545 98 101 94
245965.98461914 3357374.05474854 16.46500397 118 115 110
245980.07000732 3357373.56707764 16.66489601 158 157 155
245983.68554688 3357373.66683960 16.36923981 73 69 60
245983.22979736 3357373.97296143 16.19962883 135 127 116
245971.09497070 3357373.79470825 16.31561470 42 44 43
245984.59033203 3357374.25735474 16.48312950 53 53 53
245978.49884033 3357373.67257690 16.11047554 105 106 100
245981.79852295 3357373.50784302 16.58962631 35 37 36
245966.65490723 3357373.63021851 16.19225502 149 142 134
245974.90478516 3357373.53729248 16.18832207 108 108 106
245969.73986816 3357373.71603394 16.22025490 103 102 98
245975.16033936 3357373.82315063 16.32573318 60 59 55
245973.16247559 3357373.12643433 16.41334915 148 150 149
245984.67761230 3357375.49893188 16.22971916 46 45 43
245982.59436035 3357373.88604736 16.13044930 89 88 84
245985.15997314 3357375.07043457 16.19272804 122 120 123
245971.93652344 3357373.73217773 16.31941223 153 153 151
245979.59887695 3357373.73922729 16.51017761 63 59 56
245985.43255615 3357378.22402954 16.03756142 100 99 94
245975.76959229 3357373.52453613 16.59517288 200 200 192
245976.24505615 3357373.52743530 16.24079323 63 63 61
245975.63787842 3357373.11889648 16.09387016 90 89 87
245980.57818604 3357373.77838135 16.35366821 32 32 32
245970.90979004 3357372.85293579 16.19655609 183 177 165
245984.30181885 3357376.52990723 16.57630157 53 53 51
245984.33801270 3357375.07928467 16.61657524 70 70 72
245968.65203857 3357373.18664551 16.39302826 39 41 40
245978.22082520 3357373.41809082 16.37471581 123 126 119
245981.19555664 3357373.24722290 16.35319519 51 51 53
245985.01092529 3357378.17306519 16.05318642 67 68 63
245966.31408691 3357373.90841675 16.38608360 54 35 29
245983.93530273 3357375.75378418 16.52907753 42 43 45
245970.17022705 3357373.38946533 16.27030182 38 36 39
245975.33544922 3357373.65399170 16.17128372 77 77 75
245971.23553467 3357373.75225830 16.39211082 17 19 18
245974.57366943 3357373.44613647 16.12740135 90 89 85
245974.51983643 3357372.97369385 16.12662125 150 143 133
245984.90307617 3357374.58566284 16.31053925 91 92 96
245984.71173096 3357374.36038208 16.40664101 13 17 18
245972.26562500 3357373.46685791 16.20557785 55 57 56
245984.16711426 3357374.84881592 16.56549454 68 69 73
245977.39202881 3357372.79827881 16.26254845 51 50 48
245973.41979980 3357373.09152222 16.27361107 96 97 91
245971.59710693 3357372.53829956 16.22324562 81 78 73
245978.36804199 3357372.97875977 16.22574234 174 177 170
245975.47161865 3357372.77502441 16.08957291 136 133 126
245984.02862549 3357374.02816772 16.57822990 110 105 102
245965.61676025 3357375.18716431 16.20437431 34 35 37
245965.33367920 3357374.56088257 16.16569138 150 150 142
245984.06866455 3357377.16482544 16.45956230 61 62 66
245976.11749268 3357373.00436401 16.27005577 158 155 150
245984.08374023 3357374.63317871 16.68513680 123 127 130
245977.53228760 3357372.93188477 16.15113449 87 87 85
245970.03692627 3357372.80776978 16.24308014 165 163 150
245984.97460938 3357377.64572144 16.07043839 154 153 149
245984.65985107 3357373.99697876 16.55970383 94 78 78
245979.87689209 3357373.19369507 16.44430351 173 175 170
245981.09515381 3357373.72695923 16.27175903 16 16 16
245984.30029297 3357375.11532593 16.70832062 91 91 91
245984.22338867 3357374.78781128 16.35857773 47 46 51
245984.13348389 3357375.38775635 16.65840912 47 47 47
245985.22033691 3357377.63711548 15.97181320 137 136 131
245967.52343750 3357373.80026245 16.58620071 137 138 130
245968.26904297 3357373.58755493 16.40675545 97 97 95
245968.35424805 3357372.92547607 16.63795090 131 135 136
245974.80664063 3357372.99749756 16.13776970 178 169 160
245984.99157715 3357375.95504761 16.41320801 88 89 84
245981.85296631 3357373.13717651 16.33650398 24 26 25
245983.75543213 3357374.17657471 16.44717598 113 110 103
245976.10955811 3357373.03085327 16.28093147 161 160 156
245984.71417236 3357375.26068115 16.40561295 75 76 78
245966.88848877 3357374.01013184 16.18798637 157 154 145
245973.38519287 3357373.05520630 16.29814529 100 99 94
245968.38403320 3357373.69012451 16.60407639 37 39 38
245966.22454834 3357373.25387573 16.14847946 173 166 156
245979.40167236 3357373.72494507 16.48158264 99 98 94
245966.85003662 3357373.16305542 16.20192337 161 153 142
245968.38757324 3357372.83926392 16.65810585 196 198 197
245970.98004150 3357373.35861206 16.19408226 178 174 165
245973.10430908 3357373.40127563 16.26882744 113 115 114
245982.94897461 3357373.16751099 16.08959007 100 99 94
245975.63336182 3357373.50448608 16.20266914 131 131 129
245984.30895996 3357373.58966064 16.11728859 159 152 146
245983.99536133 3357377.18106079 16.54107857 54 55 59
245965.64141846 3357375.61328125 16.18002129 78 80 77
245982.27459717 3357373.16397095 16.16849709 115 112 107
245974.92199707 3357372.88061523 16.15382767 255 254 249
245985.21331787 3357378.11865234 15.97258854 123 124 119
245984.19525146 3357376.20947266 16.31644440 27 27 29
245985.19262695 3357375.03683472 16.12818336 107 107 107
245981.77471924 3357373.48233032 16.46486092 34 35 39
245965.94738770 3357373.90133667 16.48552704 152 139 133
245981.40728760 3357373.28973389 16.97295952 64 63 61
245978.30682373 3357373.64727783 16.23236084 117 118 110
245984.41607666 3357375.03027344 16.25374603 80 81 86
245985.22570801 3357378.17031860 16.00558281 124 125 120
245970.49688721 3357373.59423828 16.09421539 108 107 103
245968.03991699 3357373.91961670 16.52220345 109 112 105
245974.80072021 3357373.65829468 16.16070366 116 115 113
245971.31433105 3357373.17721558 16.28462029 40 41 43
245976.41314697 3357373.05377197 16.13551903 75 76 71
245985.33349609 3357377.37008667 15.98253727 129 126 121
245977.93151855 3357373.41790771 16.24001503 109 114 108
245980.43597412 3357373.12460327 16.35554695 69 71 70
245968.26123047 3357373.70483398 16.48280334 37 39 38
245966.39447021 3357374.67391968 16.90165520 61 60 56
245965.91949463 3357374.47833252 16.36843491 42 48 46
245985.23864746 3357375.82873535 16.11837959 134 133 128
245969.77435303 3357372.60174561 16.13463020 176 170 158
245971.29241943 3357372.51473999 16.22923279 150 140 128
245970.16906738 3357372.89944458 16.27227783 57 56 52
245984.56872559 3357373.81408691 16.08843613 109 108 103
245968.85290527 3357373.29751587 16.39801216 69 69 69
245982.11651611 3357373.68582153 16.11274147 89 91 86
245967.55462646 3357373.53244019 16.36290932 190 204 187
245974.37756348 3357373.36135864 16.10524940 132 127 124
245984.06866455 3357375.81219482 16.39652634 35 35 37
245977.63421631 3357373.05172729 16.09025192 97 99 96
245972.31402588 3357372.73858643 16.12188530 158 154 145
245978.11285400 3357373.42663574 16.40837288 156 161 154
245985.11608887 3357374.65371704 16.23703003 99 100 102
245984.25524902 3357374.59130859 16.37240219 42 45 50
245973.68615723 3357373.55746460 16.13391685 136 137 132
245967.73980713 3357373.21444702 16.19102859 130 129 124
245966.21661377 3357373.76422119 16.30919647 152 138 135
245970.39892578 3357372.83908081 16.15287018 160 153 147
245975.36627197 3357373.65093994 16.16512489 79 79 77
245971.98181152 3357373.82717896 16.45734024 68 63 60
245970.95678711 3357373.87823486 16.25682259 148 146 147
245984.75897217 3357378.25207520 16.24528885 88 88 88
245970.37384033 3357372.73434448 16.12395096 175 166 159
245984.18322754 3357377.05871582 16.40862083 66 70 73
245965.24554443 3357374.18981934 16.19672966 166 159 149
245970.61993408 3357372.80184937 16.10699272 172 163 154
245965.55682373 3357375.90509033 16.17869186 124 126 123
245984.14794922 3357374.61785889 16.56772232 42 45 50
245978.18518066 3357373.45843506 16.46001053 109 112 105
245984.21929932 3357377.19995117 16.30638504 73 74 78
245973.25250244 3357373.82260132 16.65826797 63 63 63
245966.81079102 3357373.49923706 16.26498604 152 145 135
245984.61047363 3357377.23431396 16.27379608 85 86 90
245978.86779785 3357373.07882690 16.10045815 108 108 100
245979.42639160 3357373.73910522 16.48870087 98 95 90
245984.09497070 3357376.62982178 16.76462746 68 69 71
245977.00805664 3357372.87805176 16.12817001 135 135 133
245966.39196777 3357374.40759277 16.99003792 95 94 92
245970.99414063 3357373.00723267 16.20650864 184 181 172
245977.87103271 3357373.29119873 16.09731102 95 97 94
245970.77606201 3357373.09072876 16.12396049 179 173 161
245984.95959473 3357373.54849243 16.03775024 141 137 136
245978.15612793 3357372.88717651 16.08599281 150 150 138
245976.81512451 3357373.15637207 16.10070801 92 92 92
245967.97961426 3357373.82678223 16.37543869 34 34 32
245965.63623047 3357374.95043945 16.18582153 85 85 83
245975.07843018 3357373.07843018 16.27122879 131 130 126
245970.41632080 3357373.38998413 16.13396454 95 94 90
245983.78100586 3357373.45199585 16.40600014 122 119 114
245983.19122314 3357373.41690063 16.23030853 155 151 142
245983.24053955 3357373.35083008 16.18859673 145 141 132
245965.89532471 3357375.30743408 16.40558815 70 74 73
245971.79376221 3357372.97821045 16.15287209 77 78 73
245974.51373291 3357373.61914063 16.09818077 121 122 117
245984.91119385 3357377.55288696 16.06092644 143 144 138
245985.01464844 3357375.20773315 16.40193939 99 99 99
245966.53051758 3357374.07342529 16.25734520 127 119 116
245969.97357178 3357373.89706421 16.32607841 42 38 39
245984.27172852 3357374.45651245 16.38922119 9 19 21
245978.12939453 3357373.55239868 16.46758842 192 195 188
245968.35009766 3357372.89706421 16.63080025 175 177 176
245973.34069824 3357373.65881348 16.20155907 93 93 91
245969.29077148 3357373.30157471 16.30948830 76 75 71
245976.95092773 3357373.71591187 16.31473732 126 127 122
245974.84741211 3357372.92770386 16.13232422 202 199 194
245970.19091797 3357372.86898804 16.22825432 57 56 52
245977.33850098 3357373.31307983 16.22125053 83 83 83
245985.19769287 3357376.20315552 16.25430107 44 46 43
245985.41430664 3357379.42565918 16.58069038 42 44 41
245984.02423096 3357380.97979736 16.37900734 35 29 29
245984.42846680 3357380.08245850 16.98308945 82 83 85
245984.50598145 3357380.36334229 16.70870209 138 123 118
245984.14514160 3357379.18145752 16.68712044 43 45 40
245984.14581299 3357380.11346436 16.69495010 52 52 54
