245934.88507080 3357370.40701294 16.76834106 34 34 32
245929.71508789 3357369.75305176 17.15513802 45 45 43
245929.30249023 3357371.06094360 17.01398087 82 86 85
245935.78466797 3357369.53979492 16.63880730 115 112 103
245934.00073242 3357370.15643311 16.88941193 68 68 66
245935.77081299 3357370.21334839 16.59454536 100 101 87
245931.65332031 3357371.01589966 16.54208946 119 117 105
245931.31146240 3357369.45394897 16.50601387 172 178 168
245928.99096680 3357370.18041992 16.83010292 112 114 113
245930.11700439 3357371.27072144 16.80019188 144 145 137
245930.13140869 3357369.85421753 17.27053642 152 166 179
245929.64849854 3357369.57952881 16.52799416 151 150 145
245931.14959717 3357370.66915894 16.82814980 132 134 129
245933.83752441 3357370.81124878 17.02837753 64 65 60
245932.57086182 3357369.44293213 16.39101791 206 210 196
245929.26135254 3357370.76464844 16.89514160 72 71 69
245933.13629150 3357370.76589966 16.97973442 88 88 80
245933.17742920 3357370.91860962 17.20444107 233 235 222
245930.57312012 3357370.81204224 16.86112404 30 30 28
245934.74450684 3357370.67523193 16.78791237 81 82 74
245929.72113037 3357369.67123413 16.70767784 103 105 100
245929.48132324 3357369.67233276 17.26256180 20 28 31
245935.46759033 3357369.79760742 16.59584236 125 123 108
245932.91638184 3357370.51156616 16.68835831 140 134 118
245933.14587402 3357369.81332397 16.71622658 186 168 144
245934.36181641 3357370.33480835 16.60425949 70 71 65
245930.21398926 3357369.91107178 17.26080132 45 53 64
245929.32989502 3357370.00833130 17.23582649 33 38 42
245937.12243652 3357369.45959473 16.99637794 90 91 85
245931.24841309 3357370.68695068 16.76617241 140 140 132
245929.33514404 3357369.88778687 17.28933144 52 59 69
245935.44793701 3357370.41467285 16.64859772 87 87 79
245931.11462402 3357369.90499878 16.70470238 67 68 63
245929.24218750 3357370.19378662 17.16009521 39 41 36
245930.35766602 3357369.94400024 16.86927795 35 35 35
245930.17309570 3357369.59634399 16.75089073 127 127 115
245935.85766602 3357369.96536255 16.61707878 119 117 104
245934.22088623 3357370.71646118 16.81067467 37 38 33
245929.58447266 3357370.72918701 16.78311157 46 52 50
245930.10717773 3357371.23840332 16.81742668 150 151 143
245929.19995117 3357371.10656738 16.77448082 88 88 80
245930.01812744 3357370.55416870 16.81046486 127 126 121
245932.00006104 3357370.86245728 16.73583603 124 125 111
245929.51446533 3357370.82162476 17.38729858 147 156 161
245929.67590332 3357370.87353516 17.07985878 34 38 41
245930.37762451 3357371.10202026 17.05692673 101 103 98
245931.87207031 3357370.79202271 16.68400002 136 134 119
245932.91949463 3357369.49169922 16.43158722 143 146 137
245934.16003418 3357370.42004395 16.86155891 44 49 42
245929.81701660 3357370.77355957 16.68025398 80 80 72
245937.02502441 3357369.28265381 16.72707748 151 152 146
245934.07244873 3357370.06323242 16.61826897 60 58 37
245930.38409424 3357369.93124390 16.76986694 31 31 29
245930.35906982 3357370.79821777 17.12502861 34 34 34
245933.71246338 3357369.95541382 16.60097313 84 84 72
245930.32238770 3357370.82766724 17.22479820 14 14 12
245936.23718262 3357369.94439697 16.65296936 117 115 102
245929.06994629 3357370.35836792 16.88128090 112 112 104
245933.41235352 3357370.14816284 16.73985100 35 31 28
245936.86944580 3357369.75784302 17.01144218 94 96 74
245931.57501221 3357369.82226563 16.54930878 151 151 143
245931.95977783 3357369.54165649 16.53520012 131 132 126
245934.91528320 3357370.23754883 16.75971794 27 29 24
245933.70874023 3357370.44982910 16.73480225 73 76 69
245933.33355713 3357370.81100464 16.85200119 61 59 47
245935.12646484 3357370.63342285 16.84924316 61 62 56
245931.08593750 3357370.69958496 16.83248711 135 137 132
245935.20837402 3357370.34765625 16.71921539 62 63 58
245931.43731689 3357370.51290894 16.70822906 128 125 118
245930.78698730 3357370.62313843 16.82960510 103 106 97
245933.32775879 3357370.50540161 16.81119156 193 185 162
245928.92962646 3357369.88638306 16.68379211 127 129 128
245929.79400635 3357369.69543457 17.15143776 81 83 78
245933.79187012 3357369.91488647 16.55264473 95 95 85
245932.40704346 3357370.35662842 16.60167503 77 78 72
245929.02929688 3357369.80419922 16.87406540 117 119 118
245934.25341797 3357369.90722656 16.44611740 113 115 102
245934.13867188 3357370.85266113 16.90732384 19 20 14
245929.01647949 3357369.80673218 17.06380272 121 123 122
245931.54699707 3357371.02810669 16.54627037 109 106 97
245935.21496582 3357369.92877197 16.68083572 119 119 107
245932.26788330 3357371.02157593 16.69695282 5 11 7
245931.51501465 3357370.69152832 16.62433243 132 130 118
245934.57049561 3357369.33901978 16.49921036 202 203 195
245932.82952881 3357371.03192139 16.59404373 124 120 108
245929.76751709 3357370.81372070 16.70276070 46 47 39
245929.60034180 3357369.70614624 16.68368530 93 95 92
245934.57055664 3357369.73471069 16.49749565 135 135 127
245930.62121582 3357369.49972534 16.52923584 167 172 165
245929.38275146 3357370.93823242 17.28923798 207 218 224
245929.01379395 3357370.03604126 16.91835213 121 123 120
245931.68847656 3357369.88989258 16.54191780 147 146 141
245931.27087402 3357369.97402954 16.68916893 62 63 55
245929.96710205 3357369.59182739 17.04766846 181 182 177
245931.39135742 3357370.66177368 16.68396759 128 124 115
245933.41308594 3357370.50183105 16.72793961 110 105 85
245933.48175049 3357370.26773071 16.71068001 62 62 54
245929.83905029 3357370.01364136 16.95761681 105 111 111
245934.50250244 3357370.61703491 16.78146553 70 71 65
245930.42150879 3357369.99514771 16.75660706 61 61 59
245929.12030029 3357370.40447998 16.90599823 104 104 96
245929.80529785 3357369.66171265 17.04309273 90 92 87
245930.26531982 3357370.68618774 16.96877670 211 211 209
245930.64807129 3357369.56695557 16.53726578 156 159 150
245929.88702393 3357370.66748047 16.67619514 110 110 102
245935.35260010 3357369.33737183 16.55535889 197 198 200
245933.23809814 3357369.44192505 16.45930862 157 159 146
245929.77770996 3357370.85366821 16.79842567 50 51 45
245933.78497314 3357369.78189087 16.44316483 133 136 119
245930.46966553 3357370.54934692 16.80839157 32 34 33
245933.46386719 3357369.87606812 16.50589752 84 84 74
245930.01470947 3357369.90798950 17.18418694 119 129 130
245929.46948242 3357370.86825562 17.36808777 204 215 221
245931.76342773 3357370.29248047 16.60196686 146 146 136
245929.24755859 3357370.84582520 17.23557663 96 102 100
245929.01599121 3357369.75018311 17.16720009 129 133 134
245930.06036377 3357370.89300537 17.08688354 72 71 67
245931.97131348 3357371.11398315 16.64748573 83 83 73
245931.95886230 3357370.57949829 16.83293915 100 97 90
245934.69781494 3357370.49588013 16.74464035 92 92 84
245932.50640869 3357369.69757080 16.52900124 146 143 136
245931.43096924 3357370.09097290 16.62916374 115 116 108
245931.93969727 3357371.15469360 16.63000870 89 89 81
245931.95043945 3357369.59219360 16.53499031 136 137 129
245930.23608398 3357369.62335205 16.90672493 187 185 172
245931.34875488 3357370.63977051 16.72024536 132 130 118
245932.12066650 3357370.59936523 16.88532639 13 9 6
245933.00250244 3357369.90652466 16.81852150 163 159 147
245932.85644531 3357369.94998169 16.61218452 148 146 134
245933.21325684 3357370.32748413 17.03180122 194 180 153
245930.97839355 3357371.23132324 16.66072083 76 69 61
245929.03674316 3357370.63363647 16.76808548 130 127 120
245930.99127197 3357370.64999390 16.88696861 169 171 166
245930.33990479 3357369.83032227 16.75860214 18 19 14
245931.27099609 3357369.53057861 16.52674484 148 153 146
245929.41723633 3357369.58905029 16.53869438 132 133 125
245931.19128418 3357370.83145142 16.73251724 87 86 81
245929.53875732 3357370.51217651 16.78714943 21 27 27
245935.73364258 3357369.94900513 16.63393402 119 117 102
245933.55078125 3357369.56085205 16.45629311 121 121 109
245933.31622314 3357369.97888184 16.80321312 20 17 10
245929.38879395 3357369.68115234 16.87092781 50 54 53
245935.06573486 3357369.66711426 16.59598732 97 96 92
245934.84368896 3357369.71945190 16.65419006 97 98 92
245934.76184082 3357370.59808350 16.78087234 80 81 73
245936.01641846 3357370.43466187 16.74380493 89 89 87
245930.99865723 3357369.41436768 16.50613022 205 208 201
245930.02459717 3357371.03988647 17.02118111 62 64 51
245933.78710938 3357370.28823853 16.83234978 57 60 53
245935.05969238 3357370.37548828 16.74359512 45 45 43
245929.87506104 3357370.93780518 16.90256119 63 64 59
245931.88323975 3357371.14343262 16.59380913 99 99 91
245929.09826660 3357369.68624878 16.72907257 122 124 121
245931.86822510 3357370.40829468 16.70645905 140 141 135
245930.75921631 3357370.13882446 16.72299767 116 117 111
245933.88208008 3357370.02947998 16.85955811 229 224 205
245932.23339844 3357370.77014160 16.72796440 45 47 44
245929.73449707 3357370.23654175 16.81667900 81 82 76
245930.85980225 3357371.16384888 16.71009636 36 35 31
245929.79791260 3357369.64730835 16.72219276 121 124 117
245935.92877197 3357370.51266479 16.72972679 124 125 120
245936.94989014 3357369.33364868 16.74701309 88 88 80
245934.22552490 3357370.60269165 16.82354736 34 37 30
245931.33642578 3357370.12988281 16.70435143 101 101 93
245935.57159424 3357369.99655151 16.64736938 122 124 103
245930.13366699 3357370.99468994 17.17419434 129 133 110
245936.13604736 3357369.63888550 16.68870735 122 122 110
245929.33062744 3357371.00033569 17.14675713 159 167 169
245929.63610840 3357370.78359985 16.81439018 51 57 53
245935.51141357 3357370.13101196 16.65010262 101 109 88
245933.47143555 3357370.67724609 16.65791512 72 70 57
245931.60974121 3357369.88143921 16.55755424 140 140 132
245933.81823730 3357370.19232178 16.85878944 66 68 65
245935.09796143 3357369.87524414 16.69463921 95 92 85
245931.45635986 3357369.35952759 16.50669098 209 212 205
245935.19348145 3357370.40954590 16.71659660 63 64 59
245931.21606445 3357369.42623901 16.50253296 200 203 194
245929.69421387 3357369.99850464 17.02247238 55 56 51
245929.20196533 3357370.86370850 16.98529625 83 84 79
245933.70062256 3357370.93688965 16.81435966 85 86 78
245930.77667236 3357369.89254761 16.63562393 134 135 127
245934.67883301 3357369.42727661 16.50408363 108 109 101
245931.53576660 3357370.56295776 16.66518211 128 130 117
245929.21722412 3357370.71255493 16.85532379 82 83 77
245930.06054688 3357371.17034912 16.84393692 81 82 74
245936.15948486 3357370.20819092 16.65116692 109 109 99
245932.14068604 3357370.54226685 16.88919258 18 18 16
245935.76391602 3357370.00747681 16.62345886 117 118 104
245936.90686035 3357369.65136719 16.94961166 101 102 88
245930.10754395 3357371.04785156 17.07016945 90 94 79
245933.81866455 3357370.37271118 16.82584953 66 68 63
245932.72937012 3357369.57360840 16.39708138 145 145 133
245929.63604736 3357369.82620239 17.13921547 29 31 30
245933.74346924 3357370.23770142 16.80987740 66 68 63
245936.99218750 3357369.33245850 16.76053047 127 127 119
245930.35876465 3357369.77655029 16.65760040 74 77 70
245929.14062500 3357370.14370728 17.14939499 127 129 124
245929.00946045 3357369.86743164 16.92661858 113 115 114
245929.45098877 3357369.67263794 16.64555550 75 77 72
245935.57507324 3357369.72598267 16.59216309 124 120 109
245932.63873291 3357371.23089600 16.55145836 82 79 70
245930.82489014 3357371.00735474 16.76279831 100 100 100
245930.96295166 3357371.20742798 16.67052078 80 76 67
245932.64788818 3357369.64077759 16.39698792 158 156 143
245930.24444580 3357369.52301025 16.57926750 160 167 160
245936.88891602 3357369.74118042 17.03219032 88 89 73
245931.61499023 3357369.66879272 16.53747940 143 143 133
245931.77612305 3357370.31927490 16.60349655 148 150 139
245933.44390869 3357369.45458984 16.46717262 144 146 132
245930.17309570 3357370.75622559 16.95947266 209 209 207
245929.45251465 3357369.65405273 17.30582619 24 29 35
245936.15539551 3357370.10852051 16.61392784 103 101 89
245932.50360107 3357370.78762817 16.52371216 95 95 83
245931.57202148 3357371.06027222 16.53697014 111 108 99
245934.08764648 3357369.52813721 16.46891785 104 104 92
245933.37036133 3357370.07806396 16.75829315 32 28 27
245933.17260742 3357369.82934570 16.74522400 195 177 153
245931.25579834 3357370.92922974 16.69231415 71 67 56
245930.82800293 3357370.45492554 16.89003754 111 112 106
245933.05792236 3357370.41732788 16.87073708 189 182 163
245934.49969482 3357370.07122803 16.49011612 95 96 90
245928.99847412 3357369.91058350 17.17543983 113 115 114
245932.94805908 3357370.93420410 16.68674469 127 124 109
245933.91839600 3357369.40786743 16.49448586 139 139 129
245930.60607910 3357370.18948364 16.69814110 97 97 95
245930.34399414 3357369.85858154 16.76192284 18 19 14
245933.18798828 3357370.76223755 17.04658508 176 173 164
245932.36193848 3357370.96096802 16.57352066 63 64 58
245929.26293945 3357370.51031494 16.91443443 69 66 61
245933.42840576 3357370.33758545 16.78621864 46 43 28
245933.60662842 3357370.77072144 16.66003990 84 83 78
245933.63348389 3357370.94082642 16.72124863 87 84 75
245935.70440674 3357369.65634155 16.61715889 111 107 96
245929.48339844 3357369.71939087 16.75334549 33 35 32
245930.07165527 3357369.59622192 16.87145615 141 139 127
245933.52545166 3357369.33291626 16.47799873 206 209 192
245936.62109375 3357370.01943970 17.01666069 69 71 50
245937.17047119 3357369.25930786 16.77277565 171 172 166
245930.08374023 3357370.46261597 16.89713669 56 55 51
245930.16387939 3357371.04486084 17.11733627 135 140 118
245931.92224121 3357370.50894165 16.81464958 108 108 100
245935.91760254 3357370.09994507 16.58993721 116 114 101
245931.29675293 3357371.15896606 16.60322952 111 104 94
245929.73052979 3357370.95791626 17.08778000 27 27 27
245935.83142090 3357370.36181641 16.60773468 96 97 89
245932.72900391 3357371.14678955 16.56096649 89 90 76
245934.53247070 3357370.18328857 16.53227234 103 106 99
245929.42602539 3357369.62442017 16.54915047 134 135 127
245930.86962891 3357371.25790405 16.68077850 56 52 41
245930.57733154 3357370.12286377 16.68486404 96 95 91
245928.99798584 3357369.86462402 17.20211983 116 120 119
245932.35736084 3357369.49487305 16.53060913 142 147 141
245934.35913086 3357370.38195801 16.65402031 70 72 67
245933.59613037 3357369.94155884 16.47617340 110 108 96
245934.54370117 3357370.22842407 16.55111885 97 98 92
245931.23199463 3357369.93887329 16.68281174 49 50 44
245930.03216553 3357370.90661621 17.03544807 78 79 74
245935.22900391 3357370.57781982 16.75749969 65 66 58
245932.95922852 3357369.63345337 16.47935677 148 146 133
245934.26043701 3357370.71313477 16.80148506 38 41 34
245933.27252197 3357369.92800903 16.87254715 122 116 100
245929.58184814 3357370.80624390 17.26542854 38 42 45
245935.51831055 3357370.31857300 16.62944221 97 97 87
245933.31188965 3357370.45516968 16.86817360 197 187 162
245933.87030029 3357370.52139282 16.84732437 86 91 85
245929.34887695 3357369.60134888 17.21044159 95 99 102
245935.29687500 3357369.79870605 16.60121346 126 124 112
245930.57305908 3357370.34136963 16.78072739 76 77 72
245930.33148193 3357370.99847412 17.24747467 141 150 119
245932.34405518 3357371.10192871 16.60778236 56 57 49
245936.78924561 3357369.62661743 16.84604454 109 108 90
245930.46826172 3357370.45132446 16.81798172 29 29 29
245930.22888184 3357369.61822510 16.91507339 190 188 175
245931.71887207 3357370.29821777 16.59642601 146 146 138
245930.48895264 3357369.62420654 16.56078148 146 151 144
245934.52563477 3357370.76852417 16.77419662 73 74 66
245930.73132324 3357369.98553467 16.65859413 127 130 123
245936.35290527 3357370.13882446 16.75076675 100 98 86
245930.28967285 3357370.34753418 17.00318909 13 17 20
245933.87933350 3357369.58886719 16.46788788 120 121 107
245930.66931152 3357370.56689453 16.79257202 85 86 81
245934.43572998 3357370.33676147 16.61347389 68 71 64
245933.81280518 3357370.70355225 16.82784271 80 80 72
245934.29199219 3357370.33523560 16.68316460 61 62 56
245929.71673584 3357370.01873779 16.99974442 67 69 64
245929.49700928 3357370.86355591 17.35083199 144 155 161
245931.14233398 3357371.19216919 16.63476372 102 95 87
245932.94573975 3357370.15985107 16.68683052 144 137 121
245933.25988770 3357370.17965698 17.03785133 156 140 115
245930.28430176 3357369.68942261 17.07360268 16 18 17
245932.22174072 3357370.37979126 16.87690735 68 72 71
245936.50506592 3357369.31243896 16.69542694 173 178 172
245928.95605469 3357369.91366577 16.71931458 130 132 131
245936.36120605 3357369.77328491 16.71891785 111 109 96
245931.01550293 3357371.04861450 16.73191071 64 60 57
245934.55737305 3357370.13088989 16.54217720 109 110 102
245929.18054199 3357369.75790405 17.35549545 124 144 155
245933.17114258 3357369.78323364 16.65011787 179 163 140
245929.28027344 3357370.78546143 17.32868958 37 44 37
245929.21911621 3357370.08636475 17.20958328 37 42 38
245932.40472412 3357370.79898071 16.55949402 71 73 62
245931.36462402 3357370.49789429 16.77307892 123 120 111
245929.05438232 3357370.01278687 17.14642334 120 120 118
245932.40307617 3357370.16696167 16.63914490 63 66 59
245933.03497314 3357370.63400269 16.74177361 134 131 114
245930.34875488 3357369.97674561 17.04468155 13 19 19
245936.42047119 3357369.38821411 16.71942329 78 79 71
245930.25714111 3357369.66085815 17.07509041 94 95 87
245930.36724854 3357369.35952759 16.51097107 202 205 196
245930.12646484 3357369.59674072 16.94447517 146 143 136
245936.04718018 3357369.59732056 16.66874695 116 117 103
245929.45227051 3357370.20361328 17.11787605 21 31 33
245933.54473877 3357370.27557373 16.70025253 64 65 59
245931.70312500 3357369.72906494 16.53653526 149 149 137
245929.62817383 3357369.68783569 17.03998756 30 32 27
245929.98437500 3357369.59228516 17.00033379 168 169 163
245932.96441650 3357370.90521240 16.71046638 129 126 111
245929.58898926 3357371.09652710 16.99980927 28 33 36
245934.24017334 3357370.29980469 16.68962669 58 60 57
245933.24981689 3357370.76135254 17.00491905 163 156 146
245929.98083496 3357369.59133911 17.04442596 181 182 177
245930.02868652 3357369.96630859 17.12496758 112 116 119
245932.72918701 3357369.92227173 16.51553917 152 150 137
245930.64672852 3357369.71026611 16.56516266 145 145 137
245934.81695557 3357370.05175781 16.75062752 52 54 49
245929.43548584 3357369.65188599 17.31193542 44 51 59
245936.29357910 3357369.52191162 16.71637535 89 89 81
245933.30505371 3357370.30215454 16.94665909 182 170 144
245933.46502686 3357369.99700928 16.62021446 56 62 52
245935.06109619 3357369.69290161 16.61731720 105 104 100
245931.74230957 3357370.14187622 16.55994797 140 141 133
245931.35754395 3357370.87091064 16.64195824 73 69 58
245929.19433594 3357370.40597534 16.97596741 76 75 70
245930.66705322 3357371.16851807 16.76424408 47 48 42
245932.80584717 3357370.89657593 16.53480721 133 129 117
245935.25238037 3357369.83532715 16.62165260 133 131 119
245930.43267822 3357370.95223999 17.15509033 69 69 69
245930.00323486 3357370.17068481 16.96972084 114 119 113
245930.45513916 3357370.00708008 16.64677429 71 71 69
245935.21710205 3357370.43386841 16.71379471 61 62 57
245929.86450195 3357370.95733643 16.97952271 55 54 50
245930.20947266 3357370.95941162 17.26836777 163 167 150
245929.35321045 3357370.43518066 16.99221230 0 0 0
245931.18664551 3357370.13330078 16.82894516 66 67 62
245932.82165527 3357370.52502441 16.59864807 130 126 114
245931.64904785 3357370.57107544 16.63285637 141 143 129
245932.90606689 3357371.10543823 16.73436356 87 87 75
245929.34466553 3357370.83377075 17.41148758 196 204 206
245933.32586670 3357370.40847778 16.86095810 200 190 165
245930.34173584 3357370.95596313 17.27581024 127 131 132
245930.34429932 3357370.38287354 16.96973610 43 44 46
245935.20941162 3357370.17245483 16.73170662 65 68 59
245934.26049805 3357369.62020874 16.45812035 111 112 106
245929.87292480 3357369.92047119 17.02955818 125 131 131
245930.33215332 3357369.59732056 16.60586357 133 139 129
245929.21862793 3357370.57400513 16.87175369 101 101 93
245934.88775635 3357370.07696533 16.76730919 57 62 58
245933.49609375 3357369.64022827 16.44421577 147 147 135
245932.14721680 3357370.78298950 16.82156944 60 63 56
245932.53350830 3357369.57653809 16.52548409 137 138 132
245933.87451172 3357369.85079956 16.46432686 122 119 110
245931.14050293 3357369.54122925 16.53247833 155 157 152
245932.25329590 3357370.48144531 16.80598450 56 61 57
245932.99267578 3357370.66329956 16.69092369 147 144 127
245929.26885986 3357370.84082031 17.11921310 45 47 44
245933.59149170 3357370.13265991 16.72086716 75 76 68
245931.79821777 3357370.40087891 16.64130592 147 150 139
245930.61297607 3357370.52554321 16.74996758 77 79 74
245936.69128418 3357369.75204468 16.84099007 109 108 87
245934.95788574 3357369.74719238 16.70493507 115 111 108
245935.77563477 3357370.43469238 16.60961533 87 87 79
245930.52496338 3357369.75769043 16.56349564 134 137 126
245935.92480469 3357370.38668823 16.62549782 108 109 103
245933.27374268 3357369.44744873 16.45714378 154 156 143
245929.37701416 3357370.38778687 17.01961327 0 0 2
245932.28851318 3357369.34890747 16.56081200 212 216 215
245934.36822510 3357370.51705933 16.78732681 58 59 54
245932.98132324 3357370.99072266 16.86824417 63 63 51
245932.81829834 3357370.93774414 16.55626297 131 127 115
245932.80963135 3357370.73980713 16.52874184 137 133 121
245930.50378418 3357369.80670166 16.56767845 124 125 117
245929.61279297 3357370.33001709 16.82747078 16 25 24
245934.80303955 3357369.52609253 16.53214455 91 92 87
245930.72528076 3357370.86486816 16.86270714 78 80 77
245931.82989502 3357369.35494995 16.51727295 204 207 200
245935.36322021 3357369.80337524 16.59390640 127 123 111
245932.79907227 3357370.44177246 16.59631729 135 133 118
245929.51538086 3357370.85894775 17.32124138 124 135 141
245932.25372314 3357370.60812378 16.75033951 34 36 33
245931.94213867 3357371.04202271 16.62644768 96 96 88
245931.44158936 3357370.83523560 16.60150528 111 105 93
245931.84851074 3357370.69207764 16.70961380 133 129 117
245930.49707031 3357370.68347168 16.77438736 32 32 32
245936.02740479 3357369.30856323 16.64345741 190 192 187
245929.27227783 3357371.11346436 16.87413216 72 73 68
245929.23834229 3357369.76202393 17.36340523 72 94 107
245929.18884277 3357369.76461792 17.36145782 60 78 88
245930.84173584 3357369.77267456 16.61358261 151 152 144
245929.10418701 3357370.20016479 17.02520752 120 120 120
245936.78955078 3357369.40191650 16.76456070 94 95 87
245931.10516357 3357370.77294922 16.77515602 128 127 125
245929.34039307 3357369.60699463 16.56730080 125 126 120
245935.24902344 3357369.50045776 16.54596901 103 104 98
245931.72460938 3357370.61093140 16.67341423 137 135 120
245929.23303223 3357370.88583374 17.16369247 88 92 91
245934.22009277 3357370.77893066 16.80613327 55 56 51
245930.03851318 3357370.98721313 17.11965942 50 52 39
245932.76934814 3357370.53189087 16.56750488 128 124 112
245934.00903320 3357370.12924194 16.86750984 57 58 53
245933.03094482 3357369.80834961 16.68371010 155 147 128
245934.14160156 3357369.70773315 16.45236015 123 123 111
245932.01483154 3357370.80093384 16.78167534 126 126 114
245933.53424072 3357370.38958740 16.68797684 80 83 72
245929.50292969 3357371.10372925 17.03123474 73 82 87
245934.95727539 3357369.82968140 16.72914314 103 103 95
245929.25866699 3357370.81835938 16.92220306 65 66 60
245933.71057129 3357370.68402100 16.69925499 84 85 77
245929.44964600 3357370.17330933 17.13207436 29 39 41
245931.26489258 3357369.29342651 16.50205421 154 157 150
245931.98333740 3357370.80838013 16.75522804 130 128 116
245936.15228271 3357370.18621826 16.62401962 109 109 99
245934.13549805 3357370.69598389 16.85057259 90 89 85
245930.22692871 3357371.09594727 17.05873680 132 135 126
245931.35913086 3357369.72708130 16.56062698 115 115 105
245935.06677246 3357370.19448853 16.74816322 46 46 44
245933.23718262 3357370.89160156 17.16367912 203 205 192
245933.28894043 3357369.91613770 16.77837372 102 95 79
245929.07128906 3357369.67803955 17.04926300 120 120 120
245930.80084229 3357370.77551270 16.82452965 96 98 95
245934.61968994 3357370.15417480 16.59181404 117 118 110
245933.53656006 3357370.66131592 16.63593102 68 67 62
245934.30609131 3357370.42385864 16.73229027 59 60 55
245933.90814209 3357370.07891846 16.88448524 169 166 159
245929.45397949 3357369.67047119 17.07883263 31 35 34
245935.83239746 3357370.55490112 16.67595291 133 134 128
245929.77233887 3357370.70111084 16.64090347 72 73 67
245934.34246826 3357370.79544067 16.77567291 56 57 51
245930.63940430 3357369.33450317 16.51102257 165 166 160
245930.59887695 3357369.86236572 16.57972717 133 134 126
245930.35406494 3357369.83529663 16.71143150 25 26 21
245934.41857910 3357370.11856079 16.47133064 94 95 90
245929.54119873 3357370.21322632 17.01710510 61 73 73
245931.04003906 3357370.78851318 16.78398895 125 125 123
245931.98278809 3357370.76824951 16.77660179 133 131 119
245931.09771729 3357370.73303223 16.80595016 138 140 135
245934.94195557 3357369.49960327 16.55244255 101 100 95
245930.95318604 3357370.54464722 16.95054054 125 126 120
245929.93371582 3357369.60253906 16.90270233 129 128 123
245931.91705322 3357370.16625977 16.66363525 141 143 138
245929.58746338 3357370.32232666 16.86809349 16 25 24
245931.61962891 3357370.90838623 16.56511879 120 118 106
245929.00787354 3357369.93005371 16.92363167 118 120 117
245930.71264648 3357371.26757813 16.73126602 68 64 53
245933.87695313 3357369.81182861 16.44987488 124 126 113
245930.21746826 3357370.65371704 16.93196297 151 150 146
245935.30316162 3357369.42141724 16.54965019 94 97 90
245932.98773193 3357370.04895020 16.78545952 144 136 125
245929.14001465 3357369.65725708 16.71811867 133 135 132
245929.49951172 3357370.78433228 17.23153877 74 78 77
245929.79797363 3357369.92245483 17.02789879 75 79 78
245933.20874023 3357370.81637573 17.11949158 75 75 63
245930.46917725 3357369.43051147 16.52508354 200 205 199
245935.34619141 3357370.42562866 16.68882370 76 77 69
245929.78045654 3357370.68444824 16.63376427 78 79 73
245935.54492188 3357370.33532715 16.61932945 92 92 82
245931.87512207 3357369.77029419 16.54035950 154 154 144
245934.53265381 3357369.56466675 16.48089790 114 114 104
245929.03704834 3357370.47262573 16.80889702 121 118 113
245934.12579346 3357369.41595459 16.47839546 99 100 92
245930.17370605 3357370.89154053 17.28298378 94 96 91
245929.95086670 3357370.58926392 16.72938156 132 129 122
245930.11914063 3357369.59600830 16.94712257 146 143 136
245931.04833984 3357370.17468262 16.87854195 104 104 102
245930.16070557 3357370.37979126 16.99771881 41 41 39
245933.82550049 3357370.83340454 17.02285385 58 59 54
245932.89843750 3357369.78646851 16.56554413 153 150 135
245930.96606445 3357371.00021362 16.75215721 34 30 29
245936.12908936 3357370.08004761 16.61066055 108 106 94
245935.13592529 3357370.17349243 16.74091530 62 63 57
245933.95330811 3357369.77484131 16.44726372 114 112 100
245932.91394043 3357370.56811523 16.65427208 144 136 123
245932.15692139 3357369.78573608 16.59600449 146 146 136
245934.79058838 3357370.72421265 16.84652519 85 86 81
245935.33355713 3357369.63006592 16.55672455 117 116 111
245932.50646973 3357369.30148315 16.56371880 199 204 200
245932.87884521 3357369.78588867 16.54943275 151 147 135
245934.66003418 3357369.99856567 16.59424210 117 118 110
245934.08032227 3357370.26943970 16.86797523 57 62 58
245935.25115967 3357370.29507446 16.71316338 62 63 55
245929.05047607 3357369.72076416 16.72551155 122 123 125
245935.01287842 3357369.94683838 16.74838448 77 78 72
245934.79681396 3357369.95147705 16.73295593 75 76 68
245935.38940430 3357369.50451660 16.56768990 103 104 98
245929.57788086 3357370.78970337 16.97034073 8 14 12
245931.38415527 3357369.45635986 16.50819397 210 216 206
245936.61010742 3357369.50009155 16.73948479 97 99 88
245935.08416748 3357370.54763794 16.80783844 34 35 29
245933.19219971 3357370.76873779 17.06671906 173 174 160
245930.35058594 3357369.87158203 16.75037384 22 22 20
245929.49548340 3357370.75683594 16.91668892 10 16 16
245930.89739990 3357370.82095337 16.80580521 146 148 147
245933.86938477 3357369.42587280 16.49028206 97 99 88
245931.44000244 3357370.08059692 16.62339592 115 116 108
245930.70501709 3357369.54949951 16.53341103 162 167 160
245929.26452637 3357370.82342529 16.96746445 60 59 54
245933.57574463 3357370.48202515 16.68024826 82 84 73
245929.73303223 3357369.95333862 17.02162552 62 64 61
245931.26959229 3357370.19091797 16.79472160 78 77 72
245936.52581787 3357369.89141846 16.80434799 78 76 61
245932.34002686 3357369.96649170 16.62313271 104 109 103
245931.13037109 3357370.21466064 16.89426041 63 65 60
245933.52221680 3357370.94262695 16.73051453 79 78 73
245931.30041504 3357370.06906128 16.72624588 82 83 75
245932.79235840 3357370.98190308 16.55351639 129 125 113
245929.37640381 3357370.39544678 17.01419258 0 0 2
245929.30749512 3357370.67382813 16.86339951 86 86 86
245929.59271240 3357369.70788574 16.67428589 93 95 92
245930.42395020 3357370.02902222 16.80192184 114 116 113
245932.12457275 3357369.83663940 16.63467598 150 151 143
245933.43341064 3357370.06671143 16.68884468 52 51 49
245929.03131104 3357370.60794067 16.77244949 130 127 120
245931.89434814 3357370.28451538 16.68688202 152 153 148
245936.25866699 3357369.31478882 16.68696785 172 174 173
245935.74267578 3357369.36135864 16.64747238 110 111 106
245931.46887207 3357370.46423340 16.68250847 129 129 119
245930.16705322 3357369.59591675 17.02156448 143 145 134
245932.26660156 3357370.80718994 16.68959045 51 53 48
245929.77099609 3357370.71804810 16.65020943 72 73 67
245934.72430420 3357370.01800537 16.66055489 102 105 96
245933.15002441 3357370.74826050 16.94705391 102 99 90
245930.08734131 3357369.55694580 16.63807106 149 151 146
245930.89074707 3357369.94506836 16.69092369 131 133 128
245930.41400146 3357371.12481689 16.98865700 112 114 111
245930.02764893 3357369.54504395 16.62510490 139 144 137
245929.37176514 3357370.55886841 16.89539719 39 39 39
245931.70886230 3357371.14450073 16.51384163 118 118 108
245931.40136719 3357370.83425903 16.62314796 103 97 85
245932.91320801 3357369.93072510 16.66524887 141 139 126
245930.29797363 3357371.18737793 16.95590591 93 98 92
245933.93627930 3357370.20227051 16.91247940 85 85 83
245935.97546387 3357370.39889526 16.67960358 135 136 130
245929.60485840 3357370.82049561 17.05335617 7 11 10
245935.51562500 3357369.34878540 16.59447289 141 141 141
245929.53460693 3357370.20938110 17.02917862 92 103 105
245929.48724365 3357370.48046875 16.86379433 28 33 36
245930.12890625 3357369.62057495 17.19425011 223 228 231
245929.04705811 3357369.83419800 17.28162384 144 149 152
245933.45764160 3357370.44744873 16.71266556 77 74 57
245930.98455811 3357370.23583984 16.90894127 91 92 87
245932.09429932 3357370.64938354 16.88613319 37 32 26
245929.65759277 3357370.44897461 16.75200462 43 45 42
245934.67218018 3357370.53823853 16.75406837 88 88 80
245935.58843994 3357370.25378418 16.61349487 96 97 83
245930.43139648 3357369.75814819 16.59588623 106 109 102
245929.67944336 3357370.94717407 17.11035156 27 28 32
245933.19122314 3357370.60504150 16.83845520 174 167 149
245933.97491455 3357370.18850708 16.92320251 83 83 81
245931.27624512 3357370.30340576 16.81966591 86 86 78
245933.43994141 3357370.81417847 16.70534134 66 66 58
245933.24865723 3357369.49551392 16.45214844 145 147 134
245929.59906006 3357370.65502930 16.74211884 32 36 35
245932.80242920 3357369.73925781 16.47206497 162 159 142
245935.04565430 3357369.91976929 16.72783470 90 90 82
245929.53710938 3357370.85772705 17.29122925 82 91 96
245929.07470703 3357370.63345337 16.78313828 131 128 121
245931.28063965 3357370.21472168 16.78950691 96 95 90
245930.28662109 3357370.87530518 17.27876472 89 89 87
245929.43206787 3357369.80810547 17.28473091 43 50 58
245936.31365967 3357370.20727539 16.78015137 104 104 94
245930.96875000 3357370.09378052 16.78916168 127 127 125
245936.28625488 3357370.30178833 16.86258888 140 141 136
245932.99719238 3357370.79849243 16.70051193 134 130 118
245931.76251221 3357370.90081787 16.59750557 108 108 96
245933.07159424 3357370.88180542 17.12298012 236 236 224
245931.92224121 3357369.94421387 16.59064484 145 146 138
245932.30682373 3357369.39044189 16.53552055 203 209 207
245936.46459961 3357370.02383423 16.83609772 92 88 76
245929.35321045 3357370.59533691 16.86695862 53 53 53
245934.80609131 3357369.50521851 16.53052711 93 92 87
245930.04864502 3357371.26782227 16.77619171 96 96 88
245929.09204102 3357370.07226563 17.13756180 117 119 116
245929.69769287 3357371.12042236 16.92262840 58 59 54
245934.08050537 3357370.22927856 16.84630585 54 56 53
245929.27551270 3357369.96575928 17.26475716 26 31 35
245929.30200195 3357369.60632324 17.27025986 232 237 243
245935.42028809 3357369.52301025 16.57544136 103 104 98
245932.78112793 3357370.51541138 16.57892036 129 127 114
245934.96118164 3357369.74649048 16.70512772 115 111 108
245932.07275391 3357371.02993774 16.77803230 81 91 83
245932.97692871 3357370.30035400 16.74844933 151 145 123
245929.57116699 3357369.64123535 16.54937935 124 127 118
245931.84362793 3357370.07113647 16.57120132 151 152 147
245933.71783447 3357369.98382568 16.66283798 78 79 65
245933.14404297 3357370.84039307 17.16778374 134 136 123
245932.11663818 3357369.30740356 16.54790878 201 206 202
245932.33734131 3357370.06127930 16.66708755 62 69 62
245929.45922852 3357371.00283813 17.16180611 152 165 173
245933.01538086 3357369.58511353 16.47490120 145 143 130
245929.82220459 3357369.66564941 17.07848358 88 90 85
245932.23840332 3357370.68008423 16.74015236 38 40 37
245930.76678467 3357371.15093994 16.73389626 61 62 56
245932.65130615 3357369.95303345 16.50023460 152 153 137
245933.65075684 3357370.59161377 16.68048096 75 76 68
245929.24322510 3357370.84637451 17.22222710 74 80 78
245933.77642822 3357370.71737671 16.78590393 87 87 79
245929.46307373 3357370.80664063 17.41926003 152 160 163
245935.71386719 3357369.99819946 16.63111687 118 119 101
245933.45239258 3357369.83609009 16.48571205 105 105 95
245929.75921631 3357371.01495361 17.02424049 74 73 69
245932.15161133 3357369.35903931 16.55488777 200 205 201
245932.07580566 3357371.05075073 16.93158531 91 97 93
245931.06268311 3357371.18096924 16.65900993 88 84 75
245931.78582764 3357371.13229370 16.53173828 120 120 110
245932.38586426 3357370.88293457 16.56455612 71 71 63
245932.25921631 3357370.08615112 16.73483086 126 137 131
245929.59423828 3357370.31118774 16.86683846 16 25 24
245931.85308838 3357370.99822998 16.58852577 110 110 98
245934.26196289 3357370.28198242 16.63385201 72 74 71
245937.33856201 3357369.23443604 16.86838150 157 160 151
245936.46051025 3357370.13455200 16.97826195 84 85 69
245930.01483154 3357369.59555054 16.81861496 125 125 117
245929.44885254 3357369.65747070 16.60686493 84 86 81
245931.07208252 3357371.17303467 16.66045952 88 84 75
245931.63604736 3357370.26260376 16.58940125 145 146 138
245932.48297119 3357369.40557861 16.51394653 172 178 174
245931.43096924 3357369.86682129 16.58923912 118 119 111
245932.00994873 3357370.18325806 16.76413727 106 108 103
245935.86767578 3357370.40203857 16.61676979 76 76 68
