245605.45214844 3357429.72296143 20.12326622 31 35 38
245609.64099121 3357429.41348267 20.03678131 42 41 49
245607.52008057 3357430.31076050 19.62999916 64 67 74
245601.46002197 3357430.08822632 20.09862709 28 31 36
245602.89495850 3357429.64968872 19.98700905 33 40 48
245605.63562012 3357429.00177002 20.26926804 14 15 17
245607.70379639 3357430.02944946 19.68044090 63 68 74
245605.63952637 3357430.25878906 19.76950264 36 37 42
245610.68707275 3357428.89550781 20.25642586 32 35 42
245604.64849854 3357428.99069214 20.06834984 13 27 30
245603.24468994 3357430.04437256 19.99971390 41 40 45
245608.50830078 3357428.76983643 20.13789749 54 55 59
245611.08697510 3357428.95629883 20.25015831 22 20 25
245604.02856445 3357428.85430908 19.68803978 31 35 38
245604.73016357 3357430.43511963 19.81829834 80 84 87
245603.39428711 3357430.45562744 19.77414322 31 34 41
245611.15509033 3357428.74661255 20.33448219 116 78 89
245607.40203857 3357429.48513794 19.86321449 34 39 43
245607.81536865 3357429.42956543 20.06493950 16 22 34
245606.93786621 3357430.30004883 19.87854767 72 71 67
245610.59149170 3357428.65515137 20.38839912 25 30 34
245609.84405518 3357429.76452637 19.97079277 31 36 39
245610.93780518 3357428.61672974 20.29524040 72 73 77
245604.54101563 3357429.29208374 20.26395226 29 39 38
245603.12683105 3357430.49295044 19.82369232 30 33 38
245611.44195557 3357430.00659180 19.94952965 17 22 28
245602.20495605 3357429.42660522 20.20596695 14 17 22
245602.30010986 3357430.38958740 20.13020325 57 60 65
245608.40673828 3357429.62005615 19.79584885 25 28 33
245601.44000244 3357430.19378662 20.00976944 34 39 42
245606.92504883 3357429.65081787 19.83544350 37 44 52
245602.77990723 3357429.79852295 19.98587799 89 89 89
245610.48046875 3357429.55349731 20.06931877 23 32 37
245602.63226318 3357430.37371826 19.76767159 68 75 83
245601.98864746 3357429.00173950 20.12593842 172 180 182
245608.22424316 3357429.25808716 20.14573669 25 30 34
245602.33111572 3357429.01983643 20.04634857 8 12 15
245609.80126953 3357428.73635864 20.25205994 26 10 20
245604.59643555 3357430.02401733 20.06460571 20 28 31
245603.47113037 3357430.38635254 19.78362656 31 36 42
245607.67730713 3357429.36083984 19.94575500 42 47 53
245601.57312012 3357429.04409790 19.78408241 42 51 58
245609.36578369 3357430.03829956 19.62829781 69 74 78
245606.45770264 3357429.53207397 20.14756584 20 21 25
245603.30950928 3357430.08352661 19.95481491 23 22 27
245611.12280273 3357429.32351685 20.11803246 20 33 41
245605.20269775 3357430.42410278 19.99475479 87 91 90
245603.44781494 3357429.23376465 19.75258827 20 27 33
245605.27935791 3357430.22991943 19.98715782 21 24 29
245601.94177246 3357429.68090820 20.12903404 247 239 237
245602.21130371 3357429.33721924 20.20233727 10 17 23
245605.81207275 3357429.32196045 20.35581207 14 18 21
245602.82897949 3357429.97491455 20.01241684 132 131 137
245605.28594971 3357429.54351807 20.00924873 24 23 29
245605.55145264 3357429.73870850 20.08120918 17 22 26
245609.64538574 3357428.86160278 19.94582558 7 12 16
245602.73168945 3357430.29034424 19.87213707 57 64 70
245603.58740234 3357429.90274048 19.84340668 93 98 101
245611.20397949 3357429.95504761 19.64816856 39 43 52
245604.29040527 3357429.07809448 19.94890976 32 40 42
245602.41351318 3357429.76806641 20.10175323 35 36 41
245608.21014404 3357429.64639282 19.82209015 35 40 44
245602.01531982 3357430.41271973 19.79196930 40 41 45
245603.66412354 3357428.93118286 19.67278862 90 95 101
245603.16638184 3357429.24670410 19.88849640 11 16 22
245609.53100586 3357429.40472412 19.98568916 111 110 118
245607.29876709 3357428.83438110 19.71763039 23 28 32
245602.77697754 3357429.54095459 19.97494507 41 44 51
245606.16748047 3357428.88262939 19.98199081 10 15 19
245610.46630859 3357429.54226685 20.12071609 30 35 41
245610.80322266 3357429.93875122 19.66777802 45 48 55
245604.37133789 3357429.22607422 20.25864220 249 247 252
245602.17047119 3357429.66659546 20.22257233 121 73 71
245606.03643799 3357429.15557861 20.20825958 21 23 18
245605.78771973 3357429.29257202 20.34037781 18 23 26
245607.41210938 3357429.98956299 19.62503433 51 54 63
245601.24163818 3357430.12399292 19.90020180 65 73 76
245607.73132324 3357430.16574097 19.64119720 66 71 77
245609.50531006 3357429.62075806 19.98691750 31 32 37
245603.25732422 3357429.71398926 19.98009109 13 18 21
245603.87817383 3357430.44338989 19.81214142 66 70 73
245605.66845703 3357429.83062744 19.99007988 24 27 32
245603.50653076 3357429.82327271 19.87667084 33 34 38
245610.26025391 3357429.28527832 20.39872360 185 185 193
245603.94909668 3357429.17822266 19.67296600 45 50 54
245610.17590332 3357429.83868408 19.81879616 65 66 70
245605.78692627 3357429.04656982 20.28220367 17 17 25
245604.91766357 3357429.96151733 20.22989082 29 33 42
245608.58551025 3357428.84750366 20.08930588 23 27 30
245603.79199219 3357430.02966309 19.77902985 40 47 55
245611.19897461 3357429.83776855 19.70977974 35 38 45
245606.76336670 3357430.08004761 19.86453438 20 25 29
245601.35906982 3357430.28662109 19.90081787 81 83 82
245601.09631348 3357428.90817261 19.68910217 50 59 66
245608.49920654 3357429.11349487 20.21466064 49 50 55
245602.33819580 3357430.25210571 20.41447258 103 103 111
245607.34002686 3357429.54360962 19.81194687 34 41 47
245607.70208740 3357429.28869629 19.96316338 32 39 47
245611.49078369 3357429.84295654 20.10676003 76 86 98
245611.36029053 3357429.09536743 20.09622574 29 33 42
245605.25122070 3357428.95834351 20.14309883 49 51 64
245606.53747559 3357430.12426758 19.74672699 27 28 33
245602.98034668 3357428.86419678 19.71350479 56 64 67
245611.21978760 3357429.72647095 19.93580627 31 24 32
245609.15026855 3357429.76965332 19.91994095 61 61 59
245611.50561523 3357428.86175537 20.10318756 29 30 34
245606.72009277 3357429.17074585 20.14842224 11 16 20
245606.63116455 3357429.15493774 20.25859833 9 17 20
245605.43463135 3357428.95223999 20.25733566 79 82 91
245610.18762207 3357430.06851196 19.62936020 60 63 68
245605.08331299 3357428.80096436 19.99221611 21 26 30
245609.11535645 3357429.46652222 20.11930275 109 99 97
245611.18951416 3357429.56494141 20.03499222 22 22 30
245601.65490723 3357429.15637207 19.99724007 36 45 52
245602.61529541 3357430.45095825 19.72856140 57 66 71
245601.53649902 3357429.82421875 20.00780869 27 32 36
245602.46997070 3357430.49862671 19.71959686 58 68 70
245605.92016602 3357429.80947876 19.89943504 50 51 55
245611.18359375 3357429.88095093 19.66365814 35 38 45
245607.16125488 3357429.17163086 19.89593697 28 33 37
245601.65435791 3357430.37725830 19.77278328 35 40 44
245609.74237061 3357429.57559204 20.07588577 67 71 74
245610.17382813 3357428.73052979 20.36381340 92 92 94
245609.40325928 3357429.83688354 19.79750061 36 44 47
245607.03588867 3357430.23532104 19.80381012 31 32 37
245605.05957031 3357430.08172607 20.18401146 27 30 37
245610.61840820 3357429.99435425 19.61884880 51 54 59
245609.73901367 3357428.96090698 20.06604767 6 11 15
245603.60272217 3357429.52987671 19.76503944 29 36 46
245602.01586914 3357429.67245483 20.20530510 157 117 117
245602.05548096 3357430.24166870 20.12935448 140 139 135
245610.64813232 3357429.56033325 19.98918343 30 19 23
245606.71868896 3357428.89443970 20.09112549 18 21 26
245603.36541748 3357430.07510376 19.92800522 22 23 27
245611.18310547 3357429.92630005 19.64926910 39 43 52
245601.98315430 3357429.50296021 20.14415359 70 38 41
245602.48468018 3357429.37030029 20.05105591 39 42 47
245607.86553955 3357429.78735352 19.84897041 45 46 48
245607.74420166 3357430.04617310 19.68597984 67 72 78
245606.39117432 3357430.04434204 19.86462784 87 87 89
245603.94451904 3357429.58422852 19.67342567 48 48 56
245608.79675293 3357429.96893311 19.65973854 71 74 79
245601.63104248 3357430.28280640 19.83130264 29 34 38
245602.06860352 3357430.13208008 20.33315849 145 143 148
245610.22290039 3357429.99343872 19.66205597 53 54 59
245608.78283691 3357429.65789795 19.80094719 38 47 54
245601.60729980 3357429.84683228 19.99177933 21 26 30
245604.75085449 3357430.04797363 20.21759033 161 166 172
245606.43310547 3357429.55789185 20.16863060 29 30 34
245604.27209473 3357429.27038574 20.20628166 85 89 90
245601.87310791 3357430.55523682 19.68627548 73 78 84
245603.21984863 3357429.98333740 20.02266121 37 38 40
245601.87225342 3357429.06561279 20.07162666 37 47 49
245604.39282227 3357429.08212280 20.04090881 20 23 28
245609.12091064 3357429.38668823 20.12250519 154 142 142
245607.32141113 3357429.70086670 19.72223663 36 43 51
245604.14843750 3357429.16036987 19.84107208 13 17 18
245602.35125732 3357428.96853638 19.96074677 26 31 35
245608.01165771 3357429.49896240 20.02514458 20 24 35
245604.40924072 3357429.47073364 20.16954041 112 86 95
245609.14727783 3357429.90188599 19.73776054 35 38 43
245607.56268311 3357428.71850586 19.65024948 23 28 31
245600.95843506 3357428.98770142 19.68232918 52 61 70
245605.54986572 3357429.91790771 19.99206734 28 29 33
245601.61132813 3357429.21142578 20.01861382 21 30 39
245601.92352295 3357428.87509155 19.86723900 137 140 145
245606.99841309 3357428.84667969 19.85269737 27 32 38
245603.89959717 3357428.90435791 19.68921280 19 28 27
245602.27020264 3357429.86700439 20.21997070 29 23 23
245601.45526123 3357430.15484619 20.02999115 35 40 46
245601.80535889 3357429.15112305 20.07126617 38 48 50
245608.21557617 3357429.80572510 19.74654961 41 45 48
245604.46502686 3357428.84124756 19.76894379 25 33 35
245608.15325928 3357430.21548462 19.62140846 65 70 76
245608.42987061 3357429.33666992 20.12264824 49 52 57
245605.04260254 3357429.66351318 20.05714607 14 15 20
245610.79125977 3357429.61938477 20.09678650 153 108 128
245607.78259277 3357429.02017212 20.10799217 16 19 26
245609.87329102 3357428.64770508 20.30854988 25 24 29
245606.56628418 3357429.87603760 20.00606537 14 17 24
245605.44628906 3357429.02059937 20.25634193 109 109 119
245601.70989990 3357429.13238525 20.00081825 43 50 56
245601.27197266 3357429.12124634 19.71332359 49 56 64
245602.31988525 3357430.18109131 20.38915634 154 153 158
245603.37432861 3357429.47296143 19.85531807 30 35 39
245604.78027344 3357430.10388184 20.25135040 203 212 219
245606.84796143 3357429.70388794 19.83650398 28 35 43
245604.59625244 3357429.81732178 20.01439285 29 37 39
245605.15698242 3357428.91842651 20.09428215 17 18 23
245603.26959229 3357430.32226563 19.89201355 25 29 32
245611.22900391 3357429.60476685 19.99778366 27 26 32
245607.87451172 3357429.34561157 20.15672112 21 25 36
245610.84246826 3357428.98419189 20.20156860 27 27 39
245604.18029785 3357429.34921265 20.00339699 32 32 34
245601.21826172 3357429.87329102 19.92182922 136 144 147
245603.27441406 3357428.93701172 19.71282959 39 44 50
245606.74969482 3357429.15310669 20.12913132 16 21 25
245602.56066895 3357429.37573242 20.00484276 38 41 46
245604.76062012 3357430.26138306 20.19807243 10 21 27
245603.12030029 3357429.36856079 19.93275261 11 14 19
245610.55889893 3357429.56387329 19.88872528 28 33 37
245603.31561279 3357428.96078491 19.71069336 50 55 59
245604.11889648 3357429.48461914 19.88186073 69 70 72
245607.63415527 3357429.38165283 19.91494179 31 36 40
245606.62524414 3357429.60223389 20.02978134 18 23 26
245605.85137939 3357429.53549194 20.19337463 82 83 87
245602.38012695 3357430.49749756 19.74273872 63 73 75
245602.50714111 3357429.03921509 19.88669968 29 36 44
245609.98242188 3357429.04290771 20.26143837 44 39 45
245607.95007324 3357429.14947510 20.31108665 57 63 79
245608.53338623 3357429.96423340 19.66141510 62 65 72
245608.29479980 3357430.27835083 19.60790825 72 75 82
245610.10168457 3357429.35028076 20.14954567 76 76 84
245609.23333740 3357430.15264893 19.61229706 74 77 82
245608.82397461 3357428.86203003 19.90701675 37 42 46
245607.07049561 3357430.17367554 19.76328278 30 35 39
245610.12597656 3357428.72311401 20.32959366 42 50 52
245608.77673340 3357429.64962769 19.80006599 38 47 54
245610.89428711 3357429.86096191 19.70428658 59 58 66
245603.60955811 3357429.30789185 19.73005676 64 77 85
245606.85723877 3357429.17901611 20.05054855 14 21 27
245604.77392578 3357430.31918335 20.24126816 34 44 46
245606.55596924 3357430.07934570 19.79886246 21 21 23
245611.47943115 3357430.09811401 19.91869545 19 26 32
245607.83331299 3357429.13610840 20.17642784 11 13 25
245604.35339355 3357430.40112305 19.92180252 86 85 80
245606.82556152 3357429.45565796 19.94817543 40 47 53
245610.07434082 3357429.42880249 20.10378647 106 109 116
245602.26843262 3357430.10958862 20.34557533 65 64 69
245609.79992676 3357429.02325439 20.13159752 17 16 22
245605.20806885 3357429.37673950 20.00657845 84 87 92
245608.72137451 3357429.14044189 19.95611763 43 48 51
245610.71478271 3357428.82705688 20.25762367 27 30 35
245601.45281982 3357429.25973511 19.99152946 30 34 43
245604.93334961 3357429.57086182 20.07408905 22 29 35
245610.08245850 3357429.15567017 20.19409943 31 38 46
245604.44232178 3357429.67886353 20.00726318 17 21 24
245609.60229492 3357428.93063354 19.94553375 5 8 13
245610.46862793 3357429.66091919 19.85323143 43 49 49
245601.25646973 3357429.38671875 19.88188362 40 45 49
245603.74499512 3357429.57974243 19.71636772 15 19 30
245601.02459717 3357429.00393677 19.68141937 49 58 65
245611.41583252 3357430.01345825 19.84543610 38 41 48
245601.99420166 3357429.52615356 20.15743065 109 68 72
245609.15100098 3357429.35598755 20.10477829 148 138 137
245602.87402344 3357429.77749634 20.01320648 44 47 54
245607.27087402 3357428.88656616 19.74991417 24 29 35
245603.62451172 3357430.41809082 19.76042557 67 70 79
245607.67840576 3357428.79702759 19.71851540 23 28 31
245608.15484619 3357428.80130005 20.22094345 9 14 17
245609.28057861 3357428.64993286 19.90405464 40 49 56
245607.02703857 3357429.77258301 19.76434708 24 28 37
245605.37963867 3357430.40875244 19.81169319 44 47 52
245610.47076416 3357429.94464111 19.62175179 78 81 86
245603.40997314 3357428.93853760 19.68087959 37 45 48
245609.29864502 3357429.39791870 20.07738113 26 30 33
245602.91717529 3357428.86715698 19.71763802 34 42 45
245606.85876465 3357430.34765625 19.88696289 111 106 102
245602.36218262 3357430.12643433 20.31298256 22 23 27
245605.81701660 3357429.25375366 20.35467720 34 38 41
245607.70428467 3357429.69131470 19.89643288 23 30 36
245606.51330566 3357429.58883667 20.13814926 24 25 29
245606.75238037 3357429.63385010 19.91770172 24 33 38
245602.33740234 3357429.95541382 20.20932961 8 9 14
245608.63714600 3357429.80178833 19.71387482 50 55 59
245610.05175781 3357430.14257813 19.64221001 57 65 68
245610.06854248 3357429.92120361 19.78493118 67 72 78
245603.57470703 3357429.56695557 19.78911209 3 10 18
245608.07342529 3357429.96838379 19.69648743 38 41 46
245603.43237305 3357429.91857910 19.91731834 17 21 24
245600.94641113 3357430.01986694 19.69038582 81 88 96
245607.80505371 3357428.72329712 20.21868706 12 15 22
245603.59509277 3357429.03012085 19.67894363 98 109 115
245602.22613525 3357429.45312500 20.20335960 18 19 24
245604.61425781 3357429.07504272 20.14053154 23 33 35
245604.23620605 3357429.13168335 19.94710732 21 27 27
245604.60882568 3357430.38223267 19.90759087 74 75 79
245602.03314209 3357430.39932251 19.81279373 40 41 45
245603.25274658 3357428.86151123 19.69728470 41 45 48
245608.44738770 3357428.91525269 20.21974182 55 58 63
245602.98455811 3357429.86862183 20.07567978 22 25 34
245603.60583496 3357430.06024170 19.81314087 21 26 29
245603.01098633 3357428.86642456 19.71189690 36 44 47
245603.73370361 3357429.39196777 19.69791794 14 21 31
245603.93524170 3357429.52255249 19.67047310 23 23 31
245611.06903076 3357429.65377808 19.94242859 74 17 32
245604.74505615 3357429.06762695 20.18776321 127 144 152
245604.75244141 3357430.42788696 19.83177567 80 84 87
245611.49639893 3357430.13339233 19.87405777 12 19 25
245606.76385498 3357429.79727173 19.89502335 34 37 46
245610.47833252 3357428.69543457 20.46977425 39 42 47
245607.65826416 3357429.92794800 19.69720459 46 51 55
245609.84655762 3357429.06884766 20.16264725 16 17 21
245603.89916992 3357430.03137207 19.74977493 19 22 29
245606.74414063 3357428.77972412 19.95805168 21 29 32
245603.91583252 3357428.98202515 19.68345642 28 37 36
245601.90600586 3357429.91790771 20.08241463 184 186 185
245606.49938965 3357429.42721558 20.11526299 9 9 17
245603.96258545 3357430.01348877 19.73666191 15 18 25
245606.08361816 3357429.80487061 19.81264496 24 28 31
245607.56311035 3357429.43939209 19.90334511 35 43 46
245606.36224365 3357428.90896606 20.07566643 20 25 31
245611.45678711 3357429.76446533 20.07136154 132 139 149
245608.72552490 3357430.08480835 19.63871002 72 77 81
245608.17150879 3357429.04864502 20.25571060 20 27 35
245605.42602539 3357430.06994629 19.99455833 122 122 114
245603.64263916 3357429.43652344 19.72222137 58 68 80
245607.02941895 3357429.57492065 19.85389709 24 28 37
245608.47216797 3357429.47756958 19.88779640 36 41 47
245608.14062500 3357429.45034790 19.95944405 28 33 39
245607.46276855 3357429.71960449 19.74371147 36 45 50
245606.26812744 3357429.78201294 20.02091980 120 121 123
245603.03533936 3357430.19458008 20.01871872 64 71 77
245604.34802246 3357429.99127197 19.93174362 40 45 49
245610.68707275 3357429.52154541 20.18039894 123 76 92
245604.59326172 3357430.07574463 20.06925392 22 30 33
245609.88299561 3357429.84378052 19.91750336 34 39 43
245606.01470947 3357430.14093018 19.67738533 50 53 58
245605.57427979 3357430.31219482 19.79427338 39 40 44
245602.28277588 3357430.33474731 20.45960426 207 212 218
245611.10253906 3357428.60388184 20.19573212 64 66 65
245607.27886963 3357429.44555664 19.85752869 28 33 39
245610.73718262 3357428.63925171 20.27278137 35 40 43
245602.75219727 3357429.57473755 19.97262764 53 53 61
245606.41113281 3357430.19955444 19.70772362 46 46 54
245607.87500000 3357429.29653931 20.18138123 14 16 29
245602.65582275 3357429.68161011 19.97956276 102 100 101
245604.62438965 3357429.97103882 20.07043266 37 45 47
245605.33239746 3357430.42382813 19.85712433 46 49 54
245611.57580566 3357429.97894287 20.15957832 35 48 57
245608.06970215 3357429.28521729 20.19536209 20 27 35
245607.35974121 3357429.23291016 19.86463737 31 36 40
245605.22381592 3357430.27789307 20.01539803 18 27 34
245611.41918945 3357429.62222290 19.99521065 22 22 30
245601.97540283 3357430.50595093 19.70572853 55 60 66
245607.48156738 3357429.86874390 19.67046738 44 51 61
245610.01910400 3357429.07830811 20.23780441 38 43 47
245609.54052734 3357430.04687500 19.63343430 93 94 98
245606.33947754 3357430.22732544 19.70076180 52 55 62
245606.13018799 3357430.14462280 19.68384743 43 47 50
245608.77624512 3357429.84930420 19.72324944 53 58 62
245601.00408936 3357429.13693237 19.67541504 54 63 70
245603.17419434 3357429.44369507 19.92389107 34 35 39
245611.27459717 3357428.93682861 20.23822784 56 51 58
245608.06390381 3357429.48217773 19.98871231 22 26 37
245606.43432617 3357429.02395630 20.35675240 22 25 32
245607.06781006 3357428.83386230 19.80878830 27 30 37
245609.30590820 3357429.72604370 19.92302895 27 32 36
245608.33215332 3357429.88980103 19.69109917 36 41 45
245610.23864746 3357430.12075806 19.60387230 97 100 105
245605.48504639 3357428.95736694 20.26839638 38 41 46
245605.58068848 3357428.89816284 20.23626137 12 15 22
245601.13439941 3357429.11026001 19.68923187 48 57 62
245604.81353760 3357429.82739258 20.17569542 184 185 190
245605.13037109 3357430.38388062 20.34561348 97 108 114
245602.65606689 3357429.26089478 19.96790886 39 46 52
245606.84423828 3357430.34048462 19.87002373 121 118 113
245608.24591064 3357428.84896851 20.23881340 8 16 19
245602.36791992 3357429.07513428 20.06827736 15 18 23
245604.87609863 3357430.39489746 20.04750252 122 123 127
245606.52526855 3357428.78152466 20.09061050 6 14 17
245604.16693115 3357429.32373047 19.96966934 42 42 44
245603.50231934 3357429.17697144 19.72235107 24 38 39
245606.45892334 3357429.65774536 20.19497490 32 33 37
245603.16479492 3357430.45446777 19.84734726 26 27 31
245609.88653564 3357429.21032715 20.05227089 26 25 31
245605.80297852 3357429.82897949 19.93350792 30 34 37
245609.66400146 3357429.75726318 19.96958923 73 77 80
245602.47033691 3357430.41915894 19.81152916 51 58 64
245601.60498047 3357429.29272461 20.05714607 18 27 34
245604.11492920 3357429.83032227 19.80676079 25 28 33
245610.15240479 3357428.88064575 20.35678101 35 38 43
245608.58752441 3357429.21984863 20.06418228 33 36 41
245604.21545410 3357429.26516724 20.00866699 63 63 65
245602.01892090 3357430.10537720 20.16082001 70 75 79
245607.94543457 3357429.90979004 19.73335838 63 64 68
245610.06787109 3357429.42681885 20.08982086 71 76 82
245606.38500977 3357428.99517822 20.23667145 20 21 26
245608.54956055 3357429.38754272 19.95169640 37 40 47
245602.08557129 3357429.00564575 20.13764572 159 163 166
245605.05389404 3357428.88558960 20.03836441 14 18 19
245608.94287109 3357429.60989380 19.99582672 87 90 95
245607.18914795 3357428.88928223 19.77992439 20 25 31
245601.16949463 3357429.68377686 19.88667488 57 62 68
245604.84503174 3357430.16000366 20.33509636 22 31 38
245606.12011719 3357429.67166138 20.04325867 20 24 27
245605.57006836 3357429.14068604 20.23549652 24 23 29
245604.99298096 3357430.48214722 20.48893356 226 232 232
245606.56457520 3357429.57278442 20.08207512 10 15 18
245608.45483398 3357429.00674438 20.26287842 90 90 100
245604.99639893 3357429.94992065 20.17166901 29 33 44
245609.93103027 3357429.00009155 20.29320335 54 39 46
245601.85559082 3357428.92388916 19.86111259 37 45 48
245609.82977295 3357428.67886353 20.26327324 24 13 21
245607.76263428 3357429.78027344 19.83278084 25 28 33
245608.56799316 3357429.15682983 20.12069893 27 30 35
245604.17456055 3357429.40481567 19.98514748 17 17 19
245611.10510254 3357429.56634521 20.09817314 29 35 49
245601.37237549 3357430.23825073 19.97103691 50 54 55
245601.65399170 3357428.93615723 19.72842026 44 55 61
245606.43792725 3357428.85830688 20.13695145 30 33 40
245607.63299561 3357429.39846802 19.91662025 31 36 40
245604.87921143 3357429.16122437 20.20004463 215 216 218
245602.36718750 3357429.88256836 20.16039085 24 25 29
245602.47985840 3357429.09631348 19.93977928 34 41 47
245601.12744141 3357430.24560547 19.74057388 69 74 80
245605.93542480 3357429.74530029 19.98880959 98 102 105
245610.63952637 3357428.89904785 20.29097748 25 30 36
245608.27111816 3357430.23254395 19.61560249 71 74 81
245601.35131836 3357430.28500366 19.89867401 81 83 82
245601.68756104 3357429.03918457 19.84748459 42 50 53
245608.81152344 3357429.15676880 19.87928772 45 50 54
245610.23602295 3357429.28305054 20.37835693 230 230 238
245607.40081787 3357429.72900391 19.71393967 39 46 54
245601.99511719 3357430.30361938 19.86263657 67 66 71
245611.39996338 3357429.20562744 20.03214645 25 30 36
245602.77789307 3357429.32855225 19.96784019 41 48 56
245607.14935303 3357429.01245117 19.84907913 21 28 34
245610.05419922 3357429.78454590 19.90860558 29 34 38
245602.17382813 3357430.47290039 19.80688286 56 61 65
245603.07720947 3357429.06439209 19.85449600 33 40 46
245607.89318848 3357430.19183350 19.63534164 63 68 72
245608.34149170 3357429.24273682 20.15840530 29 32 37
245604.13238525 3357429.12759399 19.77371216 27 31 34
245602.12774658 3357430.34536743 20.02519417 41 39 44
245607.07568359 3357428.99862671 19.88266182 25 30 34
245603.25628662 3357430.30856323 19.90893745 28 32 35
245603.99188232 3357430.07302856 19.75446510 21 22 26
245609.02728271 3357429.40017700 20.05590248 153 147 147
245602.38085938 3357430.39364624 19.89265633 49 54 60
245604.95208740 3357429.78341675 20.11511803 25 28 33
245605.88616943 3357428.89880371 20.09802818 2 6 9
245611.05096436 3357428.90322876 20.27771568 33 27 31
245605.75036621 3357430.23272705 19.72707367 41 44 49
245604.41857910 3357430.39300537 19.91480827 91 90 85
245605.46423340 3357429.81665039 20.13216400 26 27 32
245602.16320801 3357430.37258911 20.18813515 76 81 85
245608.91888428 3357429.62503052 19.97928619 49 56 62
245610.67395020 3357429.88293457 19.68828011 61 62 66
245606.43017578 3357429.71252441 20.20866585 19 20 24
245611.50628662 3357430.13211060 19.91352654 16 23 29
245603.20794678 3357429.77777100 20.00910187 18 23 27
245606.51647949 3357430.07818604 19.80208969 21 21 21
245605.03594971 3357430.41992188 19.82749367 81 86 89
245602.39227295 3357430.06387329 20.25657845 3 4 9
245606.08050537 3357429.76690674 19.86561966 36 40 43
245605.29553223 3357430.35867310 19.92214012 37 41 44
245608.94787598 3357429.49499512 19.99414635 58 63 66
245607.27856445 3357430.02810669 19.64696121 47 52 58
245603.85516357 3357429.03805542 19.67497063 58 66 69
245604.82702637 3357429.06838989 20.15318489 104 122 126
245607.68798828 3357429.86895752 19.72150993 31 34 39
245610.81414795 3357429.94320679 19.66514206 67 70 77
245606.56652832 3357429.36251831 20.11477470 11 16 22
245611.14282227 3357428.68420410 20.29756355 53 37 40
245610.13098145 3357429.02865601 20.29226303 30 38 41
245601.80773926 3357428.90270996 19.77533150 44 52 55
245611.26068115 3357428.94244385 20.23188972 39 36 43
245609.76904297 3357428.98898315 20.12143898 8 11 16
245605.80017090 3357429.10476685 20.32704163 18 21 26
245606.29461670 3357429.86697388 19.97857475 134 134 136
245605.80670166 3357429.28540039 20.36696625 30 34 37
245604.34100342 3357429.11712646 20.09002876 29 34 37
245603.73162842 3357429.49343872 19.69849396 39 45 57
245605.08843994 3357430.05667114 20.15216255 26 29 34
245607.01416016 3357428.70669556 19.77432060 29 34 38
245607.20166016 3357429.24383545 19.88293266 36 41 45
245601.80456543 3357429.51809692 20.08338165 30 34 37
245601.84960938 3357429.74032593 20.06018448 26 26 24
245606.74877930 3357429.06555176 20.11882782 17 20 25
245605.67626953 3357429.22741699 20.27740669 47 51 54
245611.26232910 3357428.72583008 20.18906593 61 62 64
245603.40075684 3357429.16342163 19.74563217 26 35 40
245604.61132813 3357430.26327515 20.01451111 22 28 28
245608.94122314 3357429.62567139 19.99525833 87 90 95
245610.36352539 3357428.69235229 20.50150299 36 34 37
245604.68109131 3357429.46307373 20.15820885 18 29 33
245610.00762939 3357429.08291626 20.22233009 38 43 47
245611.16375732 3357429.20071411 20.08613586 17 21 30
245604.58703613 3357430.03237915 20.06036377 20 28 31
245607.01715088 3357430.02947998 19.76648140 30 32 44
245606.04168701 3357428.99267578 20.06080818 6 11 15
245605.77600098 3357429.10815430 20.32854652 18 21 26
245607.22192383 3357429.04983521 19.83737946 27 32 38
245608.60333252 3357428.88461304 20.08678055 22 26 29
245608.09979248 3357430.01550293 19.67148399 47 50 55
245601.86877441 3357430.05401611 19.95414543 53 53 55
245601.74371338 3357429.28491211 20.08765030 38 45 51
245606.97271729 3357430.25216675 19.85123825 13 12 17
245609.78143311 3357429.68725586 20.02232361 53 58 61
245603.20355225 3357429.30157471 19.88084984 15 22 28
245602.81622314 3357430.52993774 19.67406082 56 61 67
245605.96850586 3357429.90057373 19.77611160 35 39 42
245609.07537842 3357428.77877808 19.90402031 26 30 39
245608.49804688 3357428.96716309 20.21706581 55 56 61
245607.65295410 3357429.54629517 19.92689323 22 31 36
245610.90588379 3357429.68753052 19.87097549 116 52 66
245603.41259766 3357428.90197754 19.67354965 50 58 61
245602.88848877 3357429.62979126 19.98414040 36 43 51
245610.83367920 3357428.99673462 20.19859886 27 27 39
245604.42492676 3357430.12765503 19.97665405 24 28 31
245602.39630127 3357429.18792725 20.10864449 37 42 48
245609.73815918 3357429.51019287 20.09096527 90 91 95
245604.40551758 3357429.99551392 19.96142387 21 29 32
245610.49078369 3357428.85906982 20.41562843 34 44 46
245609.95397949 3357429.78970337 19.93564034 26 31 35
245603.63104248 3357429.16897583 19.69341469 79 92 100
245609.81585693 3357429.55511475 20.09321022 45 46 50
245604.79248047 3357428.93814087 20.07016563 143 163 174
245607.88720703 3357429.50100708 20.10799980 20 27 37
245605.99285889 3357428.77169800 19.97038269 20 25 28
245601.36352539 3357429.84271240 20.01893616 39 44 48
245602.88421631 3357429.06341553 19.88245392 45 54 63
245601.24438477 3357430.20776367 19.87467766 56 61 64
245609.74774170 3357430.09603882 19.72669601 49 54 60
245604.41650391 3357430.43576050 19.87561035 84 85 80
245606.40692139 3357429.07101440 20.37942123 25 28 35
245606.63891602 3357430.02563477 19.86792755 23 24 29
245601.42199707 3357429.71270752 20.02472305 30 39 46
245606.09509277 3357428.75836182 19.94397736 19 24 27
245608.05041504 3357429.38046265 20.06826973 28 32 41
245610.43902588 3357428.85964966 20.45378304 52 59 65
245603.18591309 3357428.94903564 19.73186684 41 45 48
245604.95251465 3357429.57806396 20.07123184 21 26 30
245605.38592529 3357429.98324585 20.07897186 98 98 106
245606.34973145 3357430.06433105 19.77948380 52 54 53
245604.24005127 3357429.00045776 19.75794029 32 37 41
245606.61529541 3357429.92285156 19.93893242 14 15 20
245610.34979248 3357429.82235718 19.73819923 90 89 94
245603.89794922 3357429.37527466 19.68299866 41 44 49
245602.06555176 3357429.69692993 20.22385788 133 77 76
245607.86596680 3357429.95220947 19.71980858 25 26 31
245603.59197998 3357429.98059082 19.83631325 76 81 84
245605.39190674 3357428.78567505 20.16219902 15 18 25
245601.31817627 3357429.69940186 19.99892426 28 35 43
245605.77319336 3357429.23059082 20.32199287 16 16 24
245603.86322021 3357430.28149414 19.82573509 43 47 56
245601.13812256 3357429.77688599 19.82735825 64 69 75
245603.01458740 3357430.42120361 19.86690712 30 31 35
245605.33959961 3357430.43478394 19.81787682 47 51 54
245611.56591797 3357429.38949585 19.97460365 23 26 31
245607.85009766 3357429.89984131 19.74323273 101 101 103
245606.41101074 3357429.55206299 20.17372894 43 44 48
245602.01568604 3357430.13186646 19.98261452 237 235 238
245606.06530762 3357429.37619019 20.29275894 24 29 35
245601.98956299 3357430.30273438 19.85924339 67 66 71
245602.13482666 3357429.54800415 20.20255661 114 74 74
245602.06799316 3357429.06747437 20.18722343 201 209 211
245602.31451416 3357430.44970703 19.81915283 60 63 68
245609.05377197 3357429.67221069 20.02513313 124 123 121
245606.23370361 3357429.73406982 20.01070595 50 51 53
245611.15454102 3357429.62570190 19.99986076 51 33 45
245605.63574219 3357430.07272339 19.80718994 29 33 34
245611.13470459 3357429.10986328 20.14498329 19 23 32
245602.51721191 3357428.87451172 19.77386856 50 58 61
245604.54248047 3357430.44949341 19.79013252 58 59 63
245601.46276855 3357429.81875610 20.02772903 31 36 42
245606.36126709 3357429.16622925 20.22241592 112 120 131
245609.72113037 3357428.89544678 20.02415085 9 12 17
245609.28497314 3357429.20202637 20.01750183 29 25 26
245603.69580078 3357430.24398804 19.80099869 29 33 42
245610.03088379 3357429.49310303 20.05336571 55 58 63
245608.21850586 3357429.76290894 19.76382828 38 42 45
245605.11883545 3357430.37792969 20.42053223 155 162 168
245603.64404297 3357429.29730225 19.71794891 70 83 91
245603.20629883 3357429.09045410 19.79311371 16 21 25
245608.85089111 3357430.24417114 19.60964203 85 88 93
245605.38952637 3357429.84390259 20.13291550 130 131 135
245610.08447266 3357430.14660645 19.62684631 61 69 72
245605.39849854 3357430.18411255 19.92541695 96 96 88
245608.16082764 3357429.85263062 19.73425102 37 40 45
245604.67297363 3357430.17425537 20.08964157 14 21 29
245609.19030762 3357429.45578003 20.14060593 106 102 101
245609.42834473 3357429.99356079 19.63390350 59 62 67
245607.13787842 3357429.70214844 19.75477600 26 35 42
245610.04150391 3357429.14187622 20.17317200 11 20 27
245610.24346924 3357429.28186035 20.38338089 230 230 238
245610.96160889 3357429.71386719 19.79914284 84 19 39
245602.91107178 3357430.38470459 19.82988358 32 39 45
245601.27069092 3357429.60061646 19.96696472 34 37 44
245602.82794189 3357428.97033691 19.79634094 42 51 56
245607.68463135 3357428.78683472 19.72196579 23 28 31
245606.76214600 3357429.14837646 20.12036133 16 21 25
245601.22686768 3357430.28201294 19.81990433 63 66 71
245608.84124756 3357429.57870483 19.92120361 49 56 64
245606.62194824 3357429.86874390 19.97433281 19 19 27
245601.80694580 3357429.78878784 20.04378510 27 33 33
245610.70208740 3357429.29748535 20.24011612 47 40 47
245606.65374756 3357429.33810425 20.07470131 20 23 30
245608.00927734 3357429.32611084 20.18688774 17 24 34
245608.70220947 3357428.87237549 19.98377419 55 60 64
245607.57128906 3357429.51522827 19.90091705 37 47 48
245611.50689697 3357429.49389648 19.97381401 83 84 89
245606.89038086 3357429.41986084 19.93507004 45 52 58
245606.64550781 3357428.76583862 20.02747536 23 28 32
245602.38787842 3357429.56152344 20.10052872 33 36 43
245602.70013428 3357430.15313721 19.95958900 46 49 54
245609.70965576 3357429.39770508 20.05581474 61 60 66
245602.39971924 3357430.10885620 20.28043365 13 16 21
245606.69238281 3357429.05599976 20.19262123 15 18 23
245609.74511719 3357429.60891724 20.06347084 43 47 50
245601.83306885 3357430.51461792 19.70050240 61 66 70
245611.54339600 3357429.82119751 20.11420631 42 52 64
245602.84014893 3357430.41955566 19.73476028 52 59 67
245601.76959229 3357430.53329468 19.69310379 67 72 76
245604.22674561 3357429.06356812 19.84223747 31 36 39
245607.78869629 3357428.79794312 19.97426033 9 12 17
245601.67468262 3357430.52249146 19.71142387 59 62 69
245607.83319092 3357429.15856934 20.16891098 6 10 21
245609.59716797 3357428.94845581 19.94814301 8 11 16
245607.01763916 3357429.78518677 19.76237106 24 28 37
245607.08398438 3357428.68698120 19.73029709 26 31 37
245603.15844727 3357428.92095947 19.72112846 78 81 86
245607.79205322 3357429.46182251 20.05147743 22 28 40
245604.12237549 3357429.57308960 19.86938286 62 61 66
245607.92877197 3357429.31597900 20.23730087 10 17 27
245609.78619385 3357429.73541260 19.99458885 50 55 58
245606.78143311 3357429.50033569 19.94829559 30 34 43
245607.94146729 3357429.66714478 19.97142220 18 27 32
245605.84930420 3357428.78683472 20.03032684 23 26 31
245601.36083984 3357430.38900757 19.82798386 80 82 81
245605.08270264 3357428.89746094 20.04521751 15 16 18
245605.06134033 3357429.29525757 20.08230209 15 16 18
245607.65124512 3357429.92779541 19.69546700 46 51 55
245611.16827393 3357428.84786987 20.33337212 60 39 46
245601.76696777 3357428.95339966 19.80297852 46 56 58
245606.37445068 3357429.96029663 20.01855850 39 38 43
245605.66418457 3357430.04989624 19.80053711 27 31 32
245605.04174805 3357429.25906372 20.10104370 88 89 91
245604.64831543 3357430.34658813 19.96630287 67 68 70
245608.85784912 3357429.43164063 19.91377640 30 38 40
245602.97692871 3357428.97561646 19.81107330 33 40 46
245607.51177979 3357429.41888428 19.88987350 38 46 49
245607.77777100 3357428.69561768 19.85805321 13 18 24
245607.60083008 3357428.68222046 19.65653038 24 29 33
245610.27636719 3357428.75320435 20.46562195 209 204 210
245607.61926270 3357428.84527588 19.69705009 26 31 35
245603.68530273 3357429.22463989 19.69709206 79 89 98
245602.48095703 3357430.21096802 20.23958206 28 31 38
245606.46398926 3357430.15802002 19.73147392 38 39 43
245605.83184814 3357429.41204834 20.31151390 13 14 19
245609.17962646 3357429.08911133 19.98910904 111 101 109
245606.37567139 3357428.73416138 19.99866104 31 39 42
245602.24865723 3357429.04302979 20.15127563 160 163 170
245602.85919189 3357428.89587402 19.74416542 40 48 51
245608.50543213 3357430.23486328 19.61321640 71 76 80
245601.62207031 3357429.14175415 19.96450043 33 40 48
245607.79187012 3357428.82760620 20.16508865 37 38 43
245608.79748535 3357430.04595947 19.64572716 72 77 81
245601.54309082 3357429.32672119 20.04824448 31 40 49
245601.08575439 3357429.57000732 19.79114723 74 82 85
245602.54638672 3357429.43936157 20.00974846 35 36 41
245610.18316650 3357429.03952026 20.32897758 189 192 199
245605.24114990 3357429.47302246 19.98956680 37 38 43
245607.70495605 3357430.19744873 19.63249969 67 72 78
245601.00341797 3357429.19113159 19.68377495 61 70 77
245603.25292969 3357429.44891357 19.89945793 19 20 25
245604.07720947 3357430.29418945 19.83579063 22 26 29
245601.99163818 3357429.79956055 20.18951797 211 186 189
245602.25195313 3357428.98776245 20.08263206 20 23 28
245608.49938965 3357429.35577393 20.04755783 37 40 47
245610.30169678 3357429.26895142 20.38765717 77 80 85
245601.64892578 3357428.92132568 19.72196579 44 55 61
245606.29785156 3357430.00601196 19.84310532 111 112 114
245608.11724854 3357428.90856934 20.26703262 40 45 49
245609.41436768 3357429.47256470 19.99714279 26 29 34
245606.81951904 3357429.05999756 20.07171631 19 24 28
245602.06335449 3357429.77035522 20.23551178 122 72 73
245608.12280273 3357428.72225952 20.17407227 22 22 30
245606.03698730 3357429.53756714 20.24334908 23 24 29
245607.65606689 3357430.17208862 19.64427185 67 72 78
245601.08654785 3357429.96798706 19.75458717 69 78 83
245610.96838379 3357428.64050293 20.31660461 65 66 70
245607.66821289 3357428.74264526 19.69501114 20 25 29
245607.82403564 3357429.71820068 19.95835686 20 29 34
245607.39117432 3357428.90545654 19.71663666 27 32 38
245601.96374512 3357428.91946411 19.97834969 98 106 108
245601.77703857 3357430.16125488 19.88883209 35 40 44
245607.36260986 3357429.04895020 19.80366135 33 38 44
245601.45452881 3357430.43127441 19.78114510 46 47 51
245605.26824951 3357429.67556763 20.02219963 164 165 167
245603.36114502 3357429.06549072 19.72905159 35 43 46
245605.95397949 3357430.15490723 19.68589592 24 27 32
245603.24908447 3357428.97689819 19.72855759 32 37 41
245610.79302979 3357429.30160522 20.25853729 54 47 63
245602.18103027 3357429.23510742 20.24121666 12 19 25
245608.72979736 3357428.75128174 19.92092705 38 43 47
245605.45654297 3357429.75173950 20.15104294 26 27 32
245601.83422852 3357429.08465576 20.05241585 48 58 60
245604.77392578 3357430.33901978 20.05588341 62 63 65
245602.47485352 3357429.93414307 20.08812714 22 25 30
245605.13903809 3357428.82739258 20.02198601 20 23 28
245610.97674561 3357428.61703491 20.33682442 66 70 73
245609.90460205 3357429.40267944 20.05192566 31 36 40
245603.38806152 3357429.81393433 19.92831230 15 18 23
245606.09313965 3357429.98214722 19.73005867 28 32 35
245604.47875977 3357430.16625977 19.98923874 21 25 28
245607.20617676 3357430.28771973 19.69985962 38 41 48
245604.44842529 3357429.36587524 20.28039742 202 190 194
245604.58923340 3357430.03445435 20.06234550 20 28 31
245605.13885498 3357428.78048706 19.99026108 22 25 30
245605.08642578 3357430.26541138 20.31339264 64 67 72
245611.14178467 3357429.07604980 20.16068840 21 26 32
245603.71624756 3357429.49145508 19.70260620 106 112 126
245601.03961182 3357430.08624268 19.70465469 78 85 91
245606.02581787 3357429.88116455 19.76719284 31 34 39
245608.74609375 3357429.41836548 19.86513710 37 44 50
245605.16857910 3357430.43386841 20.08557892 45 54 61
245603.49597168 3357430.42102051 19.77552223 33 38 44
245607.78717041 3357429.00396729 20.12264252 14 19 25
245604.63800049 3357429.70690918 20.05669022 26 36 38
245609.87310791 3357428.85684204 20.35320473 220 184 194
245605.42901611 3357429.83932495 20.14810181 26 27 31
245604.15826416 3357429.47024536 19.94375420 86 87 89
245608.40582275 3357429.09664917 20.29798317 58 61 66
245609.29254150 3357429.05670166 19.98940849 16 19 24
245604.16113281 3357429.14062500 19.83734894 19 25 25
245601.20941162 3357429.35162354 19.80166626 38 43 49
245610.28100586 3357429.57742310 20.27195549 22 30 32
245602.21966553 3357430.34390259 20.48674202 209 214 220
245601.77343750 3357429.79656982 20.02828979 35 43 45
245602.47753906 3357430.44320679 19.77293205 56 65 70
245605.01550293 3357429.79507446 20.08546829 27 32 36
245605.43933105 3357430.13705444 19.92673302 122 122 114
245608.00598145 3357428.86410522 20.29335022 159 159 169
245610.89941406 3357429.89819336 19.68659592 55 58 67
245610.35052490 3357429.59332275 20.17462540 21 26 32
245606.69207764 3357428.88421631 20.11181068 18 23 26
245607.97167969 3357429.29183960 20.25485039 46 52 64
245601.26776123 3357428.98339844 19.68148613 54 63 68
245601.10339355 3357429.61755371 19.81125641 72 77 81
245604.11383057 3357430.14706421 19.82236290 36 40 43
245611.38055420 3357429.68264771 20.01304626 32 31 37
245602.85485840 3357429.84542847 20.02432632 70 71 75
245601.88250732 3357429.01181030 20.01976204 26 34 37
245603.84906006 3357428.90032959 19.68653488 37 45 47
245602.53735352 3357430.13861084 20.11637306 38 39 44
245604.19659424 3357429.69754028 19.88351440 32 33 37
245609.21954346 3357428.85775757 19.95766258 174 183 190
245605.73724365 3357428.95315552 20.22342873 3 2 7
245606.32879639 3357429.94567871 19.97366714 172 172 172
245608.00549316 3357429.46865845 20.04552460 19 23 34
245606.10247803 3357429.30459595 20.23123169 26 31 35
245608.24511719 3357428.73501587 20.15159607 17 22 26
245606.29199219 3357428.95251465 20.01966858 32 35 40
245608.17095947 3357429.33270264 20.05816650 30 35 39
245606.38250732 3357430.01358032 19.91829491 124 124 124
245607.53393555 3357429.49713135 19.89876556 39 49 51
245611.16595459 3357429.05358887 20.16398048 21 24 31
245604.83721924 3357429.99246216 20.29101944 25 32 42
245604.69659424 3357429.90051270 20.13866234 252 254 253
245602.56268311 3357429.59606934 20.00682259 48 47 52
245606.48266602 3357429.63092041 20.16999435 34 35 39
245601.20129395 3357429.07043457 19.68968773 42 49 57
245610.38916016 3357429.25704956 20.35836792 32 37 40
245607.83813477 3357429.70501709 19.99256134 26 35 40
245608.53051758 3357428.74124146 20.09872437 50 51 55
245602.30371094 3357429.16207886 20.25731087 70 75 79
245609.57873535 3357429.77911377 19.90477371 46 47 52
245601.87841797 3357429.97634888 20.01499939 68 68 70
245604.58465576 3357429.03778076 20.08184242 20 30 31
245605.98114014 3357429.71640015 20.06980133 28 32 35
245609.44696045 3357429.46704102 19.98974228 22 23 28
245610.63507080 3357429.35012817 20.22178268 37 31 35
245604.40161133 3357429.94769287 19.96326065 28 31 36
245608.51391602 3357428.76040649 20.12577248 54 55 59
245607.72686768 3357429.47909546 20.00277710 24 31 39
245611.27435303 3357429.58599854 20.00028419 30 29 34
245604.70056152 3357429.97100830 20.14937210 252 255 255
245606.54779053 3357428.91009521 20.25868988 3 8 14
245608.69726563 3357429.37048340 19.87418365 41 46 52
245611.07373047 3357428.94842529 20.24917412 21 19 24
245604.05670166 3357429.01272583 19.70631790 27 32 36
245610.14300537 3357429.14044189 20.26662445 66 71 77
245607.21862793 3357429.86791992 19.66910172 36 43 51
245607.59716797 3357429.80276489 19.73458672 45 52 58
245601.44384766 3357429.41812134 20.04777527 80 81 85
245605.77557373 3357428.91882324 20.18391228 7 6 11
245606.61303711 3357428.85748291 20.17341423 12 17 21
245604.83984375 3357430.38385010 19.97448158 95 95 95
245606.40649414 3357429.77804565 20.16641808 36 37 41
245607.19079590 3357430.28442383 19.71055794 38 41 48
245605.44256592 3357429.23226929 20.14730453 181 180 186
245604.31298828 3357429.70846558 19.95546913 33 36 41
245604.92730713 3357430.40994263 19.94430161 109 110 112
245610.44390869 3357429.52438354 20.19832039 32 35 44
245603.25305176 3357429.63119507 19.97010803 23 26 31
245607.28015137 3357429.87524414 19.65589142 28 32 41
245605.58691406 3357429.94247437 19.94174194 32 32 34
245610.10852051 3357429.48379517 20.18325233 216 216 224
245609.63848877 3357429.06756592 19.98046303 14 14 22
245602.11120605 3357429.80072021 20.24938583 118 68 69
245606.41986084 3357429.39559937 20.11490059 8 11 18
245601.92755127 3357430.08123779 19.95609093 43 43 45
245611.53521729 3357430.12161255 20.04950142 10 17 25
245604.21343994 3357429.52740479 19.97113800 22 21 27
245607.75860596 3357429.05215454 20.01166344 20 25 29
245605.05023193 3357429.60290527 20.04558182 16 16 24
245611.51477051 3357429.25506592 20.06283760 61 68 76
245607.92901611 3357429.39657593 20.17667580 12 19 29
245602.48376465 3357429.40307617 20.04540253 38 42 45
245611.19635010 3357429.61865234 19.99308395 26 21 28
245611.57519531 3357429.17382813 20.19383430 69 73 82
245610.93835449 3357429.18524170 20.25571442 24 23 37
245610.24108887 3357429.87445068 19.73570633 56 57 62
245609.24316406 3357430.08145142 19.62728310 71 76 80
245604.91510010 3357430.34753418 20.45861435 139 143 146
245609.33544922 3357429.39138794 20.05323219 20 25 31
245606.67553711 3357429.53771973 19.99741364 20 28 31
245607.67926025 3357428.86013794 19.77635002 24 29 32
245606.26098633 3357429.35211182 20.06848907 15 18 25
245607.83898926 3357429.22445679 20.15662575 14 18 27
245607.47949219 3357430.02359009 19.63103104 53 56 63
245607.79919434 3357429.90588379 19.74175453 65 66 70
245607.06408691 3357428.90692139 19.84548187 28 33 39
245605.33020020 3357428.80862427 20.14085960 10 15 19
245610.02136230 3357429.12387085 20.17314529 13 20 28
245607.37646484 3357429.44616699 19.86366272 33 38 44
245604.06707764 3357429.32101440 19.79324913 27 26 32
245608.53375244 3357429.28393555 20.08028984 43 43 51
245610.42987061 3357429.41497803 20.30623055 30 36 36
245604.87396240 3357430.48934937 20.30752373 162 166 167
245604.10400391 3357430.03482056 19.79646683 30 33 38
245607.24456787 3357430.07003784 19.65923691 46 51 57
245605.64465332 3357430.08953857 19.79185486 29 33 34
245601.44104004 3357429.22973633 19.96990395 26 33 41
245605.05310059 3357430.11038208 20.20091438 32 36 45
245608.47326660 3357429.42742920 19.95195961 38 42 45
245606.44903564 3357428.95385742 20.27555847 63 67 76
245608.29418945 3357429.39807129 19.98229408 26 30 33
245604.86035156 3357430.00128174 20.29404831 25 32 42
245606.75305176 3357430.31561279 19.75862122 45 45 47
245603.24157715 3357428.92779541 19.71710587 43 44 49
245604.12829590 3357429.47906494 19.89819336 69 70 72
245606.33441162 3357428.89340210 20.05049896 39 42 47
245610.58294678 3357430.00854492 19.60696220 57 60 67
245605.25561523 3357428.91067505 20.15424728 17 19 31
245601.35162354 3357428.92883301 19.68465996 45 52 60
