246102.97106934 3357435.42822266 14.26880550 112 114 111
246107.12683105 3357440.31445313 14.26051235 61 69 54
246100.74145508 3357432.13836670 14.31637192 131 133 130
246101.20434570 3357432.44851685 14.61034966 200 201 203
246101.35461426 3357431.36581421 14.60743904 32 34 33
246105.29711914 3357439.37335205 14.87288857 33 33 33
246100.75158691 3357433.06848145 14.42541695 95 97 96
246102.51782227 3357434.33786011 14.31345463 80 82 79
246106.29907227 3357440.21896362 14.84439564 25 27 26
246102.39343262 3357433.79211426 14.29224300 112 113 105
246102.22265625 3357434.05020142 14.46751690 18 19 13
246105.35644531 3357439.51281738 14.78740120 29 37 39
246105.06188965 3357439.88818359 14.39525890 129 129 131
246104.96826172 3357439.35925293 14.43972111 39 38 43
246106.95678711 3357440.68728638 14.34575748 80 81 85
246103.83374023 3357438.29434204 14.34088516 70 70 78
246103.78173828 3357436.59161377 14.48128223 74 83 80
246105.14111328 3357438.75540161 14.15059566 27 31 34
246105.39807129 3357440.92367554 14.47983837 142 137 134
246105.54675293 3357439.06991577 14.20788574 140 137 132
246104.46154785 3357437.62216187 14.48187065 146 139 131
246104.33093262 3357439.06701660 14.38877487 182 179 172
246101.76672363 3357434.34957886 14.74278545 94 95 97
246101.29101563 3357433.14413452 14.29262638 124 124 122
246101.52600098 3357431.80654907 14.27380562 109 110 114
246100.01525879 3357431.45053101 14.35998726 147 148 143
246100.69921875 3357431.44818115 14.88170338 56 61 64
246102.51562500 3357433.09820557 14.38332176 49 82 29
246100.65832520 3357431.16949463 14.44786358 109 111 110
246105.28381348 3357440.68890381 14.43650246 147 139 137
246100.80102539 3357432.69992065 14.46317673 78 78 78
246103.80004883 3357438.62051392 14.20607662 136 136 138
246102.08850098 3357432.80316162 14.27809334 128 130 127
246107.24780273 3357440.89288330 14.78057766 142 146 158
246102.00305176 3357432.63171387 14.28120136 109 116 109
246102.17712402 3357433.04745483 14.27651691 133 138 131
246104.31164551 3357438.58642578 14.46050262 82 88 86
246103.03845215 3357437.55834961 14.33873749 121 120 118
246105.18737793 3357438.25622559 14.27464962 101 114 97
246105.29199219 3357439.08514404 14.22230721 86 90 91
246102.88928223 3357434.18920898 14.35506058 32 60 22
246102.32922363 3357436.19763184 14.77969360 48 56 59
246103.09814453 3357437.22842407 14.32185841 86 87 89
246102.32031250 3357436.18280029 14.68963337 23 28 32
246100.77819824 3357432.12384033 14.31725025 131 131 131
246106.44409180 3357440.97976685 14.39037991 73 78 82
246100.92565918 3357432.84783936 14.91823769 54 57 62
246104.23437500 3357437.54373169 14.76705837 149 148 143
246101.26879883 3357432.22119141 14.39888191 96 100 103
246103.13952637 3357435.94091797 14.39731598 98 101 94
246105.34692383 3357440.12048340 14.52974510 118 118 120
246106.23840332 3357440.14859009 14.75172997 37 40 33
246102.39013672 3357435.30963135 14.24543285 145 147 144
246101.34448242 3357432.74334717 14.52161789 130 129 124
246106.52416992 3357440.17227173 14.33426189 63 68 64
246104.12243652 3357437.99188232 14.68592262 235 237 250
246102.64770508 3357436.86746216 14.39052010 93 91 94
246103.94006348 3357437.22808838 14.48341656 173 48 66
246102.04858398 3357433.06225586 14.26106739 139 139 137
246102.83496094 3357436.97439575 14.88274479 91 94 101
246101.66735840 3357434.18325806 14.49359131 25 28 33
246101.71899414 3357433.07794189 14.25472355 114 116 113
246101.78430176 3357432.48382568 14.39979839 80 82 79
246104.45910645 3357438.57705688 14.51573849 104 106 105
246102.89514160 3357436.93911743 14.83460903 57 64 74
246102.82348633 3357435.04879761 14.23774529 122 124 119
246107.54394531 3357440.85784912 14.38081837 90 87 78
246104.34265137 3357438.40740967 14.80988503 225 247 255
246103.04101563 3357436.87365723 14.63231754 125 130 134
246104.05871582 3357437.92004395 14.58094025 217 215 228
246100.88171387 3357431.51303101 14.83903885 37 41 42
246103.63134766 3357436.76626587 14.61806011 161 166 160
246103.22644043 3357437.22500610 14.30811977 87 86 91
246103.75354004 3357436.16561890 14.38188457 61 80 52
246105.09643555 3357439.24804688 14.48783779 32 40 43
246107.29614258 3357440.78082275 14.46391392 69 60 51
246100.97998047 3357433.57104492 14.27998066 159 161 158
246104.73034668 3357438.97769165 14.46311378 40 44 47
246105.20996094 3357438.41555786 14.22597504 113 121 110
246102.48315430 3357433.15930176 14.35692692 52 80 32
246100.45471191 3357431.50607300 14.66536427 103 107 106
246103.10974121 3357434.58236694 14.39105988 43 71 31
246101.55944824 3357432.56314087 14.53071213 127 129 128
246107.21997070 3357440.36550903 14.30776691 65 73 60
246103.75646973 3357437.15258789 14.47538090 110 48 53
246104.13549805 3357438.82568359 14.22918415 143 143 145
246101.95178223 3357434.83480835 14.30995178 94 96 95
246104.35485840 3357437.89996338 15.14016247 164 205 227
246105.46875000 3357440.23712158 14.45336342 136 135 140
246100.81701660 3357431.36010742 14.82221603 37 40 45
246104.58459473 3357438.81570435 14.42470551 92 91 96
246101.49035645 3357432.61822510 14.74066544 79 83 84
246105.97888184 3357440.48684692 14.51202297 24 29 33
246103.04052734 3357435.56378174 14.25729752 114 116 113
246105.96154785 3357440.64953613 14.49822140 52 51 56
246100.46679688 3357431.48342896 14.62177086 122 126 127
246101.72436523 3357435.23559570 14.25035286 131 133 132
246105.22631836 3357440.11785889 14.51617813 128 129 131
246101.58837891 3357434.20669556 14.49932289 39 42 47
246100.88659668 3357432.70385742 14.76647568 255 255 255
246102.33776855 3357435.82827759 14.23488140 103 108 104
246101.22399902 3357431.31423950 14.79364967 61 65 64
246103.43469238 3357437.74850464 14.42452717 79 91 91
246104.48950195 3357439.06173706 14.50454903 33 41 43
246102.60314941 3357435.85754395 14.27802753 111 117 105
246104.05712891 3357438.26593018 14.42604065 68 68 70
246104.58691406 3357438.76956177 14.39951706 100 100 102
246100.18359375 3357431.18157959 14.33784580 137 138 130
246104.10534668 3357438.33001709 14.41392326 73 74 76
246101.03918457 3357432.88354492 14.72734070 200 202 201
246104.71826172 3357438.60604858 14.25729370 102 104 101
246100.73779297 3357432.38391113 14.30176067 129 129 129
246103.09155273 3357435.09066772 14.28667068 87 95 82
246102.88513184 3357437.66729736 14.28543472 150 155 161
246102.77502441 3357437.09411621 14.33020115 103 105 102
246102.56384277 3357433.32464600 14.35035324 51 69 27
246105.24963379 3357440.01199341 14.53104019 122 122 124
246103.67590332 3357438.28222656 14.35362625 44 45 49
246100.66003418 3357431.80123901 14.38069916 99 99 97
246101.40209961 3357434.85800171 14.28316498 135 135 133
246101.99291992 3357431.87612915 14.38569832 90 96 86
246105.86633301 3357440.89151001 14.45088959 80 80 82
246102.36376953 3357432.11206055 14.51517963 77 103 58
246104.54980469 3357439.08886719 14.47948933 30 35 39
246106.14477539 3357440.30731201 14.71820831 14 18 19
246101.71569824 3357432.38204956 14.66976643 95 107 107
246101.25500488 3357431.09490967 14.54446411 76 78 77
246106.29113770 3357439.54922485 14.23781013 114 114 102
246104.88171387 3357439.05950928 14.43435764 34 41 47
246103.13159180 3357437.45086670 14.35335827 101 101 103
246100.45581055 3357431.62390137 14.83195877 42 38 37
246100.89624023 3357432.64440918 14.63228035 159 157 162
246103.94067383 3357437.15551758 14.52777100 158 58 70
246102.65759277 3357433.53414917 14.35445023 71 87 48
246100.08850098 3357431.64883423 14.38606739 145 148 141
246100.33972168 3357431.44421387 14.44642067 65 67 62
246104.58898926 3357437.46664429 14.33979034 119 129 104
246107.24560547 3357440.78811646 14.49119949 55 46 37
246101.29431152 3357432.48660278 14.67256451 55 60 66
246101.23046875 3357433.28628540 14.28682804 142 142 140
246100.91394043 3357432.54995728 14.45068073 108 108 108
246104.35192871 3357438.20480347 15.00512886 183 195 211
246103.86083984 3357438.19348145 14.47164345 87 89 101
246105.31823730 3357438.04010010 14.38104439 55 83 24
246100.75939941 3357433.54620361 14.28937435 151 156 152
246105.56030273 3357440.80560303 14.57597160 22 28 28
246104.31262207 3357438.85766602 14.38917446 135 131 132
246105.36010742 3357438.35406494 14.30389881 79 94 63
246101.06274414 3357431.24679565 14.68187904 40 48 50
246102.77209473 3357436.94650269 14.60475826 226 218 216
246106.22302246 3357441.13238525 14.47567844 23 25 22
246105.72570801 3357440.99734497 14.36649895 83 84 86
246104.99877930 3357437.58334351 14.40208721 63 87 35
246106.04528809 3357441.35424805 14.33931828 129 123 123
246102.48718262 3357436.14819336 14.61881924 24 28 29
246101.41662598 3357433.48751831 14.27013206 139 140 135
246101.34130859 3357432.70510864 14.61699200 139 143 142
246100.39770508 3357431.58078003 14.82656479 87 77 68
246100.76892090 3357432.31704712 14.31000900 120 118 119
246102.43212891 3357434.43191528 14.31297398 76 78 75
246101.92724609 3357433.09045410 14.24556637 110 112 111
246102.41455078 3357436.24337769 14.87054539 46 55 62
246104.56420898 3357439.27395630 14.27161980 96 96 98
246100.54675293 3357430.94515991 14.36542225 122 122 120
246106.42028809 3357439.77807617 14.36838722 114 116 102
246104.15637207 3357438.32073975 14.48876858 147 144 151
246102.95959473 3357435.91070557 14.36874294 106 107 102
246106.33483887 3357439.95397949 14.46216965 83 84 78
246101.78845215 3357435.37768555 14.24562359 146 148 145
246101.23205566 3357433.78048706 14.26661015 142 144 141
246102.03991699 3357434.87811279 14.27997112 96 97 99
246103.69201660 3357436.78494263 14.74429512 130 129 124
246104.17578125 3357438.72094727 14.23406792 139 137 142
246100.71130371 3357432.43679810 14.29724789 133 133 135
246104.84375000 3357439.70031738 14.21622372 130 130 130
246102.20056152 3357434.09390259 14.69030762 45 47 44
246100.17761230 3357431.46847534 14.38842297 139 140 135
246101.53723145 3357432.57971191 14.53292465 118 120 117
246104.51855469 3357439.37713623 14.20503235 119 119 121
246106.94738770 3357440.84106445 14.46401501 54 56 55
246101.32604980 3357434.63470459 14.41469097 92 92 92
246102.86633301 3357435.72882080 14.25869942 110 113 106
246103.86071777 3357437.70401001 14.38795471 64 66 65
246104.61669922 3357439.16519165 14.36509037 33 32 37
246104.45275879 3357438.40240479 14.57988167 98 107 112
246101.12915039 3357431.36999512 14.74607944 40 46 46
246103.43359375 3357436.10937500 14.46756840 23 28 21
246103.19628906 3357437.05737305 14.38417149 70 75 78
246104.80017090 3357437.99844360 14.29303265 132 132 124
246105.42993164 3357440.79452515 14.62347031 45 45 35
246106.09973145 3357441.22930908 14.49226284 119 116 107
246104.05493164 3357438.95373535 14.21232033 151 149 150
246103.65502930 3357436.12976074 14.37504673 54 67 50
246102.51232910 3357434.25772095 14.30584717 77 79 78
246102.09948730 3357435.77499390 14.24149609 132 134 131
246103.44165039 3357437.80578613 14.41334438 34 48 48
246103.13562012 3357434.71148682 14.37722015 57 78 45
246103.98974609 3357438.85134888 14.21327686 145 145 147
246103.97058105 3357437.07116699 14.65136528 131 99 102
246104.64648438 3357438.15411377 14.30105591 100 102 99
246101.81408691 3357432.39071655 14.53148365 82 91 88
246101.62597656 3357434.17443848 14.47415638 37 40 45
246100.88256836 3357431.54177856 14.62282848 46 50 51
246103.76916504 3357436.79357910 14.62788582 179 178 176
246101.95141602 3357434.04187012 14.60942745 229 228 224
246102.52648926 3357433.25540161 14.35467243 56 80 32
246104.28625488 3357437.83242798 15.06553555 226 235 240
246102.11755371 3357433.90557861 14.50775814 134 134 124
246102.28881836 3357433.51766968 14.27452755 118 119 113
246104.33203125 3357437.54498291 14.39611912 146 139 133
246103.55126953 3357436.12591553 14.39410782 63 68 64
246103.27172852 3357435.74966431 14.26198101 112 114 113
246107.18054199 3357440.54812622 14.28599548 100 100 102
246101.30334473 3357430.82540894 14.37275410 121 122 116
246103.91552734 3357438.85833740 14.20246792 148 148 150
246107.00329590 3357441.10455322 14.64293098 43 47 46
246104.56933594 3357438.09320068 14.53808022 104 110 110
246103.36218262 3357435.58901978 14.31593132 78 89 75
246106.25817871 3357440.31094360 15.00000668 92 96 99
246101.13391113 3357432.82128906 14.76747227 121 127 127
246100.74035645 3357432.10321045 14.31863117 135 137 136
246101.85192871 3357432.66647339 14.25389194 116 120 123
246101.40917969 3357432.25592041 14.59791851 201 205 214
246101.61608887 3357433.98483276 14.32880783 140 142 141
246102.22729492 3357432.32879639 14.40709591 94 103 82
246103.49621582 3357438.26873779 14.35983849 81 79 84
246105.77893066 3357439.13067627 14.24540710 138 139 123
246103.44079590 3357437.64147949 14.44300842 37 47 49
246101.07299805 3357434.17117310 14.30392551 153 153 151
246104.57336426 3357438.30264282 14.37759399 99 100 102
246103.12207031 3357437.08880615 14.36562347 52 57 60
246101.86083984 3357433.97851563 14.42158508 83 83 81
246104.31201172 3357438.46655273 14.59471035 228 231 240
246106.50903320 3357440.71121216 14.38606739 89 90 92
246100.38256836 3357432.63027954 14.31430817 131 133 132
246102.05773926 3357436.53247070 14.32666492 144 144 142
246100.40173340 3357431.52255249 14.65296650 89 90 85
246100.83178711 3357431.66046143 14.42480278 84 86 83
246105.97119141 3357439.56994629 14.40462208 57 58 52
246103.06848145 3357435.88583374 14.32924271 112 113 105
246102.67175293 3357436.01165771 14.45209885 87 88 90
246103.49926758 3357437.23156738 14.40172195 70 80 79
246100.76147461 3357431.97824097 14.32662868 131 131 131
246106.31176758 3357440.36538696 14.97782326 68 74 74
246107.29357910 3357440.90936279 14.67053699 5 6 10
246103.54980469 3357436.55136108 14.47156239 76 82 82
246101.86816406 3357435.71847534 14.24451065 146 148 145
246106.89770508 3357440.47433472 14.29227829 83 85 84
246104.07031250 3357437.40332031 14.52571678 76 23 29
246105.47680664 3357440.70513916 14.56640816 36 38 35
246102.75048828 3357436.69207764 14.44482231 77 76 81
246104.19384766 3357438.73315430 14.23746777 146 146 148
246107.34631348 3357440.54980469 14.35637856 57 65 54
246103.40966797 3357437.26739502 14.37513924 75 83 85
246106.36853027 3357441.50091553 14.99861717 190 195 189
246101.85253906 3357436.44607544 14.26782608 145 145 147
246100.61474609 3357432.92199707 14.39779472 75 89 90
246102.16430664 3357435.33679199 14.24581242 130 132 131
246106.34423828 3357440.39154053 14.83139038 53 58 54
246102.06872559 3357436.45404053 14.35164928 136 136 134
246101.19787598 3357432.85794067 14.48720169 104 104 102
246101.90258789 3357433.88131714 14.35900211 114 114 112
246101.80139160 3357434.07644653 14.46481705 46 47 49
246102.59533691 3357436.55075073 14.38852501 80 81 83
246103.23632813 3357436.29504395 14.85858440 89 94 90
246101.67224121 3357434.18109131 14.49193859 25 28 33
246104.34338379 3357437.68743896 15.01211452 163 164 168
246101.56176758 3357432.53649902 14.77208328 78 88 90
246101.58984375 3357432.50799561 14.92090416 151 156 159
246102.80566406 3357434.69995117 14.26337719 104 109 102
246103.20800781 3357436.33975220 14.80662060 61 67 57
246100.83789063 3357432.74557495 14.76544571 225 225 225
246104.48779297 3357438.75183105 14.47392273 104 102 103
246105.29882813 3357439.81384277 14.54359531 106 107 109
246101.14331055 3357432.86502075 14.55864906 73 77 76
246105.51000977 3357439.90472412 14.52529335 103 104 106
246106.02331543 3357439.91479492 14.59987831 85 83 86
246102.34106445 3357433.02093506 14.32100487 99 115 86
246102.01135254 3357433.83764648 14.50961208 125 125 125
246103.23474121 3357437.56216431 14.41470146 96 101 105
246101.84399414 3357432.84988403 14.24427986 109 112 119
246103.01940918 3357437.07333374 14.40389442 63 74 80
246101.98132324 3357435.98480225 14.23824787 145 145 145
246100.52697754 3357432.01382446 14.32469654 138 139 134
246106.41235352 3357440.36669922 14.41625023 71 78 71
246101.59777832 3357431.41723633 14.36734009 88 90 87
246106.48193359 3357440.84466553 14.37756920 74 73 78
246102.95825195 3357435.73559570 14.27178192 106 110 109
246106.04577637 3357439.68627930 14.46888733 50 51 46
246102.40283203 3357436.34695435 14.52105713 101 108 92
246105.15600586 3357440.22778320 14.49545097 127 127 129
246103.34753418 3357436.48669434 14.45448685 76 80 79
246103.68481445 3357438.15197754 14.60764217 68 71 80
246104.31152344 3357439.14047241 14.29414177 116 116 114
246103.55053711 3357436.03475952 14.41952896 46 54 43
246104.31896973 3357438.31228638 14.91914749 236 241 237
246101.02856445 3357431.06716919 14.49519920 107 109 106
246104.31408691 3357438.75488281 14.39913559 119 119 119
246102.41577148 3357436.13519287 14.55226707 42 48 46
246101.53234863 3357433.35281372 14.26352310 131 133 130
246102.35095215 3357434.07061768 14.34361649 48 48 48
246102.67419434 3357434.50854492 14.28361893 86 92 90
246102.00683594 3357434.46456909 14.60392284 132 136 137
246102.85168457 3357435.82431030 14.30299473 107 114 106
246105.20581055 3357439.15490723 14.30862808 122 126 127
246106.39379883 3357440.95422363 14.35127068 89 93 96
246105.20190430 3357439.35256958 14.64789009 44 46 45
246102.53466797 3357435.16500854 14.23585415 118 120 117
246105.31811523 3357438.47869873 14.23864365 98 106 95
246107.27770996 3357440.94534302 14.70409870 45 54 61
246104.99035645 3357437.51318359 14.41308022 66 90 38
246105.73669434 3357440.68539429 14.55521584 23 28 31
246103.27941895 3357437.97921753 14.36673069 67 76 75
246104.63623047 3357437.27493286 14.36083126 63 84 45
246106.36267090 3357440.33132935 14.82778645 36 38 35
246103.13464355 3357436.20443726 14.67373562 122 123 125
246101.22692871 3357432.81326294 14.54605198 99 99 99
246101.86767578 3357434.69741821 14.43918705 63 65 64
246104.56848145 3357439.29763794 14.25469112 107 107 109
246102.38037109 3357434.13113403 14.33128929 82 83 78
246102.47851563 3357432.83630371 14.42443752 62 90 41
246101.17492676 3357434.17501831 14.31409073 138 139 134
246104.97314453 3357439.67935181 14.30180740 119 120 122
246104.15747070 3357437.58053589 14.64704514 113 108 114
246103.15881348 3357435.47708130 14.27854919 112 115 108
246102.57104492 3357434.61038208 14.28056049 92 97 100
246102.24829102 3357434.29531860 14.44613934 83 83 83
246104.51281738 3357437.49472046 14.35377312 128 130 117
246100.57946777 3357431.99963379 14.32552814 125 126 121
246104.72473145 3357437.89990234 14.42223167 112 115 108
246106.37451172 3357441.46542358 14.83417225 46 48 45
246103.89880371 3357438.04000854 14.62638950 60 65 71
246105.83227539 3357439.18014526 14.25516891 137 137 125
246104.04687500 3357438.32080078 14.36035442 88 90 89
246101.98693848 3357431.89205933 14.38195324 92 97 90
246102.72875977 3357436.99963379 14.36615562 170 152 152
246105.04260254 3357437.30462646 14.46217346 62 90 32
246102.87548828 3357436.85888672 14.56021881 164 170 184
246101.85461426 3357433.85211182 14.28092766 134 134 132
246102.42272949 3357436.35992432 14.78217030 59 69 68
246104.45153809 3357439.22113037 14.28094482 102 102 104
246101.24133301 3357432.78683472 14.58527660 87 91 90
246103.59655762 3357435.85595703 14.38611126 49 64 45
246102.28112793 3357434.36273193 14.40150928 72 73 68
246102.44409180 3357435.82366943 14.24280167 114 119 112
246101.48937988 3357434.80639648 14.33073330 110 110 110
246102.14343262 3357434.03231812 14.85516834 126 125 123
246103.18688965 3357436.33499146 14.71673393 60 65 59
246101.83496094 3357434.92572021 14.29491711 85 87 86
246103.66149902 3357436.49404907 14.44999981 92 97 93
246104.04760742 3357436.83938599 14.53626156 116 123 129
246102.20898438 3357434.64157104 14.31011868 95 97 96
246106.31420898 3357439.61715698 14.27126122 117 117 105
246105.84936523 3357440.73315430 14.51307964 49 50 52
246105.85974121 3357439.94012451 14.52648735 75 76 78
246104.37585449 3357438.74765015 14.49357796 105 103 104
246107.64575195 3357440.98571777 14.31692505 99 97 85
246102.67626953 3357436.36550903 14.61664963 14 20 20
246102.20263672 3357431.86761475 14.48567772 51 76 34
246101.80078125 3357434.10720825 14.48844719 32 33 35
246107.49548340 3357440.76266479 14.41328049 78 78 70
246107.32214355 3357441.05221558 14.63017750 2 3 7
246100.44787598 3357431.99810791 14.32806683 133 135 132
246101.55566406 3357433.79284668 14.24779224 154 156 155
246102.69189453 3357434.35009766 14.29123592 73 83 75
246106.34106445 3357440.39190674 14.85901356 78 82 81
246102.96752930 3357437.73062134 14.33640289 124 123 121
246102.51696777 3357435.86553955 14.25979900 117 123 113
246100.08081055 3357431.43844604 14.36208916 147 148 142
246100.55395508 3357431.60644531 14.58770466 49 53 54
246104.92260742 3357440.00732422 14.31316948 146 146 148
246101.70471191 3357432.37966919 14.80871773 140 155 158
246100.68249512 3357431.67959595 14.43893433 88 88 86
246101.56127930 3357435.64764404 14.24964905 159 161 158
246102.77270508 3357436.24533081 14.64105415 24 34 36
246101.43859863 3357432.63134766 14.66056824 69 70 72
246102.53918457 3357434.25375366 14.30351543 78 79 81
246101.07946777 3357432.27252197 14.34854412 105 109 110
246101.03942871 3357434.19305420 14.31465626 154 156 153
246104.65930176 3357439.51162720 14.18004417 138 139 143
246104.91027832 3357439.27783203 14.41098595 33 36 41
246105.16967773 3357439.40960693 14.86737251 62 64 63
246100.86584473 3357433.20465088 14.31371212 133 133 131
246101.10095215 3357432.77313232 14.95827484 50 55 58
246107.45202637 3357441.01858521 14.46383953 54 47 41
246104.00988770 3357437.00305176 14.67432976 107 103 102
246103.39123535 3357437.20639038 14.35199070 75 84 83
246102.30212402 3357436.54360962 14.35984898 124 124 124
246107.53771973 3357440.87237549 14.38345242 90 87 78
246103.99890137 3357438.17483521 14.65065956 41 42 46
246100.57470703 3357432.96914673 14.37637138 96 106 107
246101.54003906 3357431.48815918 14.33962440 90 92 91
246100.91271973 3357431.56555176 14.56062794 55 57 56
246101.45495605 3357433.87969971 14.25276756 147 149 148
246100.64562988 3357431.58636475 14.59759521 29 34 37
246106.41296387 3357441.60708618 14.42479420 231 235 238
246100.22058105 3357431.42785645 14.38645172 140 142 137
246102.87060547 3357437.01718140 14.51673317 182 186 187
246106.75097656 3357441.45581055 14.83815289 36 36 36
246101.03503418 3357431.24450684 14.68621635 41 45 48
246101.99975586 3357436.12188721 14.27077770 144 144 144
246104.23339844 3357438.92388916 14.25589466 124 124 124
246101.33996582 3357431.58279419 14.29789448 100 102 101
246102.02380371 3357436.34484863 14.37022495 130 130 130
246106.32031250 3357440.11032104 14.50730324 64 66 61
246101.43530273 3357435.24829102 14.26307392 155 157 154
246103.58654785 3357437.88009644 14.38152981 38 42 41
246102.41406250 3357435.82391357 14.23769379 114 119 112
246102.72058105 3357434.74685669 14.25911427 104 106 105
246105.00659180 3357438.28854370 14.22020626 125 127 124
246105.54406738 3357438.81539917 14.16456795 88 90 79
246101.92102051 3357431.64636230 14.37291813 87 93 83
246101.24816895 3357430.78881836 14.35505486 120 121 115
246101.80627441 3357433.09002686 14.24612427 116 118 117
246101.37719727 3357431.07388306 14.57485104 70 71 73
246105.17846680 3357439.59133911 14.64866257 148 154 154
246101.05627441 3357433.76235962 14.27848434 143 145 142
246103.72094727 3357436.36520386 14.39552689 72 79 71
246105.10302734 3357439.65847778 14.45711517 107 107 109
246106.24182129 3357440.43261719 14.97414589 79 86 92
246102.53381348 3357433.47930908 14.31824493 88 101 71
246101.92041016 3357431.72317505 14.37130165 86 91 84
246101.60803223 3357433.70935059 14.24650002 126 128 127
246100.69262695 3357431.49603271 14.93055725 71 77 75
246101.45190430 3357431.68606567 14.27762222 99 100 102
246105.52539063 3357439.41226196 14.66726685 51 56 50
246102.34716797 3357436.47378540 14.39138317 118 119 114
246099.94055176 3357431.55828857 14.37354660 147 148 142
246102.19836426 3357434.45605469 14.37380314 92 92 90
246104.29418945 3357438.35000610 14.77552032 232 236 239
246102.21569824 3357434.28820801 14.47832775 89 89 91
246105.94384766 3357441.23413086 14.28067970 133 131 132
246104.70825195 3357439.12173462 14.45627022 25 29 38
246101.80285645 3357433.97500610 14.35020447 117 117 115
246102.12817383 3357434.29809570 14.77777386 140 142 141
246104.81909180 3357437.98803711 14.29438496 132 132 124
246103.34423828 3357437.74893188 14.44682598 62 72 74
246101.44897461 3357434.27899170 14.51528454 30 31 33
246103.22619629 3357434.70593262 14.41573238 48 75 30
246102.85607910 3357437.10174561 14.40752506 48 48 50
246102.78051758 3357436.93832397 14.66389942 198 194 195
246105.86340332 3357440.09249878 14.46495724 77 81 84
246107.10412598 3357440.31198120 14.24582672 67 73 63
246104.23425293 3357437.42272949 14.41672134 153 150 143
246100.32983398 3357432.23117065 14.32732201 148 148 148
246102.28125000 3357436.16024780 14.42729187 42 43 47
246104.91113281 3357439.78561401 14.24931526 137 137 139
246100.73413086 3357431.50527954 14.93129444 94 100 90
246104.43017578 3357438.81085205 14.51994419 100 99 94
246100.83972168 3357430.90640259 14.40968418 120 123 116
246101.39685059 3357432.67749023 14.59273529 83 83 83
246102.93603516 3357434.79327393 14.27917194 98 101 90
246103.76599121 3357438.28942871 14.35240269 62 61 67
246101.49890137 3357432.18844604 14.53249550 69 74 78
246104.44506836 3357438.42031860 14.58407497 98 107 112
246102.43103027 3357436.74340820 14.31909847 125 125 125
246102.70703125 3357434.28439331 14.29609680 72 86 71
246103.36828613 3357435.60369873 14.31688404 79 87 76
246104.37011719 3357438.58947754 14.54732704 115 123 126
246103.73730469 3357436.76181030 14.62608147 168 163 157
246102.29125977 3357433.93008423 14.31831360 97 100 93
246102.05639648 3357433.40438843 14.23854828 131 131 133
246104.52685547 3357438.13619995 14.66393471 100 108 110
246103.04638672 3357435.35296631 14.26943588 115 117 112
246104.50402832 3357438.12475586 14.74948692 98 108 110
246102.43322754 3357434.72012329 14.27174187 120 124 125
246102.29431152 3357435.34741211 14.24579525 122 124 121
246103.98852539 3357437.00534058 14.69648552 106 100 100
246102.41406250 3357436.20886230 14.80104733 54 61 67
246104.27709961 3357438.32070923 14.77201176 252 248 247
246101.49707031 3357431.29553223 14.64825058 21 25 26
246103.84277344 3357438.48150635 14.25499821 122 123 125
246103.98156738 3357436.76440430 14.49735832 88 96 98
246103.00415039 3357436.81747437 14.56556034 77 80 87
246104.89428711 3357439.80795288 14.24105072 138 138 140
246101.80407715 3357431.62106323 14.32568741 100 102 97
246101.34680176 3357434.23709106 14.39851284 42 44 41
246101.74621582 3357435.00408936 14.26804066 99 101 100
246100.96972656 3357432.70339966 14.88692856 182 187 190
246102.00708008 3357431.61901855 14.43124104 64 78 53
246104.33911133 3357437.63339233 14.60284996 139 136 127
246105.62219238 3357440.13705444 14.47265244 113 114 116
246101.94982910 3357431.83889771 14.36835766 99 104 97
246100.33410645 3357431.25717163 14.36083221 136 137 131
246101.70202637 3357432.41967773 14.61003113 81 90 89
246103.87145996 3357437.69906616 14.38928890 64 66 65
246102.80175781 3357437.49142456 14.24122047 129 130 134
246103.77966309 3357437.19067383 14.47505760 155 58 67
246101.92224121 3357432.39251709 14.43625546 83 85 82
246101.12365723 3357431.42730713 14.71546364 39 43 46
246103.15344238 3357437.73803711 14.42716408 219 210 203
246106.35266113 3357441.48339844 14.68347359 127 124 117
246102.18566895 3357436.25201416 14.73047733 69 73 72
246103.99560547 3357437.97488403 14.57205009 44 46 58
246102.72399902 3357436.68139648 14.43635941 84 83 88
246106.38708496 3357440.06906128 14.41664028 48 50 47
246102.49182129 3357436.68719482 14.34101295 104 108 111
246103.47668457 3357435.77420044 14.34419250 79 91 77
246101.73376465 3357434.18066406 14.49911880 31 34 41
246106.12377930 3357440.22915649 14.67433929 65 66 71
246105.31225586 3357440.74676514 14.54086113 131 122 117
246103.85681152 3357437.93515015 14.42540455 120 125 128
246101.78271484 3357432.48782349 14.39523220 80 82 79
246106.26000977 3357439.63012695 14.28128719 105 104 99
246104.51660156 3357437.75534058 14.57695103 149 144 141
246105.14709473 3357438.84701538 14.15126324 26 30 33
246104.41333008 3357437.07928467 14.41827106 86 100 75
246101.20739746 3357432.11425781 14.32973862 106 107 111
246103.51098633 3357438.18151855 14.53430462 130 129 125
246106.66784668 3357440.49777222 14.34246731 84 85 87
246104.56311035 3357438.56362915 14.36104202 111 110 108
246102.14355469 3357436.34432983 15.03300858 33 38 44
246103.26684570 3357436.30838013 14.60160160 35 40 34
246100.28430176 3357432.12576294 14.33100605 160 160 160
246104.97277832 3357438.06402588 14.27754307 114 125 111
246100.30041504 3357431.58154297 14.76313305 212 203 196
246104.98132324 3357439.59234619 14.33583832 108 109 111
246102.48986816 3357436.34799194 14.67913246 50 61 57
246104.61010742 3357438.68969727 14.33302212 106 106 106
246105.85876465 3357439.41174316 14.30390358 62 64 61
246100.96044922 3357431.55197144 14.54699802 90 92 89
246101.69934082 3357435.99459839 14.24419498 152 153 155
246100.98706055 3357432.68942261 14.89806175 182 187 190
246104.42309570 3357437.95324707 15.09734726 94 100 114
246101.33752441 3357431.11053467 14.61509609 56 57 59
246100.70568848 3357432.05081177 14.32205009 131 133 132
246102.57617188 3357435.65151978 14.23505974 134 138 121
246102.50512695 3357433.91275024 14.28039646 116 120 106
246101.38586426 3357431.87677002 14.28064919 119 120 122
246105.25927734 3357438.09033203 14.35990047 49 72 26
246101.10180664 3357430.59976196 14.45571995 114 115 110
246104.84704590 3357439.02389526 14.43763447 42 49 55
246102.28552246 3357433.88061523 14.30749702 107 108 102
246104.95507813 3357438.94619751 14.33540058 66 71 75
246104.18115234 3357438.10464478 14.74875736 239 243 255
246103.23413086 3357436.90072632 14.57987213 113 117 126
246104.39416504 3357438.30145264 15.00139332 168 181 189
246102.91687012 3357435.90740967 14.38125038 96 97 92
246103.24157715 3357437.66760254 14.43730068 144 145 147
246103.46081543 3357437.96273804 14.40644836 51 50 48
246102.46081543 3357436.50466919 14.35954380 90 91 93
246104.27307129 3357438.84582520 14.30177212 135 133 134
246104.56787109 3357438.79367065 14.43127155 97 97 99
246104.43066406 3357437.91235352 15.10272598 120 132 146
246102.09667969 3357436.25070190 14.42897224 97 98 92
246103.95629883 3357438.46124268 14.27767086 122 121 126
246102.29260254 3357435.57778931 14.24503517 135 137 134
246100.95422363 3357432.86120605 14.90446854 17 25 28
246106.69494629 3357440.74087524 14.43729115 83 84 88
246105.16284180 3357437.83642578 14.38719463 77 101 51
246103.52551270 3357436.39776611 14.40320015 73 77 76
246105.01892090 3357437.35797119 14.44691944 69 94 39
246103.82324219 3357438.15899658 14.56510544 70 74 83
246101.96350098 3357431.54687500 14.40633583 82 93 76
246102.36340332 3357432.43011475 14.43915844 45 70 30
246102.77990723 3357434.77478027 14.25323200 103 108 104
246102.70202637 3357435.26803589 14.23973083 117 117 115
246100.84802246 3357432.92950439 14.88314438 56 60 59
246106.69677734 3357441.42959595 14.79162884 21 25 24
246102.03454590 3357436.57391357 14.30948448 144 144 144
246101.72155762 3357432.20544434 14.71362877 251 255 255
246106.59167480 3357441.09423828 14.64523029 23 28 32
246101.99414063 3357432.86178589 14.26371193 126 127 129
246104.06445313 3357438.38064575 14.35097790 95 96 98
246101.40710449 3357432.68225098 14.56483364 97 97 95
246104.35522461 3357436.98321533 14.41686440 88 100 78
246100.53662109 3357431.26879883 14.43190861 104 104 102
246101.40954590 3357431.00326538 14.50305748 97 98 100
246105.33325195 3357438.74835205 14.13444233 35 37 34
246107.09643555 3357440.38381958 14.24783993 68 70 65
246104.48779297 3357438.33587646 14.54381275 96 106 108
246106.48681641 3357440.09841919 14.35530663 60 62 59
246104.16235352 3357437.38595581 14.64175034 121 118 113
246102.17199707 3357436.46612549 14.38017654 122 120 121
246101.32763672 3357435.01004028 14.27726173 154 156 155
246106.65686035 3357441.26202393 14.69366646 75 81 79
246102.75231934 3357435.46881104 14.24804688 120 123 116
246102.06188965 3357432.32641602 14.38554096 83 85 82
246101.48059082 3357431.38476563 14.45071697 93 95 92
246102.17187500 3357436.06829834 14.26604462 138 138 136
246104.43859863 3357439.21914673 14.27888680 102 102 104
246102.67468262 3357434.54321289 14.28186703 88 94 92
246102.35278320 3357436.40530396 14.43321800 115 116 108
246104.98718262 3357439.49603271 14.39112568 103 102 108
246104.95898438 3357439.35125732 14.42861271 43 44 49
246104.04895020 3357438.91430664 14.21997833 150 148 151
246101.64843750 3357433.14627075 14.25913048 128 130 127
246105.88342285 3357439.36215210 14.26494789 105 106 100
246106.09545898 3357439.63186646 14.35982132 58 59 54
246105.29565430 3357439.35400391 14.65587425 29 31 26
246100.83447266 3357433.02465820 14.46621132 60 62 59
246104.26965332 3357437.63647461 14.91885090 182 185 192
246106.46191406 3357440.63320923 14.37827110 87 88 90
246105.87084961 3357439.33135986 14.25671196 111 112 106
246106.53820801 3357441.01773071 14.51512146 26 29 34
246105.72900391 3357439.62225342 14.62580395 80 82 79
246102.22302246 3357433.15304565 14.27541733 136 142 130
246102.08312988 3357434.19253540 14.95761204 62 58 57
246106.78588867 3357440.16070557 14.26318836 81 87 73
246104.51245117 3357437.92526245 14.80812454 97 104 110
246106.73718262 3357440.78738403 14.45632362 76 75 80
246104.19445801 3357438.49771118 14.39572430 87 90 97
246102.15502930 3357433.21987915 14.26317501 140 142 139
246100.47937012 3357431.65045166 14.48603344 67 67 65
246101.33288574 3357433.96389771 14.26256275 133 134 129
246099.98571777 3357431.63699341 14.36756134 146 147 141
246105.13244629 3357438.42272949 14.20790768 121 126 120
246104.39965820 3357437.98486328 15.10860252 5 40 78
246105.04040527 3357440.31683350 14.42431641 145 145 147
246104.90002441 3357439.61196899 14.24094009 125 125 127
246105.39440918 3357439.95486450 14.51185226 114 114 114
246105.13745117 3357437.53088379 14.44088173 52 82 22
246103.65722656 3357438.22323608 14.46575546 27 30 37
246105.86560059 3357439.74645996 14.60677528 155 156 160
246101.02111816 3357432.39532471 14.38370037 114 115 119
246107.51745605 3357440.74829102 14.40192223 68 68 60
246101.71557617 3357432.20578003 14.71806622 251 255 255
246102.73706055 3357432.92059326 14.47465897 54 89 25
246103.44628906 3357436.02224731 14.43488693 38 40 35
246102.09265137 3357432.59164429 14.29945850 102 115 98
246101.35290527 3357434.28851318 14.46413803 20 22 21
246104.35986328 3357438.07580566 15.04101181 78 108 134
246101.20043945 3357431.23916626 14.73725605 48 52 53
246101.22106934 3357431.18472290 14.63722992 45 49 52
246101.14013672 3357433.74786377 14.27245235 153 155 152
246105.59338379 3357439.48562622 14.68910027 57 62 58
246105.25122070 3357438.09368896 14.35663128 53 76 34
246107.44067383 3357440.87680054 14.44545364 107 100 90
246100.83300781 3357431.53860474 14.73517418 35 36 38
246104.12316895 3357438.69497681 14.22887611 131 129 134
246102.94946289 3357436.57812500 14.47812462 76 82 80
246100.61877441 3357432.36154175 14.30222130 132 134 133
246103.20397949 3357437.84115601 14.43042088 186 187 181
246100.55603027 3357431.88424683 14.34278011 117 118 113
246102.42041016 3357435.06079102 14.23340702 124 126 123
246106.11779785 3357439.58551025 14.29335976 91 92 87
246100.87145996 3357432.07745361 14.32448578 125 125 125
246102.74291992 3357437.09020996 14.31029224 114 114 112
246105.19787598 3357439.45660400 14.92664433 79 85 85
246101.92578125 3357432.55303955 14.30436993 103 104 106
246102.24645996 3357434.05065918 14.44563770 18 19 13
246103.19543457 3357436.57861328 14.53710079 72 73 75
246104.33605957 3357437.82604980 15.15501404 216 231 228
246101.79858398 3357432.07369995 14.36821747 125 129 128
246102.73596191 3357437.31488037 14.22456455 126 126 126
246102.88500977 3357436.76284790 14.46645641 90 88 93
246102.58398438 3357436.79110718 14.37040234 99 102 107
246102.66101074 3357435.85488892 14.30180454 109 115 103
246101.70141602 3357434.91616821 14.29385090 104 106 105
246103.04858398 3357437.20404053 14.33175659 77 78 80
246104.87695313 3357437.36624146 14.40818691 61 85 35
246103.79833984 3357437.76907349 14.36836720 53 55 54
246106.98693848 3357440.25567627 14.22485447 96 97 89
246104.82165527 3357438.03280640 14.26176834 141 142 134
246106.69262695 3357441.32214355 14.70588875 117 124 117
246105.68493652 3357439.18252563 14.23671150 108 108 98
246102.58874512 3357434.61746216 14.27984905 99 103 106
246099.94812012 3357431.58709717 14.36956501 147 148 142
246106.04504395 3357439.51727295 14.26137257 86 91 85
246102.27001953 3357435.41152954 14.24558067 130 132 127
246106.00402832 3357439.53158569 14.31942081 81 83 78
246105.02551270 3357438.01937866 14.30550861 78 94 67
246102.54382324 3357435.55718994 14.24212170 137 143 117
246102.51110840 3357433.89648438 14.27829742 116 120 106
246102.29528809 3357436.19100952 14.66605949 40 44 47
246103.16223145 3357436.30444336 14.68411541 64 70 68
246107.30993652 3357440.97604370 14.62003517 5 5 7
246104.56750488 3357439.04541016 14.53069782 42 47 51
246100.46643066 3357431.70285034 14.42678833 94 93 89
246103.92785645 3357437.70193481 14.39368057 64 68 67
246105.90795898 3357440.35763550 14.46186733 22 30 33
246100.42419434 3357431.45788574 14.50392056 56 58 57
246105.24365234 3357438.23361206 14.30368137 82 96 71
246105.00598145 3357438.94946289 14.30471325 77 80 85
246103.87487793 3357437.59423828 14.40441799 78 76 79
246103.18701172 3357437.18865967 14.31457996 77 78 80
246107.24316406 3357441.03448486 14.76807880 54 63 70
246104.16296387 3357437.51364136 14.65956211 73 61 65
246101.56213379 3357432.09100342 14.35311508 94 95 97
246105.23449707 3357440.49633789 14.33254814 145 145 147
246105.01062012 3357438.16653442 14.25419998 123 131 120
246102.31347656 3357436.18206787 14.64145279 36 40 43
246102.55688477 3357433.08999634 14.39550495 50 80 26
246102.66735840 3357434.37982178 14.29022884 74 84 76
246100.96643066 3357433.40487671 14.27801514 151 153 150
246102.05871582 3357434.39462280 14.60461140 125 129 128
246101.88195801 3357432.67962646 14.25719070 123 127 130
246101.53808594 3357431.43917847 14.36480904 84 86 85
246102.63281250 3357434.52410889 14.28366566 87 93 93
246103.07238770 3357434.46884155 14.39565659 38 62 26
246103.45654297 3357437.28128052 14.39920998 77 87 86
246101.01257324 3357431.85992432 14.31094933 104 104 104
246102.34460449 3357433.86834717 14.28587437 109 110 105
246105.38635254 3357440.73696899 14.55916405 82 78 69
246106.43103027 3357441.64569092 14.52876759 160 158 159
246106.37963867 3357441.52420044 14.55391598 103 100 95
246100.98974609 3357434.28713989 14.31552029 153 153 151
246102.53564453 3357433.34259033 14.33955669 57 75 35
246106.30615234 3357440.56256104 14.42245293 82 82 84
246101.39367676 3357432.28967285 14.63711739 25 28 33
246102.81225586 3357436.97344971 14.77317619 185 192 202
246102.50305176 3357433.55722046 14.30593491 104 114 90
246105.52209473 3357439.35928345 14.39416027 39 44 38
246106.25927734 3357440.47808838 14.50206947 65 67 66
246104.62219238 3357438.05462646 14.35594749 111 111 109
246104.18676758 3357437.54803467 14.73920918 87 82 88
246102.09228516 3357435.97006226 14.23839188 145 145 143
246102.86560059 3357434.89562988 14.25755215 111 114 107
246105.07373047 3357438.44598389 14.20392418 114 116 111
246105.82312012 3357440.13693237 14.45160675 98 102 103
246101.16979980 3357434.31423950 14.42458439 129 131 120
246105.00793457 3357438.01858521 14.30124569 93 107 84
246101.98254395 3357435.94833374 14.23870277 146 146 146
246102.11865234 3357435.87792969 14.23973656 142 144 141
246103.09875488 3357435.65377808 14.24881744 114 116 113
246103.33764648 3357435.18820190 14.36711121 54 71 37
246103.04797363 3357436.21090698 14.57977295 29 33 36
246102.16711426 3357436.10394287 14.28332615 125 127 124
246101.35278320 3357432.13671875 14.34857178 108 112 115
246103.99719238 3357436.83386230 14.54794598 186 195 200
246101.14965820 3357433.86099243 14.27360058 135 135 133
246106.32226563 3357441.58746338 14.33950520 135 130 127
246106.65136719 3357440.85958862 14.48252678 56 55 60
246101.14343262 3357432.23986816 14.35175991 110 111 115
246102.07348633 3357436.56417847 14.32116508 140 142 139
246104.25634766 3357436.87341309 14.37830925 72 88 61
246100.79333496 3357433.41244507 14.28580666 143 143 141
246101.75415039 3357432.14053345 14.55928040 102 105 112
246104.04040527 3357438.23876953 14.45705223 66 64 69
246100.46240234 3357431.98657227 14.32706451 133 135 132
246100.71679688 3357431.55651855 14.75494766 37 43 43
246101.94677734 3357435.93783569 14.23961544 143 145 144
246101.85693359 3357436.21264648 14.28589153 147 148 150
246105.70556641 3357439.29687500 14.28351974 74 79 72
246100.29724121 3357431.55480957 14.66275215 196 191 187
246104.59350586 3357438.97857666 14.51584339 48 51 58
246100.96472168 3357432.86785889 14.89008713 17 25 28
246104.75488281 3357439.64282227 14.18747616 150 150 152
246103.47021484 3357436.67587280 14.53543663 75 80 83
246104.33374023 3357438.41647339 14.76392174 231 250 254
246102.55737305 3357436.16101074 14.65176964 12 20 23
246104.67004395 3357437.44635010 14.34315586 77 93 57
246103.28015137 3357436.39407349 14.49121857 96 98 93
246101.91735840 3357434.97222900 14.27742577 102 104 103
246107.02832031 3357440.71606445 14.37140274 34 34 32
246100.40686035 3357431.64639282 14.52862453 86 85 80
246107.46582031 3357441.01702881 14.44806290 68 61 55
246101.87573242 3357432.79904175 14.25013733 117 120 125
246105.95153809 3357439.88983154 14.58259487 51 53 52
246102.45288086 3357433.97265625 14.29222584 103 105 102
246106.26684570 3357441.27841187 14.59150696 41 41 39
246101.61853027 3357431.49130249 14.33060741 92 94 91
246104.94519043 3357439.44143677 14.34258747 97 96 101
246104.08068848 3357437.95391846 14.62247753 253 251 255
246106.63220215 3357440.12887573 14.29915237 68 71 64
246104.72644043 3357437.75045776 14.42666149 121 123 110
246103.65026855 3357435.82894897 14.41494751 40 61 30
246106.25134277 3357441.43157959 14.52256775 78 75 66
246104.42968750 3357437.50573730 14.37890911 128 125 120
246101.86682129 3357432.60488892 14.28273392 104 105 107
246102.76171875 3357437.01760864 14.44685745 149 134 129
246103.14306641 3357436.40386963 14.57052326 67 72 68
246106.67480469 3357440.02188110 14.29647827 61 69 54
246102.97241211 3357435.05499268 14.26549816 112 115 108
246104.70544434 3357439.57662964 14.18195915 147 147 149
246101.52734375 3357432.38977051 14.79310036 70 70 78
246106.00842285 3357440.60702515 14.49547005 56 57 61
246106.11499023 3357441.27859497 14.50173759 179 170 155
246100.89001465 3357431.62722778 14.44087791 76 78 75
246102.48181152 3357432.59167480 14.47388268 39 67 19
246104.22839355 3357436.96847534 14.45298004 88 94 84
246101.70324707 3357432.34301758 14.90659046 152 170 172
246103.21826172 3357437.86022949 14.42265606 186 187 181
246103.56213379 3357436.89291382 14.51940536 72 77 81
246106.44506836 3357439.81906128 14.38917255 116 118 105
246106.39916992 3357441.56130981 14.41187191 189 187 190
246102.09594727 3357435.01828003 14.24777699 109 110 112
246101.74975586 3357435.44812012 14.24557400 151 153 150
246104.15307617 3357437.67877197 14.64473534 202 206 217
246101.54431152 3357434.42929077 14.64857769 33 34 39
246101.38354492 3357432.13494873 14.35000134 112 115 120
246103.21069336 3357435.61410522 14.26249599 115 120 116
246103.02893066 3357437.03158569 14.44608116 71 81 90
246101.24047852 3357432.80426025 14.54540634 92 94 91
246101.13842773 3357434.28887939 14.38053513 157 157 149
246100.69213867 3357433.27825928 14.30387115 150 152 149
246106.39428711 3357441.55111694 14.67056370 126 121 117
246105.35009766 3357439.57250977 14.69149303 32 40 42
246103.07727051 3357434.73721313 14.34821224 84 98 75
246100.71264648 3357432.57843018 14.30323696 127 129 128
246107.33093262 3357440.87844849 14.57820988 2 1 0
246102.42578125 3357433.27850342 14.30628490 80 98 60
246103.03759766 3357435.87255859 14.33028412 101 103 100
246103.17517090 3357437.40771484 14.34953880 98 98 98
246104.45983887 3357438.51434326 14.52718735 91 95 96
246104.34802246 3357437.60415649 14.50030327 153 149 137
246105.82543945 3357439.95230103 14.52403545 84 88 87
246101.46447754 3357431.38986206 14.45263863 93 95 92
246106.13586426 3357440.29812622 14.69671440 14 18 19
246104.84448242 3357439.55725098 14.21994209 127 125 128
246101.27319336 3357434.65054321 14.38238525 105 105 103
246101.22314453 3357431.35180664 14.77277756 44 48 51
246101.06250000 3357432.06344604 14.30904198 106 107 109
246103.53027344 3357436.86697388 14.53154469 79 86 94
246102.31762695 3357432.97055054 14.31987095 89 106 74
246100.85424805 3357432.21295166 14.32448101 121 123 120
246106.25317383 3357439.74267578 14.38911629 116 116 108
246103.93896484 3357438.02148438 14.60743523 47 51 60
246102.16894531 3357433.30221558 14.25900269 139 141 138
246101.06298828 3357434.09677124 14.28336430 147 149 148
246102.12780762 3357433.75073242 14.34875011 102 102 100
246104.41333008 3357438.35931396 14.97879601 181 200 204
246101.95483398 3357433.39523315 14.23704052 121 122 124
246102.71752930 3357435.65182495 14.23761559 126 132 118
246102.05395508 3357432.02096558 14.39484787 87 93 81
246101.67846680 3357432.41665649 14.96804333 145 159 162
246104.68188477 3357437.68563843 14.40717125 129 131 118
246105.79614258 3357439.55984497 14.56833363 96 101 97
246107.19763184 3357441.04724121 14.80954075 35 40 46
246100.90380859 3357431.33718872 14.82483673 29 34 37
246105.49829102 3357438.63928223 14.22103596 103 106 85
246102.00512695 3357434.12707520 15.03077793 193 202 201
246101.98669434 3357434.69357300 14.39982605 94 96 95
246100.15954590 3357431.42041016 14.36911297 143 145 140
246105.90502930 3357440.42349243 14.48143291 23 30 36
246102.45471191 3357435.81015015 14.24317646 126 131 124
246105.74560547 3357439.09054565 14.23968029 143 144 126
246106.26770020 3357441.47369385 14.41585636 103 99 96
246103.96875000 3357437.99554443 14.58270931 45 48 57
246104.29321289 3357437.59872437 14.67094612 124 123 118
246101.08605957 3357431.91085815 14.30334473 106 107 109
246100.83105469 3357432.71289063 14.66428566 127 128 130
246104.52587891 3357437.93200684 14.77817726 93 98 104
246103.67395020 3357436.45919800 14.43274879 90 95 91
246102.33215332 3357436.19430542 14.77112293 46 54 57
246106.15612793 3357440.35934448 14.68739700 82 83 85
246106.10266113 3357439.58612061 14.30280113 87 87 85
246102.22644043 3357436.35925293 14.68430710 130 131 125
246101.47253418 3357431.64535522 14.28538799 94 96 95
246105.26672363 3357440.71865845 14.44733715 145 139 139
246106.20581055 3357440.85159302 14.38059521 91 91 93
246101.82666016 3357432.02935791 14.31119919 101 106 102
246100.48632813 3357431.39093018 14.48530865 52 56 55
246104.83239746 3357439.75195313 14.21282673 134 135 137
246103.48059082 3357437.44207764 14.42790890 53 56 61
246102.34204102 3357436.01458740 14.28500175 115 115 113
246103.24597168 3357437.67697144 14.43871880 89 91 90
246100.81396484 3357432.64245605 14.40031147 103 104 106
246104.40698242 3357438.44485474 14.74653053 100 126 141
246101.27954102 3357431.14367676 14.62475109 37 41 42
246101.61535645 3357432.59695435 14.36845970 106 104 105
246103.88330078 3357437.90441895 14.37454033 76 80 81
246107.21386719 3357440.62792969 14.31890678 83 83 81
246102.77490234 3357436.68331909 14.44688129 81 82 86
246101.62695313 3357434.64062500 14.47221375 86 88 87
246101.54895020 3357432.14697266 14.45181370 66 71 74
246106.98413086 3357441.13964844 14.66384602 37 41 42
246102.60302734 3357435.86016846 14.27995968 111 117 105
246107.50622559 3357440.92388916 14.40523529 105 98 90
246100.66943359 3357432.73510742 14.34791946 120 118 119
246103.30395508 3357436.39907837 14.43454933 85 87 84
246102.13159180 3357433.25259399 14.25811195 141 142 144
246103.92651367 3357438.64669800 14.21310520 135 135 137
246105.36791992 3357439.28247070 14.36495781 30 32 29
246103.11047363 3357435.63409424 14.25254822 118 122 121
