245806.93945313 3357726.96478271 15.16156006 59 73 74
245809.30450439 3357726.09503174 15.22037029 17 26 31
245810.33892822 3357726.35711670 15.20033550 38 56 40
245808.15307617 3357726.85601807 14.93257046 27 35 37
245808.11114502 3357726.81201172 14.96597004 23 28 32
245808.57592773 3357726.66284180 15.27181530 24 27 32
245807.58367920 3357726.60937500 15.20104885 79 89 98
245810.21520996 3357726.34783936 15.09962654 40 51 43
245811.08325195 3357726.22863770 14.89101219 40 50 51
245807.97143555 3357726.57550049 15.22986889 52 59 65
245808.91729736 3357725.89715576 15.08987522 34 43 48
245806.63208008 3357726.28259277 15.28403091 40 45 51
245809.19458008 3357726.37066650 15.32620525 17 28 32
245808.17175293 3357726.65533447 15.14784622 46 54 56
245808.84619141 3357726.19067383 15.20062828 24 33 40
245806.98101807 3357726.40063477 15.49620533 13 13 23
245810.31909180 3357726.07647705 15.13278580 36 46 47
245808.52282715 3357726.37774658 15.41053963 75 73 84
245811.56988525 3357725.73071289 15.00872135 34 44 46
245807.57196045 3357726.13378906 15.14411259 31 40 45
245809.96234131 3357726.00250244 15.21029472 26 33 39
245807.59527588 3357726.37640381 15.10297203 26 35 40
245806.80029297 3357726.40045166 15.46395683 61 61 69
245811.13024902 3357725.71575928 15.24036884 45 56 62
245808.99322510 3357725.91363525 15.13322067 22 29 35
245809.71685791 3357726.04382324 15.20786572 37 46 51
245806.88739014 3357726.08282471 15.10886383 40 48 51
245806.77996826 3357726.27581787 15.29952145 36 37 42
245810.77331543 3357725.88024902 15.38375187 162 167 171
245809.69116211 3357725.77362061 15.17570686 43 50 56
245808.81201172 3357725.82550049 15.00361538 47 54 60
245808.64007568 3357726.78320313 14.98931980 36 41 45
245806.43859863 3357726.57867432 15.28490162 32 41 46
245809.36743164 3357726.46331787 15.21179008 34 45 47
245810.91162109 3357726.24920654 15.05730438 32 42 43
245811.04327393 3357725.93273926 15.20534325 21 30 35
245808.20092773 3357726.36004639 15.22399807 41 49 51
245809.43450928 3357726.10205078 15.18857288 23 30 36
245809.08276367 3357726.59594727 15.31456375 27 32 35
245810.22369385 3357726.03381348 15.16624260 31 41 42
245806.97009277 3357726.34173584 15.42059708 148 151 160
245807.20074463 3357726.66943359 15.11876965 18 29 31
245808.04998779 3357726.11877441 15.17629242 28 35 41
245807.31817627 3357726.51092529 15.07433414 42 51 56
245807.14434814 3357726.64868164 15.14991093 13 27 30
245807.98461914 3357726.27270508 15.17894840 39 46 52
245810.86401367 3357725.73791504 15.34843731 30 38 41
245809.60382080 3357726.10461426 15.18308353 37 45 48
245811.06951904 3357725.84338379 15.40567780 14 21 27
245809.94586182 3357725.77600098 15.13858986 43 50 56
245810.69842529 3357726.15533447 15.42905903 37 50 43
245806.98327637 3357726.13690186 15.21249962 34 44 46
245806.88885498 3357727.06054688 15.01562786 65 77 77
245807.75195313 3357726.33892822 15.16877174 25 34 39
245807.36975098 3357726.24792480 15.14593887 81 89 92
245808.36145020 3357726.73736572 15.05983734 49 53 56
245809.48608398 3357725.99749756 15.21693802 29 34 38
245809.81671143 3357726.06311035 15.21192360 22 31 36
245807.47442627 3357726.09509277 15.21189785 77 85 88
245806.60864258 3357726.88293457 15.16833210 38 46 49
245809.05596924 3357726.33880615 15.41798019 38 47 52
245811.11114502 3357725.57928467 15.20830536 42 53 59
245808.20031738 3357726.01434326 15.16403961 33 42 47
245807.81945801 3357726.74871826 15.14150333 11 22 28
245809.60815430 3357726.10168457 15.18416119 37 45 48
245809.85156250 3357726.39709473 15.11012936 31 39 41
245806.84423828 3357726.65039063 15.50127029 179 188 193
245808.51403809 3357726.19964600 15.20330238 39 46 54
245810.02453613 3357726.08728027 15.18510532 23 31 34
245809.46929932 3357725.70587158 15.14896107 35 40 43
245810.63513184 3357726.23852539 15.37601185 38 54 43
245807.34216309 3357727.05706787 14.93085861 81 96 93
245808.16058350 3357726.71868896 15.04878616 47 55 58
245809.10644531 3357726.46459961 15.37118053 41 50 55
245811.02679443 3357725.66015625 15.29357815 125 134 141
245808.14941406 3357726.85913086 14.93114948 27 35 37
245811.33605957 3357725.70050049 15.08200645 22 31 38
245808.43298340 3357726.77673340 15.03663254 65 71 71
245810.73114014 3357725.84814453 15.32108879 133 141 144
245809.68615723 3357726.50408936 15.19065571 24 34 35
245806.78753662 3357726.29217529 15.32447433 29 30 35
245807.90826416 3357726.81622314 15.01082993 26 38 38
245806.69171143 3357726.26263428 15.27504539 38 43 47
245806.60028076 3357726.32604980 15.29221249 38 45 51
245806.71508789 3357726.28759766 15.31312656 35 40 44
245807.96765137 3357726.90313721 14.96448040 27 38 40
245809.95983887 3357726.44299316 15.12778568 36 46 45
245807.77246094 3357725.99047852 15.20551205 31 40 47
245808.02459717 3357726.90521240 14.94656467 30 40 42
245808.40374756 3357726.06750488 15.12448215 43 52 57
245808.38073730 3357726.04663086 15.11660099 44 53 58
245810.44647217 3357726.30474854 15.22248173 0 21 4
245807.69360352 3357726.11645508 15.16409302 34 43 50
245810.44085693 3357726.06951904 15.13863659 68 77 74
245809.97454834 3357725.77490234 15.15232944 43 50 56
245809.08093262 3357726.43719482 15.40725994 40 50 52
245807.37982178 3357726.23937988 15.14603901 81 89 92
245808.34686279 3357726.03656006 15.11361313 42 51 56
245808.17175293 3357726.11285400 15.16774940 51 60 65
245808.44592285 3357726.23278809 15.23714352 35 42 50
245809.10955811 3357725.96923828 15.19046211 30 39 44
245806.88238525 3357726.60809326 15.50284576 183 192 197
245806.94592285 3357726.94311523 15.21624088 107 121 124
245807.05511475 3357726.73486328 15.34244156 143 164 167
245807.04846191 3357726.63494873 15.37055874 114 133 139
245810.73931885 3357725.68267822 15.14375019 37 45 47
245808.80584717 3357726.37475586 15.43288040 19 24 28
245808.64666748 3357726.52929688 15.42070866 76 76 84
245807.04992676 3357726.89392090 15.23439026 53 71 73
245810.22113037 3357725.86029053 15.21321106 47 52 58
245809.52423096 3357726.21307373 15.14954185 33 43 45
245808.56036377 3357726.73913574 15.08120918 18 18 26
245811.36968994 3357725.53826904 15.21186733 39 48 57
245811.36254883 3357725.75860596 15.00752926 26 35 42
245807.04119873 3357727.08923340 14.96747398 67 79 79
245811.59307861 3357725.72674561 15.01077652 34 44 46
245810.00457764 3357725.83605957 15.20444012 50 57 65
245811.15979004 3357726.06628418 14.89758682 29 39 41
245810.88671875 3357726.07562256 15.38710308 40 50 52
245809.32226563 3357726.52825928 15.23957253 64 75 77
245807.69714355 3357726.81805420 15.13361835 37 48 54
245808.36767578 3357726.27441406 15.23342800 40 47 53
245806.55578613 3357726.67510986 15.32439423 34 43 48
245811.56182861 3357725.60766602 15.18738842 30 39 46
245808.59863281 3357726.52160645 15.41362476 99 96 107
245808.14880371 3357725.89691162 15.20127201 46 55 62
245809.88531494 3357726.16833496 15.17175007 25 35 37
245811.54321289 3357725.69458008 15.07023716 32 41 46
245807.21154785 3357726.46374512 15.09799004 117 126 131
245806.94464111 3357726.33227539 15.40271378 154 157 166
245811.19555664 3357725.96887207 14.92655182 29 40 44
245810.93243408 3357725.90270996 15.50081158 33 43 45
245808.21502686 3357726.55377197 15.22695446 32 37 41
245806.88964844 3357726.47314453 15.50854301 22 26 35
245806.64227295 3357726.26800537 15.25283337 39 44 50
245811.41650391 3357725.80718994 14.93756485 38 45 53
245807.65887451 3357726.27972412 15.12919521 37 46 51
245811.08569336 3357725.55999756 15.17116642 42 53 59
245808.28717041 3357726.06250000 15.14267540 37 48 50
245810.21484375 3357725.72570801 15.19956589 58 65 71
245808.42041016 3357726.33746338 15.34594536 44 47 54
245806.73730469 3357726.33532715 15.37903976 38 43 47
245807.51367188 3357726.55609131 15.13727474 72 81 88
245807.67486572 3357726.90643311 15.06409836 36 47 51
245807.63946533 3357726.93402100 15.03357315 28 39 43
245809.99023438 3357725.84875488 15.20493221 50 57 65
245809.35125732 3357726.07812500 15.20798302 20 29 34
245810.79461670 3357726.06256104 15.50898457 44 54 53
245810.31414795 3357726.23486328 15.11788368 55 66 60
245807.03491211 3357727.08410645 14.96826458 67 79 79
245806.50823975 3357726.35668945 15.25673962 34 41 49
245807.09588623 3357726.91241455 15.12729931 16 31 34
245810.73651123 3357725.97900391 15.40302372 28 38 39
245808.82305908 3357726.57269287 15.41511536 37 40 45
245808.80072021 3357726.66491699 15.31820202 11 14 19
245808.83721924 3357726.24377441 15.25902176 21 28 34
245808.04003906 3357725.98229980 15.20855522 28 37 44
245807.37127686 3357726.86260986 15.00529575 35 44 49
245808.85028076 3357726.33447266 15.39428711 24 31 37
245809.05627441 3357726.46209717 15.42071915 41 49 52
245810.03649902 3357726.15631104 15.15474892 33 43 44
245811.07318115 3357725.82946777 15.43248653 19 26 32
245807.21478271 3357726.94836426 15.01596928 27 37 39
245806.38989258 3357726.67669678 15.28940201 33 40 46
245810.56304932 3357726.23132324 15.24669075 57 73 60
245810.17382813 3357725.95800781 15.20088673 30 38 41
245807.09710693 3357726.91424561 15.12524128 16 31 34
245806.88238525 3357726.48675537 15.50800610 39 43 52
245806.75433350 3357726.39074707 15.44150352 27 30 35
245806.68719482 3357726.58605957 15.40854931 32 37 41
245808.53826904 3357726.18902588 15.20123386 36 43 49
245807.88519287 3357726.61071777 15.24476337 66 75 80
245810.85064697 3357725.65264893 15.18602467 35 40 44
245811.49737549 3357725.53576660 15.23733139 22 33 39
245810.51635742 3357725.58471680 15.06907463 48 58 60
245806.98571777 3357726.30413818 15.35471916 44 47 56
245810.87493896 3357725.58892822 15.09744835 50 58 61
245806.74694824 3357726.77545166 15.37546253 54 62 64
245807.05700684 3357726.85650635 15.25835609 64 82 84
245808.93542480 3357725.92993164 15.12469006 27 34 40
245808.26031494 3357726.65002441 15.16450214 34 39 42
245811.01812744 3357726.00323486 15.07006454 26 36 38
245811.10607910 3357726.20812988 14.88771439 38 48 49
245807.57629395 3357726.48913574 15.13593006 44 53 60
245809.06317139 3357725.81896973 15.07763100 31 40 45
245808.73437500 3357726.53302002 15.42674541 58 58 66
245806.49487305 3357726.33276367 15.24015236 33 40 48
245806.91137695 3357726.40490723 15.49622345 41 41 49
245811.21282959 3357725.75976563 15.10909939 22 33 39
245810.06481934 3357725.99963379 15.19698524 28 38 40
245807.18041992 3357726.68023682 15.12153053 18 32 33
245810.57934570 3357725.66937256 15.11197758 46 54 57
245809.03076172 3357726.56604004 15.39745235 45 50 53
245810.68328857 3357725.97015381 15.29512596 39 49 48
245810.58270264 3357725.95422363 15.20789242 41 53 51
245807.23266602 3357726.29907227 15.18698502 106 113 119
245806.66027832 3357726.38372803 15.39241314 39 42 49
245811.38769531 3357725.79260254 14.96283245 31 40 47
245810.84411621 3357725.66772461 15.20716095 27 32 36
245807.90216064 3357726.74584961 15.07301903 24 33 38
245807.24053955 3357727.04644775 14.94666481 73 85 81
245810.46759033 3357725.89495850 15.19600296 41 51 52
245809.28936768 3357726.38653564 15.27386284 33 42 47
245808.60321045 3357726.26287842 15.32205486 27 30 39
245811.34082031 3357725.76208496 15.00567532 24 33 40
245806.88391113 3357726.31585693 15.37083340 91 91 99
245808.20349121 3357726.85906982 14.93217659 34 42 44
245810.12817383 3357726.34796143 15.07775211 36 45 42
245807.77331543 3357726.66894531 15.34717178 30 39 48
245808.28033447 3357726.50170898 15.27987766 32 36 39
245810.75988770 3357726.20288086 15.46999073 37 49 47
245811.05963135 3357726.22790527 14.89922142 32 44 44
245808.14013672 3357725.95520020 15.19288731 35 44 49
245808.08648682 3357726.15417480 15.17342377 36 43 49
245810.08105469 3357726.41271973 15.09388447 33 46 39
245807.08703613 3357726.20391846 15.33112526 46 51 55
245809.14190674 3357725.77508545 15.07105350 22 31 36
245808.37402344 3357725.95544434 15.05205727 45 54 59
245808.83740234 3357726.62811279 15.39076710 50 53 58
