245767.05310059 3357441.89151001 18.08682251 45 53 56
245771.15966797 3357432.37719727 17.75898361 114 115 119
245771.48962402 3357432.09695435 17.60972595 85 87 84
245768.42828369 3357434.94235229 17.86587524 31 30 35
245768.91278076 3357431.07031250 17.61850929 63 65 64
245771.83972168 3357431.78521729 17.68488503 126 126 118
245770.44708252 3357432.35537720 17.63161087 163 155 144
245768.91070557 3357428.14035034 17.91371727 106 110 113
245768.79254150 3357433.38671875 17.66191864 51 52 56
245766.08679199 3357441.63418579 17.96909714 27 29 28
245770.47552490 3357431.86413574 17.58946991 66 66 66
245767.16711426 3357437.23995972 17.84294510 91 93 90
245766.07513428 3357441.11111450 17.57750893 79 79 77
245768.77874756 3357431.57113647 17.71054268 96 95 91
245768.49176025 3357433.87911987 18.25446510 237 241 252
245769.22247314 3357431.69537354 17.72735214 87 88 93
245769.95050049 3357432.16506958 17.66227341 150 147 142
245766.39947510 3357439.61178589 17.68469810 110 111 105
245770.74096680 3357430.91479492 17.77440262 97 98 103
245768.26611328 3357437.34936523 18.30921745 138 144 134
245767.06219482 3357438.86734009 17.65596581 95 100 96
245769.47125244 3357431.06576538 17.60436058 93 94 96
245766.13348389 3357442.81994629 17.90534019 64 64 64
245767.82586670 3357436.03155518 17.72300911 88 97 96
245770.21655273 3357431.64938354 17.59241295 73 76 81
245767.38513184 3357439.23004150 17.96257401 85 90 86
245768.93054199 3357432.51907349 17.67174149 48 46 47
245771.02502441 3357432.05804443 17.68880081 104 106 105
245766.60418701 3357441.28335571 18.11163902 44 49 52
245766.61590576 3357439.55728149 17.73548126 90 91 86
245767.63946533 3357438.43023682 17.65483856 131 136 132
245768.16082764 3357436.60067749 18.02276611 73 73 73
245767.31323242 3357441.06906128 17.85493660 30 35 39
245766.07171631 3357441.78363037 17.98215485 60 64 63
245766.96618652 3357438.44558716 17.70543098 81 87 85
245767.85876465 3357436.65509033 18.11909103 39 43 42
245766.18676758 3357442.37698364 18.09362411 42 45 52
245767.35003662 3357439.13873291 17.95818138 92 97 93
245771.53051758 3357432.07122803 17.59233856 104 104 102
245769.77429199 3357431.18054199 17.59077263 85 85 87
245767.75701904 3357433.25234985 17.93360519 67 69 68
245768.39953613 3357430.49285889 17.65315437 129 131 128
245771.23767090 3357432.02981567 17.66103554 147 148 143
245770.80603027 3357431.02105713 17.91992188 57 62 68
245767.21014404 3357442.02441406 18.00192833 57 55 58
245770.14575195 3357432.13345337 17.68502617 164 162 150
245767.51574707 3357439.02441406 18.04096413 89 94 88
245772.12963867 3357431.55969238 17.99227524 93 98 101
245766.56750488 3357442.78994751 17.99106407 17 22 26
245771.38751221 3357431.74523926 17.63738441 67 67 65
245767.34301758 3357436.51440430 18.16594505 70 72 69
245768.18145752 3357430.21752930 17.62511635 78 77 73
245766.17962646 3357441.49713135 18.17341232 29 30 32
245767.24456787 3357438.03771973 17.84366608 77 78 80
245767.71154785 3357436.92025757 17.88933182 78 80 79
245768.82147217 3357431.36288452 17.63875580 64 65 60
245770.14343262 3357432.40872192 17.71569443 161 163 160
245769.91986084 3357431.49749756 17.58238792 92 93 88
245770.74639893 3357431.27178955 17.61542702 62 62 60
245772.01531982 3357431.87606812 17.97130775 109 107 108
245772.15869141 3357431.66082764 17.97208214 153 155 152
245768.07714844 3357435.43869019 17.79157829 61 65 68
245768.63446045 3357432.20434570 17.80670738 61 59 60
245768.18109131 3357437.39562988 18.26611710 36 41 35
245767.40924072 3357440.62857056 17.75179482 43 47 50
245768.78778076 3357431.86007690 17.83969498 47 47 45
245769.18591309 3357431.93197632 17.66040611 58 56 59
245766.24682617 3357440.44564819 17.77212715 95 94 90
245768.69012451 3357430.59805298 17.72360039 206 207 209
245767.48486328 3357436.01675415 17.85130119 83 88 91
245770.94976807 3357430.84957886 17.82100487 98 102 111
245767.63574219 3357439.36968994 17.83518791 73 78 74
245768.67993164 3357431.83871460 17.85424232 46 46 46
245766.49633789 3357441.49841309 18.36505699 116 117 122
245767.80615234 3357432.65792847 17.76918602 91 84 66
245765.91418457 3357442.24862671 18.08709908 212 218 244
245766.46942139 3357439.82931519 17.69333267 88 89 83
245767.99609375 3357435.07778931 17.87794304 52 56 57
245767.21728516 3357435.17898560 17.58838844 70 71 73
245767.94317627 3357436.18069458 18.22236061 78 82 83
245767.85388184 3357433.29049683 18.03832626 55 57 56
245767.36938477 3357434.21929932 17.62777710 79 81 80
245767.43682861 3357436.62286377 18.09852791 66 68 67
245766.48162842 3357440.27413940 18.18170738 120 125 131
245768.13592529 3357433.15451050 18.22947121 159 154 158
245768.52404785 3357431.45977783 17.67959213 88 88 86
245766.12017822 3357441.18637085 17.67973518 78 80 75
245767.93634033 3357436.93634033 17.96712303 67 72 65
245768.54040527 3357431.05349731 17.64049339 58 62 65
245768.08325195 3357437.26065063 18.27636147 25 29 28
245765.80712891 3357442.64651489 17.95709229 39 40 35
245766.29608154 3357442.65249634 17.95292282 62 68 80
245768.38946533 3357434.45730591 18.06177711 90 91 93
245765.98895264 3357442.42178345 18.09050751 20 24 27
245771.82611084 3357431.26074219 18.03481483 59 59 61
245766.39654541 3357442.26211548 18.22924995 69 70 74
245769.08184814 3357429.29544067 17.62251282 69 73 72
245767.04296875 3357441.99874878 18.05056000 33 38 41
245767.02532959 3357441.60928345 18.04018402 32 33 37
245768.82727051 3357430.13818359 17.66193962 106 102 93
245766.40917969 3357442.70858765 17.98309898 58 67 76
245767.71099854 3357438.00662231 17.94206810 71 75 76
245771.45953369 3357431.29132080 18.17867661 107 114 124
245766.96160889 3357438.52432251 17.68334198 98 104 100
245768.63037109 3357431.16806030 17.63237953 66 70 71
245770.30029297 3357432.29782104 17.68665504 173 167 155
245767.05029297 3357436.91796875 17.84910393 98 100 97
245770.75189209 3357431.98483276 17.61256218 91 91 93
245766.31866455 3357440.52047729 17.76030731 94 93 89
245769.15087891 3357432.32113647 17.62114525 58 57 62
245768.11291504 3357432.96682739 18.18528175 35 35 37
245769.66394043 3357431.18881226 17.59536552 84 88 91
245769.11199951 3357431.49404907 17.68147850 53 53 51
245768.23693848 3357434.26007080 18.18067932 87 90 99
245768.14978027 3357437.04080200 17.73335075 68 70 67
245768.68298340 3357433.86355591 17.82579422 52 56 59
245768.22912598 3357435.18084717 17.92255783 34 35 37
245768.15191650 3357431.13372803 17.62213898 100 99 94
245769.17333984 3357432.83630371 17.61648941 94 93 91
245768.33044434 3357434.42706299 18.10202217 82 86 89
245767.57153320 3357436.47030640 18.09802437 80 82 79
245771.18927002 3357431.49349976 17.86204529 46 50 53
245768.47723389 3357435.53717041 17.68240738 73 77 80
245770.37854004 3357432.54675293 17.64047432 118 117 112
245768.27624512 3357434.85525513 17.93643951 32 31 36
245766.80249023 3357442.08816528 18.12001038 16 20 23
245766.06774902 3357440.96951294 17.49360466 108 107 103
245766.90692139 3357437.84042358 17.66810036 169 167 170
245766.33190918 3357441.35549927 18.19601440 23 22 27
245768.22277832 3357437.35906982 18.21498489 56 60 46
245772.16033936 3357431.81445313 18.13146782 156 157 159
245766.88488770 3357438.48513794 17.75721550 84 88 87
245766.22119141 3357440.62036133 17.62971497 90 91 86
245766.35375977 3357440.98571777 18.04168892 86 87 82
245767.75128174 3357437.98846436 17.90370750 68 72 73
245766.76794434 3357443.27770996 18.02807045 86 86 86
245767.68121338 3357436.99636841 17.88853073 90 90 88
245766.45794678 3357442.99249268 18.02078629 52 51 56
245770.77008057 3357431.76339722 17.59076691 65 71 71
245769.27618408 3357428.03469849 17.93822670 106 111 115
245768.81011963 3357433.62841797 17.70039749 51 52 56
245768.60589600 3357429.65991211 17.63281059 125 124 120
245767.74462891 3357433.70117188 18.14052010 126 133 141
245772.10278320 3357431.19964600 17.99526024 73 67 67
245769.14556885 3357429.27844238 17.62610245 64 68 67
245766.78491211 3357438.90405273 17.82831573 88 93 87
245766.48944092 3357441.39437866 18.20824432 150 149 155
245767.53717041 3357438.04711914 17.98959160 73 75 74
245767.09259033 3357440.49871826 17.93659210 64 65 69
245769.45983887 3357429.33010864 17.63320541 65 71 71
245768.00744629 3357435.86996460 17.62316132 123 128 131
245768.45794678 3357431.28869629 17.67410088 65 69 70
245766.93231201 3357443.45175171 17.86262321 77 79 76
245766.82501221 3357442.37451172 18.00864601 30 31 35
245766.68713379 3357439.19949341 17.94239616 94 96 91
245770.70684814 3357431.48242188 17.58882332 71 75 74
245768.45214844 3357430.36904907 17.63793945 130 135 131
245768.02270508 3357432.07397461 17.74599266 112 111 109
245767.45166016 3357437.12347412 17.93399239 100 99 97
245767.02679443 3357442.09011841 18.00480652 45 46 48
245770.69384766 3357430.91787720 17.74868774 85 86 90
245768.50500488 3357430.84332275 17.65292358 118 118 118
245767.88598633 3357434.04730225 17.90573883 46 50 51
245768.27960205 3357434.93084717 17.94223785 32 32 34
245766.20892334 3357441.10839844 17.79730034 82 84 81
245769.99493408 3357432.03741455 17.64063835 143 140 135
245766.03936768 3357441.09066772 17.54288292 100 101 96
245767.61560059 3357436.64654541 18.06909370 42 44 43
245768.51110840 3357434.56967163 17.88496399 49 51 50
245767.07934570 3357435.43978882 17.56804276 69 70 65
245767.82629395 3357437.27758789 18.10609436 83 83 81
245768.90930176 3357428.81680298 17.65501595 53 55 54
245770.77044678 3357431.27615356 17.61635208 62 62 60
245766.28192139 3357440.24429321 17.78473091 82 81 77
245769.45037842 3357429.82196045 17.61919022 65 70 73
245768.63061523 3357430.84097290 17.63399315 127 128 130
245768.80780029 3357433.94293213 17.70266533 68 69 73
245767.16027832 3357440.89373779 17.88720894 17 26 25
245767.96643066 3357434.67666626 18.04220200 39 40 42
245768.58282471 3357434.35665894 17.90228653 48 49 51
245771.13824463 3357431.50463867 17.84553719 43 48 51
245767.40576172 3357438.29678345 17.70731735 67 68 63
245769.30712891 3357430.62719727 17.59902573 203 196 188
245768.07855225 3357437.46429443 17.91493607 31 35 34
245771.53375244 3357431.85272217 17.58866882 118 118 116
245767.88775635 3357433.06851196 17.98306847 103 103 93
245768.56451416 3357431.00741577 17.63177872 63 67 70
245768.09741211 3357433.97528076 18.08712387 50 51 55
245767.52496338 3357434.83956909 17.75079346 63 67 68
245767.99877930 3357437.45904541 17.94574738 22 22 22
245768.29278564 3357434.35260010 18.15566254 82 83 88
245767.07379150 3357440.25488281 18.06614876 41 42 44
245770.64190674 3357431.05184937 17.65010262 128 129 131
245769.41925049 3357431.74728394 17.60935402 54 53 58
245766.66320801 3357438.21679688 17.95838356 38 34 31
245767.67498779 3357438.41390991 17.65553284 133 135 132
245768.35211182 3357430.66552734 17.68254471 159 159 157
245768.01403809 3357434.43093872 18.21680450 100 107 117
245767.68151855 3357439.33966064 17.82736588 73 78 74
245767.78839111 3357433.28366089 18.00184822 61 63 62
245767.08563232 3357440.50213623 17.93881416 64 65 69
245765.90551758 3357441.64978027 17.70377731 88 90 89
245768.48425293 3357432.40274048 17.89515877 106 105 103
245766.67541504 3357440.18405151 18.25214195 32 37 40
245771.69604492 3357430.97412109 17.81801033 67 71 72
245766.19006348 3357441.68432617 18.22652054 57 62 66
245768.84124756 3357433.22628784 17.64379311 46 50 49
245771.27685547 3357431.71368408 17.67891121 57 61 62
245769.51312256 3357429.11288452 17.64072990 72 78 78
245767.27545166 3357438.32211304 17.68968010 94 93 88
245772.44622803 3357432.01162720 17.77002525 72 74 73
245767.97381592 3357437.27789307 18.18002319 79 75 76
245766.97430420 3357440.08828735 18.17184258 233 245 255
245767.83807373 3357439.03652954 17.86990356 76 80 79
245766.61639404 3357441.63702393 18.29015160 149 147 158
245772.20703125 3357430.88992310 17.62722969 83 87 90
245766.68359375 3357438.23791504 17.68341827 23 24 18
245767.69293213 3357436.02429199 17.77460670 91 99 101
245768.73986816 3357433.39663696 17.66926003 53 54 58
245768.27166748 3357429.74584961 17.64592361 99 99 97
245770.03961182 3357431.17013550 17.58365250 65 69 68
245771.82574463 3357431.76083374 18.18165016 53 58 61
245767.43615723 3357440.96411133 17.76193810 30 36 36
245768.01568604 3357434.89425659 17.93163681 110 111 113
245767.28436279 3357435.06072998 17.60057068 79 80 82
245766.63867188 3357440.04418945 18.07070351 13 14 18
245770.18933105 3357430.93417358 17.60160446 105 106 108
245770.02886963 3357431.51757813 17.58380890 117 117 115
245767.56854248 3357435.04113770 17.67987061 72 73 75
245767.43225098 3357438.96447754 17.76407051 85 90 84
245766.37243652 3357442.32202148 18.17308807 67 68 72
245765.79968262 3357442.82632446 17.92340469 16 18 13
245766.37969971 3357441.05746460 18.07344818 72 72 70
245767.78765869 3357436.98742676 17.89988136 83 85 82
245770.95581055 3357431.32339478 17.68686104 38 42 43
245767.95538330 3357436.74218750 18.07787704 72 77 73
245767.95916748 3357434.25152588 18.01704407 50 55 59
245767.48468018 3357438.42083740 17.65939140 121 123 122
245768.36956787 3357433.41979980 18.00078773 85 86 88
245767.01269531 3357441.80935669 18.10022163 47 54 60
245772.17266846 3357431.55444336 17.84923172 120 122 121
245768.86651611 3357431.75588989 17.88364983 92 90 91
245767.11273193 3357438.08215332 17.85059929 46 47 49
245767.17230225 3357437.27633667 17.84466553 95 97 94
245765.94793701 3357442.55145264 18.00358772 39 40 42
245770.85083008 3357431.07150269 17.97410774 67 74 82
245768.16650391 3357431.25863647 17.63857079 64 65 60
245766.46960449 3357442.51708984 18.08762169 78 79 84
245770.64550781 3357432.11993408 17.60840225 103 102 98
245769.18530273 3357429.08023071 17.64303398 58 64 62
245769.49768066 3357429.14340210 17.63973236 73 79 79
245770.07336426 3357431.19458008 17.58803558 67 69 68
245772.39257813 3357431.46432495 17.77976990 64 69 72
245767.84094238 3357433.15673828 17.97639084 63 64 59
245766.91467285 3357438.01165771 17.67025757 91 91 89
245766.44525146 3357442.03094482 18.35131454 171 170 184
245768.66076660 3357428.73760986 17.66923332 46 52 52
245769.12243652 3357430.87298584 17.61880684 131 131 133
245768.16204834 3357434.45944214 18.16740990 57 60 67
245767.39215088 3357437.74966431 17.79142761 70 70 70
245767.24163818 3357436.07241821 17.98674583 62 73 77
245768.67956543 3357432.41653442 17.77070999 55 55 53
245769.17559814 3357428.73382568 17.65786552 63 67 68
245767.49047852 3357438.57211304 17.60836029 147 149 148
245766.02111816 3357442.22225952 18.11974144 40 43 52
245768.40673828 3357433.18457031 17.78078461 43 44 49
245767.20312500 3357438.74472046 17.63070679 115 124 119
245767.16113281 3357438.27716064 17.70654488 78 80 77
245769.25201416 3357430.35717773 17.62405396 115 111 102
245768.16137695 3357437.06744385 17.72886276 68 70 69
245768.42980957 3357433.43780518 17.82935524 54 56 55
245768.48852539 3357431.79589844 17.82820511 90 91 93
245768.30541992 3357436.17312622 17.85175323 158 163 166
245767.99194336 3357437.12173462 18.04025841 162 165 156
245767.63604736 3357435.87402344 17.68040657 120 120 128
245770.52423096 3357430.97390747 17.66953278 110 114 117
245769.15100098 3357427.90417480 18.07954025 226 232 246
245771.01416016 3357431.39599609 17.85600853 43 51 53
245767.81890869 3357431.84686279 17.65642929 129 125 124
245767.24005127 3357441.13052368 17.94375610 75 78 85
245771.43945313 3357431.18884277 18.22081757 136 151 174
245768.05859375 3357431.97702026 17.83194923 114 114 114
245769.50280762 3357429.91632080 17.61529541 70 75 79
245766.05853271 3357441.31591797 17.67998123 87 87 85
245770.95983887 3357432.14761353 17.81351662 84 86 85
245768.74450684 3357430.79272461 17.62837982 213 215 212
245767.33746338 3357436.52297974 18.17183685 70 72 69
245769.50488281 3357428.64419556 17.65968704 57 61 62
245768.50341797 3357430.52197266 17.69559669 133 137 136
245766.52636719 3357441.43731689 18.23434448 84 79 85
245767.66003418 3357436.41683960 18.08782959 68 70 69
245768.09912109 3357437.16268921 18.05772018 39 44 37
245768.20269775 3357431.05560303 17.62220764 144 141 136
245768.07354736 3357437.66714478 17.76873398 72 73 75
245768.58050537 3357433.85137939 17.95307732 37 41 42
245766.56781006 3357440.54193115 18.17823029 73 74 69
245770.84906006 3357432.49771118 17.67855072 97 97 99
245766.96984863 3357443.16885376 17.83474731 63 65 64
245767.32843018 3357437.45504761 17.83323669 96 95 93
245767.06097412 3357440.18603516 18.10297775 84 91 97
245768.11846924 3357436.21316528 18.26435852 68 71 76
245767.01348877 3357438.36611938 17.69786072 71 75 74
245771.57592773 3357431.44812012 18.04467392 55 59 60
245768.62194824 3357429.12887573 17.62198448 60 62 61
245768.71838379 3357432.65463257 17.75811577 127 138 132
245768.94445801 3357431.49780273 17.69430733 83 83 81
245767.45251465 3357437.76470947 17.81075478 69 69 69
245769.11859131 3357430.93106079 17.61863327 76 76 78
245768.15557861 3357432.54174805 17.93377113 225 225 225
245767.10034180 3357442.27929688 17.91337395 47 48 50
245767.32739258 3357438.13308716 17.83909988 71 75 74
245770.36621094 3357431.70010376 17.59387779 51 54 59
245765.91369629 3357442.46127319 18.07203865 17 18 20
245768.48004150 3357432.55392456 17.90064621 113 113 113
245771.95288086 3357431.69308472 18.23032951 63 63 63
245767.73999023 3357434.50952148 18.01688385 74 79 83
245771.15545654 3357432.24438477 17.76783752 70 70 72
245769.91754150 3357432.33218384 17.64547539 105 105 107
245769.25146484 3357432.52371216 17.61498260 76 77 79
245767.30944824 3357436.48782349 18.21902847 95 95 93
245768.68688965 3357432.53201294 17.77510262 133 134 129
245767.22937012 3357441.34686279 17.99260712 51 56 60
245767.44232178 3357438.36181641 17.68161392 101 101 99
245768.47698975 3357430.28979492 17.62982750 83 85 82
245766.39398193 3357440.46322632 17.91945648 83 83 81
245767.73126221 3357432.73278809 17.72623634 168 159 130
245767.80065918 3357437.66625977 17.89720726 79 80 82
245766.80157471 3357440.00018311 18.03499985 15 20 23
245772.32238770 3357431.63973999 17.84210396 107 111 110
245767.76458740 3357439.20825195 17.86218262 75 80 76
245771.13006592 3357431.89492798 17.63663673 135 135 133
245768.74353027 3357431.95034790 17.79323387 34 34 32
245769.17071533 3357432.15457153 17.63153839 57 56 61
245766.86553955 3357437.33038330 17.78029633 180 179 184
245771.82531738 3357431.45281982 18.08938599 51 50 46
245768.74774170 3357431.96347046 17.78617287 35 35 33
245768.07696533 3357435.86444092 17.62255859 124 128 131
245768.52545166 3357430.91564941 17.63850594 63 65 64
245768.41857910 3357431.57415771 17.74201584 73 73 73
245768.78790283 3357431.45999146 17.64915085 104 103 99
245769.42156982 3357431.49896240 17.58994675 108 108 108
245768.37390137 3357435.01101685 17.92738152 50 50 50
245767.77398682 3357433.50637817 18.19424629 78 79 81
245769.71130371 3357431.89346313 17.57341385 70 70 70
245766.34881592 3357439.89080811 17.67080879 105 106 100
245768.09045410 3357432.06463623 17.81480789 97 96 94
245767.56005859 3357438.18472290 17.80950356 68 74 72
245768.05523682 3357434.01614380 18.04438591 57 58 62
245768.44744873 3357429.13461304 17.63532257 59 61 58
245768.27783203 3357437.19125366 18.25621033 204 204 206
245770.26123047 3357432.44595337 17.68931007 168 168 160
245766.12457275 3357442.06204224 18.11135674 29 29 31
245766.20996094 3357441.25894165 17.98710060 125 127 126
245771.99615479 3357432.31597900 17.64277458 89 88 86
245766.70367432 3357439.90283203 17.73780441 47 51 50
245772.02777100 3357431.09234619 17.84392357 128 120 117
245767.85931396 3357432.47824097 17.73953819 100 99 95
245769.89044189 3357431.67761230 17.58234596 80 80 78
245769.40161133 3357429.76062012 17.62289238 69 73 76
245766.38775635 3357440.54928589 17.84832001 87 87 85
245766.66088867 3357440.02960205 17.86373329 18 22 25
245767.12603760 3357442.07412720 17.99386597 49 49 51
245772.24084473 3357431.60327148 17.84143257 123 124 126
245769.78442383 3357432.40475464 17.61614418 46 47 49
245771.69470215 3357430.92257690 17.75923538 69 70 74
245772.17504883 3357431.41180420 18.09940529 213 211 212
245771.66955566 3357431.70480347 17.65924644 90 92 87
245771.50042725 3357431.45745850 17.95333862 52 56 59
245767.09265137 3357438.60040283 17.65129662 105 115 106
245766.93341064 3357437.96606445 17.68169403 98 100 97
245767.54974365 3357436.64395142 18.06537056 54 56 55
245768.52807617 3357433.44381714 17.73663712 46 47 49
245767.94787598 3357434.21228027 17.97157669 38 41 46
245767.22998047 3357436.57510376 18.26611900 107 109 108
245770.13659668 3357431.33279419 17.59666252 69 73 76
245766.64135742 3357440.01123047 17.81775284 24 27 32
245767.66424561 3357437.55215454 17.92735863 78 79 81
245770.02783203 3357431.55700684 17.58385086 119 119 117
245771.00250244 3357432.17898560 17.84144592 76 78 77
245768.75061035 3357428.13229370 17.94413757 95 99 102
245767.23840332 3357438.28594971 17.70251656 76 77 72
245768.24871826 3357431.78454590 17.79111862 128 130 129
245766.48974609 3357441.22952271 18.12921715 29 30 34
245767.21704102 3357436.50476074 18.31271553 118 120 119
245766.18957520 3357441.22671509 17.91736221 73 78 72
245768.16796875 3357433.97250366 18.13252831 34 38 41
245772.21630859 3357431.69912720 18.04640198 74 78 77
245768.40777588 3357436.18511963 17.75217247 107 109 108
245768.03863525 3357435.30151367 17.83811760 58 59 64
245769.53210449 3357432.49313354 17.59282494 63 64 68
245771.82250977 3357430.92382813 17.74840546 81 80 85
245768.18011475 3357432.63720703 18.09154129 254 254 254
245768.13781738 3357437.13464355 18.22054291 134 133 129
245768.28186035 3357432.77954102 18.19116211 197 195 200
245771.81561279 3357431.50601196 18.10919380 106 108 105
245769.08984375 3357429.30307007 17.62271500 69 73 72
245767.12597656 3357439.89178467 17.87807465 31 29 30
245767.99029541 3357436.98333740 17.89804459 65 67 64
245770.31231689 3357431.42395020 17.60447884 59 64 67
245767.28814697 3357436.44406128 18.25627518 103 103 101
245767.57543945 3357439.68307495 17.77759361 70 72 71
245767.62536621 3357434.95474243 17.75889397 71 72 74
245769.46997070 3357429.75485229 17.61961555 68 73 76
245767.95861816 3357436.83923340 18.04050255 84 89 83
245766.94561768 3357440.65063477 17.98189545 40 41 43
245767.79327393 3357436.78643799 17.98658562 74 76 75
245766.17559814 3357440.58645630 17.63631058 99 100 94
245767.73968506 3357437.76477051 17.87599182 74 75 77
245766.27264404 3357442.51651001 17.98181915 44 51 59
245770.41992188 3357432.65444946 17.64638329 107 113 113
245770.14233398 3357431.52777100 17.59527397 92 96 97
245766.93560791 3357442.11303711 18.03837204 31 37 37
245767.68255615 3357436.37252808 18.08546638 68 70 69
245766.31945801 3357440.97457886 17.88627434 69 70 65
245768.89892578 3357428.83853149 17.64934158 79 81 80
245768.71490479 3357430.44464111 17.69896507 218 217 212
245769.60119629 3357429.48214722 17.63740540 64 69 72
245766.21990967 3357441.57473755 18.28609276 63 64 68
245771.21618652 3357430.90164185 18.07704544 222 234 246
245767.20300293 3357441.53082275 17.94372749 30 31 36
245770.40051270 3357432.06491089 17.61156273 155 148 138
245767.87316895 3357433.63067627 18.14592171 10 15 18
245770.85784912 3357431.09857178 18.14621353 107 114 130
245767.54229736 3357436.46316528 18.09561348 80 82 79
245766.40631104 3357440.32846069 17.97418976 72 73 68
245766.60632324 3357441.09902954 18.01013184 52 55 60
245768.79754639 3357432.58312988 17.70915413 92 98 96
245768.88830566 3357428.81890869 17.65446091 56 58 57
245769.59991455 3357431.03787231 17.59913445 90 91 95
245766.61456299 3357441.03463745 18.00506020 55 59 62
245770.83850098 3357431.90258789 17.60917854 115 117 114
245768.17303467 3357437.25854492 17.93594933 56 61 57
245768.01312256 3357436.18649292 18.24787140 49 54 57
245768.05975342 3357433.44418335 18.18138504 33 37 40
245766.60626221 3357438.86965942 17.97006798 95 97 92
245771.69848633 3357432.33068848 17.61620331 115 117 112
245768.58496094 3357430.40783691 17.66230583 145 145 143
245768.45886230 3357430.56942749 17.69877434 147 149 146
245771.45849609 3357431.37942505 18.03191948 91 96 100
245768.23638916 3357431.88415527 17.83181381 91 92 87
245771.90106201 3357431.71414185 17.71747780 93 94 89
245767.76544189 3357433.77392578 18.03138161 99 103 112
245769.49853516 3357429.25503540 17.63565063 70 76 76
245769.56939697 3357429.34347534 17.63410568 68 73 76
245768.29266357 3357433.13104248 18.19238281 49 50 55
245767.65112305 3357439.14138794 18.07234955 83 88 82
245768.79888916 3357430.03079224 17.65735054 73 70 65
245767.33331299 3357439.78189087 17.82065582 70 71 73
245766.27825928 3357443.06915283 18.02774048 59 59 61
245769.58892822 3357432.52053833 17.58985519 61 64 69
245768.94390869 3357429.02624512 17.62447739 54 54 54
245771.70666504 3357432.29132080 17.61318588 121 122 117
245766.02050781 3357440.59533691 17.62499237 84 84 76
245766.92041016 3357437.45233154 17.80039787 226 227 229
245768.88012695 3357433.17553711 17.63512039 39 43 42
245768.27313232 3357436.50311279 18.03453255 162 162 160
245767.75402832 3357432.67993164 17.73217010 126 119 100
245767.07324219 3357439.31823730 17.89245415 81 86 82
245767.14874268 3357440.99908447 17.95713806 21 27 27
245768.03668213 3357431.55410767 17.65313148 57 59 58
245769.21716309 3357430.10742188 17.63856888 61 67 67
245769.81793213 3357431.38378906 17.58749008 90 90 90
245768.41894531 3357434.92807007 17.88065338 29 28 33
245766.52691650 3357441.68106079 18.41209602 143 143 155
245766.06878662 3357442.43426514 18.04677963 70 75 81
245766.36901855 3357440.81658936 17.69860077 78 77 75
245771.90582275 3357431.80297852 18.06679344 86 87 89
245767.82220459 3357432.22320557 17.62085152 118 115 110
245767.46191406 3357435.12606812 17.65301895 87 88 90
245768.26074219 3357433.93780518 18.19964409 108 111 120
245768.66436768 3357429.02987671 17.62191582 55 57 56
245767.08111572 3357438.99588013 17.80973434 81 86 82
245768.57141113 3357430.82846069 17.64653015 125 126 128
245769.80206299 3357431.25402832 17.58908272 84 83 88
245768.30444336 3357432.80447388 18.19864082 201 202 207
245767.50592041 3357438.20925903 17.75984192 66 70 69
245767.20172119 3357436.50860596 18.32499695 111 112 114
245768.71960449 3357434.12866211 17.75004578 63 67 68
245768.76135254 3357431.25366211 17.63181877 63 63 65
245767.98046875 3357436.08459473 18.04701233 103 112 111
245767.84179688 3357432.89096069 17.89064980 150 142 123
245770.91931152 3357431.23779297 18.13560104 49 52 57
245765.92596436 3357441.11895752 17.57932281 75 76 70
245768.98510742 3357430.67926025 17.66700745 218 211 205
245767.85852051 3357435.76998901 17.65019035 66 70 73
245771.15008545 3357431.22744751 18.34842300 126 131 160
245768.80126953 3357431.71786499 17.88830757 38 36 37
245770.15875244 3357431.83770752 17.58287430 83 82 80
245770.15667725 3357431.23590088 17.59878159 93 97 96
245766.77374268 3357437.88769531 17.59859848 130 127 120
245767.34216309 3357435.78363037 17.67777252 79 86 94
245768.45837402 3357431.64688110 17.78596497 151 152 157
245767.50744629 3357438.46759033 17.64048576 163 167 166
245769.47589111 3357428.78317261 17.65373421 52 56 57
245770.22894287 3357431.06240845 17.60718918 78 80 79
245769.31854248 3357429.22744751 17.63803482 65 71 71
245768.35235596 3357435.64178467 17.66628647 83 87 90
245767.21960449 3357439.98147583 18.05232430 25 34 39
245767.83013916 3357433.06201172 17.91555977 99 99 89
245768.81182861 3357433.04644775 17.62469292 32 33 37
245768.12402344 3357433.92446899 18.12292099 26 30 33
245768.06323242 3357432.69161987 18.06502533 255 254 255
245766.03320313 3357440.82031250 17.53525734 127 126 121
245766.91381836 3357440.73028564 18.00468063 43 47 50
245767.34368896 3357438.73080444 17.61645126 124 130 126
245767.67907715 3357438.92636108 17.67659950 77 83 81
245766.76251221 3357439.37692261 17.84356499 86 88 85
245768.56591797 3357429.30923462 17.62406349 79 79 77
245768.51007080 3357434.81961060 17.77653503 58 59 64
245771.73962402 3357432.02685547 17.57387161 103 102 98
245771.69909668 3357431.31066895 18.05014229 61 66 70
245769.19592285 3357430.88232422 17.61726570 93 95 94
245767.20776367 3357439.07882690 17.95405006 86 91 87
245768.16113281 3357437.46740723 17.88692284 58 60 57
245767.78399658 3357434.52368164 18.04430580 76 81 85
245769.08374023 3357432.01889038 17.69153404 56 55 60
245767.29449463 3357437.03036499 17.89218330 89 88 86
245766.98974609 3357437.18508911 17.79649353 147 149 148
245768.38378906 3357432.67675781 18.09980774 81 85 84
245771.17071533 3357432.22277832 17.75197601 76 76 76
245766.16888428 3357440.67501831 17.58434868 87 88 82
245765.94946289 3357440.82458496 17.56316566 64 63 58
245768.87451172 3357430.21249390 17.66727257 157 151 139
245768.65814209 3357431.72415161 17.86069489 89 90 95
245767.85675049 3357438.24282837 17.71048164 76 80 79
245769.14569092 3357432.37728882 17.61779785 54 55 57
245766.64849854 3357438.22839355 17.93380737 38 34 31
245767.57965088 3357437.42251587 17.96170616 104 105 99
245769.76245117 3357432.66268921 17.61392403 44 49 52
245768.06530762 3357432.51599121 17.83933640 156 156 154
245766.77636719 3357440.50531006 18.13475418 64 63 68
245768.97479248 3357432.77398682 17.63952255 47 48 50
245768.92272949 3357428.43441772 17.75374985 58 61 66
245768.94537354 3357430.90295410 17.61909866 131 132 126
245769.17388916 3357431.12792969 17.61220360 117 118 120
245769.08648682 3357428.05697632 17.86060143 105 110 114
245767.98114014 3357431.27044678 17.60799408 76 78 77
245768.94451904 3357432.84594727 17.64326477 54 56 55
245767.11328125 3357438.85546875 17.64396095 94 101 94
245768.09405518 3357437.51660156 17.85691452 24 26 25
245766.37774658 3357440.15768433 17.83994865 75 78 71
245769.66406250 3357432.43374634 17.59110641 58 63 66
245766.41918945 3357441.91680908 18.40148926 159 157 170
245768.45806885 3357435.10815430 17.83000183 51 51 51
245768.41857910 3357434.76611328 17.89234734 46 47 52
245766.94287109 3357440.96234131 18.04032135 38 43 47
245768.79669189 3357431.23800659 17.62868690 61 62 66
245770.53167725 3357430.92590332 17.66972160 96 97 101
245767.33074951 3357436.08926392 17.97918892 66 77 81
245766.97711182 3357441.51016235 18.13152504 25 28 35
245772.13031006 3357431.16766357 17.89816284 195 191 190
245769.36242676 3357428.82473755 17.65263367 56 62 62
245771.33526611 3357431.23501587 18.25539780 82 91 108
245770.60723877 3357431.43066406 17.60002136 76 79 84
245767.73089600 3357435.70126343 17.64946938 66 68 67
245767.47222900 3357438.64413452 17.60635757 140 144 143
245766.74279785 3357442.07958984 18.15785408 49 53 56
245766.79321289 3357441.53955078 18.14282227 40 41 43
245766.31878662 3357440.66058350 17.64942360 86 85 81
245767.57098389 3357433.27050781 17.67204285 67 69 66
245768.01861572 3357431.35021973 17.62425041 79 81 80
245768.10839844 3357437.50143433 17.86799049 41 43 40
245766.66815186 3357440.03686523 18.28509331 54 59 63
245768.81652832 3357434.05310059 17.69325066 87 91 94
245766.90686035 3357437.25100708 17.77552605 182 180 183
245771.90704346 3357431.80484009 17.71808434 103 104 98
245767.61505127 3357435.97402954 17.74572372 104 108 107
245768.50799561 3357433.88409424 18.18177223 111 115 118
245768.07775879 3357434.94470215 17.92965889 45 47 44
245767.28186035 3357436.53479004 18.24238396 83 85 84
245768.36987305 3357434.99707031 17.92966270 38 38 38
245770.19305420 3357432.14315796 17.67412758 165 163 150
245766.89868164 3357436.92349243 17.75131226 114 113 109
245765.98040771 3357441.90802002 17.87943268 58 62 65
245766.65679932 3357438.93444824 17.94963074 96 99 92
245768.40350342 3357433.95755005 18.25558281 189 191 203
245768.79791260 3357430.23361206 17.66108322 162 154 141
245769.40380859 3357429.15246582 17.64011955 69 75 75
245772.23907471 3357431.80355835 17.94680214 72 74 73
245768.09509277 3357436.09475708 18.02782249 170 182 182
245766.38793945 3357440.49005127 17.88072968 83 83 81
245769.02307129 3357431.43304443 17.64303398 51 50 48
245767.42547607 3357440.42968750 17.81071663 48 52 55
245766.93572998 3357436.95785522 17.75604439 116 117 112
245767.35534668 3357439.34759521 17.90179062 82 87 83
245767.68969727 3357435.24365234 17.71286392 89 93 94
245768.17468262 3357431.48300171 17.66657448 59 60 62
245767.35864258 3357434.26544189 17.61652184 86 88 87
245765.97625732 3357440.78244019 17.56507683 59 59 51
245767.71325684 3357433.20913696 17.83236885 66 68 65
245770.25518799 3357431.85968018 17.58428001 99 99 91
245769.15734863 3357431.83416748 17.69420052 50 49 54
245767.80224609 3357432.95037842 17.82146072 146 141 122
245769.01226807 3357430.47811890 17.73995399 232 225 209
245768.15594482 3357431.98770142 17.85504723 113 112 108
245770.31469727 3357431.67025757 17.59391022 51 56 62
245768.45965576 3357434.49227905 17.97747993 92 94 93
245772.44097900 3357431.47421265 17.75612259 64 69 72
245767.22497559 3357439.93402100 17.97337151 17 20 25
245765.96728516 3357442.70098877 17.92600441 57 57 57
245770.41650391 3357431.54089355 17.60197449 67 72 75
245772.12182617 3357431.59970093 18.14783669 249 250 252
245766.22875977 3357442.91583252 17.94256592 62 62 64
245765.98901367 3357442.61502075 17.94265175 53 54 58
245768.01953125 3357431.59790039 17.66136169 88 89 91
245767.87017822 3357432.73706055 17.88765526 76 66 57
245769.15063477 3357431.58416748 17.76396561 158 157 165
245768.44146729 3357432.49261475 17.92546082 55 55 53
245767.46160889 3357439.02279663 17.94668388 92 97 91
245767.84014893 3357436.02185059 17.70399094 88 94 94
245767.39398193 3357440.63241577 17.75100899 43 47 50
245769.83093262 3357430.90713501 17.59033012 95 96 100
245769.27770996 3357430.34115601 17.62363625 75 74 69
245766.37927246 3357440.72393799 17.72542000 90 90 88
245768.98864746 3357427.69610596 18.02069092 36 38 35
245768.30041504 3357430.31924438 17.62762642 161 161 163
245768.05139160 3357433.73736572 18.14005661 0 0 2
245767.16497803 3357439.20843506 17.92071915 87 92 88
245767.61340332 3357438.29821777 17.71884346 68 72 71
245766.68450928 3357442.70968628 18.02386856 26 27 32
245768.77734375 3357428.41021729 17.78156471 83 87 90
245767.79345703 3357437.62112427 17.91109085 80 81 83
245768.51000977 3357433.91339111 18.17192268 142 146 149
245771.99188232 3357431.90032959 17.82298660 107 109 106
245767.81671143 3357436.74819946 18.03016663 72 74 73
245771.33355713 3357430.86709595 17.88253975 54 64 66
245767.97241211 3357432.47454834 17.78309441 57 58 53
245767.51556396 3357437.92068481 17.86301231 64 66 65
245766.86657715 3357440.40966797 18.13112831 61 61 63
245767.70410156 3357434.96054077 17.80475426 62 62 64
245767.63684082 3357436.75372314 17.96853065 59 63 62
245767.67901611 3357434.83123779 17.86750793 63 64 66
245768.64550781 3357431.10006714 17.62358475 70 74 77
245771.75726318 3357431.42208862 18.06792450 67 66 64
245766.81842041 3357440.40914917 18.14800644 59 58 63
245769.34930420 3357430.00192261 17.62775040 63 67 70
245769.02465820 3357430.84213257 17.61911583 124 123 119
245768.47790527 3357435.02014160 17.81098175 38 39 43
245767.94830322 3357437.30316162 18.15555763 92 87 91
245767.80468750 3357435.43783569 17.72718811 65 69 72
245770.28125000 3357431.79400635 17.58775139 68 68 66
245767.00067139 3357441.53506470 18.09856224 31 31 39
245770.64746094 3357431.59014893 17.59058189 56 61 65
245768.42535400 3357429.20120239 17.63486862 57 59 56
245766.60528564 3357437.70675659 17.60193253 102 96 96
245767.36926270 3357438.00485229 17.86381149 67 68 70
245771.53619385 3357431.38983154 18.10456085 117 126 125
245766.18481445 3357441.61016846 18.22468185 61 65 66
245770.23663330 3357432.39813232 17.70095253 173 170 163
245766.79174805 3357440.37344360 18.16691589 65 64 69
245766.69049072 3357441.46243286 18.16053391 50 50 52
245767.10559082 3357435.26940918 17.56485939 44 48 49
245766.95245361 3357439.09359741 17.90075684 88 90 87
245766.97442627 3357441.69638062 18.09357834 33 34 38
245766.27935791 3357439.69308472 17.66419411 114 114 104
245770.97650146 3357431.22598267 18.27537537 15 21 35
245766.96997070 3357442.19305420 17.98490334 41 42 44
245771.94488525 3357431.36633301 18.08209419 61 51 52
245766.56805420 3357440.68072510 18.12666512 33 35 34
245769.08850098 3357427.76892090 18.07265282 82 85 92
245767.06604004 3357439.99612427 18.07960701 147 166 173
245768.10449219 3357432.71636963 18.12946510 252 251 249
245769.23309326 3357429.96768188 17.63689423 68 69 71
245768.50158691 3357433.87463379 18.21048546 208 211 220
245770.50573730 3357431.58508301 17.60224724 60 68 71
245770.04351807 3357432.71423340 17.67454338 52 55 60
245768.98437500 3357428.23739624 17.84543991 96 101 105
245770.22021484 3357431.25610352 17.60692978 123 129 129
245766.81921387 3357438.98126221 17.89123726 93 95 90
245767.01849365 3357442.95422363 17.83934593 60 61 63
245770.11584473 3357430.93463135 17.59228325 99 100 102
245767.42651367 3357435.98410034 17.82946205 81 89 91
245765.96881104 3357441.66668701 17.76345634 54 56 53
245771.29235840 3357430.92312622 18.09620857 222 235 244
245766.05889893 3357441.56140137 17.81976891 32 34 33
245768.76251221 3357432.71823120 17.71362114 99 110 106
245767.87475586 3357436.24450684 18.17127609 63 67 68
245769.11889648 3357432.93136597 17.61436844 54 54 56
245772.14471436 3357431.53073120 17.85880280 118 119 121
245770.80664063 3357431.08230591 17.72925949 138 139 141
245771.83532715 3357431.69787598 18.20677567 79 87 89
245769.65545654 3357430.93508911 17.59752464 80 84 87
245766.96246338 3357441.60122681 18.09894562 44 43 49
245767.48614502 3357438.06253052 17.97157860 75 77 76
245771.20703125 3357430.81988525 17.87239265 49 56 64
245768.28533936 3357430.52703857 17.65504646 146 148 147
245766.27215576 3357441.38949585 18.15709496 16 16 18
245767.32519531 3357437.95840454 17.78157997 88 88 88
245767.30108643 3357438.25604248 17.71359253 84 83 79
245767.79840088 3357433.03668213 17.83842468 133 131 119
245766.76708984 3357440.73919678 18.07140923 75 79 82
245766.35351563 3357439.75448608 17.67017937 109 110 102
245766.88616943 3357439.55529785 17.78680992 72 76 75
245769.27929688 3357430.53158569 17.61972809 217 210 194
245766.65081787 3357441.62780762 18.23089218 82 79 86
245772.47027588 3357431.66943359 17.77270126 75 79 80
245769.69958496 3357432.84591675 17.59913254 55 57 56
245766.93048096 3357441.91564941 18.15062714 159 168 185
245766.75268555 3357438.74942017 17.82800865 94 99 95
245769.01403809 3357431.28802490 17.62395096 55 55 55
245767.31048584 3357436.04199219 17.93976021 57 68 72
245769.79956055 3357432.32495117 17.61636925 40 42 39
245767.83502197 3357433.97595215 17.88983727 30 39 38
245766.37451172 3357442.32015991 18.17556763 67 68 72
245767.27185059 3357439.99938965 18.06171036 42 47 50
245771.93621826 3357431.80728149 17.99699020 95 93 96
245769.93652344 3357432.67373657 17.65182495 28 32 35
245766.30047607 3357441.09387207 18.10019493 115 117 116
245768.40753174 3357433.67770386 18.19645691 40 41 43
245767.10986328 3357436.81243896 17.98499870 117 119 116
245767.74676514 3357435.21936035 17.72878838 107 113 113
245767.85101318 3357438.45782471 17.59804916 142 144 139
245769.20843506 3357431.22167969 17.60797501 131 133 132
245767.93945313 3357436.41159058 18.20598602 58 62 63
245767.92510986 3357437.37670898 18.05605316 40 40 42
245769.59588623 3357429.16082764 17.63834763 72 77 80
245768.08227539 3357434.08370972 18.07403183 57 58 62
245770.57476807 3357432.52233887 17.60433197 154 150 147
245768.71026611 3357430.53652954 17.72402382 211 211 211
245767.97833252 3357436.85168457 17.96972084 80 86 82
245771.43487549 3357430.95132446 17.96627617 117 126 141
245767.07543945 3357436.03427124 17.77037048 95 100 104
245771.51043701 3357430.87292480 17.73886299 60 64 67
245768.03259277 3357432.43060303 17.77626228 59 58 56
245768.78521729 3357431.44348145 17.64778900 98 97 95
245769.57910156 3357432.68493652 17.59714127 80 80 80
245766.05017090 3357441.88574219 17.95050430 58 62 65
245768.69903564 3357433.56878662 17.71627808 30 31 35
245768.59259033 3357433.58129883 17.83140564 72 75 80
245767.69934082 3357433.08795166 17.73647308 40 42 39
245767.00164795 3357441.46951294 18.13036919 20 23 30
245766.38958740 3357442.27105713 18.21901703 69 70 74
245766.59191895 3357438.98861694 17.97668648 100 103 96
245768.65917969 3357431.27987671 17.64091492 66 66 66
245766.86505127 3357437.84942627 17.64499474 165 163 166
245766.54663086 3357440.70172119 18.11050034 42 42 42
245767.88116455 3357436.28146362 18.18128777 63 67 68
245768.24664307 3357434.93078613 17.94230652 41 41 43
245767.96820068 3357436.92462158 17.91695213 80 85 79
245772.03961182 3357431.70220947 17.83353043 174 176 175
245766.47363281 3357440.61791992 18.04815674 63 63 63
245769.56567383 3357429.33837891 17.63389206 69 74 77
245768.82421875 3357434.09255981 17.68724442 85 89 92
245768.46539307 3357432.94406128 17.83320236 45 48 53
245766.03332520 3357443.02758789 17.95843697 50 55 58
245769.45965576 3357431.81863403 17.58922768 56 55 61
245769.73352051 3357431.78427124 17.57626915 87 87 89
245767.35772705 3357434.36260986 17.61456490 77 79 78
245768.12969971 3357432.75164795 18.15575790 233 229 228
245767.27911377 3357437.94519043 17.75002861 42 42 40
245766.22271729 3357442.54690552 17.95230865 42 49 57
245767.56347656 3357434.73025513 17.84093666 63 67 68
245769.48370361 3357428.87573242 17.64961243 61 67 67
245769.69653320 3357431.76629639 17.57622719 100 100 102
245765.90447998 3357442.99481201 17.96246147 27 32 36
245767.54211426 3357435.07067871 17.67366982 78 79 81
245771.66650391 3357431.54736328 17.99847984 81 82 84
245768.72241211 3357430.26696777 17.65383720 154 148 136
245771.01617432 3357431.40563965 17.86404800 43 51 53
245771.15893555 3357431.41989136 17.95616531 28 33 37
245768.39776611 3357429.04550171 17.63809776 56 58 57
245767.38446045 3357437.73187256 17.79190636 71 73 72
245768.64825439 3357434.53723145 17.72991562 54 58 61
245768.17114258 3357436.49615479 18.16316223 178 179 174
245767.02093506 3357437.10614014 17.78666306 84 85 80
245769.71282959 3357431.15353394 17.59355545 85 89 92
245771.93206787 3357431.96347046 17.70865250 121 118 111
245767.39508057 3357440.56240845 17.77049828 39 40 42
245768.28063965 3357434.45709229 18.10725021 116 116 124
245772.47930908 3357431.87905884 17.76053238 80 81 85
245769.03790283 3357428.94781494 17.63837242 60 64 63
245767.58630371 3357438.00241089 17.99297905 67 71 72
245766.28942871 3357440.15438843 17.75934219 93 92 87
245767.79925537 3357435.02520752 17.80623817 60 61 65
245768.04473877 3357435.62664795 17.70412254 66 67 72
245768.95422363 3357429.83190918 17.66509438 93 94 88
245766.89459229 3357439.03088379 17.87652969 86 88 85
245768.40875244 3357433.36529541 17.76518822 45 49 50
245766.03906250 3357442.47860718 18.02839851 63 66 71
245768.99627686 3357432.57284546 17.65126991 50 50 52
245768.98553467 3357430.88330078 17.61907196 120 119 115
245768.53723145 3357434.10125732 18.05294228 123 127 130
245766.17639160 3357440.40017700 17.71749496 107 107 99
245768.72570801 3357432.94439697 17.67217636 64 66 63
245767.99615479 3357432.24069214 17.71420288 110 110 108
245766.78576660 3357438.91177368 17.83708954 91 93 88
245768.38726807 3357431.41653442 17.69429588 61 65 66
245768.92047119 3357431.20364380 17.61957359 57 58 62
245766.91833496 3357439.02539063 17.86629486 84 86 83
245765.90039063 3357441.09820557 17.58892059 45 48 41
245767.43908691 3357439.66882324 17.82176781 71 75 74
245770.37176514 3357432.57739258 17.64164352 114 115 110
245767.26074219 3357441.33389282 17.97167587 63 66 71
245770.83764648 3357431.06271362 17.77198601 87 90 95
245767.62036133 3357435.85498047 17.67901230 118 121 128
245767.49108887 3357434.20492554 17.77478027 70 74 73
245767.59991455 3357433.25918579 17.71483421 74 76 73
245767.25183105 3357441.37911987 17.95696640 45 50 53
245768.65051270 3357431.99108887 17.79828835 60 56 53
245768.73822021 3357433.67059326 17.75298500 30 29 34
245772.02551270 3357431.87893677 17.99419975 97 97 97
245767.91601563 3357432.22448730 17.66303253 111 110 106
245770.94720459 3357432.29785156 17.87244606 70 71 75
245767.21832275 3357441.20639038 17.98847198 66 71 77
245771.29492188 3357431.18881226 18.36148643 80 93 125
245768.17120361 3357432.57174683 17.98657036 210 210 208
245769.03759766 3357431.61495972 17.82196617 138 137 142
245767.40679932 3357439.98941040 17.98830986 53 54 49
245770.31793213 3357431.00836182 17.61823654 100 102 101
245766.93237305 3357440.52072144 18.01398468 85 86 91
245769.07733154 3357428.36065674 17.75213814 102 107 111
245768.07916260 3357435.56997681 17.73729515 71 72 76
245768.40191650 3357432.61294556 17.97817802 221 222 226
245771.06054688 3357431.89392090 17.62968636 132 132 132
245766.25341797 3357441.01547241 17.78795433 80 81 76
245767.25360107 3357439.01495361 17.89856911 87 92 86
245767.08190918 3357439.96658325 18.03108788 15 26 32
245770.96759033 3357431.29031372 17.80350304 54 59 62
245768.20446777 3357434.88806152 17.93998337 37 38 40
245766.40887451 3357441.50238037 18.43294525 91 95 98
245769.30621338 3357431.04019165 17.61042213 91 91 91
245766.59637451 3357442.35116577 18.18250275 45 48 53
245767.09130859 3357436.06317139 17.84546280 44 49 55
245767.42401123 3357439.27798462 17.93201828 86 91 87
245768.48150635 3357435.10638428 17.80664635 43 44 46
245769.21069336 3357427.96133423 18.02804756 85 90 96
245767.80609131 3357435.11013794 17.77134132 39 43 46
245766.21185303 3357441.53073120 18.27901077 54 55 59
245766.97546387 3357440.24496460 18.11691666 51 50 55
245767.36505127 3357434.55282593 17.69446182 90 91 93
245769.11077881 3357430.40383911 17.69157219 231 219 205
245767.72283936 3357436.04660034 17.78676796 88 96 98
245767.11071777 3357441.29144287 18.07516670 93 113 122
245768.45867920 3357432.79870605 17.92173958 127 135 137
245769.43572998 3357428.99636841 17.64557457 72 78 78
245767.70941162 3357435.64810181 17.65014648 70 71 73
245768.43054199 3357435.35897827 17.78848267 65 66 71
245768.53875732 3357430.73568726 17.69828796 115 117 116
245766.05780029 3357441.74121094 17.95859146 59 61 60
245767.14916992 3357442.38369751 17.85966301 37 41 44
245766.85845947 3357437.72964478 17.67063904 248 246 251
245767.05517578 3357441.25000000 18.11092377 154 176 190
245766.55987549 3357440.07012939 17.95553207 19 20 22
245769.47174072 3357432.39941406 17.59293938 64 65 70
245767.23193359 3357436.20223999 18.19736481 62 66 67
245768.97351074 3357427.68026733 17.96113205 39 41 38
245768.77032471 3357432.82498169 17.68344307 33 37 36
245769.64556885 3357431.91448975 17.57314682 69 69 69
245769.56652832 3357429.19287109 17.63740158 72 77 80
245766.72833252 3357442.70748901 18.02667999 56 57 62
245770.36907959 3357432.26333618 17.66595459 166 158 145
245767.51892090 3357439.78363037 17.78906059 68 72 73
245768.83483887 3357428.72402954 17.67836952 45 49 50
245766.08728027 3357440.57711792 17.63827705 117 118 110
245767.99859619 3357431.63491821 17.67608643 98 99 101
245766.73913574 3357443.03887939 17.93952370 88 89 91
245768.57568359 3357433.84570313 17.96570778 37 41 42
245768.41632080 3357435.53866577 17.70849800 67 71 74
245765.75274658 3357442.91180420 18.05219078 68 69 71
245772.23242188 3357431.74063110 18.08494759 17 19 16
245767.66540527 3357433.12365723 17.70857620 54 58 59
245768.53302002 3357434.00119019 18.07496071 90 95 91
245769.62988281 3357429.53070068 17.63770103 67 71 74
245765.99432373 3357441.50982666 17.72185707 82 83 85
245769.32708740 3357429.23733521 17.63760757 65 71 71
245766.74121094 3357438.76568604 17.83887672 94 99 95
245769.99664307 3357431.54574585 17.57984924 105 105 103
245770.85906982 3357431.48077393 17.59251022 97 98 100
245768.91748047 3357431.65737915 17.90740776 121 121 119
245771.97729492 3357432.27258301 17.64085388 67 67 65
245767.32849121 3357437.63262939 17.78985786 69 69 69
245766.67199707 3357443.02001953 17.96482658 47 48 50
245765.96759033 3357442.14627075 18.06255531 26 29 34
245767.78033447 3357432.89892578 17.79188919 155 147 124
245767.48962402 3357433.97424316 17.83837318 59 61 58
245768.00677490 3357437.58404541 17.82337379 45 49 50
