246075.44824219 3357368.01150513 15.11257267 120 119 117
246074.87292480 3357367.74273682 15.35575962 14 13 11
246071.63244629 3357366.71221924 15.52825165 86 86 88
246071.20214844 3357366.90945435 15.77630615 57 61 62
246075.11352539 3357367.08178711 15.17057323 80 85 88
246072.17639160 3357366.65975952 15.39716434 63 62 67
246072.43200684 3357366.22305298 15.02111530 102 106 107
246073.24511719 3357366.94445801 15.70275402 146 151 154
246069.54846191 3357366.63769531 17.41079903 28 30 25
246069.05786133 3357366.47393799 15.24840450 66 66 66
246074.38623047 3357366.52740479 15.44960022 135 136 131
246071.31188965 3357366.86965942 16.12918282 50 50 52
246074.16149902 3357366.39541626 15.64250660 28 30 29
246070.47949219 3357366.59158325 16.41295624 0 3 8
246069.25402832 3357366.54919434 16.60079765 55 59 62
246070.62939453 3357366.63867188 15.58384895 136 141 145
246071.38854980 3357367.12094116 15.63127613 67 68 70
246068.52380371 3357366.41519165 15.24068165 81 81 79
246069.20434570 3357366.54660034 16.61160088 51 55 58
246073.80346680 3357366.10549927 15.24532032 104 106 105
246074.40991211 3357367.48754883 15.57382870 129 130 132
246069.02404785 3357366.49343872 16.20491219 27 29 28
246071.19323730 3357366.90054321 15.88279915 37 41 42
246073.62817383 3357366.46127319 15.52455616 51 52 54
246069.24536133 3357366.52694702 15.48160362 76 72 71
246070.46447754 3357366.53286743 16.64257050 110 115 121
246074.03161621 3357366.63290405 15.59632397 47 49 48
246070.19287109 3357366.56851196 17.00916100 74 77 82
246068.95788574 3357366.48474121 15.20708466 64 64 64
246071.02685547 3357366.54644775 15.26398468 92 94 93
246068.80969238 3357366.53814697 17.00148392 50 50 52
246075.04467773 3357367.93963623 15.17901421 78 77 75
246068.39978027 3357366.48480225 16.11035728 74 76 75
246073.15332031 3357367.22155762 15.52440834 61 61 63
246067.25781250 3357366.19030762 15.90487862 87 92 88
246068.42858887 3357366.53442383 15.51766682 60 62 59
246074.36193848 3357366.06143188 15.11836147 124 125 130
246070.19018555 3357366.59963989 15.83850384 30 35 28
246068.68762207 3357366.50015259 16.52841568 13 14 16
246073.74829102 3357366.49697876 15.56243896 26 27 29
246069.66040039 3357366.59860229 15.65070724 57 61 62
246074.12976074 3357366.01611328 15.21800423 57 61 64
246070.07910156 3357366.36807251 16.36249733 17 22 25
246067.99023438 3357366.25521851 15.19095898 95 100 96
246068.86120605 3357366.55441284 17.03920746 50 50 52
246071.09533691 3357366.84518433 15.80121708 49 53 54
246071.11303711 3357366.71548462 16.54702187 16 22 22
246068.87036133 3357366.51962280 15.32867908 67 67 67
246074.41638184 3357366.29067993 15.36061478 127 128 132
246069.68835449 3357366.61718750 15.57358074 59 59 61
246068.55664063 3357366.48916626 16.51552963 55 57 54
246073.32238770 3357367.06759644 15.72009563 74 78 79
246072.05505371 3357367.22848511 15.38961983 70 70 68
246075.20092773 3357367.18420410 15.18776035 73 74 78
246070.60424805 3357366.43447876 15.41639805 98 104 104
246075.87902832 3357368.50460815 15.15180683 89 93 96
246068.05029297 3357366.40011597 17.03470230 66 71 65
246069.00146484 3357366.50772095 15.29058743 57 57 57
246068.24328613 3357366.51171875 15.91700935 66 68 67
246073.67456055 3357366.21725464 15.43298626 174 176 175
246069.04321289 3357366.52539063 15.72819710 63 65 64
246075.69177246 3357367.87417603 15.08055496 154 154 152
246069.18481445 3357366.51736450 15.34324741 74 70 71
246074.84362793 3357366.57119751 15.16823101 50 54 55
246073.26574707 3357367.27685547 15.56377220 66 68 65
246072.58703613 3357366.80947876 15.39415264 62 64 63
246069.22814941 3357366.52590942 15.95640755 57 59 58
246073.96618652 3357367.48843384 15.48026848 98 100 99
246074.44628906 3357367.19049072 15.43319607 97 101 102
246074.90637207 3357367.88024902 15.25289726 38 36 37
246070.00756836 3357366.43283081 16.89992523 53 56 61
246074.30944824 3357366.75970459 15.45200253 119 120 115
246074.82421875 3357367.99383545 15.23150826 76 74 75
246068.08032227 3357366.39346313 16.87657928 35 37 34
246070.62426758 3357366.61499023 16.82043266 24 32 35
246067.71337891 3357366.29098511 16.01438332 79 84 80
246068.36535645 3357366.52923584 15.71627331 71 73 72
246069.06884766 3357366.61279297 17.87388229 40 36 33
246068.49743652 3357366.49118042 15.88319492 61 63 62
246068.07751465 3357366.41195679 16.09213829 45 47 46
246068.90588379 3357366.58438110 17.24280739 53 53 53
246072.34936523 3357366.75234985 15.40029812 62 62 64
246073.71984863 3357366.75350952 15.55666351 71 71 71
246070.25000000 3357366.61215210 15.90356350 25 31 29
246075.62902832 3357367.82653809 15.07643127 134 132 133
246072.55957031 3357366.59707642 15.31204510 43 43 41
246068.60009766 3357366.53347778 17.23967552 53 54 56
246073.45458984 3357366.49240112 15.49754810 68 74 74
246074.76721191 3357367.05123901 15.28919125 133 137 138
246069.70031738 3357366.62890625 17.33555412 20 24 25
246068.64746094 3357366.52905273 15.59840202 115 116 110
246069.65856934 3357366.60995483 15.32257557 66 66 68
246075.50891113 3357367.33105469 15.19731903 77 78 80
246071.54248047 3357366.84704590 15.51531506 76 79 84
246069.01733398 3357366.57049561 16.94207382 53 53 53
246071.78527832 3357366.74523926 15.58672619 234 237 244
246070.65258789 3357366.49465942 15.43212605 107 111 114
246069.05517578 3357366.50756836 15.29763985 57 57 57
246075.02026367 3357367.15823364 15.21496582 56 60 63
246074.58959961 3357367.87030029 15.43540764 92 91 87
246067.53686523 3357366.00045776 15.36246777 93 97 96
246074.54443359 3357366.96835327 15.28177547 91 91 91
246072.50463867 3357367.22729492 15.46235847 71 75 76
246071.10070801 3357366.65933228 15.43228912 59 61 58
246075.17028809 3357368.01510620 15.12371635 77 75 76
246074.91259766 3357368.32125854 15.14446449 85 86 88
246073.49267578 3357366.33111572 15.45675087 145 154 159
246068.60107422 3357366.20913696 15.12207985 89 95 91
246069.12939453 3357366.53283691 16.52882004 41 45 46
246069.29406738 3357366.49758911 15.23137379 58 54 53
246070.97143555 3357366.76095581 15.94035721 66 70 73
246075.49243164 3357368.56134033 15.13903713 62 66 67
246071.25463867 3357366.67721558 15.44662571 37 39 34
246072.51184082 3357366.75375366 15.37942696 68 69 71
246074.14440918 3357366.57177734 15.61995506 16 18 15
246071.97937012 3357366.45892334 15.43224239 193 194 199
246070.68688965 3357366.65457153 16.45349312 38 43 46
246067.92687988 3357366.03521729 15.13326931 101 105 104
246072.01501465 3357366.36685181 15.30232143 88 88 88
246068.39892578 3357366.45260620 16.75443649 76 78 73
246069.58911133 3357366.53338623 15.82528019 55 59 58
246073.50378418 3357367.04382324 15.73370743 21 22 24
246068.30883789 3357366.38638306 15.20948315 89 89 89
246067.50415039 3357366.24282837 16.05491829 57 59 56
246070.72021484 3357366.72534180 15.95597363 17 20 25
246074.53869629 3357366.23004150 15.12512112 20 19 24
246071.05297852 3357366.67199707 16.36313629 32 37 40
246073.12939453 3357366.05752563 15.14751339 103 101 104
246072.47961426 3357367.20278931 15.45223904 93 97 98
246073.92858887 3357366.68945313 15.56863117 73 74 76
246073.93994141 3357366.82974243 15.51848984 43 47 50
246068.67956543 3357366.51925659 15.65360355 127 126 122
246074.15600586 3357367.45373535 15.59541035 209 209 209
246070.78161621 3357366.44992065 15.31335545 103 109 107
246072.79455566 3357366.95669556 15.57735062 90 91 95
246074.90087891 3357367.47607422 15.36180496 251 255 255
246071.30847168 3357366.43942261 15.17157555 83 87 86
246075.55383301 3357367.90902710 15.09015656 143 145 142
246068.60253906 3357366.39315796 15.19681740 81 81 81
246074.54235840 3357367.60760498 15.50908661 123 127 128
246073.01330566 3357367.35852051 15.36065388 69 69 71
246069.07348633 3357366.60620117 17.41800117 61 60 58
246075.07080078 3357367.80908203 15.22735500 55 50 54
246075.20886230 3357367.24124146 15.20222282 41 42 46
246075.22424316 3357367.92639160 15.12688637 94 96 95
246075.19445801 3357366.82885742 15.14906025 50 55 59
246074.95092773 3357367.82421875 15.26206684 28 27 25
246070.48730469 3357366.69329834 15.73253155 39 44 48
246069.51806641 3357366.54205322 16.54740906 28 32 33
246067.94042969 3357366.22592163 15.18611622 91 96 92
246072.56396484 3357366.48083496 15.21038914 46 42 39
246070.84472656 3357366.43173218 15.24144459 101 106 102
246069.03381348 3357366.54162598 16.68855286 34 36 35
246074.06933594 3357366.52383423 15.63681602 74 76 75
246073.35009766 3357367.13745117 15.70181561 159 163 162
246074.39978027 3357366.77386475 15.33771706 147 147 149
246072.89599609 3357366.75424194 15.63666153 95 97 96
246069.16711426 3357366.51336670 16.03750992 58 60 59
246071.24438477 3357366.86764526 15.58553028 46 50 49
246071.88647461 3357366.36199951 15.33817768 87 87 87
246068.00512695 3357366.34524536 15.31710148 87 92 88
246073.17749023 3357366.24191284 15.29874611 134 114 116
246074.86865234 3357366.82089233 15.19630814 43 44 46
246067.91662598 3357366.38024902 15.82012081 79 80 82
246074.88183594 3357366.47610474 15.15737343 46 48 45
246069.94519043 3357366.52236938 15.39429665 61 65 66
246072.64489746 3357366.25701904 15.02690697 102 106 107
246072.29748535 3357366.80242920 15.41358280 58 58 60
246072.25683594 3357366.87045288 15.41532326 100 98 103
246067.61767578 3357366.21923828 15.67707062 90 92 91
246068.91296387 3357366.51010132 15.29610920 65 65 65
246073.20092773 3357366.48733521 15.47954845 44 49 45
246067.45837402 3357366.19046021 15.73988152 93 95 94
246075.98645020 3357368.31915283 15.12816620 87 87 87
246072.99816895 3357366.39166260 15.28258610 43 32 26
246069.16223145 3357366.56933594 16.77403641 57 58 62
246067.18420410 3357366.07296753 15.66583824 96 100 99
246068.06396484 3357366.45739746 15.51111412 72 76 75
246073.74230957 3357365.92572021 15.10647106 44 48 49
246069.52783203 3357366.62255859 15.41361809 40 44 45
246072.60632324 3357366.30780029 15.03922462 98 102 103
246075.76098633 3357368.69213867 15.15163803 64 65 67
246072.80810547 3357367.00869751 15.57637024 56 57 62
246071.94763184 3357367.20208740 15.40997219 35 35 33
246067.77270508 3357366.38195801 16.49749947 34 36 35
246071.11328125 3357366.85330200 15.73692703 37 41 42
246068.68090820 3357366.46829224 15.93305016 41 43 40
246069.42993164 3357366.50234985 16.04427528 49 50 52
246075.86975098 3357368.37072754 15.13697910 86 86 86
246069.40502930 3357366.50738525 16.02063179 49 50 52
246074.58349609 3357366.92486572 15.27507019 47 47 47
246075.31225586 3357368.47409058 15.13704967 50 50 50
246069.56542969 3357366.60293579 16.92597961 100 102 101
246074.16918945 3357367.50772095 15.58034992 175 174 172
246070.76403809 3357366.41412354 15.30747414 102 106 105
246071.69299316 3357366.52099609 15.40678501 72 72 74
246068.34533691 3357366.49014282 17.34777641 43 45 40
246074.41845703 3357367.55700684 15.55340672 60 60 60
246071.07788086 3357366.36126709 15.11502838 103 105 104
246069.79516602 3357366.62246704 17.14926529 74 74 74
246073.36706543 3357367.14706421 15.70120144 157 161 160
246071.70239258 3357366.32290649 15.23269558 102 104 103
246074.44909668 3357366.23638916 15.25790215 123 124 128
246073.03295898 3357366.41937256 15.34473038 99 90 83
246073.21496582 3357367.04077148 15.68653488 90 91 93
246075.47045898 3357367.98608398 15.11320686 129 129 131
246075.45385742 3357368.16098022 15.11186028 115 114 110
246074.64672852 3357366.31988525 15.10996151 44 45 47
246067.79333496 3357366.30352783 15.57868290 82 86 87
246072.94982910 3357366.19219971 15.09303761 115 115 117
246072.84167480 3357366.67443848 15.54703236 58 58 58
246071.23632813 3357366.90505981 15.98039436 40 44 43
246067.29968262 3357366.15045166 15.71249294 92 96 95
246074.41442871 3357367.32708740 15.56131840 217 221 222
246067.72436523 3357366.28509521 15.76274395 84 85 87
246071.07861328 3357366.72833252 16.17847061 35 39 42
246070.23339844 3357366.38854980 16.72846222 30 33 40
246069.60388184 3357366.60229492 16.99820518 108 110 107
246073.37866211 3357367.14794922 15.70375824 157 161 160
246068.22192383 3357366.41650391 16.36857986 71 72 74
246072.69433594 3357366.56008911 15.27937508 10 10 10
246072.52844238 3357367.09652710 15.43196678 68 69 71
246075.19128418 3357368.35238647 15.13900375 70 70 70
246068.91027832 3357366.54647827 16.92667961 55 55 55
246071.39746094 3357367.03884888 15.58543205 43 45 44
246072.29309082 3357366.57257080 15.32773495 62 62 62
246074.28833008 3357366.68560791 15.51633072 184 186 183
246075.26086426 3357368.28314209 15.12649155 80 79 77
246074.51379395 3357366.15356445 15.10047054 29 31 30
246074.65832520 3357366.31915283 15.11042595 50 51 53
246069.24902344 3357366.63125610 17.42188835 35 36 31
246068.37634277 3357366.49520874 17.31138802 49 51 46
246073.94897461 3357367.29431152 15.53836155 98 99 103
246069.42895508 3357366.53436279 15.85119629 101 102 104
246067.48425293 3357366.38912964 16.51849937 74 91 98
246071.25903320 3357366.92337036 15.64367104 48 49 51
246068.11437988 3357366.39044189 16.76514053 12 14 11
246074.98522949 3357367.51654053 15.33355904 194 203 202
246073.83142090 3357366.13800049 15.30468464 139 140 144
246070.73254395 3357366.63537598 16.70705795 43 47 48
246070.34399414 3357366.49786377 16.39935112 64 68 71
246072.75805664 3357366.56091309 15.29479122 26 24 25
246073.44396973 3357366.09085083 15.30030060 73 68 65
246068.08789063 3357366.49499512 15.73292637 83 85 84
246071.92602539 3357366.72775269 15.56493664 128 128 136
246072.36071777 3357366.54879761 15.31817341 62 61 59
246072.87463379 3357366.62994385 15.52971840 43 41 44
246071.23535156 3357366.48297119 15.22535896 77 82 78
246070.59411621 3357366.70300293 16.08919716 40 45 49
246067.48693848 3357366.38955688 16.48227882 73 90 97
246068.30517578 3357366.46499634 15.30660915 76 78 77
246067.77380371 3357366.11773682 15.24189281 97 101 100
246074.94140625 3357367.50637817 15.35443687 225 231 231
246071.17602539 3357366.81768799 16.07989120 46 49 54
246073.67529297 3357367.13485718 15.73262596 66 70 73
246070.95983887 3357366.80059814 15.63222694 34 40 40
246068.12695313 3357366.38024902 16.47365570 84 85 87
246071.47314453 3357366.82647705 16.47702026 44 43 41
246069.63574219 3357366.57931519 16.98470497 120 122 119
246073.97973633 3357366.49789429 15.61725712 33 34 36
246075.63562012 3357368.71322632 15.15150547 61 62 64
246074.34204102 3357366.84481812 15.36907291 163 158 162
246067.03564453 3357365.76983643 15.41553020 89 95 95
246069.06201172 3357366.60980225 17.28992653 60 59 57
246067.31933594 3357366.18914795 15.86770439 92 97 93
246074.59606934 3357366.75491333 15.23137283 60 58 59
246068.49316406 3357366.51348877 15.36448479 55 58 51
246075.89038086 3357368.07348633 15.10067463 135 137 136
246067.21057129 3357366.19479370 15.95985603 92 96 95
246068.43286133 3357366.52725220 15.64423752 59 61 58
246074.08154297 3357366.52441406 15.63758564 74 76 75
246073.16186523 3357366.87158203 15.68970776 69 73 76
246069.45922852 3357366.54928589 16.46665764 27 31 32
246067.67614746 3357366.24786377 15.66006279 88 90 89
246073.62817383 3357366.74670410 15.56089878 62 63 65
246075.00488281 3357366.74700928 15.16770935 24 25 29
246075.04919434 3357367.95684814 15.16998577 78 77 75
246074.23229980 3357366.28521729 15.53591537 48 49 51
246070.15405273 3357366.57730103 17.03830528 90 93 100
246073.96704102 3357366.80313110 15.52788448 33 34 36
246075.10034180 3357368.23171997 15.13400459 95 94 92
246068.69030762 3357366.49774170 16.50235558 13 14 16
246069.05920410 3357366.51644897 15.39144421 57 57 57
246069.24499512 3357366.57894897 16.75743484 53 54 58
246067.84521484 3357366.37695313 16.78612328 73 75 70
246074.44409180 3357367.39807129 15.57923031 213 215 214
246070.82019043 3357366.78573608 15.54822350 55 59 62
246074.07348633 3357367.38854980 15.54262161 168 172 173
246068.98937988 3357366.59161377 17.43753815 61 60 56
246075.01647949 3357366.37643433 15.14369965 85 84 82
246068.54760742 3357366.46768188 16.36380196 61 63 60
246071.91430664 3357366.61340332 15.57460785 123 124 129
246069.79260254 3357366.46466064 16.85633469 15 17 16
246069.13317871 3357366.49298096 15.26428699 49 48 46
246067.85998535 3357366.37500000 16.71026611 51 54 47
246072.78015137 3357366.28570557 15.05089855 103 103 103
246067.13269043 3357366.06478882 15.69358921 92 96 97
246070.73315430 3357366.55178833 15.42424870 103 109 107
246069.50891113 3357366.63113403 17.04080582 176 180 181
246073.77001953 3357366.95303345 15.55146980 59 63 64
246073.75744629 3357366.71362305 15.55168438 96 98 97
246074.63427734 3357367.04357910 15.29808044 40 42 41
246073.66735840 3357367.32168579 15.62593937 41 43 42
246072.29089355 3357366.93435669 15.41110611 105 105 107
246072.46472168 3357366.16030884 15.01153660 104 108 107
246070.36828613 3357366.62005615 15.66934395 55 59 62
246069.93420410 3357366.40109253 16.82210922 21 25 26
246068.10107422 3357366.43701172 15.39361286 72 76 77
246073.01794434 3357366.14462280 15.12091160 108 108 108
246074.64379883 3357367.90051270 15.41381836 101 97 94
246074.16967773 3357366.24188232 15.54179096 34 35 37
246074.65307617 3357366.92196655 15.27215385 35 35 35
246069.47399902 3357366.53381348 15.83065987 29 29 29
246072.41491699 3357366.54934692 15.32126713 71 67 66
246074.61511230 3357367.97747803 15.40146828 84 83 79
246068.06311035 3357366.23004150 15.16137695 100 106 102
246068.97277832 3357366.58743286 17.45244598 70 69 65
246075.45532227 3357367.67092896 15.11565495 76 66 64
246067.98693848 3357366.11416626 15.13316059 103 109 107
246072.88146973 3357366.17605591 15.06092739 111 115 118
246074.40222168 3357366.23992920 15.34664059 114 115 120
246071.70373535 3357367.04205322 15.52880096 58 62 63
246075.51293945 3357368.82028198 15.17721081 61 63 62
246074.78344727 3357366.21896362 15.09285831 71 70 66
246074.78491211 3357366.47811890 15.15541744 65 65 65
246072.87268066 3357367.26126099 15.43899345 85 85 85
246074.44921875 3357366.52355957 15.35979843 108 110 107
246068.64038086 3357366.48205566 15.85580540 59 59 57
246067.16870117 3357366.31118774 16.32114029 110 115 118
246068.63208008 3357366.50326538 15.73915291 109 109 107
246069.53735352 3357366.62359619 15.37083340 47 51 52
246068.61462402 3357366.54220581 17.39510727 49 51 48
246072.03686523 3357366.85079956 15.48035812 36 39 44
246069.46582031 3357366.62722778 16.96179962 134 138 139
246075.15991211 3357367.66430664 15.25357628 25 24 29
246074.83032227 3357366.58438110 15.16976261 57 61 62
246073.33068848 3357366.28106689 15.40643978 94 74 75
246069.36560059 3357366.47198486 15.14294243 55 55 55
246073.39587402 3357366.03259277 15.24180508 78 78 78
246073.30297852 3357366.51962280 15.49580765 27 29 28
246068.72924805 3357366.51861572 15.65933323 96 95 91
246068.86975098 3357366.58416748 17.34829330 104 104 102
246069.10412598 3357366.54086304 16.62845039 29 30 32
246074.96862793 3357368.02468872 15.16796017 45 44 42
246069.51928711 3357366.58685303 15.66596222 45 46 48
246072.58190918 3357366.76583862 15.37866211 48 50 49
246067.95190430 3357366.36541748 16.59820175 23 24 26
246074.77868652 3357366.15219116 15.06698608 91 90 86
246070.69616699 3357366.41516113 15.37044334 100 104 103
246068.68310547 3357366.48205566 16.34738922 27 31 30
246074.06811523 3357366.14447021 15.43531132 50 51 53
246072.57861328 3357366.20059204 15.01786709 101 105 106
246069.52343750 3357366.50286865 16.18660927 21 25 24
246068.03308105 3357366.11431885 15.12183189 101 110 107
246069.55102539 3357366.60229492 15.31552887 50 54 55
246069.79943848 3357366.47735596 16.10715485 49 53 54
246068.02124023 3357366.35775757 16.45245552 57 58 60
246073.08752441 3357366.22085571 15.20766544 91 80 78
246075.01281738 3357366.93972778 15.17292690 54 59 63
246072.27380371 3357366.46163940 15.26557350 68 69 71
246074.64477539 3357368.04412842 15.33073997 76 76 74
246070.68505859 3357366.72848511 15.90866184 21 22 27
246068.50402832 3357366.47509766 16.63445473 70 75 69
246070.36059570 3357366.64047241 15.70322132 62 66 69
246069.38525391 3357366.51174927 16.24654579 5 9 8
246069.52587891 3357366.60650635 15.54724979 35 36 38
246074.65344238 3357367.32693481 15.51709080 68 69 71
246068.34301758 3357366.44854736 16.57057953 67 69 64
246070.94458008 3357366.67846680 16.26962852 41 46 49
246073.08288574 3357367.35763550 15.37368011 124 124 124
246068.32458496 3357366.54592896 15.54140854 79 80 82
246070.56103516 3357366.59967041 16.54468346 5 10 14
246071.98364258 3357366.62918091 15.52575493 113 113 123
246068.96081543 3357366.52258301 15.35329437 63 63 63
246068.83361816 3357366.51202393 16.53934479 17 18 20
246067.74658203 3357366.29962158 15.90742493 83 85 84
246073.02648926 3357366.51647949 15.48454666 75 75 73
246070.46740723 3357366.61163330 16.28459167 27 30 35
246070.18481445 3357366.36761475 15.48402786 78 83 79
246069.00683594 3357366.50271606 16.31335449 112 116 115
246067.78845215 3357366.31558228 15.89783001 81 83 82
246073.81323242 3357367.42263794 15.50727367 93 97 96
246074.56140137 3357366.54449463 15.23200035 68 68 70
246069.73095703 3357366.47244263 16.78410149 24 25 27
246069.13171387 3357366.61761475 17.39346313 59 58 56
246070.70874023 3357366.66778564 16.37949562 54 59 62
246070.10559082 3357366.41171265 15.50655556 69 73 74
246071.66040039 3357366.55764771 15.40867996 74 74 76
246074.28454590 3357366.36224365 15.55929852 74 75 70
246070.77148438 3357366.63363647 16.64122581 47 51 52
246073.86450195 3357367.42642212 15.49109077 121 126 122
246069.14794922 3357366.52731323 16.45911217 44 48 49
246070.34216309 3357366.59552002 16.11833000 31 35 38
246074.64746094 3357366.25238037 15.09383202 57 59 58
246075.32666016 3357367.34481812 15.21864510 30 34 33
246074.39831543 3357366.42083740 15.45717716 153 153 151
246067.24499512 3357366.18789673 15.89297295 90 95 91
246068.70080566 3357366.54772949 15.43384075 52 52 44
246070.47668457 3357366.55102539 16.80598831 66 70 79
246071.05651855 3357366.82241821 15.81726074 72 76 77
246070.60021973 3357366.61791992 16.49059868 8 9 14
246070.69909668 3357366.54583740 15.45155048 106 112 112
246074.23864746 3357366.14987183 15.43049049 125 126 128
246074.76110840 3357368.21472168 15.16282749 59 59 59
246068.89208984 3357366.57934570 17.18183517 39 39 39
246071.87170410 3357366.95077515 15.53676319 56 60 63
246071.31396484 3357367.07501221 15.77678680 57 58 60
246069.80725098 3357366.40301514 16.51704025 62 66 69
246070.54357910 3357366.35858154 15.38702297 97 101 104
246073.30126953 3357367.29846191 15.57296753 91 96 92
246068.31896973 3357366.48007202 16.09936714 74 76 75
246067.93041992 3357366.32937622 15.39110279 85 89 88
246075.59680176 3357367.61917114 15.07668400 84 80 81
246073.81811523 3357366.81842041 15.52764702 66 66 68
246071.47326660 3357366.82852173 16.46990204 44 43 41
246074.15185547 3357367.04248047 15.41187477 52 52 54
246073.49072266 3357366.20733643 15.40681744 140 142 139
246074.53027344 3357366.58312988 15.27027130 121 121 123
246069.81542969 3357366.44906616 16.28988075 49 54 57
246069.12780762 3357366.53158569 15.76627636 62 64 63
246070.39270020 3357366.55871582 16.31385803 55 60 63
246073.86267090 3357367.26470947 15.60568428 84 85 89
246073.27416992 3357366.46820068 15.47013378 38 42 41
246068.16027832 3357366.12677002 15.11676311 96 100 101
246072.79064941 3357367.17645264 15.49807358 43 43 43
246071.39953613 3357366.91015625 16.15414619 60 60 60
246072.42456055 3357367.08633423 15.40237999 69 70 72
246067.69494629 3357366.27947998 15.90078926 83 87 86
246069.44934082 3357366.58926392 16.69261932 21 26 22
246075.73706055 3357368.06213379 15.10407066 138 138 138
246067.12414551 3357366.14077759 15.82886219 94 99 95
246072.52355957 3357367.03146362 15.41983509 58 58 60
246075.84777832 3357368.34957886 15.13516426 80 80 80
246074.36303711 3357366.28051758 15.45376015 170 171 175
246070.34118652 3357366.46908569 15.51758003 86 90 93
246074.02392578 3357367.12500000 15.44317722 20 21 25
246071.68432617 3357366.70846558 15.55828476 130 131 135
246068.17175293 3357366.41638184 17.11841393 80 82 77
246070.85168457 3357366.55267334 15.32162571 92 96 95
246067.61828613 3357366.10830688 15.40625381 93 98 94
246072.88391113 3357366.32620239 15.11657524 97 99 98
246068.36083984 3357366.43832397 16.91194725 73 75 72
246074.56091309 3357366.41152954 15.18185806 31 29 34
246069.65759277 3357366.50939941 15.18580627 68 72 73
246072.14270020 3357366.34469604 15.22344398 85 87 86
246074.19982910 3357367.33517456 15.56926060 154 155 159
246074.95251465 3357368.37854004 15.16963959 41 43 42
246073.89111328 3357367.51977539 15.41768932 100 100 98
246073.10534668 3357366.52743530 15.50630951 69 71 68
246067.64624023 3357366.26354980 15.99543190 84 89 85
246074.80505371 3357366.99270630 15.25645065 120 124 127
246073.39672852 3357366.43023682 15.46518517 121 126 130
246068.80065918 3357366.55972290 17.47468758 66 67 62
246069.19421387 3357366.55065918 16.66006279 43 44 48
246069.90588379 3357366.54641724 15.74872875 63 67 68
246068.72106934 3357366.53900146 15.54715252 62 61 56
246075.06066895 3357366.54598999 15.15062904 76 77 81
246068.44567871 3357366.53356934 15.57013226 59 61 58
246072.15905762 3357366.70193481 15.41771221 56 55 60
246069.20959473 3357366.55737305 16.69232941 40 41 45
246075.71630859 3357368.54010010 15.13390255 84 88 91
246073.45520020 3357367.22784424 15.69618511 169 175 175
246073.13635254 3357367.00103760 15.65025234 165 168 173
246072.74694824 3357367.25042725 15.50845146 43 43 43
246070.36413574 3357366.56024170 15.58176994 70 74 75
246070.18957520 3357366.38848877 16.78855515 30 31 35
246068.81689453 3357366.57452393 17.31122780 116 116 116
246070.48022461 3357366.72052002 15.82724285 29 34 38
246073.64929199 3357366.21310425 15.42975998 192 196 197
246068.16796875 3357366.47796631 15.95285034 67 68 70
246074.35375977 3357366.55560303 15.48055744 139 140 135
246073.28796387 3357366.11541748 15.27826023 86 74 76
246068.86120605 3357366.36627197 15.14595604 88 92 91
246074.12194824 3357366.04858398 15.28479385 41 42 47
246073.38549805 3357365.99636841 15.20138168 39 40 42
246074.18078613 3357367.48684692 15.59507656 175 174 172
246075.16235352 3357368.09500122 15.12294006 72 71 69
246073.15148926 3357366.29187012 15.30568695 135 111 111
246075.53417969 3357367.95550537 15.09707546 141 141 141
246075.50463867 3357368.04086304 15.10907650 141 141 141
246067.44104004 3357366.19320679 15.79480553 92 94 93
246069.01464844 3357366.59350586 17.09930420 59 59 59
246074.82312012 3357367.90994263 15.27589703 61 59 62
246074.25488281 3357366.11886597 15.37354088 17 17 17
246068.73474121 3357366.54544067 17.56780624 59 59 57
246075.15820313 3357367.27716064 15.22295284 32 36 37
246074.87963867 3357366.70788574 15.18352699 70 71 75
246071.72277832 3357366.36288452 15.26373959 105 106 108
246069.00378418 3357366.36709595 15.12973309 92 96 95
246071.31347656 3357366.61227417 15.39520931 75 81 77
246072.57141113 3357367.13378906 15.45602894 62 66 67
246075.01062012 3357368.19583130 15.12834930 131 132 134
246069.61828613 3357366.51443481 16.36633873 18 22 23
246068.53588867 3357366.53317261 15.47425747 77 78 72
246075.35498047 3357367.22830200 15.19144440 82 88 88
246072.55371094 3357366.48040771 15.21023941 46 42 39
246074.09057617 3357366.21487427 15.52458668 37 37 39
246074.66223145 3357367.39172363 15.53316021 83 87 88
246075.40295410 3357367.61425781 15.16107941 41 27 26
246075.29443359 3357368.59255981 15.19750023 40 41 43
246073.43835449 3357367.25915527 15.67211914 153 162 161
246075.22253418 3357367.33706665 15.23308945 31 35 36
246071.00793457 3357366.67233276 16.54961205 27 32 35
246069.23291016 3357366.53228760 15.89773750 34 36 35
246074.42773438 3357366.68981934 15.34377289 132 134 131
246074.15856934 3357366.33691406 15.60908794 23 25 24
246071.39355469 3357366.78244019 15.46077919 26 28 23
246069.99951172 3357366.56143188 15.57470989 62 67 70
246074.02258301 3357366.43441772 15.63088608 38 39 41
246067.28259277 3357366.20623779 16.01091385 93 95 94
246067.64831543 3357366.12203979 15.38822269 96 101 97
246068.46020508 3357366.50796509 15.78164959 57 59 58
246070.41210938 3357366.63705444 16.10868454 41 46 49
246068.34545898 3357366.47955322 17.24850464 65 67 62
246070.94628906 3357366.58218384 15.29260826 87 89 88
246072.27990723 3357367.23876953 15.41205502 71 72 76
246070.97070313 3357366.41860962 15.16529560 98 100 99
246067.11975098 3357366.09381104 15.75340748 89 93 92
246075.22363281 3357368.51736450 15.18044758 68 70 69
246072.74987793 3357366.29229736 15.04049110 102 104 103
246072.81298828 3357366.56985474 15.37944031 49 49 49
246068.84265137 3357366.45733643 16.17501831 121 126 122
246071.67333984 3357366.63659668 15.49145699 74 72 75
246071.97973633 3357366.60116577 15.51637936 152 152 164
246073.49670410 3357366.85638428 15.63443184 45 46 50
246070.42712402 3357366.51193237 16.61823082 95 98 103
246075.16955566 3357367.29193115 15.22619247 44 48 51
246073.01196289 3357367.10162354 15.54347992 69 69 71
246073.86938477 3357367.52557373 15.39998531 85 86 81
246070.03906250 3357366.33749390 16.76910210 49 53 56
246074.68945313 3357367.95379639 15.33830166 62 61 59
246067.28405762 3357365.81594849 15.32944107 88 92 93
246069.17126465 3357366.51416016 16.30584335 52 53 55
246071.11315918 3357366.68048096 15.45831013 49 51 50
246070.50402832 3357366.58074951 16.88516426 55 59 68
246072.13061523 3357367.06228638 15.41392326 59 60 62
246070.26208496 3357366.59582520 15.97655773 24 28 27
246073.65136719 3357366.10876465 15.27324009 65 65 63
246067.29125977 3357366.05288696 15.57013607 94 98 97
246073.46337891 3357367.02371216 15.71823025 18 19 21
246070.02624512 3357366.31939697 16.72918320 57 61 64
246074.49584961 3357367.55554199 15.53474617 146 150 151
246074.05493164 3357366.24389648 15.55029583 51 52 56
246074.71264648 3357366.27719116 15.10334015 64 66 63
246074.90197754 3357368.13781738 15.14267159 109 110 112
246071.88842773 3357366.38043213 15.36438274 108 109 111
246071.17468262 3357366.89343262 15.80314255 45 49 50
246073.21496582 3357366.31335449 15.37384319 133 111 114
246074.47863770 3357366.73892212 15.29696846 122 120 125
246070.78540039 3357366.70266724 16.17138100 16 21 25
246067.97058105 3357366.42773438 15.68243790 76 80 79
246071.71069336 3357367.06399536 15.52245045 51 51 53
246070.39733887 3357366.63159180 16.10011864 34 39 42
246068.65063477 3357366.45288086 16.02393723 22 24 23
246072.73925781 3357366.62631226 15.35675144 27 25 28
246068.23303223 3357366.43453979 16.28632736 40 42 41
246070.68041992 3357366.68789673 16.23360634 35 40 44
246074.50927734 3357366.13363647 15.08869457 43 44 46
246070.75708008 3357366.63281250 16.62692833 44 48 49
246070.47375488 3357366.71969604 15.90443325 30 35 39
246067.84484863 3357366.34518433 15.73655605 82 86 87
246074.44311523 3357367.64831543 15.52325821 42 41 39
246074.95190430 3357366.49862671 15.15967560 18 20 19
246074.64929199 3357367.95562744 15.38490582 74 73 71
246070.16198730 3357366.50180054 16.07171440 33 39 35
246067.98400879 3357366.39663696 17.12412453 64 71 63
246067.75537109 3357366.25234985 15.49656582 86 88 87
246068.06164551 3357366.46188354 15.54241180 73 77 76
246070.90527344 3357366.63436890 15.34195232 68 68 68
246069.68676758 3357366.49508667 16.25637627 32 36 39
246068.96459961 3357366.56771851 16.99168205 55 55 55
246068.31298828 3357366.45184326 17.07672691 74 76 71
246070.45849609 3357366.41729736 15.44867897 93 98 101
246067.89282227 3357366.31396484 15.41618443 87 91 90
246072.26269531 3357366.53094482 15.32123566 53 55 54
246073.61401367 3357366.87792969 15.59135723 38 38 38
246074.18859863 3357366.40039063 15.63990879 25 27 26
246075.23510742 3357367.02557373 15.15574074 26 30 31
246071.91918945 3357366.62863159 15.57740021 123 124 129
246067.73864746 3357366.38543701 16.52488327 27 31 32
246069.07678223 3357366.49420166 16.12981987 53 55 54
246072.07031250 3357366.98968506 15.44890881 36 37 41
246072.70581055 3357366.89297485 15.49890709 100 99 104
246070.09667969 3357366.33917236 16.78195000 39 43 46
246075.26245117 3357368.31265259 15.12585354 71 70 68
246071.86340332 3357367.11447144 15.45982265 40 42 41
246073.73608398 3357367.06143188 15.64284420 49 50 54
246071.31884766 3357366.87985229 16.11757851 50 50 52
246073.31115723 3357366.09786987 15.27802086 90 81 82
246074.49487305 3357366.66369629 15.30104733 122 122 122
246074.89709473 3357366.59490967 15.17072487 75 76 80
246072.08203125 3357366.83001709 15.45914555 33 34 39
246067.80224609 3357366.32040405 15.71460438 83 87 88
246070.25329590 3357366.58636475 17.02000618 42 45 50
246074.03149414 3357366.40338135 15.62174034 43 47 48
246068.65100098 3357366.54452515 15.51366329 107 108 100
246075.37536621 3357368.39569092 15.11466217 61 61 59
246071.12133789 3357366.76412964 16.13990974 47 48 53
246075.07922363 3357367.16271973 15.19640255 60 61 65
246075.55236816 3357367.87744141 15.08598423 140 140 138
246071.50354004 3357366.41427612 15.20393372 85 86 90
246073.41638184 3357366.72665405 15.60287857 39 39 39
246071.13208008 3357366.58941650 15.36734962 73 75 72
246074.63354492 3357367.06918335 15.31672668 82 84 83
246071.71582031 3357366.28808594 15.22043991 99 103 102
246072.76135254 3357366.36227417 15.08860683 85 85 85
246071.31811523 3357366.92022705 16.04064369 54 54 56
246067.99218750 3357366.09857178 15.12720871 108 114 112
246074.23840332 3357367.04718018 15.40342522 36 36 36
246073.35302734 3357367.21255493 15.66312981 165 171 171
246069.27551270 3357366.39916992 15.10841846 69 71 70
246072.93786621 3357366.41607666 15.26351738 61 52 47
246075.53723145 3357367.26483154 15.18208694 90 91 93
246075.01660156 3357367.71997070 15.28740120 19 17 20
246070.85876465 3357366.64709473 16.39542389 34 39 43
246070.25097656 3357366.55123901 16.09681702 28 32 33
246074.51086426 3357367.08377075 15.33666325 96 97 101
