245757.96417236 3357585.04254150 16.68260956 138 139 133
245778.42492676 3357588.41949463 16.54113960 154 156 153
245776.16741943 3357585.06903076 16.76749611 164 168 167
245771.81713867 3357584.93707275 17.06427193 66 67 71
245769.28735352 3357584.08337402 16.60304642 196 169 152
245755.73669434 3357583.50799561 17.01154327 61 66 70
245785.10894775 3357588.67779541 16.58227348 235 230 210
245776.56359863 3357586.34002686 16.50981522 168 170 169
245766.73376465 3357585.94323730 16.62697411 173 175 172
245774.76202393 3357586.44128418 17.20392799 84 86 85
245765.34478760 3357588.92108154 17.10717010 233 224 225
245764.62347412 3357585.10357666 16.83007622 89 84 80
245787.05908203 3357589.02349854 16.69665718 53 53 51
245761.19683838 3357582.21636963 17.12319183 234 234 232
245771.06970215 3357584.91802979 16.80967140 49 54 58
245756.44458008 3357583.60290527 16.86642838 58 68 78
245775.09863281 3357584.03167725 17.13851357 145 145 145
245762.65283203 3357582.72467041 16.84703064 211 208 193
245758.31835938 3357584.24890137 16.71278763 137 131 131
245763.05987549 3357582.86340332 16.74303055 48 49 51
245763.79528809 3357587.90887451 16.69957161 227 224 217
245766.29522705 3357584.66680908 17.27248192 151 152 154
245767.10296631 3357583.30859375 16.67923737 67 70 77
245760.75775146 3357580.97698975 17.02910614 71 70 68
245759.45361328 3357586.36303711 16.81949234 183 186 179
245764.21240234 3357588.24243164 16.62395668 207 209 204
245763.41076660 3357583.48950195 17.15671349 28 31 36
245761.05255127 3357589.05133057 16.96037102 80 80 82
245757.58459473 3357581.88909912 16.89622116 88 92 95
245788.66815186 3357590.51513672 16.37440109 181 184 177
245787.78814697 3357588.92187500 16.37966537 134 135 130
245770.74792480 3357586.55804443 16.60775566 233 230 223
245772.44030762 3357587.32025146 16.59351730 120 124 127
245759.72259521 3357582.22930908 17.17043686 88 89 93
245779.83648682 3357586.66674805 16.51504326 198 195 186
245775.85565186 3357585.48205566 16.74184036 52 55 60
245763.15191650 3357583.70147705 16.80326653 181 182 176
245762.09564209 3357589.65942383 16.61972237 222 218 209
245767.76287842 3357588.01776123 16.62527466 100 105 109
245774.57824707 3357585.75366211 16.84332848 233 238 241
245760.65679932 3357584.35491943 16.68357658 92 91 89
245780.46618652 3357588.13421631 16.70788002 104 103 99
245775.13006592 3357583.84570313 17.02333641 105 101 98
245777.48858643 3357585.53186035 16.52310753 156 156 156
245754.92224121 3357584.23937988 16.88199615 179 175 166
245779.07452393 3357587.98229980 16.58962250 94 98 99
245755.98492432 3357583.58666992 17.33792114 190 194 197
245764.48449707 3357583.14788818 16.78782463 139 139 137
245759.40808105 3357580.80523682 17.18566132 147 151 154
245771.34521484 3357586.97668457 17.08119774 123 120 115
245759.21234131 3357582.00433350 16.74332619 178 177 172
245785.53875732 3357589.38397217 16.66158676 64 64 66
245762.64739990 3357589.29486084 16.86142921 170 167 160
245759.95336914 3357581.14190674 16.67683220 105 108 113
245771.52465820 3357585.69085693 17.00639153 117 118 120
245775.34246826 3357584.31634521 17.14143372 132 139 147
245756.61419678 3357584.84649658 16.70985603 108 108 108
245757.27874756 3357582.68713379 16.92231178 182 179 172
245761.04949951 3357586.41516113 16.90697861 89 86 81
245765.30377197 3357584.07147217 17.06763268 38 42 45
245768.75433350 3357585.47393799 16.92106438 17 18 20
245760.77740479 3357580.89941406 16.90703011 160 161 163
245758.09704590 3357582.31103516 16.72723770 204 199 193
245774.34063721 3357585.30743408 16.56465912 94 93 89
245781.24420166 3357588.21075439 16.49216080 151 152 144
245761.07464600 3357583.54656982 17.01826286 90 92 91
245763.41613770 3357587.99230957 16.75900078 223 219 210
245762.96429443 3357582.17810059 17.18453979 82 80 81
245782.24639893 3357588.83142090 16.44988823 240 238 226
245769.70935059 3357587.02239990 16.58666992 197 188 179
245762.27307129 3357584.38928223 16.69888306 97 96 92
245769.54876709 3357585.87420654 17.06877136 152 153 155
245769.46234131 3357587.24133301 16.61971664 220 218 206
245776.97283936 3357586.93188477 16.60027122 64 68 71
245762.38342285 3357584.44482422 16.66353416 134 130 127
245773.70721436 3357586.67150879 16.58345032 202 196 184
245773.50152588 3357588.23266602 16.57803535 152 151 146
245780.55236816 3357588.04327393 17.07398224 74 72 73
245761.35382080 3357582.44879150 17.13955498 91 87 86
245776.02087402 3357588.16674805 16.76252174 49 51 50
245772.84289551 3357585.87066650 16.60287857 123 126 131
245761.76043701 3357585.08355713 16.69570351 204 201 196
245767.13757324 3357588.58081055 16.82179260 235 234 232
245759.07293701 3357582.40063477 16.94179344 22 32 34
245787.87835693 3357589.78826904 16.35068321 92 94 93
245762.32318115 3357589.14599609 16.69800186 218 215 208
245775.44494629 3357584.35321045 16.74752617 121 120 125
245759.62036133 3357582.49377441 17.05034828 147 152 155
245774.27343750 3357585.76934814 16.57303047 102 110 113
245758.30657959 3357581.01898193 16.78872490 31 36 40
245769.15692139 3357583.75256348 16.61994171 152 152 144
245756.81237793 3357582.52795410 16.76072121 167 167 165
245756.94244385 3357583.89068604 16.91330528 76 77 79
245760.65026855 3357582.96301270 17.07850647 19 22 29
245757.03289795 3357583.85186768 16.82999611 105 105 105
245762.12237549 3357588.31060791 16.62106133 123 123 123
245775.18676758 3357585.96374512 16.60170746 55 68 76
245773.83386230 3357584.51696777 16.64393616 114 118 121
245755.49255371 3357584.05242920 16.93839073 37 40 47
245758.31658936 3357584.07696533 16.67910576 122 122 120
245771.99938965 3357584.54992676 16.82004166 139 138 134
245773.95434570 3357587.72283936 16.65846252 156 156 156
245765.30548096 3357588.14862061 16.93632507 73 77 80
245769.38995361 3357585.02496338 16.67818069 137 120 110
245768.97711182 3357587.19000244 16.60034943 203 194 185
245770.56115723 3357584.09912109 16.99526596 69 73 74
245764.56958008 3357584.25970459 17.20237160 93 94 96
245782.57080078 3357587.41766357 16.89794159 98 100 97
245765.18078613 3357589.30566406 16.62237930 230 223 215
245758.80676270 3357583.33618164 16.85026550 109 111 110
245782.45056152 3357587.02734375 16.63969994 199 196 179
245765.62231445 3357588.60046387 16.85399628 114 114 116
245776.70324707 3357586.93591309 16.88389778 60 56 55
245771.92553711 3357588.57171631 16.53842545 108 108 108
245765.84167480 3357581.85321045 16.68251610 203 204 198
245768.85375977 3357583.88427734 16.82191658 169 169 169
245775.20220947 3357585.64520264 16.69083595 57 62 68
245764.21112061 3357584.52960205 17.21825981 188 190 189
245776.79730225 3357586.00500488 16.51734543 151 157 157
245767.03863525 3357588.41003418 16.75466728 213 210 203
245761.49230957 3357582.41253662 16.85230064 75 75 73
245772.04888916 3357588.11083984 16.60494804 220 211 204
245762.56195068 3357584.07806396 17.06734848 89 87 88
245767.54620361 3357586.59741211 16.77156067 183 175 172
245763.07525635 3357584.25762939 16.88421631 98 97 92
245770.64257813 3357583.18353271 16.70303917 29 27 32
245780.50756836 3357588.16632080 17.10363960 134 132 133
245769.40942383 3357585.35375977 16.68654633 121 116 112
245763.72344971 3357582.39581299 16.94101906 94 92 93
245768.00274658 3357583.52093506 17.00169563 70 78 81
245760.30041504 3357583.90173340 16.94618607 61 62 64
245762.59991455 3357582.51855469 16.74660110 186 179 169
245768.37457275 3357586.16943359 16.68621445 92 92 90
245761.05895996 3357586.62615967 17.41038895 157 158 160
245776.09814453 3357588.31011963 16.54070282 45 45 43
245771.18719482 3357586.05694580 16.58551025 164 170 170
245764.38055420 3357584.19030762 16.99986458 85 86 88
245775.74426270 3357586.25048828 16.74322701 108 109 111
245767.77606201 3357585.30383301 16.65548706 183 170 162
245770.38818359 3357585.04193115 17.18808365 79 63 63
245769.02905273 3357585.27770996 16.65419197 74 73 71
245760.35986328 3357583.83679199 17.01626396 70 74 75
245765.28985596 3357584.99383545 16.76577950 102 106 109
245769.06658936 3357586.46789551 16.58131218 200 202 201
245764.03234863 3357582.00909424 16.73872185 78 82 91
245780.02276611 3357587.94146729 16.59575844 213 209 198
245764.66406250 3357584.75964355 17.44343758 131 131 131
245761.76721191 3357584.50488281 16.76441765 188 189 184
245786.86901855 3357588.65734863 16.57876778 235 227 206
245761.92449951 3357582.00976563 16.67923355 78 87 92
245759.53759766 3357583.10095215 17.44703674 205 219 222
245776.25372314 3357588.19653320 16.51253319 71 71 73
245774.78680420 3357586.54382324 16.83038902 112 113 117
245762.94244385 3357582.40002441 17.22098923 197 193 190
245764.71765137 3357589.69989014 16.61748505 191 183 180
245767.55975342 3357587.29113770 16.76718521 231 231 223
245767.21582031 3357585.06591797 16.66773796 108 108 108
245772.73626709 3357585.54223633 16.82379341 132 133 135
245776.54626465 3357588.02447510 16.63699341 145 141 140
245772.90301514 3357584.70880127 16.61527252 90 91 93
245760.92352295 3357587.10235596 16.87463188 155 157 154
245766.91601563 3357588.28466797 16.71012878 185 185 177
245762.54913330 3357589.32806396 16.76599312 222 217 211
245773.75396729 3357586.88250732 16.68662453 185 179 167
245782.34808350 3357587.42871094 16.75347137 178 175 168
245760.47277832 3357581.74462891 16.84209061 158 160 155
245774.57849121 3357586.26470947 16.62717438 198 202 203
245760.42669678 3357589.02539063 16.90588188 94 98 97
245781.98577881 3357587.12512207 16.54056931 172 172 164
245760.75970459 3357582.30291748 16.79558945 188 181 173
245766.92730713 3357583.58270264 16.91833687 121 121 123
245772.25073242 3357585.86096191 16.61539078 61 72 76
245771.24938965 3357587.08312988 16.96414375 88 91 84
245770.87158203 3357588.32025146 16.85427475 50 55 51
245769.67352295 3357584.38159180 16.61518478 113 94 90
245785.15716553 3357587.59552002 16.45288467 203 203 193
245765.80895996 3357582.14801025 16.68026352 88 98 107
245763.52166748 3357582.29663086 16.97988129 121 121 121
245783.11175537 3357588.38574219 17.05697060 79 75 72
245764.67565918 3357584.22143555 17.24325752 19 20 24
245773.01306152 3357584.08288574 16.65376091 205 199 187
245762.31121826 3357583.28894043 17.04659081 70 64 66
245764.34643555 3357584.56817627 16.92871857 119 115 112
245761.34063721 3357587.76715088 16.89894676 44 45 47
245767.56097412 3357584.09631348 16.99837112 6 10 11
245768.50201416 3357587.56671143 16.85420418 126 126 124
245775.98284912 3357585.51068115 16.68420982 65 68 73
245776.25085449 3357586.66729736 16.50630760 90 92 91
245766.83227539 3357584.71832275 16.60828590 110 110 112
245758.11688232 3357581.75250244 17.01223755 168 170 169
245765.65356445 3357583.51538086 16.89784050 28 27 32
245777.62304688 3357587.79571533 17.10714912 102 102 100
245758.14837646 3357585.78063965 16.68777275 177 179 174
245771.36572266 3357585.00164795 16.65363312 78 83 86
245768.36730957 3357588.76702881 16.57174492 249 248 243
245755.03277588 3357584.72900391 16.82864952 178 175 166
245788.66253662 3357590.56500244 16.37807846 180 183 174
245759.57604980 3357582.93225098 17.48075676 202 204 203
245772.16369629 3357587.94628906 16.56083107 207 203 194
245765.02636719 3357583.28369141 17.14830208 70 68 71
245774.91387939 3357584.87963867 16.61719322 179 176 169
245767.03295898 3357584.71881104 16.61199379 105 106 108
245763.27545166 3357589.56573486 16.58078766 125 124 120
245771.01812744 3357585.45550537 17.01089096 127 118 121
245774.34722900 3357588.10998535 16.55649948 189 190 185
245774.02307129 3357584.08178711 16.57934761 69 78 87
245765.01074219 3357584.12109375 17.21199417 51 56 60
245767.50793457 3357583.98175049 17.04096031 17 15 20
245774.72210693 3357586.43212891 17.20808601 87 89 88
245767.70141602 3357587.95904541 16.63155937 92 98 98
245776.23846436 3357584.78485107 16.87166595 117 122 126
245774.92144775 3357586.52880859 16.63868141 46 48 47
245771.24853516 3357587.12847900 16.98109627 84 86 81
245762.91961670 3357588.69311523 17.12668037 160 161 163
245759.34564209 3357585.35235596 16.65841675 64 66 65
245761.25494385 3357587.83569336 17.23126793 104 105 109
245768.84857178 3357584.31146240 16.63508606 93 78 75
245761.95788574 3357583.42901611 17.12316513 69 71 70
245768.19177246 3357588.54241943 16.60467148 196 196 186
245783.03137207 3357587.47192383 16.90277290 248 246 249
245768.76513672 3357587.42742920 16.59913826 145 145 137
245756.89428711 3357585.12237549 16.68827820 167 164 159
245767.56835938 3357588.69409180 16.56372452 100 101 103
245774.98846436 3357584.95874023 16.70122337 162 153 144
245763.15625000 3357583.54254150 16.76164627 102 104 103
245761.63891602 3357587.60113525 16.65034103 117 126 135
245766.98236084 3357588.36358643 16.72636032 217 214 205
245766.25012207 3357583.60095215 17.17123413 143 138 135
245767.02166748 3357583.65765381 16.83648491 45 45 43
245771.57543945 3357584.49249268 16.57038116 156 158 153
245764.02185059 3357583.73406982 16.95824432 82 86 87
245760.76348877 3357587.21026611 16.77528763 221 220 216
245765.21459961 3357584.83575439 16.99878693 140 140 140
245759.19531250 3357584.57849121 17.10352898 156 147 138
245760.25152588 3357589.64947510 17.08490753 58 59 61
245779.02221680 3357587.80273438 16.63175392 84 89 93
245757.84173584 3357581.89221191 16.90297890 106 110 111
245769.98553467 3357585.16070557 16.84858513 92 82 83
245762.31768799 3357582.93121338 16.72632217 169 171 170
245773.70446777 3357584.12902832 16.92184448 118 118 118
245759.44982910 3357585.67999268 16.68265724 170 171 165
245764.51995850 3357583.14416504 16.78503418 210 207 202
245762.84271240 3357588.99731445 17.01530647 254 255 255
245787.32330322 3357590.07525635 16.37371445 224 224 224
245760.84460449 3357586.61834717 17.23444176 146 145 143
245777.07330322 3357585.07580566 16.52621651 105 110 106
245771.10815430 3357586.53967285 16.59875679 206 203 196
245757.08184814 3357584.05572510 16.91456413 144 144 142
245765.44396973 3357582.30505371 16.92359734 65 72 78
245768.62396240 3357587.56994629 16.67559052 116 114 115
245765.73553467 3357583.69171143 17.04419899 5 12 20
245769.23748779 3357587.27496338 16.60837555 227 224 215
245766.27032471 3357588.86914063 16.67631149 245 243 244
245784.29144287 3357588.07177734 16.61015129 83 91 93
245775.93536377 3357586.60388184 16.82901764 89 89 89
245764.32177734 3357584.50708008 16.82244682 160 160 158
245761.75085449 3357580.98895264 16.68162155 194 196 191
245757.83850098 3357584.71331787 16.71274567 137 137 135
245759.71398926 3357583.94934082 16.78089142 205 202 193
245780.60571289 3357587.30847168 16.68644142 95 98 103
245754.92675781 3357584.28613281 16.87013054 170 163 155
245761.56164551 3357588.46209717 16.62987137 221 221 213
245760.12573242 3357581.50714111 16.68564224 108 112 115
245760.10479736 3357586.99554443 16.70898247 198 195 186
245755.43005371 3357583.17736816 16.76424408 158 155 150
245762.44024658 3357582.36627197 16.70048141 210 206 197
245768.87402344 3357585.95758057 16.81723595 33 27 31
245760.20739746 3357585.45642090 16.65084457 196 195 190
245759.54467773 3357580.66003418 17.29280281 103 105 104
245775.55450439 3357585.79370117 16.73605919 107 109 106
245765.36297607 3357582.57580566 16.99299812 143 139 140
245773.99017334 3357584.53515625 16.58688927 60 70 79
245785.18090820 3357587.55004883 16.45817757 210 207 198
245770.21728516 3357585.00183105 17.16813850 103 69 68
245762.48968506 3357589.33447266 16.72545433 225 218 212
245781.79431152 3357586.98974609 16.56114197 218 214 202
245777.53295898 3357588.28692627 16.57627678 128 130 129
245762.37518311 3357587.93695068 16.67453575 228 223 217
245778.59173584 3357585.35485840 16.51615143 121 130 127
245768.65930176 3357586.77990723 16.59615898 199 196 189
245782.53155518 3357588.27160645 16.75543785 162 158 155
245766.45678711 3357584.63055420 16.87895775 63 61 64
245761.85937500 3357588.08593750 16.64156914 197 193 192
245773.32427979 3357583.97497559 16.65875244 220 213 205
245756.62292480 3357583.95404053 16.87379456 91 96 99
245766.53259277 3357585.88482666 16.64424133 164 166 163
245773.75531006 3357587.94689941 16.78349686 131 131 133
245774.60882568 3357584.05529785 16.56938171 141 142 137
245757.23260498 3357583.83666992 16.86064720 111 111 111
245763.57171631 3357588.91943359 16.66159630 118 117 113
245777.76953125 3357585.52130127 16.67799377 121 133 131
245781.14440918 3357587.05023193 16.50439453 232 232 220
245781.11248779 3357587.88586426 16.47464371 130 131 126
245764.83898926 3357585.57965088 16.66246223 176 172 169
245762.93762207 3357589.34704590 16.89577293 102 106 109
245775.41625977 3357584.61145020 16.78599167 73 74 78
245761.21234131 3357587.73107910 17.11734772 13 18 21
245766.59680176 3357584.49047852 17.14549255 75 75 75
245757.61535645 3357582.08026123 16.94005585 89 93 96
245760.27972412 3357583.87683105 16.98595619 83 84 88
245761.97326660 3357588.43756104 16.62360764 116 121 124
245772.36114502 3357584.72314453 16.90112495 57 59 58
245764.01690674 3357584.29571533 17.27942657 132 149 159
245761.23175049 3357587.65216064 17.04364204 16 17 19
245774.70111084 3357585.58209229 16.99065208 46 55 64
245758.70416260 3357583.38458252 16.90574646 153 151 152
245760.88989258 3357587.78222656 17.02580452 43 44 39
245762.96240234 3357589.05346680 16.95443535 142 147 150
245785.34985352 3357589.61682129 17.00645828 157 147 145
245755.65374756 3357583.44458008 16.85911369 61 66 72
245764.14013672 3357585.14324951 16.72180557 223 219 210
245757.31201172 3357585.25018311 16.70393181 211 205 193
245770.83795166 3357588.17730713 17.02899742 120 124 123
245764.66564941 3357584.76116943 17.19613457 129 129 129
245767.43908691 3357588.75140381 16.62744331 92 91 87
245774.27593994 3357586.37329102 16.55607033 143 151 154
245759.32873535 3357584.46514893 16.98699570 147 145 148
245768.68444824 3357584.73272705 16.62281990 76 70 70
245787.73309326 3357590.47290039 16.38409615 146 149 140
245757.16137695 3357582.84606934 16.78884315 185 184 179
245769.15435791 3357589.00268555 16.61428070 231 226 220
245772.97961426 3357584.82073975 16.61778831 83 85 84
245777.45855713 3357587.72613525 16.54035759 123 110 104
245776.03839111 3357587.22943115 16.77958107 55 55 57
245760.42285156 3357585.00634766 16.65983200 102 102 102
245760.18597412 3357583.69561768 17.06147194 66 62 59
245770.78918457 3357584.15515137 16.73435593 54 58 61
245762.18865967 3357589.60644531 16.61995697 224 221 212
245763.79602051 3357581.89233398 16.91399193 122 126 127
245773.56298828 3357583.68310547 17.15087318 102 110 113
245770.50061035 3357585.11437988 17.08748245 86 87 91
245781.51617432 3357587.64251709 16.61606407 204 201 192
245768.44281006 3357589.04870605 16.56603241 185 182 175
245764.51690674 3357589.04669189 16.60092926 174 175 170
245772.78527832 3357586.29461670 16.58847809 145 144 142
245782.94061279 3357587.03948975 16.56098557 224 220 209
245764.18475342 3357584.01287842 16.93261147 38 40 39
245765.21228027 3357583.78710938 16.99998474 26 27 31
245766.34747314 3357584.16534424 17.10311508 29 28 24
245770.54156494 3357583.57879639 16.94363976 89 98 97
245761.19665527 3357587.07318115 17.05667496 50 69 73
245761.72698975 3357584.95318604 16.67856216 180 176 173
245764.83190918 3357588.13934326 17.04263496 56 52 51
245772.04382324 3357588.26104736 16.57308388 130 129 125
245774.36614990 3357585.49792480 16.55899620 77 85 88
245763.46325684 3357582.14392090 16.88931465 113 116 121
245782.82446289 3357588.09130859 16.68418694 98 97 92
245765.91485596 3357588.58666992 16.71743202 96 103 113
245761.71392822 3357584.70361328 16.66522980 138 138 136
245769.57647705 3357587.57220459 16.64069939 224 220 209
245786.34698486 3357589.80224609 16.40884972 123 127 126
245767.50201416 3357584.02093506 17.05141449 20 20 20
245763.89666748 3357588.44769287 16.75765610 194 193 191
245767.89654541 3357585.96014404 16.90609932 113 115 114
245767.25061035 3357584.80169678 16.71979904 109 109 109
245760.10217285 3357584.34484863 17.15402794 139 141 140
245786.48681641 3357589.49597168 16.41337013 255 254 255
245765.52923584 3357584.79846191 17.11981201 98 101 106
245761.36358643 3357582.48620605 17.26644897 91 85 87
245760.21618652 3357588.21710205 16.66647911 139 143 144
245768.47186279 3357583.79589844 16.62687302 82 93 99
245764.20434570 3357584.50421143 17.31461143 225 227 226
245758.18164063 3357581.90179443 16.96182060 103 104 106
245770.63641357 3357588.37377930 17.09571457 60 55 51
245766.69549561 3357584.42706299 17.20436478 49 53 52
245785.90863037 3357589.50384521 16.39209747 138 142 141
245765.27069092 3357582.17620850 17.00127029 53 47 47
245778.54187012 3357587.71936035 16.72528267 113 112 108
245782.22546387 3357586.86413574 16.48648071 227 221 205
245767.57550049 3357588.65917969 16.55921745 96 100 103
245759.56451416 3357582.17999268 16.83485985 109 104 100
245767.66320801 3357585.54974365 16.68754578 171 170 166
245772.85845947 3357584.90246582 16.74146271 36 38 37
245775.06909180 3357587.84490967 16.55847931 235 229 217
245767.03729248 3357583.22839355 16.71348000 96 96 98
245773.45391846 3357584.74835205 16.66412926 175 168 158
245764.87811279 3357582.52441406 16.68849945 189 182 172
245761.55157471 3357587.42431641 16.65482712 108 117 126
245785.12921143 3357587.51818848 16.45766640 212 209 200
245765.98773193 3357585.31744385 16.63737106 128 131 136
245761.18060303 3357583.47613525 17.03959274 78 76 79
245761.64025879 3357582.25097656 16.72993469 56 63 69
245766.78515625 3357583.05303955 16.78264427 198 185 177
245755.66564941 3357584.69256592 16.71319580 97 99 98
245773.99835205 3357587.65509033 16.59616852 76 76 74
245766.92022705 3357583.31481934 16.91721344 34 30 31
245759.53125000 3357580.46948242 17.06848145 207 213 213
245761.54559326 3357584.89947510 16.67151070 203 200 195
245761.39068604 3357582.24139404 17.32075882 200 195 192
245759.16815186 3357585.63934326 16.72346878 183 180 175
245760.04785156 3357586.21331787 16.80159760 163 165 162
245758.78356934 3357584.44622803 16.69948196 190 182 179
245777.41894531 3357586.03021240 16.53939629 159 161 158
245761.63555908 3357584.20446777 16.91688538 123 123 121
245764.24835205 3357582.80529785 16.67449188 177 182 178
245771.70953369 3357586.20648193 16.58360672 88 96 99
245765.31976318 3357583.71069336 17.00013924 39 44 50
245761.42736816 3357582.59082031 16.85694885 57 59 56
245765.90460205 3357589.07324219 16.60249519 122 122 122
245768.87939453 3357585.71392822 16.85667229 46 47 52
245761.07299805 3357586.78143311 17.40895271 151 154 161
245756.02124023 3357583.46527100 17.35486221 163 168 171
245762.50366211 3357584.24389648 16.84441757 158 152 152
245769.55303955 3357588.28851318 16.74188423 98 95 90
245768.06921387 3357588.17889404 16.61821365 113 115 110
245759.40209961 3357586.26477051 16.84078979 184 185 180
245764.67541504 3357588.15692139 16.76646233 214 209 203
245771.22045898 3357584.88629150 16.66779518 57 62 68
245763.13781738 3357588.92034912 16.75074768 63 76 82
245766.87908936 3357586.06500244 16.60486603 165 167 166
245763.75585938 3357588.23028564 16.83320618 136 129 123
245773.64306641 3357583.67114258 17.14397430 8 23 28
245760.99450684 3357585.05310059 16.64512062 154 155 150
245755.31585693 3357583.47924805 17.29786682 22 23 25
245761.82757568 3357584.68023682 16.67192650 154 153 151
245773.90472412 3357584.61889648 16.58090019 48 57 62
245760.47766113 3357581.24627686 16.74649620 177 182 176
245774.34594727 3357586.05535889 16.55265427 147 153 153
245785.65747070 3357588.58978271 16.44746399 96 95 91
245785.56250000 3357587.85107422 16.44896126 210 208 196
245756.30541992 3357584.21917725 16.91049004 76 80 81
245761.47094727 3357587.70367432 16.70813370 95 102 112
245765.82977295 3357583.47320557 16.69703293 96 100 101
245766.57019043 3357585.80249023 16.64750290 168 170 167
245770.38757324 3357587.45452881 16.64515495 226 222 213
245782.38128662 3357587.59289551 16.86946869 124 124 122
245778.31182861 3357588.42242432 16.53613091 187 187 185
245760.12176514 3357583.57281494 16.89645195 96 100 103
245755.12213135 3357584.36480713 17.12253380 16 15 13
245770.28704834 3357584.64074707 17.02139091 147 142 139
245773.91394043 3357585.03753662 16.62527847 186 187 189
245765.26617432 3357583.17864990 16.77343750 73 73 75
245775.99719238 3357586.06481934 16.66032219 32 39 45
245758.50354004 3357584.25085449 16.71286392 190 186 183
245766.05242920 3357584.49871826 17.14874268 54 55 57
245755.34429932 3357584.47619629 17.01120377 14 14 14
245758.59460449 3357580.65612793 16.74850845 185 190 186
245778.26147461 3357586.39880371 16.52827835 213 212 208
245761.08862305 3357587.75280762 17.18449402 30 30 32
245760.52014160 3357580.91394043 16.79456711 171 171 169
245756.35491943 3357584.97015381 16.70942497 151 150 145
245759.38848877 3357580.84881592 17.13781738 145 147 146
245782.37121582 3357587.56262207 16.78025246 98 99 94
245770.61834717 3357586.63439941 16.61147690 184 179 173
245775.32348633 3357584.26477051 17.16847420 112 119 127
245759.71929932 3357586.08355713 16.84976006 186 189 182
245767.04974365 3357584.73937988 16.61488914 147 147 147
245776.64605713 3357586.98541260 16.93071938 75 73 76
245776.13952637 3357585.27447510 16.71982193 139 140 142
245761.81695557 3357588.82244873 16.62451172 223 218 212
245776.15881348 3357587.27026367 16.72495079 57 58 62
245772.55633545 3357585.11950684 17.04773331 73 73 73
245769.69628906 3357588.33703613 16.83514404 223 225 224
245764.69287109 3357589.22381592 16.62350845 176 176 174
245778.09173584 3357586.11987305 16.51088524 160 161 155
245776.48046875 3357587.73284912 16.69234467 98 97 102
245763.46569824 3357582.61962891 16.71788025 90 88 91
245775.13000488 3357588.10137939 16.53872490 205 199 187
245763.12377930 3357588.64459229 16.83299065 117 120 127
245761.64819336 3357581.56243896 16.67484856 179 181 176
245766.12115479 3357583.66754150 16.86124420 117 112 109
245767.33892822 3357585.13873291 16.66860962 110 107 102
245785.53375244 3357587.62811279 16.44951057 220 218 206
245781.81585693 3357587.59576416 16.77656174 61 65 66
245771.22851563 3357584.89630127 16.66927338 61 66 70
245771.64782715 3357585.81072998 17.07078743 110 111 113
245758.06011963 3357585.25775146 16.69500923 188 183 177
245764.50085449 3357582.44165039 16.66796303 209 209 207
245762.89086914 3357585.00994873 16.65374184 217 206 200
245761.27893066 3357587.79888916 17.12516022 25 26 28
245777.99157715 3357586.37597656 16.52869797 255 255 253
245764.59570313 3357584.51599121 17.14662361 190 194 195
245772.36840820 3357584.20391846 16.77398109 31 20 18
245763.76660156 3357588.88763428 16.85250854 86 82 79
245769.03839111 3357588.82519531 16.60502052 231 231 223
245784.23638916 3357587.76165771 16.81085396 36 40 43
245759.26708984 3357581.16699219 17.25723839 149 149 149
245765.49230957 3357588.96380615 16.89902115 99 99 99
245758.12579346 3357580.73388672 16.98491478 169 171 168
245757.80804443 3357583.74096680 16.81590652 77 84 92
245759.42205811 3357581.28112793 17.47714043 106 106 108
245761.26257324 3357583.21618652 16.86853218 178 177 175
245767.84741211 3357585.68927002 17.22513771 216 216 214
245767.20159912 3357586.46936035 16.58646011 186 188 187
245785.69976807 3357588.78497314 16.42111397 91 92 96
245772.24670410 3357584.81311035 16.86505508 27 31 34
245761.28460693 3357580.69805908 16.69419670 147 153 153
245758.26678467 3357581.43524170 16.96175957 91 95 98
245774.39282227 3357584.24444580 16.54966736 145 141 140
245757.67370605 3357584.72076416 16.72546196 94 94 92
245772.16027832 3357585.39379883 16.93804932 13 16 21
245788.14343262 3357589.27526855 16.37464905 213 210 203
245765.53533936 3357589.41815186 16.63562202 218 215 210
245771.43310547 3357587.05505371 16.85734749 157 168 162
245775.78594971 3357584.34350586 16.62895012 81 85 88
245762.58630371 3357582.49255371 16.74311638 184 175 166
245769.05090332 3357585.20983887 16.63995934 82 75 69
245758.04302979 3357582.38104248 16.71105766 201 198 191
245763.31433105 3357589.08831787 16.61067200 114 110 111
245769.33935547 3357585.41326904 16.62323570 101 100 98
245757.15380859 3357584.00555420 16.87880898 81 81 81
245758.35845947 3357585.91680908 16.68516922 166 168 163
245778.06475830 3357585.80480957 16.54112625 117 119 118
245764.27886963 3357584.35455322 17.22154236 36 36 34
245757.40795898 3357581.64080811 16.94259071 68 70 69
245761.07806396 3357582.31365967 17.06367302 230 226 227
245766.28106689 3357583.76007080 17.25065231 77 70 60
245759.69921875 3357582.16375732 17.09166718 98 93 99
245761.17370605 3357582.29040527 17.26639366 246 246 248
245756.06085205 3357583.47442627 17.32619476 178 186 189
245774.67132568 3357586.22424316 16.74763870 128 132 135
245784.47460938 3357587.65441895 16.51943588 104 106 103
245763.42999268 3357581.62866211 16.88852692 199 195 184
245779.16503906 3357587.05438232 16.59728622 210 202 191
245760.66052246 3357580.45599365 16.76456451 153 155 150
245766.00555420 3357583.10662842 16.63100243 112 120 123
245786.06488037 3357588.34405518 16.41255569 254 254 252
245764.85424805 3357588.74456787 17.11329460 180 185 188
245760.22454834 3357590.06011963 16.84248924 38 36 37
245768.00476074 3357586.00427246 16.91060066 176 176 174
245764.36749268 3357582.19256592 16.66296387 199 203 204
245763.65771484 3357581.96881104 16.83756828 120 119 124
245759.81066895 3357581.99426270 16.91257095 113 114 109
245764.75543213 3357584.10083008 17.24810028 49 55 55
245769.25115967 3357587.78460693 16.62080574 132 133 135
245761.32983398 3357588.84344482 16.66993141 83 82 87
245756.10394287 3357584.80395508 16.69837379 103 104 106
245766.21551514 3357585.39703369 16.62141228 199 196 191
245769.95330811 3357584.47174072 16.70507622 114 96 92
245787.93951416 3357589.69360352 16.35512352 155 156 151
245776.57348633 3357587.05932617 16.81535530 177 179 178
245776.81762695 3357587.62420654 16.65348625 73 71 74
245780.87902832 3357587.44750977 16.59959030 125 127 126
245764.59118652 3357584.31872559 17.19146156 45 47 46
245760.64294434 3357581.60961914 17.06333542 113 112 110
245757.60064697 3357581.46697998 16.75522423 69 77 80
245759.17474365 3357581.34313965 17.04380989 187 187 185
245779.55462646 3357588.39672852 16.49643326 204 204 204
245781.99932861 3357587.64916992 16.59692383 86 92 90
245762.72393799 3357581.71569824 16.79092407 213 208 202
245775.96038818 3357585.73431396 16.70261383 44 49 55
245772.42089844 3357584.62963867 16.84556961 24 26 23
245773.94012451 3357587.74365234 16.69098473 69 69 67
245761.56848145 3357588.12628174 16.66436386 112 121 126
245765.71051025 3357587.98956299 16.96960258 76 86 95
245765.65710449 3357588.07745361 17.03016472 63 73 82
245759.33697510 3357581.26214600 17.48587227 150 150 150
245776.33282471 3357587.84002686 16.71081924 70 70 72
245768.92272949 3357584.89270020 16.63043404 96 88 86
245759.59454346 3357582.16864014 16.88236237 98 95 88
245758.25958252 3357583.39593506 16.73359299 206 203 194
245757.30267334 3357581.89257813 17.14276886 174 174 174
245771.95343018 3357584.42852783 16.69360733 177 173 170
245762.01055908 3357588.88134766 16.63852119 222 215 209
245757.95141602 3357581.80615234 16.85654259 111 115 116
245776.68389893 3357586.38037109 16.53307915 240 241 235
245758.02844238 3357581.01214600 17.08522987 156 156 158
245760.93768311 3357587.28222656 17.05644035 250 250 248
245759.29742432 3357585.24725342 16.71501732 54 52 53
245762.29943848 3357588.53747559 16.64756966 228 228 220
245761.50335693 3357582.82971191 16.79271126 64 63 61
245770.67413330 3357584.28607178 16.82560921 153 155 152
245762.23248291 3357584.18676758 16.91867447 84 84 84
245760.95251465 3357589.64202881 16.88426018 158 156 157
245765.40264893 3357582.96026611 17.03924942 100 100 100
245766.47875977 3357583.23419189 16.65074158 199 205 205
245769.77423096 3357588.19042969 16.84006119 208 214 212
245764.08917236 3357589.26220703 16.64716911 84 84 82
245773.61132813 3357584.60076904 16.81900597 63 58 54
245776.63861084 3357584.83093262 16.59056664 58 65 71
245773.09069824 3357584.33099365 16.62189484 213 210 201
245772.90509033 3357586.98986816 16.63054848 231 224 214
245760.39532471 3357589.04431152 16.99093819 40 42 41
245776.22912598 3357586.70483398 16.50668907 87 88 90
245788.27355957 3357589.76147461 16.34966850 176 175 171
245773.46374512 3357583.91284180 16.74732971 212 205 199
245773.05004883 3357585.43487549 16.64765167 51 61 70
245765.07360840 3357584.88934326 16.90276909 98 102 103
245761.97888184 3357589.86035156 16.59374237 198 194 191
245756.32635498 3357584.63214111 16.75601387 199 194 188
245766.21014404 3357583.48303223 16.82815742 217 200 182
245757.14196777 3357581.30877686 16.80201340 162 159 152
245771.83636475 3357586.98590088 16.56517982 215 211 199
245760.03436279 3357583.77758789 17.13253975 202 204 203
245777.39562988 3357586.75048828 16.55593491 196 192 183
245771.45239258 3357589.07037354 16.54607773 216 209 201
245763.97528076 3357582.85028076 16.83565521 199 190 183
245763.79748535 3357588.19671631 16.83219528 144 135 130
245766.47692871 3357583.76110840 17.10058403 52 43 44
245773.39550781 3357585.36206055 16.59512520 66 72 72
245758.58886719 3357580.63586426 16.74736214 185 189 188
245761.29162598 3357583.69305420 16.95656586 43 45 44
245758.29681396 3357581.07861328 16.79584312 40 45 51
245769.19860840 3357588.25885010 16.67082405 171 171 163
245762.76037598 3357581.80456543 16.82208061 213 209 200
245762.42736816 3357582.88061523 16.92970657 133 134 126
245776.52825928 3357588.33795166 16.52080917 117 118 113
245762.22619629 3357583.16473389 16.89819717 112 116 117
245760.68859863 3357580.74237061 17.14511681 85 83 88
245765.09808350 3357584.75689697 16.75608063 72 76 77
245769.80023193 3357585.98565674 16.92092896 50 53 60
245770.59429932 3357588.17095947 16.77747154 114 116 111
245764.05822754 3357584.14178467 17.23867798 145 159 170
245764.54791260 3357582.86547852 16.70669937 201 202 197
245771.29522705 3357585.29504395 16.73720932 57 65 68
245762.67218018 3357582.82775879 17.09996414 111 97 88
245779.74975586 3357588.11071777 16.62130928 210 203 193
245767.37518311 3357587.87872314 16.99991226 53 57 60
245763.84710693 3357582.19177246 16.94892883 182 176 178
245785.76538086 3357589.74639893 16.39305878 126 126 126
245784.42114258 3357589.05151367 16.44578362 96 93 84
245765.57061768 3357584.99279785 16.92562675 175 178 183
245773.78448486 3357584.57965088 16.67153168 42 44 43
245780.62805176 3357587.42962646 16.71267891 95 99 102
245762.46514893 3357583.18640137 17.26014328 174 178 179
245771.25207520 3357583.59851074 16.59654617 74 74 74
245775.88122559 3357587.41632080 16.68889427 176 172 160
245758.04742432 3357582.35876465 16.71658516 201 197 188
245760.82092285 3357583.91253662 16.70075798 89 88 86
245761.79681396 3357588.45501709 16.63060379 211 210 206
245781.62207031 3357586.89086914 16.48954773 209 203 187
245771.78137207 3357584.74212646 17.01509476 66 63 58
245782.74517822 3357588.28265381 16.68209648 107 106 101
245781.38220215 3357587.02734375 16.48550606 231 227 215
245763.86523438 3357583.36053467 17.11342621 77 76 81
245781.76556396 3357587.56182861 16.83766937 56 60 61
245773.20635986 3357585.61224365 16.63577271 76 83 91
245783.36065674 3357587.73815918 16.85587120 104 108 109
245774.48779297 3357587.27160645 16.55270004 224 224 216
245779.26837158 3357587.19256592 16.56553078 200 196 185
245770.26037598 3357589.30853271 16.55749893 235 231 222
245771.25921631 3357585.65368652 16.91505241 45 55 57
245758.89843750 3357582.44921875 17.15834999 30 33 40
245759.66748047 3357582.90783691 17.25408745 136 137 139
245757.44207764 3357585.28540039 16.70468521 213 206 196
245764.86901855 3357582.17065430 16.71158409 206 202 193
245771.31921387 3357586.90246582 17.06072044 150 141 132
245770.57177734 3357585.47241211 16.96119690 26 26 28
245768.25622559 3357587.25177002 16.67442322 170 166 155
245758.05645752 3357584.08020020 16.69860268 144 143 149
245769.93402100 3357584.53649902 16.74205017 101 89 89
245771.45709229 3357586.93298340 16.67441177 131 130 126
245777.96008301 3357586.88336182 16.55842972 171 166 162
245764.79199219 3357587.97100830 16.85744858 233 232 227
245771.35382080 3357588.06433105 17.14723396 61 62 64
245759.42962646 3357582.28594971 16.79429245 99 99 97
245758.28582764 3357580.68585205 16.83067131 169 171 166
245764.20526123 3357584.76806641 16.70988274 186 178 165
245767.49609375 3357587.12915039 16.70534325 234 231 222
245755.85516357 3357583.82061768 16.92849922 79 83 86
245767.97668457 3357586.22174072 16.93466949 169 169 167
245766.06243896 3357582.22137451 16.63893890 133 133 133
245767.65563965 3357583.56628418 16.70499420 169 166 161
245780.54992676 3357587.37738037 16.72877121 101 109 111
245769.73846436 3357587.68817139 16.72305489 215 210 204
245759.97729492 3357582.86242676 16.80125809 63 66 71
245787.52862549 3357589.28845215 16.36177063 93 100 106
245767.89141846 3357584.79254150 16.65781975 87 83 80
245774.55584717 3357587.83673096 16.55957031 112 117 111
245764.47845459 3357583.28979492 16.82346535 97 105 108
245780.47875977 3357588.44079590 16.55903435 248 243 239
245763.84161377 3357582.86206055 16.84719658 105 105 105
245777.88867188 3357588.01507568 16.69016838 144 140 137
245760.50177002 3357588.36596680 16.65621185 174 175 170
245767.74481201 3357587.77783203 16.61935997 102 106 107
245760.45391846 3357589.48168945 16.92873955 72 75 80
245785.22924805 3357589.58135986 16.66159058 162 144 132
245763.92913818 3357588.24108887 16.68372345 141 142 136
245769.59509277 3357586.95031738 16.58101654 192 188 179
245759.91217041 3357580.66876221 16.67937851 55 65 67
245768.06475830 3357583.67669678 16.90842247 72 73 75
245780.76660156 3357587.93725586 16.60417366 122 126 129
245769.05999756 3357583.66217041 16.80520439 132 131 126
245755.11236572 3357584.78662109 16.84870529 126 123 118
245760.61083984 3357580.55615234 17.08363152 211 210 208
245765.29095459 3357587.83905029 16.97707367 84 88 91
245773.64898682 3357587.57141113 16.67061996 69 65 62
245759.16595459 3357582.68774414 16.80662346 53 61 64
245781.30749512 3357587.41479492 16.53004074 222 221 203
245764.80566406 3357584.64953613 16.88425636 94 100 100
245770.84350586 3357588.05993652 16.98008347 131 133 132
245772.41967773 3357588.02294922 16.64350891 221 212 203
245755.81561279 3357583.09320068 16.77666855 177 172 166
245761.94348145 3357583.85363770 17.01510811 116 118 117
245769.90264893 3357584.21856689 16.58673477 181 154 143
245772.39978027 3357584.43188477 16.80696487 43 44 46
245770.82849121 3357588.78875732 16.54406738 225 220 216
245770.13763428 3357584.63537598 17.41720200 245 247 246
245770.18115234 3357589.06475830 16.56804466 233 230 223
245763.79064941 3357588.56524658 17.01924324 180 175 172
245759.87615967 3357581.49047852 16.67899132 108 108 110
245756.85113525 3357584.65240479 16.73956299 67 68 70
245768.61431885 3357583.76245117 16.63131714 94 102 105
245766.39990234 3357583.25122070 16.65254211 184 192 195
245760.51245117 3357580.16448975 16.68410873 210 207 200
245785.31787109 3357588.01708984 16.42858696 215 211 200
245772.19433594 3357587.50628662 16.60953140 110 115 119
245778.22851563 3357587.70410156 16.60565376 134 135 130
245776.39727783 3357586.77600098 16.54306030 96 96 98
245783.46484375 3357588.06958008 16.70398521 72 77 81
245786.86059570 3357589.25048828 16.51552773 232 229 210
245763.29724121 3357589.26818848 16.58685875 137 131 131
245768.14001465 3357585.63183594 16.64459419 83 81 82
245770.12811279 3357588.51477051 16.55860710 206 208 207
245760.05700684 3357590.06579590 17.17747879 87 87 87
245763.68804932 3357589.25268555 16.72352219 222 212 200
245771.97155762 3357585.24188232 17.15597534 54 55 60
245757.16137695 3357582.67272949 16.80808640 218 215 210
245765.32855225 3357588.98291016 16.80930138 127 126 124
245771.52917480 3357585.38842773 16.69727707 124 125 127
245775.44860840 3357588.34918213 16.52129745 182 175 165
245758.69238281 3357580.82977295 16.69627762 185 185 183
245780.06994629 3357587.34442139 16.74376869 217 208 199
245769.92053223 3357588.79882813 16.56251144 217 219 216
245758.58367920 3357585.66418457 16.72080994 182 183 177
245771.96728516 3357584.06970215 16.60921860 183 180 171
245761.21972656 3357589.17297363 16.86569786 110 114 117
245769.78125000 3357589.21246338 16.55430222 232 225 217
245775.14294434 3357585.41589355 16.92607307 203 204 208
245764.77954102 3357584.87738037 17.18354225 145 147 146
245771.13922119 3357588.55346680 16.57065010 123 125 124
245769.49389648 3357585.81274414 17.18396187 239 240 242
245786.65393066 3357589.52386475 16.43648911 199 195 186
245754.91149902 3357584.68194580 16.77905273 189 183 171
245770.15069580 3357585.04309082 17.07797623 172 152 153
245754.79162598 3357584.17413330 16.82792282 190 186 177
245758.71551514 3357581.25854492 16.72813034 81 94 102
245761.32183838 3357583.68096924 16.90218353 40 41 43
245768.61608887 3357586.14874268 16.67516518 148 154 142
245770.22351074 3357588.75604248 16.55396461 201 201 199
245759.91839600 3357584.09216309 16.97142029 200 199 194
245769.93609619 3357587.62957764 16.85449028 70 69 74
245774.49163818 3357585.67144775 16.63797188 119 125 125
245772.14862061 3357585.00671387 17.11079216 143 117 126
245758.64703369 3357582.77441406 16.80735970 153 153 151
245783.62341309 3357587.04565430 16.48590088 205 199 185
245772.09417725 3357584.46228027 16.80145645 88 89 84
245765.27313232 3357589.79467773 16.62704277 232 225 217
245785.80029297 3357588.26782227 16.40895844 211 206 200
245764.89813232 3357583.51898193 16.91053009 164 157 151
245760.26477051 3357587.17468262 16.71434975 202 198 189
245766.74176025 3357585.86187744 16.63526917 171 173 170
245757.43054199 3357584.81091309 16.72574615 115 115 113
245767.72552490 3357585.93072510 16.72273064 149 149 147
245763.16564941 3357583.75494385 16.83561707 209 210 202
245759.37084961 3357580.94171143 17.21367455 138 138 138
245762.23480225 3357589.73718262 16.59965706 225 221 212
245778.48541260 3357588.22570801 16.56120682 92 92 90
245755.43383789 3357583.65344238 17.17130089 26 30 31
245776.54443359 3357587.42510986 16.66632080 133 133 135
245778.03338623 3357585.93267822 16.52901459 110 112 111
245781.73333740 3357588.66461182 16.52477264 154 154 144
245766.79150391 3357584.59063721 16.64316177 175 174 170
245759.07916260 3357581.67877197 16.73633575 165 164 160
245772.49114990 3357586.59313965 16.58402443 192 185 179
245778.13262939 3357588.36480713 16.50831223 134 134 132
245770.68920898 3357587.93310547 16.86404991 152 153 147
245766.72314453 3357583.34686279 16.91855431 150 142 139
245756.21691895 3357584.08959961 16.98906326 96 100 103
245765.64196777 3357583.04559326 16.62539291 81 87 87
245770.09204102 3357586.38305664 16.57613182 133 137 138
245771.19348145 3357586.49877930 16.58351707 232 236 235
245775.11920166 3357583.97918701 17.27841377 229 231 230
245765.34454346 3357585.28027344 16.62270737 113 121 124
245781.59466553 3357587.24981689 16.82475281 162 161 156
245778.05529785 3357587.70245361 16.66639519 188 187 182
245760.55419922 3357589.23187256 16.82396698 53 56 61
245774.89886475 3357584.17248535 16.67061234 181 178 169
245776.84173584 3357587.49224854 16.66570282 83 83 83
245765.23040771 3357589.06384277 16.67582703 142 140 141
245776.21624756 3357585.31091309 16.85752106 186 191 197
245769.48681641 3357587.20568848 16.61822891 222 220 208
245777.93719482 3357585.99993896 16.54511452 167 166 164
245770.69555664 3357585.58978271 16.99711800 44 49 55
245773.61267090 3357587.03387451 16.61702538 191 187 178
245762.96331787 3357582.23675537 17.15652275 101 101 103
245767.18957520 3357583.90197754 16.90062141 52 60 63
245770.53039551 3357586.62176514 16.59405327 187 184 179
245782.79571533 3357587.21166992 16.67188835 104 100 91
245764.80096436 3357588.83862305 17.13298988 224 228 231
245755.24426270 3357583.17749023 17.56022263 86 89 94
245760.89562988 3357584.44750977 16.72016335 207 202 198
245766.06835938 3357581.94140625 16.64620209 200 200 192
245760.26336670 3357584.44293213 16.82039833 133 135 134
245775.53472900 3357585.02398682 16.69064140 71 76 79
245774.30133057 3357585.73785400 16.57513237 82 90 93
245757.53747559 3357584.41894531 16.84086227 48 48 46
245766.15032959 3357585.73028564 16.66032791 161 161 159
245774.22387695 3357588.37847900 16.51493073 108 108 108
245786.97961426 3357589.02624512 16.61850929 139 137 125
245788.14746094 3357588.94805908 16.38237953 187 183 172
245771.39251709 3357584.08068848 16.59265709 181 182 174
245785.23596191 3357589.53088379 16.73772812 157 143 132
245761.79309082 3357587.57525635 16.64612770 123 132 141
245786.23773193 3357589.59027100 16.39312935 254 255 255
245762.13879395 3357584.24176025 16.84967804 68 66 67
245785.38629150 3357588.92364502 16.84953690 142 144 141
245782.29071045 3357588.35150146 16.97181320 66 70 79
245758.84600830 3357586.02246094 16.76376724 169 171 166
245760.93420410 3357589.39477539 16.72573662 132 135 140
245773.88336182 3357587.68017578 16.78218460 52 54 49
245757.32244873 3357583.20635986 16.91580582 172 167 163
245770.31414795 3357584.62609863 16.91830063 103 95 92
245761.80548096 3357582.24102783 16.68642044 71 78 84
245762.63549805 3357582.87097168 17.10048676 108 97 91
245771.46038818 3357586.91052246 16.66775131 141 140 136
245787.12988281 3357590.02233887 16.36855698 151 152 146
245770.11883545 3357585.18225098 16.97800636 101 95 97
245761.85003662 3357584.95220947 16.67122269 131 127 126
245761.20501709 3357582.22460938 17.16929245 249 249 249
245762.72888184 3357584.50805664 16.67511940 172 167 161
245758.36480713 3357585.21118164 16.70311928 195 192 183
245755.60760498 3357584.26727295 16.89187050 63 70 76
245756.60638428 3357583.49841309 16.81269455 76 85 92
245764.03863525 3357582.81176758 16.71132278 217 210 202
245787.88842773 3357589.57110596 16.36165237 169 168 164
245776.24829102 3357586.18206787 16.52555656 71 80 87
245761.84741211 3357589.83831787 16.59078026 164 159 156
245777.87896729 3357587.93096924 16.82716370 154 151 146
245774.70574951 3357586.38684082 17.09121513 98 98 98
245758.02990723 3357583.50952148 16.71088028 187 183 180
245757.24645996 3357581.21368408 16.96538544 221 196 191
245763.04821777 3357589.04565430 16.81231499 122 133 139
245759.14862061 3357580.56646729 16.75181007 180 183 176
245768.06439209 3357586.08581543 16.83741570 170 169 167
245776.18127441 3357584.96398926 16.74802971 195 199 200
245775.81732178 3357586.33898926 16.95040894 214 218 219
245761.19384766 3357588.78625488 16.95338631 61 62 66
245759.36596680 3357585.02923584 16.78545761 122 118 117
245765.35021973 3357584.66711426 16.80895233 104 108 109
245762.63769531 3357581.47393799 16.69795227 218 217 212
245778.78936768 3357588.01153564 16.75855637 67 69 68
245787.85699463 3357590.47052002 16.38289452 150 152 147
245770.47558594 3357586.12994385 16.80113983 95 105 106
245761.61663818 3357581.98657227 16.68993568 60 65 71
245760.59875488 3357582.79815674 17.04567719 44 52 55
245764.78729248 3357585.30303955 16.64179420 231 228 223
245760.71374512 3357584.25170898 16.67733002 116 113 106
245766.08697510 3357582.34179688 16.63550377 174 176 173
245756.54211426 3357583.59082031 16.84627533 67 76 85
245768.92669678 3357584.73352051 16.60240173 92 78 77
245761.69744873 3357589.38555908 16.62961388 197 193 192
245759.89776611 3357586.87597656 16.77220154 216 209 201
245776.46063232 3357587.31384277 16.62881088 158 157 153
245763.78826904 3357582.75274658 16.73038673 185 184 182
245779.66223145 3357587.22839355 16.54067039 219 212 204
245761.79089355 3357588.90289307 16.62264252 164 160 157
245760.83996582 3357589.15509033 16.81639862 126 127 132
245765.80230713 3357589.28509521 16.61507988 144 144 146
245781.67132568 3357588.13922119 16.93245888 254 255 255
245758.31762695 3357580.61761475 16.79718781 184 186 183
245777.24981689 3357586.84429932 16.55053139 186 183 174
245774.91278076 3357587.74273682 16.56875229 234 226 215
245775.32598877 3357583.89697266 16.85569000 159 150 145
245774.56372070 3357585.58508301 16.99440765 76 80 91
245787.09735107 3357590.24920654 16.38055801 130 130 130
245787.97155762 3357589.70007324 16.35460281 168 169 164
