245713.38793945 3357593.82012939 17.31504250 189 186 179
245716.19879150 3357594.78118896 17.70864868 174 179 183
245721.70831299 3357594.52404785 17.35765839 105 107 106
245707.44891357 3357594.02325439 17.18959808 71 76 79
245727.54492188 3357593.64355469 17.47488213 83 83 85
245710.59698486 3357594.27691650 17.12526894 175 172 165
245724.73565674 3357594.66998291 17.27817345 57 59 58
245720.76885986 3357593.96472168 16.98288536 86 91 94
245711.02398682 3357594.88757324 17.30036163 130 126 117
245712.66009521 3357594.05291748 17.09132004 200 196 185
245708.83441162 3357595.44976807 17.11519241 252 248 249
245721.29046631 3357593.78204346 17.40864372 129 125 122
245719.39422607 3357594.97772217 16.99041939 63 69 69
245724.99981689 3357594.52899170 17.31099129 174 174 176
245706.23107910 3357595.25006104 17.25161743 185 185 183
245720.75213623 3357594.72424316 17.03306961 80 85 91
245710.01452637 3357594.90600586 17.14099121 187 182 176
245724.96038818 3357594.53112793 17.25864220 169 170 172
245713.49255371 3357594.72900391 17.55015373 184 179 173
245718.18884277 3357595.00177002 17.02796173 186 183 176
245718.84576416 3357594.15447998 17.36556244 49 53 56
245717.31115723 3357593.91723633 17.45226860 56 60 63
245724.23120117 3357594.86273193 17.26506042 81 85 84
245707.29998779 3357594.31079102 17.58730698 47 52 56
245708.32049561 3357594.58276367 17.17124557 210 206 195
245718.94158936 3357593.74047852 17.56079674 121 126 130
245718.50579834 3357594.57263184 17.12437439 66 69 74
245712.38372803 3357594.68316650 17.07809830 118 118 108
245724.40893555 3357594.55450439 17.17354965 123 123 125
245707.03527832 3357595.39825439 17.12565613 142 141 137
245714.58117676 3357595.09191895 17.39881134 193 190 185
245714.68530273 3357594.83911133 17.36066437 66 65 70
245715.38531494 3357595.15332031 17.06554031 86 88 87
245725.17016602 3357594.43359375 17.18503380 101 105 106
245714.77081299 3357595.16864014 17.29850197 199 198 194
245718.17016602 3357594.52716064 17.13823700 78 82 83
245722.74127197 3357594.54278564 16.98624992 133 134 128
245724.29809570 3357594.81054688 17.35711288 118 118 118
245717.86572266 3357593.98730469 17.19080544 196 195 190
245710.00665283 3357595.33789063 17.09117508 206 207 202
245719.87921143 3357594.14825439 17.11955261 66 67 69
245721.86315918 3357593.81286621 17.18416786 73 74 78
245713.15954590 3357594.55889893 17.15143013 194 188 174
245708.79602051 3357594.06341553 17.26404190 75 79 80
245710.91241455 3357595.04333496 17.21479607 187 180 170
245717.41699219 3357594.30767822 17.20367241 67 71 74
245726.78582764 3357593.72723389 16.95816994 205 201 192
245718.72338867 3357593.95916748 17.21494293 82 84 83
245726.49664307 3357594.78979492 16.96115685 153 155 154
245710.94555664 3357594.59826660 17.31510162 165 164 162
245715.13220215 3357595.12194824 17.04384804 83 83 81
245710.37805176 3357594.09655762 17.17245293 210 202 199
245708.34863281 3357595.34637451 17.12143898 105 104 102
245719.33782959 3357594.17462158 17.01201630 91 96 100
245721.70581055 3357594.63226318 17.21650696 94 100 96
245707.64337158 3357594.56756592 17.22868919 73 78 84
245710.69409180 3357595.33374023 17.09558868 186 187 182
245717.42333984 3357594.36914063 17.19792175 38 41 46
245714.79394531 3357593.85534668 17.16776466 208 208 200
245726.90844727 3357593.46087646 16.96343231 206 201 195
245712.12103271 3357594.26080322 17.05797768 91 90 85
245725.36907959 3357593.45330811 16.90870476 196 193 186
245718.31665039 3357593.88806152 17.06193161 45 49 52
245724.16729736 3357595.06304932 17.00830269 136 140 139
245709.06268311 3357595.14813232 17.09606743 101 101 101
245706.09368896 3357595.03857422 17.70416260 204 201 196
245716.75970459 3357593.82061768 17.11380959 191 187 178
245726.70867920 3357594.15606689 16.99456406 96 101 104
245711.00067139 3357594.65209961 17.51120186 66 66 64
245721.52325439 3357595.13165283 17.00538635 142 146 147
245714.29974365 3357594.00854492 17.15576935 204 204 196
245710.18865967 3357595.45477295 17.09427261 201 202 204
245706.88751221 3357595.45916748 17.11496735 184 185 187
245723.02899170 3357595.06890869 16.94806290 161 163 160
245721.51702881 3357593.71704102 17.34523201 27 20 14
245713.90924072 3357594.98022461 17.05608177 123 127 128
245711.52722168 3357594.65814209 17.36049080 201 197 188
245716.85827637 3357595.17059326 17.05838394 125 130 133
245716.81884766 3357594.67211914 17.07362366 79 85 83
245711.56140137 3357594.30169678 17.10677528 155 154 152
245726.46691895 3357594.23449707 17.02951431 43 47 50
245713.54559326 3357594.45953369 17.45434952 244 239 235
245715.72760010 3357594.36260986 17.10903740 160 159 155
245725.29357910 3357593.79278564 17.11670494 81 83 82
245721.37200928 3357593.58264160 17.16370201 159 146 138
245724.96954346 3357594.76928711 17.43590546 82 86 87
245714.59246826 3357594.88348389 17.39110374 192 192 190
245721.51129150 3357594.36010742 17.34451485 42 46 49
245727.80206299 3357594.63562012 17.33619881 93 93 93
245718.80718994 3357594.12951660 17.30615997 43 46 51
245707.41339111 3357594.39105225 17.44889450 24 29 33
245724.12774658 3357593.59637451 17.02680969 185 178 172
245721.55242920 3357593.58721924 17.05986977 189 182 172
245718.36138916 3357594.11840820 17.07159996 62 67 71
245728.10650635 3357593.73547363 17.31836510 86 81 87
245727.22106934 3357594.68603516 17.21356583 106 106 104
245722.53619385 3357594.82592773 16.98140717 93 92 88
245708.86297607 3357594.24530029 17.19035530 68 68 68
245716.72747803 3357595.32952881 17.01972771 155 163 166
245719.52868652 3357593.60632324 17.01317787 209 209 207
245716.32904053 3357594.86303711 17.36614609 43 50 58
245711.25500488 3357594.69146729 17.71798515 111 112 116
245716.37188721 3357594.92266846 17.66211319 125 134 141
245724.42718506 3357594.70263672 17.30208206 34 28 28
245721.07958984 3357593.57629395 17.06937599 192 188 179
245727.36364746 3357594.80767822 16.95658875 125 125 123
245723.50909424 3357594.10253906 17.07603836 157 138 134
245726.03393555 3357593.83911133 17.24141312 57 59 58
245718.68011475 3357594.39270020 17.21284866 165 165 167
245716.03027344 3357595.12573242 17.87341881 35 36 38
245719.01245117 3357594.75720215 17.35007286 38 39 44
245717.17285156 3357594.75677490 17.47905540 118 118 116
245722.42663574 3357594.69189453 16.96751213 70 66 63
245718.13476563 3357594.13061523 17.25905228 57 58 63
245715.98321533 3357595.22631836 17.50649071 112 114 111
245707.21679688 3357594.21136475 17.61554146 70 74 77
245706.00396729 3357594.00042725 17.44170952 141 140 135
245707.27935791 3357595.37969971 17.16279793 202 199 192
245720.25689697 3357595.10754395 16.98900032 76 82 80
245716.27539063 3357595.12530518 17.14004517 20 22 19
245722.15136719 3357593.72845459 17.18545341 45 45 45
245721.58190918 3357593.90045166 17.25815392 15 24 23
245717.32373047 3357594.72204590 17.42858124 112 113 117
245707.91851807 3357594.76080322 17.12525368 131 131 131
245708.63684082 3357594.28912354 17.34216499 95 96 101
245724.92932129 3357594.42211914 17.16890144 132 133 135
245707.21551514 3357594.39495850 17.38557243 70 72 69
245709.91607666 3357594.27355957 17.13249588 195 188 178
245720.25042725 3357594.55706787 17.36794472 61 59 60
245727.54815674 3357594.27813721 17.19640541 22 23 25
245706.62512207 3357594.60791016 17.11518669 161 163 160
245716.85363770 3357593.87158203 17.13418770 194 187 177
245721.16735840 3357593.99835205 17.06745148 160 157 148
245724.06286621 3357594.56848145 17.41769218 52 56 57
245727.76696777 3357594.77740479 17.16435623 71 66 63
245721.39465332 3357593.62609863 17.47879601 239 223 190
245715.61297607 3357595.24780273 17.06257057 180 184 185
245711.43646240 3357594.91473389 17.47579193 89 82 74
245716.30834961 3357595.06353760 17.52437401 115 118 123
245718.87329102 3357593.98657227 17.37658501 66 67 69
245717.22650146 3357594.15814209 17.48389435 73 75 74
245728.30255127 3357594.32824707 16.94198036 90 94 97
245716.00567627 3357594.91125488 17.97948647 72 66 68
245707.23620605 3357594.38250732 17.51947784 46 51 54
245716.30047607 3357594.84436035 17.59205437 173 180 186
245713.35821533 3357595.00170898 17.16991234 173 167 155
245716.33709717 3357594.86535645 17.35388947 52 56 65
245722.73077393 3357594.08367920 16.99685860 133 135 130
245708.98883057 3357595.43121338 17.11069679 246 246 246
245713.60260010 3357595.32763672 17.12360954 253 253 251
245727.42413330 3357593.57269287 17.09010887 160 157 152
245708.89868164 3357595.01214600 17.15624809 200 202 201
245707.05859375 3357594.09130859 17.32899857 155 155 147
245718.31213379 3357593.68450928 17.04481697 68 70 67
245716.05712891 3357594.51928711 17.43267059 117 121 122
245721.22711182 3357594.21350098 17.06912804 157 158 153
245720.62835693 3357593.58782959 16.99112129 189 188 183
245711.78808594 3357594.21002197 17.05932045 128 127 123
245723.86486816 3357595.08001709 17.00047874 210 212 209
245711.58337402 3357594.31658936 17.10126877 125 126 121
245725.88769531 3357593.64678955 17.16771317 81 77 76
245719.27117920 3357595.12066650 16.98180580 80 82 81
245707.46685791 3357594.39288330 17.34900856 16 21 24
245717.31243896 3357594.44067383 17.35391617 103 102 100
245724.32922363 3357594.24755859 17.18450356 71 75 76
245726.33795166 3357594.82012939 17.02222633 35 36 30
245709.56323242 3357595.31951904 17.08972359 135 137 136
245706.05773926 3357594.99694824 17.78359985 197 194 187
245726.69342041 3357593.66192627 16.93773079 208 201 193
245717.46154785 3357595.24859619 17.00271988 255 255 255
245715.52233887 3357594.90496826 17.11140251 179 173 161
245706.53332520 3357594.48889160 17.11810303 99 101 98
245727.09332275 3357594.63409424 17.35047913 67 68 70
245705.97406006 3357595.13116455 17.40963364 188 185 176
245727.95910645 3357594.44860840 17.22065544 51 51 51
245706.17364502 3357595.13970947 17.46354485 230 230 230
245708.00744629 3357595.23754883 17.13079453 131 137 137
245727.99047852 3357593.57238770 17.19493866 86 92 92
245711.02789307 3357594.84399414 17.33958054 147 143 134
245725.63208008 3357595.02618408 16.93397141 125 134 133
245708.47454834 3357595.25451660 17.13873100 180 175 169
245727.12432861 3357594.75463867 17.02071571 168 169 164
245711.45373535 3357595.06091309 17.16932106 163 159 156
245719.96478271 3357594.92486572 17.32935333 52 56 55
245722.04510498 3357594.64904785 17.13799095 125 124 129
245706.75500488 3357595.21246338 17.09970474 111 113 110
245716.69604492 3357594.13067627 17.08092308 182 182 174
245722.90435791 3357593.97760010 17.37721252 57 61 62
245718.11016846 3357593.88854980 17.28829002 32 33 35
245727.78454590 3357594.78649902 17.14541817 49 44 41
245709.35369873 3357594.32867432 17.11234856 168 173 176
245711.46051025 3357594.72692871 17.54320717 119 114 108
245724.66070557 3357593.99023438 17.20169640 50 54 55
245721.47344971 3357593.63458252 17.36865807 133 119 106
245720.01348877 3357594.73486328 17.43887329 63 68 72
245724.62695313 3357594.70721436 17.15649605 46 46 48
245707.91461182 3357594.88854980 17.12479591 191 186 182
245727.19769287 3357593.39270020 17.01528549 206 201 195
245725.62561035 3357594.00695801 17.36790848 69 74 77
245715.65270996 3357594.89349365 17.17449188 177 171 159
245713.49487305 3357594.86645508 17.48906136 119 119 117
245722.77929688 3357594.77819824 16.98129654 62 64 61
245707.08380127 3357594.06390381 17.39147949 84 85 79
245711.32055664 3357594.42785645 17.60447502 127 127 129
245717.23510742 3357593.85388184 17.47539330 89 93 94
245718.54608154 3357594.65197754 17.12269974 88 93 96
245726.02026367 3357594.66021729 17.21930504 118 119 121
245708.35418701 3357595.09399414 17.13889694 204 204 194
245713.02331543 3357594.24414063 17.10200310 191 187 176
245706.06280518 3357594.78686523 17.75086212 212 212 210
245726.15368652 3357594.91442871 17.18794441 11 12 14
245724.06933594 3357593.63970947 17.04460335 154 149 145
245718.83386230 3357594.79797363 17.47900963 79 82 87
245712.72839355 3357594.55187988 17.08901405 197 193 184
245718.98614502 3357594.87963867 17.40695763 36 37 39
245722.61126709 3357594.17187500 16.99788666 114 116 113
245722.36676025 3357593.61126709 16.98266411 165 162 155
245726.82720947 3357594.57598877 17.08009720 166 166 164
245726.25000000 3357594.54003906 17.12246704 22 20 21
245722.65991211 3357593.66595459 16.99822044 167 159 157
245706.09295654 3357594.92126465 17.73696136 190 189 184
245721.71844482 3357593.73583984 17.16618156 66 65 63
245709.95251465 3357595.13360596 17.11997986 181 177 168
245721.63806152 3357595.14593506 16.99370575 144 152 155
245713.18298340 3357594.05438232 17.12326241 186 184 172
245717.28771973 3357595.27355957 17.01484871 255 255 253
245728.49957275 3357594.95104980 16.86329842 114 113 111
245706.89141846 3357594.81524658 17.13619423 120 122 119
245717.98510742 3357595.22186279 17.01227570 181 185 188
245715.97125244 3357594.68731689 17.65103149 218 224 224
245706.03411865 3357594.65344238 17.66949463 135 134 132
245710.72283936 3357594.36663818 17.12033463 156 156 148
245719.43774414 3357594.05163574 17.02971649 79 87 89
245727.11596680 3357594.44549561 17.26492310 55 56 60
245719.74694824 3357593.97821045 17.05366707 85 87 84
245707.68066406 3357594.84802246 17.22966385 76 81 84
245724.80352783 3357594.37530518 17.04270172 57 58 60
245713.82586670 3357594.69494629 17.06474304 65 73 76
245710.53057861 3357595.35253906 17.08556557 223 224 219
245706.20867920 3357595.03894043 17.41855621 80 79 77
245717.33874512 3357594.07043457 17.36815453 68 76 78
245709.35894775 3357594.30743408 17.11449814 155 156 158
245717.33532715 3357594.65588379 17.35013390 88 90 89
245725.57666016 3357593.90435791 17.13810539 169 170 174
245707.36816406 3357594.14843750 17.36050034 7 12 18
245727.71276855 3357594.69134521 17.39695740 133 132 128
245724.31884766 3357594.86956787 17.13276863 40 44 47
245728.07507324 3357593.54364014 17.17070770 92 92 90
245714.38372803 3357594.35296631 17.11786652 199 192 182
245717.39056396 3357594.76904297 17.24753571 135 140 144
245709.79016113 3357594.44531250 17.10880280 204 200 191
245712.50360107 3357594.39147949 17.07573509 175 173 161
245706.49786377 3357595.15814209 17.13541031 187 186 182
245712.56536865 3357594.43225098 17.07938194 194 192 180
245708.64654541 3357594.58947754 17.28208351 232 233 235
245713.48095703 3357594.75561523 17.71183014 85 82 77
245717.88983154 3357594.29449463 17.07522964 87 95 98
245725.50164795 3357594.61926270 17.31689644 87 91 94
245711.99279785 3357594.20892334 17.05709267 158 159 154
245727.15454102 3357594.41619873 17.25881958 49 53 56
245727.02490234 3357594.82238770 17.10594368 35 36 38
245708.01837158 3357594.60437012 17.13538551 117 119 118
245721.60833740 3357594.61773682 17.22494316 69 73 72
245724.83331299 3357594.62963867 17.32641411 41 41 39
245719.73022461 3357594.35253906 17.05415916 157 158 153
245718.99298096 3357594.73889160 17.52322960 46 49 54
245725.25793457 3357594.88946533 17.05883598 79 84 78
245727.63739014 3357594.57952881 17.45227814 153 153 155
245722.14691162 3357594.45123291 17.24597168 74 79 82
245721.20703125 3357593.89172363 17.11405945 164 161 152
245722.12591553 3357594.60418701 17.13456726 85 86 90
245718.27624512 3357594.21490479 17.15470505 59 60 65
245718.73388672 3357593.87915039 17.27625656 86 86 84
245724.37322998 3357594.92926025 17.02254105 39 43 46
245714.06677246 3357594.65124512 17.08359718 143 147 148
245719.02783203 3357594.28118896 17.21191788 100 104 105
245721.29986572 3357594.38189697 17.18299103 78 83 79
245713.45043945 3357594.23773193 17.52596283 223 218 212
245715.01770020 3357594.52673340 17.26034355 109 113 114
245706.02056885 3357595.43383789 17.31667137 250 252 249
245716.45874023 3357595.05108643 17.25481606 58 61 66
245715.92315674 3357595.01892090 17.37472916 58 54 53
245724.58374023 3357593.80963135 17.23318100 43 44 46
245706.68157959 3357594.31921387 17.12449837 136 133 126
245726.12200928 3357594.95532227 17.13550758 44 45 47
245723.30999756 3357594.37054443 16.98205185 170 169 164
245715.94830322 3357595.13287354 17.44302940 68 67 65
245717.37286377 3357594.15319824 17.26810646 133 139 139
245716.12207031 3357595.16961670 17.67353821 35 39 40
245710.40551758 3357595.31127930 17.07824516 194 193 188
245714.72027588 3357595.08935547 17.46979904 111 107 106
245706.08813477 3357595.25366211 17.47256088 131 131 129
245713.26666260 3357594.16644287 17.16687965 173 167 155
245713.21472168 3357594.64050293 17.15874481 201 195 183
245715.91162109 3357594.81512451 17.89473724 212 212 214
245725.38165283 3357594.80682373 17.36857033 51 57 57
245707.53216553 3357594.07348633 17.18552017 92 95 100
245715.95483398 3357594.69366455 17.68601036 246 250 253
245723.16644287 3357594.36950684 17.04208374 174 174 166
245712.76300049 3357594.30175781 17.08293533 195 193 181
245714.66448975 3357594.56677246 17.25281906 194 190 179
245723.90588379 3357594.02844238 17.19818497 56 54 57
245723.77239990 3357594.89489746 17.30212212 106 106 106
245722.92114258 3357594.93054199 16.96293831 90 90 88
245716.46093750 3357593.90997314 17.11742592 213 209 200
245724.07312012 3357594.06964111 17.17457390 72 76 79
245707.38549805 3357595.18218994 17.24964523 163 162 157
245717.65850830 3357595.00378418 17.01394463 80 84 85
245727.29174805 3357594.19665527 17.12329674 57 61 62
245711.33843994 3357594.52783203 17.61305237 116 116 118
245713.21636963 3357595.15313721 17.10639954 189 186 179
245717.33740234 3357594.18225098 17.43209648 65 69 70
245720.12951660 3357594.29327393 17.32215881 65 69 70
245724.73693848 3357593.58612061 17.11021805 103 103 93
245715.76483154 3357594.59405518 17.37230873 92 94 93
245722.20629883 3357593.53063965 17.02723885 130 126 125
245712.67382813 3357594.40032959 17.08220291 174 170 159
245724.84112549 3357593.57720947 17.12205124 207 208 194
245714.32775879 3357594.40631104 17.08599663 196 191 187
245716.30242920 3357594.71600342 17.13152122 53 57 58
245714.67999268 3357594.36999512 17.27984428 194 190 179
245719.39190674 3357594.79132080 17.01993561 55 60 64
245723.54144287 3357594.51037598 17.04450226 178 169 164
245717.27514648 3357594.23577881 17.54908562 59 60 62
245726.40490723 3357594.96807861 16.93154144 79 85 85
245714.49298096 3357593.92486572 17.22449684 203 199 188
245724.59747314 3357593.85705566 17.21581078 48 52 55
245707.55743408 3357594.38812256 17.27803040 92 97 100
245728.16516113 3357594.35809326 17.11740685 80 80 88
245717.11688232 3357594.96813965 17.26912498 115 114 110
245718.19458008 3357594.10150146 17.23253632 69 70 74
245722.66625977 3357593.81219482 16.98400307 113 109 108
245719.03387451 3357594.25018311 17.19058228 92 93 95
245706.73699951 3357594.52246094 17.12576675 137 139 136
245721.07507324 3357594.93292236 17.00494385 102 103 105
245724.12390137 3357594.83538818 17.40685463 78 80 77
245711.30432129 3357594.89013672 17.72995377 132 132 134
245718.76843262 3357594.91748047 17.42034340 49 53 56
245707.32135010 3357594.62060547 17.42477226 65 65 65
245721.85937500 3357594.95898438 16.98295975 78 79 83
245728.15649414 3357594.07257080 17.40599632 180 174 174
245724.05334473 3357594.55108643 17.38065720 87 88 90
245724.76062012 3357593.82513428 17.27836227 41 45 44
245726.82867432 3357594.16156006 17.01020050 72 76 75
245722.95709229 3357594.47680664 17.30485153 116 115 113
245719.52301025 3357594.94036865 17.00295067 74 79 85
245716.20898438 3357595.15466309 17.20114517 34 33 29
245715.92559814 3357593.86053467 17.09509850 220 213 205
245723.57116699 3357594.29956055 17.11166191 151 116 120
245718.47180176 3357594.85009766 17.08119774 107 107 105
245718.78601074 3357594.95086670 17.41835213 53 54 58
245707.27111816 3357594.05285645 17.49282074 64 72 74
245727.33416748 3357594.60144043 17.44234657 62 54 51
245707.66680908 3357594.83911133 17.24290466 72 80 82
245712.40362549 3357593.89758301 17.08328056 193 189 180
245706.41467285 3357595.01721191 17.17065430 191 190 185
245719.74554443 3357594.75341797 17.08222961 99 103 104
245727.69219971 3357593.40179443 17.42252541 69 54 49
245718.91259766 3357593.90283203 17.63082314 116 121 117
245727.09252930 3357594.82525635 16.97931671 19 18 16
245724.16607666 3357594.48925781 17.33092880 75 81 81
245720.25183105 3357593.84643555 17.12990189 172 176 175
245710.90545654 3357594.30261230 17.18119240 129 130 124
245726.77343750 3357594.37847900 16.98798370 77 79 78
245716.58575439 3357595.16583252 17.06669426 91 92 94
245709.12036133 3357594.99664307 17.09630775 93 93 93
245724.88885498 3357594.12231445 17.22549438 38 39 41
245726.78741455 3357594.77032471 17.36193085 55 55 53
245707.38623047 3357595.56854248 17.12415695 218 219 213
245716.30389404 3357595.01092529 17.79599762 129 134 140
245728.46008301 3357594.84716797 16.85486984 156 155 153
245718.39093018 3357593.82965088 17.06209755 75 76 78
245726.91693115 3357594.55914307 17.25337791 200 201 203
245712.48449707 3357594.67242432 17.08423805 198 195 188
245706.02996826 3357594.54632568 17.59555626 72 72 72
245724.39428711 3357593.52368164 17.01229095 198 190 177
245720.01794434 3357593.74664307 17.15346718 118 114 113
245728.25506592 3357594.27880859 17.00430870 87 92 95
245715.22821045 3357595.01605225 17.03736305 79 79 79
245709.87493896 3357595.18011475 17.12148857 196 189 181
245718.74877930 3357593.66796875 17.15860939 148 147 143
245705.95007324 3357595.39117432 17.32877922 211 213 208
245722.64483643 3357595.10235596 16.94523239 246 248 247
245721.92437744 3357594.60760498 17.36823654 47 47 49
245726.87463379 3357593.95007324 17.03160858 94 93 91
245721.11352539 3357595.00103760 16.99643517 129 132 137
245727.28533936 3357594.75457764 16.97816086 78 78 78
245713.63659668 3357594.47265625 17.28326416 204 204 204
245713.34289551 3357593.85839844 17.26208878 178 175 168
245722.14953613 3357594.29016113 17.25057793 79 84 88
245727.58538818 3357593.43438721 17.34168434 90 80 78
245707.09594727 3357594.47564697 17.20849228 187 187 177
245724.14929199 3357594.20556641 17.14222908 80 80 82
245722.72552490 3357594.65826416 16.99898338 130 131 126
245710.80950928 3357594.82495117 17.22653580 191 185 169
245707.34698486 3357594.63055420 17.47966385 49 53 52
245722.97412109 3357594.88610840 16.96554375 112 113 108
245725.76458740 3357593.43011475 16.92932510 201 203 200
245725.16601563 3357593.75604248 17.17062950 63 68 71
245714.43292236 3357594.27874756 17.16179276 194 187 177
245710.27893066 3357594.20440674 17.16563225 206 202 191
245726.83612061 3357594.19842529 17.03468513 76 80 81
245722.48675537 3357593.91381836 16.97240639 97 96 92
245717.45025635 3357594.46655273 17.12664032 57 62 65
245716.94573975 3357594.04779053 17.16613197 176 173 166
245727.24005127 3357594.51330566 17.35184669 45 47 46
245711.54901123 3357595.15527344 17.07010841 77 77 75
245723.51519775 3357593.56988525 16.98732185 121 116 110
245727.34191895 3357594.85437012 16.93636894 86 86 84
245706.82843018 3357594.93994141 17.12777328 110 112 107
245725.46337891 3357594.79479980 17.38527107 36 41 45
245725.70648193 3357593.94744873 17.38044548 60 64 67
245711.45599365 3357595.04803467 17.18340302 144 141 134
245725.25012207 3357594.01379395 17.20027733 91 95 98
245718.98046875 3357594.32690430 17.36321449 38 43 47
245717.57293701 3357595.11523438 17.00838852 84 88 87
245714.90930176 3357593.89007568 17.17456436 109 110 105
245724.55841064 3357594.40228271 17.03593063 57 58 62
245716.48559570 3357594.94934082 17.26000023 65 73 76
245728.17767334 3357594.26092529 17.17520332 77 76 82
245724.99371338 3357594.29876709 17.21186829 42 44 43
245720.10888672 3357594.90142822 17.38381767 13 11 14
245718.64575195 3357593.67010498 17.09673309 168 168 160
245727.92126465 3357594.37359619 17.17811775 54 48 48
245708.24011230 3357594.98101807 17.14167213 211 209 196
245727.35369873 3357594.64648438 17.42037392 74 69 66
245716.00830078 3357595.23303223 17.48071098 105 107 102
245710.84790039 3357594.77331543 17.22144318 179 173 161
245713.01928711 3357594.16461182 17.10091400 181 177 166
245718.73522949 3357594.39282227 17.29423714 121 123 122
245722.19378662 3357594.27520752 17.22597122 41 46 49
245715.82897949 3357594.36242676 17.20977020 195 190 184
245725.46154785 3357593.65991211 16.96861267 184 183 178
245717.89929199 3357594.73126221 17.03679466 195 192 187
245713.42810059 3357594.31109619 17.41228294 255 254 251
245715.60992432 3357594.64654541 17.16119385 111 113 110
245723.54809570 3357594.06616211 17.10314369 165 146 140
245709.17529297 3357595.44262695 17.11204910 215 216 220
245717.77349854 3357594.53619385 17.02416420 76 77 79
245712.01824951 3357594.28906250 17.06107330 144 146 143
245716.87713623 3357594.13458252 17.12793350 165 162 155
245706.66778564 3357594.67883301 17.12119293 210 212 211
245707.16058350 3357595.34893799 17.15020370 199 196 189
245726.96459961 3357593.48437500 16.98073196 209 204 200
245726.31854248 3357593.95880127 17.20473289 15 15 17
245707.87597656 3357595.15283203 17.14482689 96 98 95
245706.31164551 3357595.21514893 17.19963837 108 108 106
245728.09515381 3357594.58502197 17.26593971 202 193 198
245713.59558105 3357595.06738281 17.35692978 87 85 86
245707.83929443 3357594.95617676 17.14413834 110 110 108
245721.43957520 3357594.61901855 17.27390480 78 79 81
245724.57946777 3357594.22497559 17.12275314 43 47 50
245721.53356934 3357594.09002686 17.35140800 22 23 25
245715.87609863 3357594.88897705 17.91895485 78 76 79
245725.02416992 3357594.79357910 17.25313568 41 45 46
245717.13208008 3357594.99304199 17.29071617 120 119 117
245723.82592773 3357593.52532959 17.02297020 194 187 181
245720.36578369 3357594.55267334 17.11408234 55 56 60
245723.10968018 3357595.00195313 16.95077324 105 110 106
245727.81298828 3357594.35046387 17.16269493 94 94 96
245714.04156494 3357594.06799316 17.09038162 180 181 173
245707.95355225 3357595.19018555 17.14161110 122 124 121
245718.04754639 3357593.96801758 17.35700226 87 89 88
245709.37152100 3357594.34094238 17.10951805 157 158 160
245713.97924805 3357595.11218262 17.05076408 78 78 78
245725.02008057 3357594.13610840 17.28686714 34 35 37
245714.07733154 3357594.34222412 17.09629250 88 95 103
245711.22070313 3357594.97674561 17.53064919 131 127 124
245728.27136230 3357594.67736816 16.89047813 116 73 66
245706.99780273 3357595.22967529 17.13199615 186 185 180
245711.05377197 3357594.87353516 17.34842110 151 150 145
245725.52410889 3357594.84472656 17.06681061 26 27 29
245716.30462646 3357595.12261963 17.12843895 41 45 46
245725.29730225 3357594.44537354 17.15193367 79 84 87
245708.92883301 3357595.00109863 17.14047623 194 195 197
245716.05151367 3357594.32000732 17.40546608 53 57 58
245723.53424072 3357593.77484131 17.06855965 205 191 188
245716.24011230 3357593.80651855 17.15308380 226 219 209
245710.17138672 3357594.37878418 17.15227127 201 194 184
245722.23614502 3357593.62225342 17.00633430 91 87 84
245718.48034668 3357594.06274414 17.06482697 77 82 86
245712.78491211 3357594.35321045 17.08456612 193 189 178
245714.66113281 3357594.84893799 17.36845970 82 82 84
245720.46557617 3357593.76409912 16.99837685 75 75 75
245726.49780273 3357594.23236084 17.01825333 53 58 61
245725.36077881 3357594.85833740 17.11616707 62 68 68
245706.04528809 3357594.24157715 17.51942062 91 93 92
245707.32312012 3357595.58135986 17.12529564 179 180 172
245720.26702881 3357594.55023193 17.27663803 57 57 59
245712.91973877 3357594.80578613 17.10412788 178 174 163
245709.64916992 3357594.86376953 17.10201836 114 109 105
245724.47711182 3357593.72528076 17.30451393 55 46 47
245716.91497803 3357594.98620605 17.09314728 155 141 141
245707.65515137 3357595.36950684 17.13642502 205 207 202
245721.29809570 3357593.83160400 17.59254456 42 43 45
245714.67175293 3357593.88317871 17.20311356 215 211 202
245721.98901367 3357594.11889648 17.41778183 65 66 70
245718.69989014 3357595.08624268 17.12409401 173 173 171
245728.02355957 3357594.86700439 16.96967506 76 56 58
245719.88000488 3357594.14495850 17.11963844 66 67 69
245726.46533203 3357593.84631348 17.05525208 54 54 52
245708.80401611 3357595.29650879 17.14515877 112 110 111
245726.00836182 3357594.94287109 17.27427864 57 62 66
245724.80242920 3357593.47863770 17.01414108 179 179 171
245709.71337891 3357594.56774902 17.09350014 201 196 190
245721.65594482 3357594.52893066 17.32266235 114 114 112
245725.50982666 3357594.55139160 17.26202965 138 143 146
245727.55187988 3357593.56445313 17.50388527 97 98 100
245721.56872559 3357594.07513428 17.30470467 24 25 27
245719.75201416 3357594.36608887 17.06423378 161 162 157
245709.57214355 3357595.37731934 17.09696198 160 168 170
245708.07940674 3357594.02697754 17.17507935 216 207 200
245727.60754395 3357594.67242432 17.45633316 118 118 118
245720.95501709 3357594.82482910 17.00238419 95 100 104
245728.17730713 3357594.45928955 17.02641106 88 86 87
245724.91638184 3357594.35729980 17.13474274 108 109 111
245708.34704590 3357594.58288574 17.17764854 210 206 195
245717.47033691 3357593.74902344 17.09714699 171 171 161
245710.18450928 3357594.02954102 17.20186615 221 217 208
245706.80053711 3357594.46173096 17.13154602 138 140 129
245724.81127930 3357593.60711670 17.15227127 186 184 171
245726.37072754 3357594.23406982 17.10032845 50 51 55
245717.07287598 3357594.97082520 17.55402946 189 179 178
245705.72088623 3357595.23071289 17.16695023 200 200 192
245722.48223877 3357593.50616455 16.98757744 155 152 147
245710.11883545 3357594.83752441 17.13973808 187 183 174
245723.75671387 3357594.91992188 17.14754868 37 36 34
245713.39111328 3357594.34051514 17.30855942 212 207 201
245721.96392822 3357594.48254395 17.62221146 39 40 42
245708.96588135 3357595.22088623 17.09525108 80 82 81
245721.72064209 3357594.87017822 17.02525520 56 60 59
245714.68041992 3357594.70855713 17.25269890 164 161 168
245711.67608643 3357594.29577637 17.07125092 112 113 108
245711.74176025 3357594.12890625 17.05423546 90 90 88
245705.90765381 3357594.92584229 17.32448959 198 199 191
245720.59136963 3357593.97332764 16.98586845 105 109 110
245707.30102539 3357594.00677490 17.37058258 51 56 62
245726.82470703 3357593.99206543 17.00735474 81 83 78
245722.93170166 3357593.65185547 17.07400894 123 123 121
245727.56188965 3357593.40972900 17.16244888 144 140 131
245706.77325439 3357594.93804932 17.12400436 137 139 136
245722.92999268 3357593.85845947 17.14052200 60 64 63
245712.37487793 3357593.87408447 17.08403397 199 195 186
245711.69836426 3357595.29534912 17.06194115 202 203 205
245724.42272949 3357594.48504639 17.12351990 67 69 68
245720.76171875 3357594.86181641 17.04949379 79 88 93
245710.15344238 3357594.70709229 17.13912773 183 176 168
245719.82489014 3357593.86523438 17.08139610 168 167 165
245707.78100586 3357595.29522705 17.13842010 103 107 106
245716.50506592 3357594.91217041 17.16708755 73 77 80
245713.50024414 3357594.84301758 17.37564468 87 88 83
245707.38623047 3357594.15112305 17.31745529 14 19 25
245720.19439697 3357594.89562988 17.17830658 51 52 54
245708.22753906 3357594.23742676 17.17789078 213 206 196
245722.57952881 3357593.71777344 16.99717903 213 209 206
245722.34234619 3357594.37030029 17.10603714 97 99 96
245711.22692871 3357594.63775635 17.70349693 106 106 108
245719.38598633 3357595.19976807 16.97151184 150 152 149
245721.49169922 3357594.70190430 17.20642090 111 111 111
245720.79034424 3357594.39996338 16.97630692 140 141 135
245725.42864990 3357594.09545898 17.17693520 103 108 111
245714.55743408 3357595.24877930 17.17267990 243 243 241
245715.73974609 3357595.34686279 17.06096649 156 156 154
245727.01409912 3357594.16900635 17.23550034 91 92 96
245716.66113281 3357594.02435303 17.10077095 192 190 178
245715.61743164 3357594.75103760 17.32165527 187 188 180
245716.04785156 3357595.22393799 17.35880470 114 112 113
245718.82128906 3357594.92047119 17.61310387 60 63 68
245725.47918701 3357594.79858398 17.35394669 41 46 50
245718.60974121 3357594.72772217 17.18366432 61 67 67
245716.49481201 3357594.56054688 17.09072304 84 89 95
245721.04437256 3357594.80389404 17.00205231 146 146 144
245726.80096436 3357594.83270264 17.41662788 32 32 32
245721.75646973 3357594.25195313 17.32106018 57 61 64
245707.97766113 3357595.20483398 17.13774109 155 159 158
245720.34924316 3357594.01953125 17.03841400 112 112 110
245720.42626953 3357594.02880859 17.01214218 91 92 94
245712.20642090 3357594.63623047 17.06738281 138 140 137
245727.93792725 3357594.74176025 17.26012421 71 51 53
245727.82287598 3357593.72332764 17.30917740 154 154 154
245712.69335938 3357594.62072754 17.08998489 187 183 172
245713.43762207 3357594.12481689 17.56652069 233 230 225
245721.57293701 3357593.70916748 17.23119545 34 32 33
245719.81188965 3357594.78643799 17.15846634 102 103 105
245710.72711182 3357595.36804199 17.09603691 220 222 219
245714.54992676 3357595.09320068 17.37490273 194 189 183
245718.99993896 3357595.11962891 17.46205139 118 124 124
245711.01727295 3357593.97625732 17.19701385 188 185 180
245711.29119873 3357594.24920654 17.64868546 107 102 99
245705.80432129 3357594.99456787 17.22877121 204 202 190
245722.88513184 3357594.19512939 17.17368889 147 147 147
245726.84820557 3357594.73223877 17.51187897 81 81 81
245716.32489014 3357594.97753906 17.85877800 135 140 144
245708.20593262 3357595.14257813 17.12900543 154 151 144
245727.99865723 3357594.52056885 17.26909256 51 55 54
245721.87322998 3357594.10180664 17.26081085 59 63 66
245724.67913818 3357594.90740967 16.99974632 62 66 69
245711.39532471 3357595.10577393 17.23021126 162 157 154
245721.87420654 3357594.88793945 16.99516869 142 143 145
245710.49523926 3357594.55700684 17.12602615 180 176 167
245706.09594727 3357594.11718750 17.24044418 132 131 127
245706.53936768 3357595.30548096 17.10009193 192 194 191
245724.96612549 3357593.79992676 17.33617783 67 67 69
245722.97064209 3357594.31689453 17.19086266 142 141 137
245713.66345215 3357594.28881836 17.12285805 155 155 153
245718.99340820 3357595.00463867 17.40623093 123 127 126
245710.49493408 3357594.00909424 17.15399361 187 182 176
245721.23577881 3357593.90972900 17.14093399 162 159 152
245719.70385742 3357594.38586426 17.04804993 168 167 162
245727.50018311 3357594.71160889 17.18293190 107 103 102
245720.98889160 3357595.09869385 16.97604942 159 167 169
245718.03924561 3357594.15197754 17.19891930 169 173 174
245728.21997070 3357594.62170410 16.92987251 143 79 77
245714.58990479 3357594.33648682 17.25703049 198 191 181
245721.53308105 3357594.88220215 17.10944366 40 39 35
245722.95587158 3357594.83941650 16.97043228 143 142 137
245722.04516602 3357594.40167236 17.42931747 72 75 80
245722.06854248 3357593.87878418 17.29343224 73 73 75
245707.18402100 3357594.92919922 17.23291397 175 171 160
245726.69384766 3357594.69329834 17.02071953 139 138 134
245724.59600830 3357593.64825439 17.18164444 77 65 53
245718.63952637 3357593.71899414 17.08171082 166 167 162
245716.49707031 3357593.71972656 17.12121773 214 209 203
245717.83105469 3357594.64239502 17.02691841 188 187 183
245710.87249756 3357595.19018555 17.15278816 154 151 144
245712.69903564 3357594.56250000 17.08831406 190 186 175
245715.19049072 3357595.22344971 17.06172180 144 148 147
245711.63470459 3357594.65423584 17.17314911 205 201 192
245706.91064453 3357594.23864746 17.19894409 200 200 190
245724.01452637 3357594.69024658 17.49252701 70 74 77
245719.73223877 3357595.06115723 17.01095009 65 73 76
245718.90869141 3357593.73748779 17.69907188 185 189 192
245718.48419189 3357594.97473145 17.06096840 177 174 167
245717.16693115 3357593.99414063 17.34444618 85 87 84
245723.59381104 3357594.33154297 17.13191795 151 121 123
245723.13665771 3357594.71002197 17.08536530 100 100 92
245719.01464844 3357593.95178223 17.40652275 43 44 46
245726.21191406 3357594.74987793 17.22128677 53 51 52
245727.01818848 3357594.99383545 16.93140602 81 81 83
245723.18865967 3357593.98632813 17.00489235 106 105 103
245717.13842773 3357594.02496338 17.29083061 100 101 96
245718.64215088 3357594.60015869 17.24383736 74 78 79
245727.82757568 3357594.79034424 17.13361740 35 26 27
245720.36480713 3357594.38494873 17.08373642 66 65 70
245707.43835449 3357594.19451904 17.28381729 51 56 62
245718.82751465 3357594.59423828 17.49814415 230 229 234
245722.33953857 3357594.41961670 17.04616737 105 105 103
245713.49975586 3357594.32208252 17.63952255 143 134 129
245716.57562256 3357594.54260254 17.09072876 83 90 96
245707.28900146 3357595.08306885 17.63197327 82 86 87
245708.65869141 3357595.54962158 17.10986137 200 197 192
245715.50964355 3357594.32934570 17.05622864 88 95 101
245720.02252197 3357594.36053467 17.37673759 104 109 112
245725.11950684 3357594.62347412 17.40551949 52 53 57
245718.80444336 3357593.88153076 17.46226692 62 64 63
245715.25634766 3357594.73651123 17.07637215 94 98 97
245717.19445801 3357594.74621582 17.26458549 127 127 125
245717.66564941 3357595.08392334 17.01322746 90 94 97
245705.83489990 3357595.61517334 17.18171883 219 218 213
245722.85131836 3357594.83569336 16.97383118 55 55 53
245726.58807373 3357593.87512207 17.00313377 77 77 79
245706.23150635 3357595.25610352 17.24379349 185 185 183
245727.60412598 3357593.37591553 17.28803253 106 97 92
245709.47137451 3357593.99749756 17.12480927 222 219 210
245724.03387451 3357593.72003174 17.09734154 83 81 82
245725.07836914 3357594.85412598 17.04304695 29 31 30
245714.89025879 3357594.74249268 17.24855614 81 81 81
245717.34417725 3357594.08203125 17.34866333 52 62 63
245724.29132080 3357594.53717041 17.43195915 97 87 88
245727.56213379 3357593.69549561 17.47789001 116 120 123
245713.49328613 3357594.89276123 17.52419853 88 88 88
245718.21185303 3357594.48425293 17.17381859 89 90 92
245711.20898438 3357595.06182861 17.34306908 239 234 231
245713.81268311 3357594.71154785 17.06316376 69 74 78
245716.39013672 3357594.91119385 17.49102211 107 116 123
245722.50207520 3357593.77105713 16.99602127 161 160 155
245718.87579346 3357595.13665771 17.23997116 98 99 101
245723.26568604 3357594.55401611 17.13508224 178 173 167
245727.66235352 3357594.63604736 17.49287987 140 140 142
245711.82049561 3357594.39892578 17.06691551 113 113 113
245715.08312988 3357594.65405273 17.17090797 44 48 51
245710.94268799 3357594.50531006 17.27184868 125 124 119
245705.94879150 3357595.08856201 17.36172295 190 186 177
245728.15289307 3357594.44335938 17.08216667 78 82 85
245716.96551514 3357595.15997314 17.06238556 119 124 127
245713.73034668 3357595.28076172 17.10587120 245 247 246
245720.90618896 3357595.18188477 16.97501755 164 172 174
245717.27325439 3357594.82672119 17.48010254 77 87 89
245726.54034424 3357593.67333984 16.96343231 219 219 209
245711.19769287 3357595.25244141 17.23035431 128 121 115
245705.99255371 3357594.40423584 17.55051231 166 166 168
245724.70782471 3357594.77972412 17.10758591 92 98 98
245706.05358887 3357594.81286621 17.79478264 240 241 236
245723.43695068 3357594.80828857 17.08557892 136 135 130
245722.80358887 3357594.31018066 17.13507271 124 123 118
245706.14239502 3357594.49822998 17.25942230 196 191 185
245718.97186279 3357594.96051025 17.13999367 41 51 52
245718.80224609 3357593.76831055 17.45731354 145 146 148
245724.13439941 3357593.79394531 17.15039063 78 76 77
245720.93621826 3357593.91802979 17.00419998 182 178 167
245723.63049316 3357594.76770020 17.27106285 252 246 248
245718.29852295 3357595.16241455 17.01681328 248 250 245
245706.15423584 3357595.58416748 17.12433815 145 147 144
245719.28961182 3357594.59692383 17.03138161 51 55 58
245711.03143311 3357594.02081299 17.23097610 168 163 159
245727.92822266 3357594.25939941 17.15559387 49 48 46
245708.53735352 3357595.07000732 17.18260956 187 181 169
245718.70770264 3357594.37597656 17.24535179 165 165 165
245710.28088379 3357594.88507080 17.12558937 178 173 167
245714.37133789 3357594.10168457 17.18782616 200 200 192
245712.05889893 3357594.34973145 17.06376266 120 121 116
245725.60186768 3357594.74670410 17.18996811 42 44 43
245723.46032715 3357594.54016113 17.04191589 164 165 159
245711.89190674 3357594.30175781 17.06367683 159 158 156
245718.42071533 3357594.50701904 17.16778946 72 76 79
245718.72521973 3357593.97528076 17.20883751 78 80 79
245707.86187744 3357594.98681641 17.13836670 89 89 87
245717.57885742 3357594.72985840 17.04366493 57 65 67
245718.05212402 3357594.15673828 17.20276070 169 173 174
245721.31439209 3357593.59014893 17.15373421 193 186 176
245715.79339600 3357594.84954834 17.43982506 141 140 135
245724.00140381 3357594.32800293 17.15183449 67 61 63
245719.20770264 3357594.70733643 17.05579948 40 44 47
245716.42413330 3357594.46783447 17.11137962 70 75 81
245715.92474365 3357595.13073730 17.48950005 89 89 87
245711.47155762 3357594.44195557 17.31769562 130 120 119
245719.91119385 3357593.76715088 17.10617638 170 166 165
245709.31915283 3357594.98413086 17.09743500 180 173 167
245714.61846924 3357594.53405762 17.24581718 195 191 179
245717.13714600 3357595.01031494 17.34923744 127 126 124
245706.98486328 3357594.65264893 17.14773750 170 169 164
245726.92016602 3357594.85156250 17.40186882 27 28 30
245705.97338867 3357594.43164063 17.46817017 202 201 199
245722.40063477 3357594.90435791 16.97622871 108 109 104
245717.19763184 3357595.02905273 17.44943810 152 152 152
245716.00115967 3357594.62835693 17.54100037 129 137 140
245719.06274414 3357595.03369141 17.64633751 141 145 146
245716.25610352 3357594.83258057 17.82459641 191 199 202
245716.40612793 3357594.55273438 17.09637451 67 75 78
245718.39160156 3357594.93249512 17.04573631 191 187 178
245721.58007813 3357594.28149414 17.36355019 48 53 57
245712.07147217 3357595.44720459 17.07593727 194 193 191
245714.05572510 3357594.72406006 17.07628059 145 147 142
245715.13201904 3357595.08599854 17.03910446 64 64 62
245711.89819336 3357595.03637695 17.05987549 92 98 98
245724.46130371 3357593.84802246 17.29850197 58 57 62
245707.62847900 3357594.17089844 17.18971634 91 92 96
245724.69586182 3357593.47515869 17.00916100 181 177 166
245720.09753418 3357594.25640869 17.31126404 54 55 57
245721.57080078 3357594.15802002 17.33728790 53 57 58
245711.82897949 3357594.75317383 17.04641724 188 192 193
245720.29309082 3357594.20959473 17.08657074 51 55 58
245706.08599854 3357594.35363770 17.47094727 187 191 190
245714.87133789 3357594.98004150 17.30830193 43 44 39
245706.75506592 3357595.17291260 17.10219574 108 110 107
245710.14349365 3357595.16278076 17.09227943 180 175 169
245711.79730225 3357595.23303223 17.07062531 138 140 139
245706.16131592 3357594.50531006 17.22318268 182 177 171
245713.76733398 3357594.10534668 17.05822563 68 72 75
245711.43603516 3357594.83428955 17.66745758 21 16 12
245713.89160156 3357594.34686279 17.07141113 64 71 77
245716.12823486 3357595.24652100 17.11280441 139 138 134
245709.38916016 3357594.15936279 17.11223984 254 255 253
245722.86419678 3357594.49957275 17.12191772 129 130 125
245728.20416260 3357593.92364502 17.21019363 66 66 64
245709.94287109 3357595.25079346 17.10823059 216 211 205
245710.94158936 3357594.73480225 17.28629112 102 97 91
245726.35485840 3357593.73864746 17.08988762 96 89 83
245721.83355713 3357594.12481689 17.23151398 52 56 59
245719.44030762 3357594.80511475 17.01268196 56 64 67
245727.10266113 3357593.50299072 17.01556206 210 205 199
245725.64801025 3357594.08703613 17.35300064 63 71 73
245721.28106689 3357593.81982422 17.25060844 102 97 93
245711.97570801 3357595.37066650 17.07408333 247 251 252
245718.99786377 3357594.82971191 17.41922760 33 34 36
245706.10473633 3357595.01464844 17.68970871 201 198 193
245713.85900879 3357594.64831543 17.06863213 64 72 75
245708.21386719 3357594.57666016 17.15165138 217 212 208
245718.02166748 3357594.94073486 17.03405571 194 191 184
245706.10809326 3357594.39074707 17.28552246 146 141 138
245725.36602783 3357593.55273438 16.93772507 196 191 187
245725.12854004 3357594.79821777 17.13549614 101 103 102
245727.90411377 3357594.18743896 17.15920639 36 36 38
245725.18914795 3357594.84008789 17.09557724 69 74 70
245721.17553711 3357594.28576660 17.03190994 83 85 80
245722.56945801 3357594.05401611 16.94935417 107 107 105
245724.38061523 3357594.08599854 17.32349014 34 35 37
245708.53540039 3357594.74102783 17.19795227 211 211 203
245722.14263916 3357594.62139893 17.03798866 56 56 58
245727.27648926 3357594.88806152 16.92220688 104 104 104
245715.03332520 3357594.21868896 17.20479393 94 94 94
245712.65246582 3357594.42175293 17.08213234 178 174 163
245713.60382080 3357594.33312988 17.35524178 113 111 112
245727.03582764 3357594.79785156 17.26599693 54 58 57
245708.81689453 3357594.61016846 17.23604012 113 114 116
245720.10272217 3357594.97448730 17.13431931 32 34 33
245717.26129150 3357595.28509521 17.01706314 233 235 232
245707.21502686 3357595.06347656 17.36648560 180 176 167
245715.84307861 3357595.02600098 17.63874054 73 71 72
245727.55902100 3357593.89697266 17.47609901 129 130 135
245715.62536621 3357595.00347900 17.10202980 175 171 159
245709.78320313 3357594.80157471 17.10881233 201 194 186
245707.52062988 3357594.79656982 17.43360901 109 120 124
245718.41711426 3357593.99279785 17.06686020 77 85 87
245707.32525635 3357594.27624512 17.52318382 86 89 94
245715.89501953 3357594.36730957 17.28228378 172 164 161
245708.22747803 3357594.45660400 17.16510773 216 209 201
245712.34063721 3357594.62115479 17.07580948 166 163 158
245721.93200684 3357594.53662109 17.60631180 41 43 40
245715.93298340 3357594.99523926 17.85633469 26 25 23
245723.00616455 3357593.57806396 17.02292061 63 64 58
245713.54559326 3357594.60729980 17.38101959 239 238 234
245713.71795654 3357595.21716309 17.09066200 118 118 116
245723.71276855 3357594.87860107 17.43647766 200 201 203
245718.84155273 3357593.99761963 17.35435867 65 66 68
245723.69226074 3357594.11047363 17.38099098 162 148 147
245727.71008301 3357594.54962158 17.35114479 110 108 111
245726.26556396 3357593.69689941 17.09547043 112 103 96
245720.51434326 3357594.00207520 16.99339104 83 87 90
245724.73272705 3357594.14630127 17.12309074 57 58 60
245710.87884521 3357593.98608398 17.16727257 191 184 178
245727.02978516 3357594.41229248 17.27000999 62 66 69
245709.74224854 3357594.38989258 17.10560417 208 204 195
245716.21228027 3357594.77899170 17.45731735 173 180 186
245725.28363037 3357593.72650146 17.06787109 89 89 89
245711.52819824 3357595.04931641 17.12681198 180 181 176
245726.42968750 3357593.67108154 16.98862267 229 226 217
245709.40374756 3357595.07135010 17.09941864 250 247 242
245707.09082031 3357594.26751709 17.27650452 206 206 198
245706.12170410 3357594.14294434 17.20960999 92 87 84
245714.04144287 3357594.87207031 17.06705856 86 82 79
245709.54479980 3357594.87158203 17.09611893 98 98 96
245725.12597656 3357593.94403076 17.26838684 47 48 52
245722.16137695 3357595.10437012 16.94257927 130 134 137
245716.19006348 3357594.37719727 17.21684456 127 128 130
245721.99633789 3357594.28973389 17.48414230 95 99 100
245720.62310791 3357594.76385498 17.07650757 60 67 73
245714.73626709 3357594.81481934 17.30971718 107 108 112
245725.53930664 3357594.17053223 17.28359795 119 129 131
245711.21960449 3357594.99346924 17.41945457 223 218 215
245717.21984863 3357593.79565430 17.31714821 116 112 103
245726.72583008 3357594.91052246 17.01855850 87 93 93
245713.51629639 3357594.98962402 17.31729507 110 109 107
245716.74316406 3357594.29675293 17.08345604 149 150 145
245724.47064209 3357594.29992676 17.12774658 62 67 70
245725.72003174 3357594.73266602 17.16803169 160 162 159
245727.65405273 3357593.98822021 17.46282959 59 60 64
245724.19921875 3357594.63299561 17.52112579 63 51 53
245723.83514404 3357595.02014160 17.02503395 85 90 84
245724.82427979 3357594.53869629 17.08225632 78 80 79
245713.35778809 3357594.22741699 17.25746536 177 169 158
245719.05810547 3357593.84204102 17.42630005 51 51 53
245726.97076416 3357594.22491455 17.19758797 54 55 59
245723.54449463 3357593.76702881 17.07604408 205 191 188
245705.78363037 3357595.05029297 17.22001076 205 203 191
245710.14953613 3357594.77740479 17.13825035 185 181 172
245716.22393799 3357594.78393555 17.37331390 103 110 118
245708.39392090 3357594.43334961 17.21721077 207 207 199
245710.35601807 3357594.05358887 17.17990494 217 210 204
245708.70935059 3357594.57110596 17.32257080 93 94 98
245707.32232666 3357594.25103760 17.51458549 89 90 95
